X,Y,Z
1.4118045568466187,2.1944985389709473,0.4048251211643219
1.4036563634872437,2.216642141342163,0.4146217703819275
1.3874112367630005,2.2255029678344727,0.42177027463912964
1.3799688816070557,2.251429319381714,0.43192213773727417
1.3662278652191162,2.2674381732940674,0.4402513802051544
1.345434308052063,2.269587278366089,0.4456288814544678
1.3404968976974487,2.2980222702026367,0.45600831508636475
1.3303191661834717,2.3204331398010254,0.46499159932136536
1.3160899877548218,2.336092710494995,0.4726889133453369
1.31003999710083,2.364673137664795,0.4828537404537201
1.3019495010375977,2.3898074626922607,0.49237060546875
1.2946414947509766,2.4187607765197754,0.5023650527000427
1.283225417137146,2.4410006999969482,0.5109989047050476
1.2682286500930786,2.456263542175293,0.5181897878646851
1.250641942024231,2.4641144275665283,0.5236322283744812
1.2427279949188232,2.4926962852478027,0.5335109829902649
1.2238355875015259,2.500910997390747,0.5387134552001953
1.2065218687057495,2.512439489364624,0.5446696281433105
1.197662353515625,2.541008234024048,0.554311990737915
1.1827573776245117,2.555345296859741,0.5607796311378479
1.1674220561981201,2.569730520248413,0.5671969652175903
1.1508886814117432,2.5845136642456055,0.5734889507293701
1.137607216835022,2.6060612201690674,0.5812855362892151
1.1212818622589111,2.6204161643981934,0.5874991416931152
1.108601450920105,2.6414058208465576,0.595125138759613
1.097090482711792,2.665882110595703,0.6035979986190796
1.076937198638916,2.6731293201446533,0.607826292514801
1.0795176029205322,2.7369682788848877,0.6249661445617676
1.0591977834701538,2.743927240371704,0.6292064785957336
1.0463032722473145,2.7683517932891846,0.6374079585075378
1.0320117473602295,2.7890610694885254,0.6447867751121521
1.0115054845809937,2.7956435680389404,0.6487622857093811
0.9794769287109375,2.7697677612304688,0.6449392437934875
0.9677819609642029,2.8012828826904297,0.654512345790863
0.9338487386703491,2.7676823139190674,0.6488819122314453
0.9119457006454468,2.7661287784576416,0.6506778597831726
0.8967679142951965,2.786269426345825,0.6576546430587769
0.8788876533508301,2.7991881370544434,0.6625988483428955
0.8896899223327637,2.906771183013916,0.6899207234382629
0.8815233707427979,2.956212282180786,0.7035754323005676
0.8622257709503174,2.9690537452697754,0.708575427532196
0.8455055952072144,2.988929510116577,0.7152459621429443
0.8311864137649536,3.0198071002960205,0.7246474623680115
0.8213385939598083,3.0690951347351074,0.7381511330604553
0.8029754757881165,3.089000940322876,0.7445031404495239
0.782505989074707,3.10141658782959,0.7491000890731812
0.7664172053337097,3.13215970993042,0.7581801414489746
0.747573971748352,3.1516611576080322,0.7645790576934814
0.7271764278411865,3.163557529449463,0.7691538333892822
0.7096990346908569,3.1902663707733154,0.7771278023719788
0.6899964213371277,3.2095696926116943,0.7830653190612793
0.6708249449729919,3.23246693611145,0.7899328470230103
0.6502071022987366,3.251591682434082,0.7959562540054321
0.6301654577255249,3.270442485809326,0.8019186854362488
0.6176567673683167,3.3302085399627686,0.8179739117622375
0.5970228314399719,3.348829984664917,0.8239543437957764
0.5795429944992065,3.389967203140259,0.834994375705719
0.5586584806442261,3.4160873889923096,0.8424105048179626
0.5343098640441895,3.419522285461426,0.844266414642334
0.5162116885185242,3.4640510082244873,0.8563182950019836
0.4952501654624939,3.4896490573883057,0.8637348413467407
0.47395655512809753,3.515115261077881,0.8711751103401184
0.44982191920280457,3.525535821914673,0.874643862247467
0.4326118230819702,3.5923147201538086,0.8918460607528687
0.40811964869499207,3.602482795715332,0.8950498104095459
0.38626497983932495,3.6388814449310303,0.9048246741294861
0.365253746509552,3.68644380569458,0.9174303412437439
0.34164130687713623,3.711216449737549,0.9244197607040405
0.31822460889816284,3.747197389602661,0.9342740774154663
0.29254820942878723,3.756678819656372,0.9370227456092834
0.27122601866722107,3.8302905559539795,0.9557234048843384
0.24724115431308746,3.8772952556610107,0.967842698097229
0.22191958129405975,3.912794589996338,0.9771468043327332
0.19531390070915222,3.9367780685424805,0.9836344122886658
0.1694944053888321,3.9757065773010254,0.9939039945602417
0.14493657648563385,4.06370735168457,1.0164456367492676
0.1173289567232132,4.091091632843018,1.023256540298462
0.08987215906381607,4.144808292388916,1.03670334815979
0.05978401377797127,4.099826335906982,1.025515079498291
0.031233135610818863,4.115256309509277,1.0294873714447021
0.002616746351122856,4.130486488342285,1.0334601402282715
-0.02611417882144451,4.130359649658203,1.03364098072052
-0.05654304102063179,4.262698650360107,1.066821813583374
-0.08655830472707748,4.254742622375488,1.064413070678711
-0.11544516682624817,4.231436252593994,1.0582268238067627
-0.14406290650367737,4.207931995391846,1.052045226097107
-0.0804864913225174,1.9539045095443726,0.4883876442909241
-0.20507356524467468,4.25877046585083,1.0642949342727661
-0.23653696477413177,4.2914276123046875,1.0723016262054443
-0.2658337950706482,4.2747321128845215,1.067681074142456
-0.29483363032341003,4.265525817871094,1.0646138191223145
-0.32055652141571045,4.214543342590332,1.051180362701416
-0.34841158986091614,4.197405815124512,1.0462493896484375
-0.3747847080230713,4.164971351623535,1.0375601053237915
-0.4035096764564514,4.154961585998535,1.0345016717910767
-0.4304438829421997,4.133484363555908,1.028651237487793
-0.45981472730636597,4.13834810256958,1.0289331674575806
-0.4838343560695648,4.097869873046875,1.0177751779556274
-0.514848530292511,4.11746883392334,1.0215907096862793
-0.5366997122764587,4.061567783355713,1.0067129135131836
-0.5711585879325867,4.103278636932373,1.0160890817642212
-0.7661980390548706,5.237182140350342,1.2957022190093994
-0.8049675226211548,5.2472944259643555,1.2970911264419556
-0.8307457566261292,5.178705215454102,1.2782785892486572
-0.8643879890441895,5.158581733703613,1.2714312076568604
-0.8971977829933167,5.138325214385986,1.2646533250808716
-0.933782696723938,5.140280246734619,1.2634071111679077
-0.9709689021110535,5.141884803771973,1.262104868888855
-0.9995139241218567,5.098487854003906,1.2498244047164917
-1.0363574028015137,5.099699020385742,1.2482995986938477
-1.0631316900253296,5.052455902099609,1.2343448400497437
-1.1032733917236328,5.072012424468994,1.236814260482788
-1.1237385272979736,5.0022664070129395,1.217581033706665
-1.1633265018463135,5.017566204071045,1.2191059589385986
-1.1894818544387817,4.973304271697998,1.2061958312988281
-1.1966184377670288,4.851229190826416,1.174497127532959
-1.2214157581329346,4.810797691345215,1.1620960235595703
-1.2426458597183228,4.759280204772949,1.1469415426254272
-1.2789555788040161,4.766487121582031,1.1460137367248535
-1.3114274740219116,4.75873327255249,1.1415294408798218
-1.3389874696731567,4.728438854217529,1.1315970420837402
-1.3719898462295532,4.720062732696533,1.1270235776901245
-1.1151305437088013,3.740846872329712,0.8909627795219421
-1.1315404176712036,3.705052614212036,0.8798856735229492
-1.1475547552108765,3.6691787242889404,0.868865966796875
-1.4854941368103027,4.638502597808838,1.095232367515564
-1.502297043800354,4.582220554351807,1.0788216590881348
-1.5599689483642578,4.648704528808594,1.091314673423767
-1.6394280195236206,4.776086807250977,1.1178388595581055
-1.6667375564575195,4.751912593841553,1.1082533597946167
-1.6847825050354004,4.702425956726074,1.0928596258163452
-1.6988695859909058,4.641945838928223,1.074966311454773
-3.077218532562256,8.232924461364746,1.8997678756713867
-3.1515867710113525,8.256417274475098,1.898345947265625
-3.2507433891296387,8.343674659729004,1.9111946821212769
-1.8411964178085327,4.634516716003418,1.05704665184021
-3.360013723373413,8.29369831085205,1.8834357261657715
-1.873649001121521,4.537945747375488,1.0261489152908325
-1.9158227443695068,4.550980567932129,1.024566411972046
-1.9132707118988037,4.458075523376465,0.9992022514343262
-1.9623976945877075,4.488501071929932,1.0011754035949707
-1.9838238954544067,4.455689430236816,0.9886616468429565
-2.0106682777404785,4.436934947967529,0.979438066482544
-2.0569727420806885,4.459597110748291,0.9793063402175903
-2.0755321979522705,4.418925762176514,0.9651092886924744
-2.09342360496521,4.378279685974121,0.9509799480438232
-2.123265266418457,4.3657612800598145,0.9423323273658752
-2.1338181495666504,4.3154191970825195,0.9257149696350098
-2.1817357540130615,4.340500354766846,0.9253110885620117
-2.2265117168426514,4.354143142700195,0.9220941066741943
-2.230905532836914,4.288987636566162,0.9022543430328369
-2.2490274906158447,4.255431652069092,0.8886017203330994
-2.3053102493286133,4.292745590209961,0.8895664215087891
-2.232835054397583,4.093530178070068,0.8418839573860168
-2.2545573711395264,4.066011905670166,0.8294582366943359
-2.2910993099212646,4.065185070037842,0.8224634528160095
-2.325862407684326,4.06518030166626,0.8150445818901062
-2.3553919792175293,4.054657459259033,0.8053926229476929
-2.369317054748535,4.017317771911621,0.7904621362686157
-2.4021177291870117,4.008909225463867,0.7808879017829895
-2.439810276031494,4.010804176330566,0.7730175852775574
-2.4644358158111572,3.993349075317383,0.7611478567123413
-2.47505259513855,3.952580451965332,0.7447840571403503
-2.503253936767578,3.937032461166382,0.7327865958213806
-2.5223419666290283,3.908707618713379,0.7182893753051758
-2.543773651123047,3.887807607650757,0.7048581838607788
-2.6013286113739014,3.921494245529175,0.7012503147125244
-2.0469095706939697,3.0392396450042725,0.5350853800773621
-2.054924726486206,3.007638931274414,0.5210505723953247
-2.059211492538452,2.973665952682495,0.5065311193466187
-2.074753522872925,2.9552392959594727,0.4945359230041504
-2.0961501598358154,2.94205641746521,0.48277148604393005
-1.0544838905334473,1.4602605104446411,0.2345944195985794
-1.093687653541565,1.4949839115142822,0.23507344722747803
-1.1045007705688477,1.4880716800689697,0.22827571630477905
-2.062657594680786,2.8971076011657715,-0.20884431898593903
-2.0872607231140137,2.978855609893799,-0.22884595394134521
-2.0606155395507812,2.9867286682128906,-0.24297559261322021
-2.0386879444122314,3.000567674636841,-0.2570367455482483
-2.007004976272583,3.0018911361694336,-0.26999980211257935
-1.957190752029419,2.9729533195495605,-0.2794339656829834
-1.9369442462921143,2.9895575046539307,-0.29297080636024475
-1.9141968488693237,3.002873182296753,-0.30601197481155396
-1.8923571109771729,3.015394449234009,-0.3184666633605957
-1.8702651262283325,3.027829647064209,-0.33074983954429626
-1.8414111137390137,3.030459403991699,-0.34194687008857727
-1.8228256702423096,3.0493454933166504,-0.35486456751823425
-1.800728678703308,3.061066150665283,-0.36658042669296265
-1.7778141498565674,3.0730080604553223,-0.3783245384693146
-1.7550705671310425,3.0846095085144043,-0.3899276554584503
-1.7329471111297607,3.0956568717956543,-0.4011651277542114
-1.7096627950668335,3.1070809364318848,-0.4125918745994568
-1.688412070274353,3.121584177017212,-0.4242839515209198
-1.6731536388397217,3.145866870880127,-0.43710020184516907
-2.0472934246063232,3.915372610092163,-0.5556716322898865
-2.011291742324829,3.9146509170532227,-0.5671147108078003
-1.9855232238769531,3.934481620788574,-0.5816817283630371
-1.9642295837402344,3.960509777069092,-0.5967660546302795
-1.8997806310653687,3.8996706008911133,-0.5985168814659119
-1.8327784538269043,3.831265449523926,-0.5986530780792236
-1.722764492034912,3.667539596557617,-0.583116352558136
-1.6495634317398071,3.5761349201202393,-0.5782145261764526
-1.5593088865280151,3.445640802383423,-0.5663596391677856
-1.4401065111160278,3.243408203125,-0.5416406989097595
-1.3782049417495728,3.163559913635254,-0.5364824533462524
-1.3130899667739868,3.072377920150757,-0.528874397277832
-1.2445623874664307,2.969996690750122,-0.5186455249786377
-1.1801445484161377,2.874135732650757,-0.5091775059700012
-1.135075569152832,2.8202707767486572,-0.506550133228302
-1.0795449018478394,2.7372946739196777,-0.4982913136482239
-1.0139625072479248,2.625124931335449,-0.48404696583747864
-0.9799967408180237,2.591442584991455,-0.4839290678501129
-0.9384810924530029,2.53581166267395,-0.47952428460121155
-0.9099445939064026,2.5122084617614746,-0.48081672191619873
-0.8598222732543945,2.426853895187378,-0.4698469638824463
-0.8298436403274536,2.395427942276001,-0.4690566658973694
-0.7868941426277161,2.323697090148926,-0.4601233899593353
-0.7652325630187988,2.313558340072632,-0.4632412791252136
-0.723915159702301,2.2411773204803467,-0.45340195298194885
-0.6998089551925659,2.2195847034454346,-0.45364847779273987
-0.6749976277351379,2.1940948963165283,-0.4529842436313629
-0.6428861618041992,2.1427032947540283,-0.4467896521091461
-0.614716112613678,2.1021053791046143,-0.4423893988132477
-0.593187153339386,2.083390235900879,-0.44255930185317993
-0.5692084431648254,2.0533607006073,-0.44015395641326904
-0.5387412905693054,1.9972716569900513,-0.4319969713687897
-0.5216686129570007,1.9890398979187012,-0.4337601065635681
-0.5056953430175781,1.984368085861206,-0.43628475069999695
-0.4730788767337799,1.9128828048706055,-0.42405205965042114
-0.4533205032348633,1.8893101215362549,-0.42222070693969727
-0.4313451647758484,1.854485273361206,-0.4174678325653076
-0.4107211232185364,1.8231995105743408,-0.41338443756103516
-0.3946048617362976,1.8103667497634888,-0.4134299159049988
-0.37847986817359924,1.7974357604980469,-0.41347357630729675
-0.3597530722618103,1.7694721221923828,-0.40967050194740295
-0.34072282910346985,1.7376301288604736,-0.4048219323158264
-0.3271022140979767,1.7318146228790283,-0.40599703788757324
-0.31492698192596436,1.733384132385254,-0.4089151918888092
-0.29995158314704895,1.7199550867080688,-0.4080692529678345
-0.286643922328949,1.7139121294021606,-0.40880709886550903
-0.2722453773021698,1.700261116027832,-0.40771934390068054
-0.2626366913318634,1.7165508270263672,-0.41383370757102966
-0.24845917522907257,1.7027541399002075,-0.4124768376350403
-0.23638330399990082,1.7039544582366943,-0.41461190581321716
-0.21904699504375458,1.6636462211608887,-0.4065929353237152
-0.2092757672071457,1.6796995401382446,-0.4123477637767792
-0.19665080308914185,1.673121690750122,-0.4123699963092804
-0.18248039484024048,1.6514208316802979,-0.40843215584754944
-0.16862203180789948,1.6296147108078003,-0.40444910526275635
-0.15923209488391876,1.6530064344406128,-0.4117305278778076
-0.14568889141082764,1.631055474281311,-0.4075401723384857
-0.1324792355298996,1.6090667247772217,-0.40306031703948975
-0.12470729649066925,1.654995083808899,-0.4156275689601898
-0.11111091822385788,1.6252800226211548,-0.40922972559928894
-0.09960071742534637,1.6257538795471191,-0.41030946373939514
-0.08912108093500137,1.641340732574463,-0.4149002730846405
-0.0766504555940628,1.6190277338027954,-0.40992671251296997
-0.06447121500968933,1.5966273546218872,-0.40493321418762207
-0.05414013937115669,1.6195746660232544,-0.41135525703430176
-0.04289749264717102,1.62740159034729,-0.4136110246181488
-0.031314652413129807,1.6124364137649536,-0.4100879430770874
-0.02056792937219143,1.6503853797912598,-0.42004749178886414
-0.008866621181368828,1.6125683784484863,-0.4106682538986206
0.0023844982497394085,1.627763032913208,-0.41440555453300476
0.013915399089455605,1.62773597240448,-0.41428476572036743
0.02557874284684658,1.650341272354126,-0.4199453294277191
0.03754569590091705,1.6728745698928833,-0.4255577623844147
0.04805348068475723,1.6348751783370972,-0.4153675436973572
0.060247283428907394,1.6573477983474731,-0.4205658435821533
0.07177276164293289,1.6570333242416382,-0.41999515891075134
0.08350929617881775,1.6566346883773804,-0.41939854621887207
0.09637132287025452,1.6789567470550537,-0.42411530017852783
0.10758949816226959,1.6709423065185547,-0.4211820065975189
0.12030719965696335,1.6855264902114868,-0.4239623248577118
0.13233302533626556,1.6886849403381348,-0.42388027906417847
0.14495332539081573,1.6956266164779663,-0.4242945909500122
0.157485693693161,1.7024931907653809,-0.4246978461742401
0.16936975717544556,1.701722502708435,-0.42321085929870605
0.18769334256649017,1.7612078189849854,-0.4366833567619324
0.19918110966682434,1.7527869939804077,-0.4328928291797638
0.21760554611682892,1.8007913827896118,-0.44293054938316345
0.2263592928647995,1.7695997953414917,-0.43352562189102173
0.2417725771665573,1.7910364866256714,-0.43704625964164734
0.2532556354999542,1.7823511362075806,-0.43286213278770447
0.2713645398616791,1.8186959028244019,-0.4395105540752411
0.2866842448711395,1.8323414325714111,-0.44059669971466064
0.30502790212631226,1.8646557331085205,-0.44617825746536255
0.318120539188385,1.8631449937820435,-0.44333770871162415
0.34188130497932434,1.9214932918548584,-0.4545555114746094
0.3629993498325348,1.9609276056289673,-0.46118423342704773
0.3825159966945648,1.9889702796936035,-0.4650617241859436
0.4012227952480316,2.009399890899658,-0.4667944610118866
0.4161302149295807,2.011094093322754,-0.4640417993068695
0.43348944187164307,2.0238537788391113,-0.46383318305015564
0.4510328471660614,2.0364763736724854,-0.46357306838035583
0.49005356431007385,2.1419644355773926,-0.48408252000808716
0.5141991376876831,2.1765100955963135,-0.4880681335926056
0.5431084632873535,2.2294397354125977,-0.4961058497428894
0.5690686702728271,2.267289400100708,-0.5006470084190369
0.5927196145057678,2.293842315673828,-0.5024430751800537
0.6216813921928406,2.3387153148651123,-0.5078890323638916
0.6546245813369751,2.3943328857421875,-0.5154151916503906
0.6849886178970337,2.4386541843414307,-0.5204124450683594
0.7149568796157837,2.479039430618286,-0.5243110656738281
0.7530936002731323,2.5449235439300537,-0.5331337451934814
0.7988865971565247,2.632439136505127,-0.5461848378181458
0.8349352478981018,2.6828131675720215,-0.5511581897735596
0.8655676245689392,2.7146761417388916,-0.5521997213363647
0.8621065020561218,2.6405651569366455,-0.5314882397651672
0.8941122889518738,2.6757774353027344,-0.5328764319419861
0.9106009602546692,2.6634292602539062,-0.5247204899787903
0.9219082593917847,2.636451244354248,-0.5137340426445007
0.9783647656440735,2.7360832691192627,-0.5268747806549072
1.104568600654602,3.0230395793914795,-0.5753209590911865
1.1031454801559448,2.955371618270874,-0.5557501912117004
1.1446927785873413,3.0028774738311768,-0.5578663945198059
1.1630358695983887,2.989096164703369,-0.5482311248779297
1.1545578241348267,2.907045602798462,-0.5261855721473694
1.0999101400375366,2.7145144939422607,-0.4848567843437195
1.0117074251174927,2.447866678237915,-0.4313601553440094
1.0184065103530884,2.4170565605163574,-0.4199411869049072
1.0323113203048706,2.403965950012207,-0.4117070436477661
1.0403534173965454,2.3764564990997314,-0.40092864632606506
1.0541419982910156,2.3631019592285156,-0.3926895260810852
1.0674824714660645,2.349802255630493,-0.38438084721565247
1.0774345397949219,2.3293910026550293,-0.3749825060367584
1.0906469821929932,2.3158376216888428,-0.36668407917022705
1.1073724031448364,2.309041738510132,-0.3593408763408661
1.1166770458221436,2.2884695529937744,-0.3499230146408081
1.127444863319397,2.2713232040405273,-0.3411181569099426
1.1592895984649658,2.2954540252685547,-0.3383450508117676
1.193222165107727,2.3227455615997314,-0.3358212411403656
1.2218884229660034,2.3395469188690186,-0.33157244324684143
1.2384142875671387,2.331949472427368,-0.3236863911151886
1.2495214939117432,2.313896417617798,-0.3143259882926941
1.2657195329666138,2.306144952774048,-0.3063821792602539
1.2740716934204102,2.2848260402679443,-0.2966700792312622
1.293863296508789,2.283637046813965,-0.2895175814628601
1.3065427541732788,2.268491744995117,-0.28034356236457825
1.3181935548782349,2.2537412643432617,-0.27136898040771484
1.3256828784942627,2.2322487831115723,-0.26166465878486633
1.341498851776123,2.223750352859497,-0.25328487157821655
1.3488904237747192,2.2019965648651123,-0.24340271949768066
1.364121437072754,2.1935195922851562,-0.23491214215755463
1.375193476676941,2.1782963275909424,-0.22570140659809113
1.3905880451202393,2.1693902015686035,-0.21698877215385437
1.3967105150222778,2.147749900817871,-0.20706351101398468
1.4113085269927979,2.1390106678009033,-0.1983625739812851
1.4224241971969604,2.1231045722961426,-0.18852867186069489
1.4366345405578613,2.114300012588501,-0.1795092225074768
1.4441815614700317,2.0957202911376953,-0.1696491539478302
1.4545832872390747,2.0797622203826904,-0.15958325564861298
1.4638632535934448,2.0643961429595947,-0.1496339738368988
1.4414873123168945,2.0043792724609375,-0.13640834391117096
1.4647347927093506,2.007459878921509,-0.1272781640291214
1.4777668714523315,1.9984935522079468,-0.11735717952251434
1.4678635597229004,2.0875532627105713,0.3663681447505951
1.4645042419433594,2.1165695190429688,0.3787989616394043
1.460274577140808,2.145940065383911,0.3913627862930298
1.4440670013427734,2.1553266048431396,0.3998294472694397
1.4318499565124512,2.1711947917938232,0.4091709852218628
1.4228304624557495,2.193995237350464,0.41971299052238464
1.405864953994751,2.203402280807495,0.42753204703330994
1.3960437774658203,2.221871852874756,0.4367826581001282
1.378498911857605,2.2313506603240967,0.4441238045692444
1.3689191341400146,2.2538390159606934,0.45395538210868835
1.35982084274292,2.275888442993164,0.46355897188186646
1.3433403968811035,2.2842905521392822,0.47023481130599976
1.3411481380462646,2.319826602935791,0.4822692573070526
1.3265386819839478,2.3356664180755615,0.4903235137462616
1.3181592226028442,2.361079216003418,0.5002615451812744
1.312227725982666,2.389397621154785,0.5106791853904724
1.2980856895446777,2.404545545578003,0.5181562304496765
1.2867649793624878,2.426725387573242,0.5270197987556458
1.2783936262130737,2.455794095993042,0.5375382900238037
1.260551929473877,2.4637577533721924,0.543201744556427
1.2463364601135254,2.478325605392456,0.5503082275390625
1.2310700416564941,2.4932968616485596,0.5572063326835632
1.2138187885284424,2.5048043727874756,0.5633038282394409
1.2043014764785767,2.5336172580718994,0.5734295845031738
1.186165452003479,2.5410101413726807,0.5784977078437805
1.1744022369384766,2.5621519088745117,0.5867354273796082
1.1615546941757202,2.583674192428589,0.5947506427764893
1.1452137231826782,2.5982120037078857,0.6011484265327454
1.1287161111831665,2.612636089324951,0.6075704097747803
1.112548828125,2.62676739692688,0.6138976812362671
1.1041185855865479,2.6582136154174805,0.6242504715919495
1.0818463563919067,2.6580824851989746,0.6269870400428772
1.0818390846252441,2.7146620750427246,0.6429765820503235
1.0671879053115845,2.7358126640319824,0.6506721377372742
1.0494763851165771,2.749782085418701,0.6567278504371643
1.033987283706665,2.766862630844116,0.6634399890899658
1.022204875946045,2.794591188430786,0.6727733612060547
1.0016019344329834,2.8011274337768555,0.6765685677528381
0.964621365070343,2.7607786655426025,0.669034481048584
0.9463493824005127,2.7742202281951904,0.6745827198028564
0.919187605381012,2.7583940029144287,0.6729416847229004
0.9020988941192627,2.771167516708374,0.6782578825950623
0.8951026201248169,2.8165111541748047,0.6915412545204163
0.8790660500526428,2.8367016315460205,0.6983067989349365
0.8832482099533081,2.926051139831543,0.7222350239753723
0.8683536648750305,2.9534671306610107,0.7309476137161255
0.8535289168357849,2.9807000160217285,0.7396433353424072
0.8437886834144592,3.026071548461914,0.7528877854347229
0.8263999819755554,3.0458035469055176,0.7597817182540894
0.8101717233657837,3.0730202198028564,0.7681158185005188
0.7931742668151855,3.1002416610717773,0.7765436768531799
0.7707548141479492,3.105172872543335,0.7794111371040344
0.7565409541130066,3.14309024810791,0.7905982732772827
0.7362179160118103,3.154996871948242,0.7952719926834106
0.7157999873161316,3.166759967803955,0.7999537587165833
0.6959946155548096,3.186077356338501,0.806165874004364
0.6778130531311035,3.212656021118164,0.8141448497772217
0.6555050015449524,3.2205538749694824,0.8174418210983276
0.6426380276679993,3.276637077331543,0.8330322504043579
0.6239476203918457,3.302795648574829,0.8410541415214539
0.6065709590911865,3.34008526802063,0.8519989252090454
0.5883113145828247,3.373561143875122,0.8618007302284241
0.5692878365516663,3.407073736190796,0.87130206823349
0.546231210231781,3.4180374145507812,0.875091552734375
0.5259426236152649,3.4475526809692383,0.8836832046508789
0.5033447742462158,3.46573805809021,0.8894407153129578
0.48224127292633057,3.4911890029907227,0.8970882296562195
0.4612983763217926,3.5202584266662598,0.9057254195213318
0.43925586342811584,3.5455846786499023,0.9129848480224609
0.421621173620224,3.612161636352539,0.9307714104652405
0.3985326588153839,3.637275457382202,0.937936007976532
0.3746325969696045,3.6622798442840576,0.945142388343811
0.3511790335178375,3.687058448791504,0.952324390411377
0.32848259806632996,3.722980260848999,0.9624406695365906
0.30319735407829285,3.732367753982544,0.9657339453697205
0.28285327553749084,3.813422203063965,0.9869827032089233
0.25712794065475464,3.8377859592437744,0.9936210513114929
0.23334071040153503,3.8921499252319336,1.008077621459961
0.20820310711860657,3.9350311756134033,1.0196197032928467
0.18449531495571136,4.015509605407715,1.0409629344940186
0.1562429815530777,4.0089335441589355,1.0397984981536865
0.1278795599937439,4.009768486022949,1.0404527187347412
0.09986729174852371,4.010529041290283,1.0405892133712769
0.07257635146379471,4.0488972663879395,1.0505344867706299
0.044458020478487015,4.064392566680908,1.0545965433120728
0.016340535134077072,4.121283054351807,1.0694518089294434
-0.012945178896188736,4.170411109924316,1.0823506116867065
-0.0420510470867157,4.1777448654174805,1.0844550132751465
-0.07280005514621735,4.279453754425049,1.1108354330062866
-0.10303284227848053,4.301671028137207,1.11616051197052
-0.13269464671611786,4.29343843460083,1.1136360168457031
-0.16462726891040802,4.349239826202393,1.1277713775634766
-0.19282793998718262,4.291452407836914,1.112501621246338
-0.22343721985816956,4.305260181427002,1.115854024887085
-0.31342846155166626,5.323055267333984,1.3794355392456055
-0.35502344369888306,5.392752170562744,1.3968719244003296
-0.3077152371406555,4.22872257232666,1.0945488214492798
-0.3380717933177948,4.234322547912598,1.0952279567718506
-0.3666594624519348,4.224671840667725,1.092029333114624
-0.3916982114315033,4.17715311050415,1.079100489616394
-0.417332261800766,4.140769958496094,1.0691099166870117
-0.4473459720611572,4.149369716644287,1.070788860321045
-0.47345051169395447,4.120251655578613,1.0622968673706055
-0.499948650598526,4.102358341217041,1.0565344095230103
-0.5271903276443481,4.091799736022949,1.0527173280715942
-0.5553293228149414,4.088560104370117,1.0508348941802979
-0.580427885055542,4.062614917755127,1.0431655645370483
-0.60417240858078,4.025191783905029,1.032590627670288
-0.6298395991325378,4.006405353546143,1.0268762111663818
-0.6677582263946533,4.066145420074463,1.0407021045684814
-0.6808990240097046,3.9762542247772217,1.0162087678909302
-0.7181060314178467,4.028077125549316,1.027992844581604
-0.9417887330055237,5.081791877746582,1.2951228618621826
-0.9878141283988953,5.1279296875,1.305079460144043
-1.014628529548645,5.077151298522949,1.2904605865478516
-1.0429987907409668,5.037430286407471,1.2785676717758179
-1.0741746425628662,5.016382694244385,1.2707992792129517
-1.1141796112060547,5.0358567237854,1.2733463048934937
-1.1466232538223267,5.0179314613342285,1.2664512395858765
-1.1793445348739624,5.003566265106201,1.2605502605438232
-1.2017338275909424,4.944614887237549,1.2434667348861694
-1.2132155895233154,4.84507417678833,1.2163004875183105
-1.2380131483078003,4.804642200469971,1.203557014465332
-1.259594440460205,4.753100872039795,1.1877816915512085
-1.299901008605957,4.774892807006836,1.1904473304748535
-1.3283427953720093,4.7524495124816895,1.1821266412734985
-1.3614099025726318,4.744268417358398,1.1773608922958374
-1.0779167413711548,3.660308837890625,0.9062772989273071
-1.122485637664795,3.7154181003570557,0.9176497459411621
-1.1499429941177368,3.7160379886627197,0.9151270389556885
-1.474982738494873,4.655540466308594,1.1431810855865479
-1.4925029277801514,4.603314399719238,1.1271225214004517
-1.5218509435653687,4.5870137214660645,1.1198979616165161
-1.5950639247894287,4.696316719055176,1.1431936025619507
-1.6279619932174683,4.68640661239624,1.13747239112854
-1.6418557167053223,4.626555442810059,1.1189686059951782
-1.6731829643249512,4.616837501525879,1.1126844882965088
-1.7070958614349365,4.614048004150391,1.108115315437317
-1.7671602964401245,4.6785888671875,1.1196330785751343
-1.7911344766616821,4.642486095428467,1.1069132089614868
-1.8154176473617554,4.61004638671875,1.0951851606369019
-1.8522462844848633,4.613535404205322,1.0913221836090088
-1.8473273515701294,4.514284610748291,1.0632743835449219
-1.8925291299819946,4.538588047027588,1.0644376277923584
-1.9066672325134277,4.484661102294922,1.047106385231018
-1.970353126525879,4.546360969543457,1.0567796230316162
-1.988128900527954,4.502837657928467,1.041765809059143
-2.00911283493042,4.470239639282227,1.0288896560668945
-2.0169737339019775,4.409729957580566,1.0097267627716064
-2.0392098426818848,4.380248546600342,0.997691810131073
-2.0604360103607178,4.34679651260376,0.9846815466880798
-2.132899761199951,4.420098781585693,0.9958159327507019
-2.1492760181427,4.380053997039795,0.9807746410369873
-2.1684017181396484,4.346930980682373,0.9673013091087341
-2.2154483795166016,4.368167400360107,0.9658363461494446
-2.195119857788086,4.255740642547607,0.9347972273826599
-2.2593607902526855,4.3064961433410645,0.9395876526832581
-2.299602746963501,4.3133697509765625,0.9342597126960754
-2.2700464725494385,4.19196081161499,0.9011186957359314
-2.2574236392974854,4.104684829711914,0.8756620287895203
-2.25120210647583,4.026838302612305,0.852030336856842
-2.3161110877990723,4.076172828674316,0.8553531169891357
-2.3378796577453613,4.05260705947876,0.8428046107292175
-2.366851568222046,4.0423903465271,0.8329927921295166
-2.3802120685577393,4.005408763885498,0.8176960945129395
-2.413501501083374,3.996769666671753,0.807558000087738
-2.4456233978271484,3.988532066345215,0.7974620461463928
-2.4761862754821777,3.981027364730835,0.7871144413948059
-2.486177682876587,3.9406802654266357,0.7703518271446228
-2.5223705768585205,3.938347339630127,0.7605102062225342
-2.5468251705169678,3.915861129760742,0.7463563084602356
-2.5727343559265137,3.9013378620147705,0.7334404587745667
-2.6392855644226074,3.94760799407959,0.7318366765975952
-2.109896659851074,3.1099603176116943,0.5678226351737976
-2.07263445854187,3.011121988296509,0.5409851670265198
-2.0638792514801025,2.958070993423462,0.5223278403282166
-2.08343243598938,2.9462931156158447,0.5111501812934875
-2.1251657009124756,2.9614369869232178,0.5036488771438599
-1.0633304119110107,1.462127447128296,0.24348752200603485
-1.0934836864471436,1.4842768907546997,0.24184879660606384
-1.1087599992752075,1.4837205410003662,0.2358257919549942
-2.0515143871307373,2.9041528701782227,-0.2204335629940033
-2.06241512298584,2.9667229652404785,-0.23941446840763092
-2.044813871383667,2.9871129989624023,-0.2546612322330475
-2.022348165512085,3.0010995864868164,-0.26920372247695923
-1.9691880941390991,2.9697365760803223,-0.2792895436286926
-1.9454456567764282,2.9794113636016846,-0.29236871004104614
-1.9255502223968506,2.9956154823303223,-0.3059147298336029
-1.9028573036193848,3.008704662322998,-0.31917110085487366
-1.8784799575805664,3.018007278442383,-0.33177852630615234
-1.8481875658035278,3.01702880859375,-0.3428422212600708
-1.833434820175171,3.0427329540252686,-0.3569629490375519
-1.807134747505188,3.047940731048584,-0.36841124296188354
-1.785139799118042,3.059415340423584,-0.38034364581108093
-1.7657369375228882,3.0780744552612305,-0.3933972120285034
-1.7429224252700806,3.089512348175049,-0.4052983522415161
-1.7226396799087524,3.10377836227417,-0.4172666072845459
-1.6997714042663574,3.1147964000701904,-0.42878857254981995
-1.687626600265503,3.1462082862854004,-0.4431937336921692
-2.03844952583313,3.866471290588379,-0.5569226741790771
-2.0283217430114746,3.9134764671325684,-0.5756856799125671
-1.9993592500686646,3.9263052940368652,-0.5894837379455566
-1.944405436515808,3.886929512023926,-0.595287024974823
-1.8772701025009155,3.8188698291778564,-0.5960095524787903
-1.7767465114593506,3.6808273792266846,-0.585277259349823
-1.7000563144683838,3.587002754211426,-0.5806094408035278
-1.6070866584777832,3.4537320137023926,-0.5688062310218811
-1.4747977256774902,3.227959156036377,-0.5405831933021545
-1.384986400604248,3.0889172554016113,-0.5257189869880676
-1.3453305959701538,3.0584094524383545,-0.528807520866394
-1.2785179615020752,2.9638285636901855,-0.5205249190330505
-1.1972373723983765,2.829268455505371,-0.5043639540672302
-1.1412771940231323,2.750920534133911,-0.497485488653183
-1.0836008787155151,2.664857864379883,-0.4887576997280121
-1.0444700717926025,2.6210522651672363,-0.487387478351593
-0.9988214373588562,2.5590028762817383,-0.48242077231407166
-0.9542558193206787,2.496502161026001,-0.47670692205429077
-0.9106355905532837,2.4335529804229736,-0.4705983102321625
-0.8773177266120911,2.3953893184661865,-0.4690014123916626
-0.8355703353881836,2.3315882682800293,-0.4621218740940094
-0.8032622933387756,2.2928948402404785,-0.45981842279434204
-0.7681236267089844,2.242922306060791,-0.4549541175365448
-0.7362690567970276,2.1998589038848877,-0.4512504041194916
-0.7063174247741699,2.1601223945617676,-0.44802406430244446
-0.6780608892440796,2.1238300800323486,-0.44508135318756104
-0.6387107968330383,2.050783634185791,-0.4342770278453827
-0.6129781007766724,2.0175652503967285,-0.43159201741218567
-0.5921217203140259,1.9987776279449463,-0.43188077211380005
-0.5757802128791809,1.9945652484893799,-0.43499982357025146
-0.5398733019828796,1.9203275442123413,-0.422675758600235
-0.5242017507553101,1.9157525300979614,-0.4255360960960388
-0.5083979368209839,1.91109299659729,-0.4284326136112213
-0.47861000895500183,1.850900650024414,-0.41841378808021545
-0.4515443444252014,1.7978496551513672,-0.40976759791374207
-0.4351973533630371,1.785298466682434,-0.4102385938167572
-0.4173336923122406,1.7651903629302979,-0.40891414880752563
-0.4029664993286133,1.7598756551742554,-0.4107789993286133
-0.3889162242412567,1.754428744316101,-0.4124777913093567
-0.3677810728549957,1.7153831720352173,-0.40621548891067505
-0.3541456162929535,1.7096854448318481,-0.4077911078929901
-0.3391413390636444,1.696476697921753,-0.4073092043399811
-0.32558199763298035,1.6906651258468628,-0.40852025151252747
-0.3095574975013733,1.6697801351547241,-0.4060192406177521
-0.29714876413345337,1.6674652099609375,-0.4080190062522888
-0.2828962504863739,1.6538829803466797,-0.40701231360435486
-0.26519453525543213,1.617753505706787,-0.4002523124217987
-0.2583658695220947,1.6489633321762085,-0.4102056324481964
-0.2445545345544815,1.6351094245910645,-0.40895578265190125
-0.2298945039510727,1.6136970520019531,-0.40556132793426514
-0.22167888283729553,1.6372759342193604,-0.4133044481277466
-0.20446482300758362,1.5931662321090698,-0.40395522117614746
-0.193337544798851,1.594039797782898,-0.4059827923774719
-0.17902107536792755,1.5685648918151855,-0.4011123478412628
-0.16971777379512787,1.5844173431396484,-0.40657132863998413
-0.15719787776470184,1.5700839757919312,-0.4043024480342865
-0.14693431556224823,1.5782636404037476,-0.407850980758667
-0.13529200851917267,1.5713433027267456,-0.40732303261756897
-0.12477514147758484,1.5794872045516968,-0.41048717498779297
-0.11215613782405853,1.5573816299438477,-0.4057829976081848
-0.1018022820353508,1.5653620958328247,-0.40892860293388367
-0.08960247784852982,1.543131947517395,-0.4040054678916931
-0.0804232582449913,1.573716402053833,-0.4126552641391754
-0.06863772869110107,1.5589470863342285,-0.40944987535476685
-0.05721656605601311,1.5440912246704102,-0.4062195122241974
-0.045784033834934235,1.5216481685638428,-0.40081873536109924
-0.03588690236210823,1.552062749862671,-0.40907570719718933
-0.02545742690563202,1.5748556852340698,-0.41535189747810364
-0.014121302403509617,1.5522540807724,-0.40968045592308044
-0.003337782109156251,1.5522795915603638,-0.40981319546699524
0.007505600340664387,1.5674115419387817,-0.4136538505554199
0.018658537417650223,1.5900212526321411,-0.41948431730270386
0.02900795266032219,1.5521280765533447,-0.4093736708164215
0.03981456533074379,1.5519672632217407,-0.40907546877861023
0.05179145559668541,1.582009196281433,-0.41642874479293823
0.06311541795730591,1.589317798614502,-0.4178140163421631
0.07416901737451553,1.5889983177185059,-0.41721269488334656
0.0848235934972763,1.581093192100525,-0.41448473930358887
0.09217358380556107,1.5203747749328613,-0.39765486121177673
0.10935220122337341,1.6142387390136719,-0.42123815417289734
0.11523136496543884,1.542078971862793,-0.401521772146225
0.13183818757534027,1.6131484508514404,-0.418971449136734
0.1471298187971115,1.657789707183838,-0.4291713535785675
0.15871161222457886,1.6571205854415894,-0.4276255667209625
0.1727910339832306,1.6789437532424927,-0.4318658113479614
0.18202205002307892,1.6555553674697876,-0.42438891530036926
0.19669021666049957,1.6810717582702637,-0.4291314482688904
0.20845980942249298,1.6801652908325195,-0.42712172865867615
0.22318199276924133,1.7017128467559814,-0.4308176040649414
0.23739711940288544,1.715644121170044,-0.4324240982532501
0.24946598708629608,1.7145541906356812,-0.42994600534439087
0.2615184783935547,1.7133769989013672,-0.42746955156326294
0.2825326919555664,1.768309235572815,-0.4389441907405853
0.3024410307407379,1.8118551969528198,-0.4474063217639923
0.3126122057437897,1.795462727546692,-0.4406948387622833
0.32822105288505554,1.8088706731796265,-0.44127148389816284
0.34232813119888306,1.8147250413894653,-0.4400564134120941
0.3660370409488678,1.8689790964126587,-0.45045047998428345
0.3852563202381134,1.8970164060592651,-0.45405834913253784
0.40410417318344116,1.9211713075637817,-0.4566669464111328
0.4324711859226227,1.9860423803329468,-0.4687636196613312
0.45064130425453186,2.002410888671875,-0.4693308174610138
0.47169867157936096,2.029836893081665,-0.47204864025115967
0.48605576157569885,2.027432441711426,-0.46779850125312805
0.5214406251907349,2.110060453414917,-0.48303741216659546
0.5460169315338135,2.1442525386810303,-0.4869318902492523
0.5737757086753845,2.1894302368164062,-0.4928630590438843
0.5992177128791809,2.2232980728149414,-0.49610111117362976
0.6261684894561768,2.2606253623962402,-0.4999881088733673
0.6641331911087036,2.3344738483428955,-0.5117466449737549
0.6895331144332886,2.3602466583251953,-0.5123566389083862
0.724906861782074,2.4188551902770996,-0.5199782848358154
0.7656557559967041,2.4917619228363037,-0.5304011106491089
0.8086386919021606,2.567923069000244,-0.5412067174911499
0.8444573283195496,2.6182119846343994,-0.5460129976272583
0.8789364099502563,2.6608152389526367,-0.5488491654396057
0.9027000665664673,2.6704726219177246,-0.5448746085166931
0.9116489887237549,2.636392593383789,-0.5320175886154175
0.9405601024627686,2.6602530479431152,-0.5306406617164612
1.0820508003234863,2.994530200958252,-0.5902714729309082
1.1059393882751465,2.99560546875,-0.5834130048751831
1.1330785751342773,3.003530263900757,-0.5777089595794678
1.1543450355529785,2.9970600605010986,-0.5691459774971008
1.1698802709579468,2.9761292934417725,-0.5578157305717468
1.1694667339324951,2.9157662391662598,-0.5392687916755676
1.1756421327590942,2.873272657394409,-0.5242398381233215
1.0849533081054688,2.5996081829071045,-0.46756264567375183
1.0232423543930054,2.405280113220215,-0.426407128572464
1.0310322046279907,2.3780322074890137,-0.4154028296470642
1.0480190515518188,2.3718650341033936,-0.40808945894241333
1.0679092407226562,2.372711181640625,-0.40188831090927124
1.071973443031311,2.338203191757202,-0.3896232545375824
1.0852200984954834,2.324786424636841,-0.3810573220252991
1.0985133647918701,2.3111956119537354,-0.3724459707736969
1.114723801612854,2.304624557495117,-0.3649231493473053
1.12742018699646,2.2910053730010986,-0.35629579424858093
1.1404180526733398,2.2771027088165283,-0.3474999964237213
1.1513826847076416,2.2597076892852783,-0.3382895290851593
1.1760059595108032,2.2699692249298096,-0.3331336975097656
1.2170621156692505,2.3108530044555664,-0.33229419589042664
1.244402289390564,2.3238155841827393,-0.327121376991272
1.2571589946746826,2.309255599975586,-0.317978173494339
1.2696309089660645,2.294693946838379,-0.308734267950058
1.2855172157287598,2.286923408508301,-0.3005460500717163
1.298001766204834,2.2720212936401367,-0.29122641682624817
1.3060475587844849,2.2505273818969727,-0.28113460540771484
1.321510910987854,2.242515802383423,-0.2727689743041992
1.3295025825500488,2.220729351043701,-0.2625099718570709
1.3452963829040527,2.2122080326080322,-0.2538507282733917
1.3563050031661987,2.1973161697387695,-0.24449242651462555
1.367195963859558,2.182326078414917,-0.23516112565994263
1.3827418088912964,2.1734609603881836,-0.2261955291032791
1.3936725854873657,2.1581363677978516,-0.21645265817642212
1.4039673805236816,2.1430253982543945,-0.20693740248680115
1.4147416353225708,2.1274566650390625,-0.19708174467086792
1.4293879270553589,2.118488311767578,-0.18778793513774872
1.4435555934906006,2.1096649169921875,-0.17851625382900238
1.4429490566253662,2.0777556896209717,-0.1668730527162552
1.4571548700332642,2.0685789585113525,-0.15715642273426056
1.432268500328064,2.005669593811035,-0.14360998570919037
1.457727313041687,2.0120744705200195,-0.13465575873851776
1.459664225578308,1.987174391746521,-0.12346940487623215
1.463357925415039,1.965637445449829,-0.11258217692375183
1.4627665281295776,2.065638303756714,0.3739711046218872
1.4755942821502686,2.116311550140381,0.39074909687042236
1.4626599550247192,2.13291072845459,0.40123334527015686
1.4505269527435303,2.148832082748413,0.41123872995376587
1.4431458711624146,2.170731782913208,0.4220820665359497
1.4256842136383057,2.1806254386901855,0.4303452968597412
1.4162404537200928,2.2034459114074707,0.4413090646266937
1.4022424221038818,2.215424060821533,0.4494919776916504
1.3895117044448853,2.230985403060913,0.4582774341106415
1.3758639097213745,2.246933698654175,0.4670041799545288
1.3702136278152466,2.275827646255493,0.4784393608570099
1.3534395694732666,2.284381866455078,0.4853690564632416
1.3479019403457642,2.3129308223724365,0.4963546395301819
1.341302752494812,2.3419110774993896,0.5073369145393372
1.3324425220489502,2.367544412612915,0.5176992416381836
1.319003939628601,2.382453203201294,0.5254511833190918
1.3050756454467773,2.3974428176879883,0.533288300037384
1.293813705444336,2.41959285736084,0.5423347353935242
1.2823024988174438,2.441673994064331,0.5514391660690308
1.2674874067306519,2.456676959991455,0.5589063763618469
1.2567801475524902,2.4780540466308594,0.56770920753479
1.239964246749878,2.4894814491271973,0.574181079864502
1.2210230827331543,2.4975767135620117,0.5795924067497253
1.2086155414581299,2.519313097000122,0.5882269740104675
1.1965116262435913,2.5407516956329346,0.5967576503753662
1.181543231010437,2.5549557209014893,0.6035374999046326
1.1660701036453247,2.569251775741577,0.6102229356765747
1.1494921445846558,2.5838980674743652,0.6168065667152405
1.1361359357833862,2.6052958965301514,0.6250103116035461
1.1168063879013062,2.6124870777130127,0.6298127174377441
1.1085184812545776,2.6438610553741455,0.6403835415840149
1.0954809188842773,2.6646554470062256,0.6484448313713074
1.0894880294799805,2.7071518898010254,0.6614612936973572
1.0693457126617432,2.714107036590576,0.6658146977424622
1.0573474168777466,2.7422280311584473,0.6754220724105835
1.0417218208312988,2.759366750717163,0.6822903156280518
1.030086874961853,2.787041664123535,0.6917985081672668
1.0122015476226807,2.800652503967285,0.6977035999298096
0.9776292443275452,2.7676384449005127,0.6916740536689758
0.9547561407089233,2.7666287422180176,0.6936434507369995
0.9295222163200378,2.7582318782806396,0.6937806606292725
0.9076589345932007,2.756603479385376,0.6955475807189941
0.894807755947113,2.7838246822357178,0.7046807408332825
0.8872588276863098,2.829183340072632,0.7181637287139893
0.8898911476135254,2.910984992980957,0.7407928109169006
0.8772948384284973,2.945648193359375,0.7515332102775574
0.8600123524665833,2.9656872749328613,0.7586110234260559
0.8432065844535828,2.985442876815796,0.7656087279319763
0.838893473148346,3.052701234817505,0.7849089503288269
0.8191012740135193,3.0651192665100098,0.7899055480957031
0.7987927198410034,3.077569007873535,0.7946582436561584
0.7829733490943909,3.1082489490509033,0.8041767477989197
0.7640540599822998,3.1278059482574463,0.8108804225921631
0.7450345158576965,3.147212266921997,0.8175925016403198
0.724655032157898,3.159003257751465,0.8223364949226379
0.7073609232902527,3.1854710578918457,0.8308827877044678
0.690054714679718,3.2157585620880127,0.8399789929389954
0.6669772863388062,3.22001051902771,0.8423274159431458
0.6523865461349487,3.2686824798583984,0.8563780188560486
0.633374810218811,3.294914484024048,0.8645910024642944
0.6165090203285217,3.3321197032928467,0.8757250308990479
0.5984914302825928,3.365511894226074,0.8859261274337769
0.5772650241851807,3.3840243816375732,0.891889214515686
0.5582026839256287,3.421205520629883,0.9026127457618713
0.5326756834983826,3.4171345233917236,0.9024893641471863
0.5128312110900879,3.4502511024475098,0.9122379422187805
0.49177125096321106,3.475728988647461,0.9200162291526794
0.4720117747783661,3.5122921466827393,0.930785596370697
0.4537304639816284,3.567518949508667,0.9465935230255127
0.42942875623703003,3.577787399291992,0.9498925805091858
0.4071148633956909,3.6066579818725586,0.9581683874130249
0.38159146904945374,3.609100103378296,0.9594762921333313
0.36202576756477356,3.6714842319488525,0.9767782688140869
0.33851033449172974,3.6961288452148438,0.9840942621231079
0.31522300839424133,3.7319324016571045,0.9944542050361633
0.2909330129623413,3.75630259513855,1.0016807317733765
0.2691055238246918,3.8220765590667725,1.0194597244262695
0.2441752701997757,3.853817939758301,1.0282180309295654
0.21716098487377167,3.8552417755126953,1.0289398431777954
0.18930435180664062,3.848956346511841,1.0276609659194946
0.1655375361442566,3.9216346740722656,1.0475136041641235
0.14015135169029236,3.9752986431121826,1.062351942062378
0.11299047619104385,3.994903087615967,1.0679067373275757
0.0842687115073204,3.9540724754333496,1.0568819046020508
0.05801541358232498,4.082849502563477,1.0912411212921143
0.029899684712290764,4.13596773147583,1.1054315567016602
0.0010839359601959586,4.143603801727295,1.107519507408142
-0.02768569625914097,4.1359453201293945,1.1055728197097778
-0.05763641372323036,4.222421646118164,1.1288458108901978
-0.08944239467382431,4.3162994384765625,1.1538145542144775
-0.12034696340560913,4.349700927734375,1.1622363328933716
-0.15080563724040985,4.356479167938232,1.1635957956314087
-0.18199120461940765,4.378128528594971,1.1689804792404175
-0.256657212972641,5.2892680168151855,1.4118465185165405
-0.29344305396080017,5.287568092346191,1.411047339439392
-0.33391937613487244,5.3345513343811035,1.4233016967773438
-0.3718665838241577,5.347519397735596,1.4260355234146118
-0.40880364179611206,5.345275402069092,1.4243354797363281
-0.4444718062877655,5.327725887298584,1.4186279773712158
-0.37620243430137634,4.1629638671875,1.1077313423156738
-0.40299496054649353,4.134258270263672,1.0993822813034058
-0.4321485459804535,4.135461807250977,1.0990540981292725
-0.46091973781585693,4.132707595825195,1.0977264642715454
