X,Y,Z
-0.17323189973831177,2.2085323333740234,-0.4152940511703491
-0.15946154296398163,2.23248028755188,-0.4205927848815918
-0.14541742205619812,2.256335735321045,-0.4259083569049835
-0.1292872279882431,2.249441385269165,-0.42544570565223694
-0.11286567896604538,2.234828472137451,-0.4231991469860077
-0.09771031141281128,2.250800848007202,-0.4266788959503174
-0.08147767931222916,2.2359776496887207,-0.4243342876434326
-0.06615176796913147,2.2440555095672607,-0.42635414004325867
-0.05052540823817253,2.244385004043579,-0.4267577528953552
-0.03501342982053757,2.2523293495178223,-0.4283599853515625
-0.01892055757343769,2.2371437549591064,-0.4255858063697815
-0.0033810953609645367,2.2525439262390137,-0.42864882946014404
0.012228846549987793,2.2448112964630127,-0.42733079195022583
0.028032638132572174,2.2600724697113037,-0.4299773573875427
0.04358629882335663,2.2522034645080566,-0.4282352030277252
0.06015953794121742,2.286426305770874,-0.43451422452926636
0.0759592056274414,2.274491786956787,-0.43203672766685486
0.09256819635629654,2.293182611465454,-0.43514272570610046
0.1088775098323822,2.3002870082855225,-0.43587827682495117
0.12529009580612183,2.3072757720947266,-0.4366089999675751
0.142744243144989,2.3294732570648193,-0.44023117423057556
0.1602759212255478,2.3438785076141357,-0.44230422377586365
0.178582102060318,2.369725465774536,-0.44618600606918335
0.19349198043346405,2.3495144844055176,-0.4414127767086029
0.21428081393241882,2.3980507850646973,-0.44956469535827637
0.23245760798454285,2.4120137691497803,-0.45122969150543213
0.25033214688301086,2.4182381629943848,-0.4510953426361084
0.27053675055503845,2.4472854137420654,-0.4551370441913605
0.2889145612716675,2.457097053527832,-0.45559993386268616
0.3088674545288086,2.478210687637329,-0.4581615924835205
0.3301182687282562,2.506819486618042,-0.46193617582321167
0.3515607416629791,2.5314667224884033,-0.46464866399765015
0.3769212067127228,2.5826077461242676,-0.472223699092865
0.3984365165233612,2.603118658065796,-0.47415977716445923
0.423297256231308,2.642441987991333,-0.47950106859207153
0.4442342221736908,2.6550891399383545,-0.47954630851745605
0.47131603956222534,2.70167875289917,-0.48568499088287354
0.5001129508018494,2.7517619132995605,-0.49234697222709656
0.5300366282463074,2.805420160293579,-0.49961841106414795
0.5584617853164673,2.8475375175476074,-0.5044963955879211
0.5836330652236938,2.8705825805664062,-0.5057803988456726
0.6147031188011169,2.919793128967285,-0.5116222500801086
0.6576433181762695,3.017545223236084,-0.5257758498191833
0.6821072101593018,3.028550148010254,-0.5246630311012268
0.721527099609375,3.1032216548919678,-0.5341745018959045
0.7584009766578674,3.162534236907959,-0.54091477394104
0.8036301732063293,3.2514164447784424,-0.55255126953125
0.8448854684829712,3.3173370361328125,-0.5600621700286865
0.8884802460670471,3.390528678894043,-0.5683001279830933
0.9271010160446167,3.4409658908843994,-0.5725594162940979
0.983039140701294,3.5505075454711914,-0.5864540934562683
1.0406608581542969,3.659451484680176,-0.5999788045883179
1.0785260200500488,3.693681001663208,-0.600729763507843
1.1684463024139404,3.901550769805908,-0.6293244957923889
1.247738242149353,4.064136505126953,-0.6501260995864868
1.2913470268249512,4.104227542877197,-0.6510266661643982
1.3449383974075317,4.173396587371826,-0.656241238117218
1.3792554140090942,4.179630756378174,-0.6510685682296753
1.399627685546875,4.145447731018066,-0.6397505402565002
1.4313117265701294,4.143936634063721,-0.6334556937217712
1.4642685651779175,4.1458516120910645,-0.6276319026947021
1.4890867471694946,4.125846862792969,-0.6181764602661133
1.496324062347412,4.058476448059082,-0.6017551422119141
1.282458782196045,3.404214382171631,-0.4992893934249878
1.306424617767334,3.396048069000244,-0.49272432923316956
1.3270918130874634,3.380690097808838,-0.48488718271255493
1.350477933883667,3.3723864555358887,-0.4780934453010559
1.3711674213409424,3.356630325317383,-0.47020891308784485
1.3981865644454956,3.3548426628112793,-0.46417731046676636
1.4123057126998901,3.324650526046753,-0.45413938164711
1.4352355003356934,3.315779209136963,-0.44705408811569214
1.461512565612793,3.3137216567993164,-0.4408245384693146
1.48483145236969,3.304297685623169,-0.4335760474205017
1.5047732591629028,3.2877132892608643,-0.42514768242836
1.5306228399276733,3.2852728366851807,-0.41865384578704834
1.5635616779327393,3.2964751720428467,-0.4137539863586426
1.5986394882202148,3.310770034790039,-0.4091126024723053
1.6213957071304321,3.3006482124328613,-0.4012698829174042
1.6044750213623047,3.2102952003479004,-0.3837369680404663
1.6252061128616333,3.196420907974243,-0.3755040466785431
1.6191105842590332,3.1305928230285645,-0.3612439036369324
1.654917597770691,3.147881031036377,-0.356556236743927
1.7148443460464478,3.2094004154205322,-0.3566831052303314
1.737494945526123,3.1981146335601807,-0.3483363687992096
1.7412734031677246,3.1526150703430176,-0.3362008333206177
1.7455096244812012,3.1110596656799316,-0.3247328996658325
1.7784785032272339,3.1200950145721436,-0.318474143743515
1.3771685361862183,2.377552032470703,-0.2370307445526123
1.3242155313491821,2.2513580322265625,-0.2190302014350891
0.956321120262146,1.6010605096817017,-0.15181191265583038
0.9614969491958618,1.5847443342208862,-0.146234929561615
0.9765088558197021,1.585119366645813,-0.14218436181545258
0.9829840064048767,1.5723429918289185,-0.13694944977760315
0.9938156008720398,1.5659301280975342,-0.1321689933538437
1.0049234628677368,1.5592386722564697,-0.1271946281194687
1.0152682065963745,1.5529141426086426,-0.12232518941164017
1.0258266925811768,1.5463467836380005,-0.11733141541481018
1.0366439819335938,1.539501428604126,-0.11215885728597641
1.042358636856079,1.5265698432922363,-0.10656766593456268
2.5433313846588135,3.6710166931152344,-0.2444475144147873
2.5687150955200195,3.6541624069213867,-0.23120194673538208
2.601489782333374,3.650897264480591,-0.21879012882709503
2.6264822483062744,3.633772611618042,-0.20483309030532837
2.660051107406616,3.629426956176758,-0.191202312707901
2.6834802627563477,3.612872838973999,-0.17678996920585632
2.635233163833618,3.7071616649627686,0.44749653339385986
2.607063055038452,3.725362539291382,0.4611425995826721
2.5840444564819336,3.7491977214813232,0.47482380270957947
1.0482674837112427,1.5464060306549072,0.20013046264648438
1.0409291982650757,1.5600500106811523,0.20595711469650269
1.0339118242263794,1.5733760595321655,0.21157234907150269
1.017120122909546,1.5744032859802246,0.21547333896160126
1.0216712951660156,1.607715368270874,0.22370344400405884
1.010180950164795,1.6143534183502197,0.2280389666557312
0.993935227394104,1.6146997213363647,0.2313753068447113
0.9814068078994751,1.6217350959777832,0.2356117069721222
0.96923828125,1.6284393072128296,0.2397078275680542
0.961560070514679,1.641396403312683,0.24459053575992584
1.3608243465423584,2.3630077838897705,0.3561617136001587
1.8138000965118408,3.204929828643799,0.48848608136177063
1.7865899801254272,3.210245370864868,0.4944700002670288
1.7781933546066284,3.24916934967041,0.5056405663490295
1.7721631526947021,3.295417070388794,0.5176779627799988
2.397552490234375,4.5391154289245605,0.719595730304718
2.371042490005493,4.569028854370117,0.7307572364807129
2.338639736175537,4.5843186378479,0.7393631339073181
2.3048088550567627,4.600029468536377,0.747971773147583
2.2736594676971436,4.622777462005615,0.7573469877243042
2.245651960372925,4.6522603034973145,0.7678936719894409
2.2090039253234863,4.659919738769531,0.7746262550354004
2.175976276397705,4.674135208129883,0.7824206948280334
2.1480844020843506,4.702747821807861,0.7922762036323547
2.1123831272125244,4.717624187469482,0.7997891306877136
2.077174425125122,4.731978893280029,0.8071749210357666
2.037689685821533,4.731122970581055,0.8117236495018005
1.7626780271530151,4.171988010406494,0.7199340462684631
1.714578628540039,4.14093017578125,0.7183340787887573
1.6893256902694702,4.166947841644287,0.726570188999176
1.6614468097686768,4.185450077056885,0.7334937453269958
1.6373317241668701,4.210530757904053,0.741489052772522
1.6076951026916504,4.22097635269165,0.7469272613525391
1.5773354768753052,4.231492042541504,0.7521433234214783
1.5484212636947632,4.249457836151123,0.758501410484314
1.5198713541030884,4.267039775848389,0.7647883892059326
1.4917354583740234,4.284235000610352,0.7709972858428955
1.4616252183914185,4.293735980987549,0.7757967710494995
1.4338457584381104,4.310342311859131,0.7819038033485413
1.4019020795822144,4.320037841796875,0.7863073945045471
1.3716273307800293,4.332995414733887,0.7913012504577637
1.3423715829849243,4.349410533905029,0.7969755530357361
1.3083831071853638,4.346934795379639,0.7991436123847961
1.2790040969848633,4.358912467956543,0.803988516330719
1.2523151636123657,4.3819193840026855,0.810716450214386
1.2241970300674438,4.405133247375488,0.8172001242637634
1.1983673572540283,4.435446262359619,0.8250248432159424
1.1683523654937744,4.450709342956543,0.8301013708114624
1.1391161680221558,4.465546607971191,0.8350818157196045
1.1096817255020142,4.480197429656982,0.840079128742218
1.0791878700256348,4.494905948638916,0.844885528087616
1.0469136238098145,4.501953601837158,0.8479621410369873
1.0188589096069336,4.5274977684021,0.8545709252357483
0.988090455532074,4.541593074798584,0.859070360660553
0.9531646966934204,4.532783508300781,0.8592350482940674
0.7819915413856506,3.853886127471924,0.7321562170982361
0.7503783702850342,3.8362488746643066,0.7301892638206482
0.7244696617126465,3.8486499786376953,0.7336770296096802
0.8323155641555786,4.601323127746582,0.8785520792007446
0.8034824728965759,4.6293559074401855,0.8853432536125183
0.7737646698951721,4.653401851654053,0.8914254307746887
0.7425515651702881,4.665793418884277,0.8952996730804443
0.7122352719306946,4.685606479644775,0.9004972577095032
0.6812871098518372,4.70536470413208,0.9052502512931824
0.6489962935447693,4.717319488525391,0.9085536599159241
0.6160436868667603,4.729114055633545,0.9118918776512146
0.5839048624038696,4.740569591522217,0.9151836633682251
0.5517415404319763,4.751793384552002,0.918475329875946
0.5203350186347961,4.770418167114258,0.923245906829834
0.48946717381477356,4.8004279136657715,0.9296888709068298
0.4556891620159149,4.8035149574279785,0.9309120774269104
0.42196670174598694,4.814054012298584,0.9336386322975159
0.39184871315956116,4.862534046173096,0.9437650442123413
0.357461541891098,4.857254981994629,0.9435020089149475
0.324186235666275,4.867038726806641,0.9462104439735413
0.29228007793426514,4.903456687927246,0.9538144469261169
0.25775107741355896,4.9129557609558105,0.9559080004692078
0.22406286001205444,4.929844856262207,0.9594841003417969
0.19015084207057953,4.946502208709717,0.9630637168884277
0.15594404935836792,4.955255508422852,0.9651512503623962
0.1219063252210617,4.975270748138428,0.9694812893867493
0.08717220276594162,5.006565570831299,0.9760333299636841
0.05222409591078758,4.999395370483398,0.9744777679443359
0.017456520348787308,5.030322551727295,0.9803947806358337
-0.017632460221648216,5.030333995819092,0.9803335070610046
-0.053024955093860626,5.064606189727783,0.9869966506958008
-0.08900303393602371,5.071783542633057,0.9884282350540161
-0.1250152587890625,5.101718425750732,0.994343101978302
-0.16043390333652496,5.100810527801514,0.9939172267913818
-0.19639532268047333,5.1150407791137695,0.9961858987808228
-0.23215648531913757,5.121358394622803,0.9969601035118103
-0.2702747881412506,5.169545650482178,1.0059274435043335
-0.30643025040626526,5.159990310668945,1.0036965608596802
-0.2887463867664337,4.350521564483643,0.8459758758544922
-0.31362292170524597,4.275870323181152,0.8312052488327026
-0.3443678915500641,4.289120674133301,0.8330057263374329
-0.37797728180885315,4.332717418670654,0.8407288789749146
-0.40045231580734253,4.246184825897217,0.8232364654541016
-0.42908936738967896,4.235901832580566,0.8205909729003906
-0.45402732491493225,4.191089630126953,0.8112999796867371
-0.4730861783027649,4.100403308868408,0.7931862473487854
-0.49588048458099365,4.051612377166748,0.7829123735427856
-0.5188238024711609,4.006508827209473,0.7731706500053406
-0.5411950945854187,3.9651389122009277,0.7642244100570679
-0.5624765753746033,3.9198479652404785,0.7545775771141052
-0.5828041434288025,3.870622396469116,0.7442221641540527
-0.6067023873329163,3.847827911376953,0.7389979362487793
-0.6250304579734802,3.7907702922821045,0.7271304130554199
-0.6450848579406738,3.7527499198913574,0.7185800671577454
-0.6652838587760925,3.718411922454834,0.7107915282249451
-0.6836804747581482,3.6764109134674072,0.7015913724899292
-0.701083779335022,3.6305058002471924,0.6916915774345398
-0.7233607172966003,3.6108481884002686,0.6868345737457275
-0.732552707195282,3.5270471572875977,0.6698203086853027
-0.7469897866249084,3.477329730987549,0.6589617133140564
-0.7790290117263794,3.5100948810577393,0.66371089220047
-0.7901027798652649,3.4489707946777344,0.6507450938224792
-0.8085123896598816,3.421459913253784,0.6441730260848999
-0.8328043222427368,3.4160819053649902,0.6417639255523682
-0.8435513973236084,3.3584389686584473,0.6296113133430481
-0.8598237037658691,3.3270139694213867,0.6221386790275574
-0.8785153031349182,3.306724786758423,0.6166588068008423
-0.8929204344749451,3.2714931964874268,0.6084434986114502
-0.9136217832565308,3.258293867111206,0.6043359041213989
-0.9310237169265747,3.2338645458221436,0.5981852412223816
-0.9427130818367004,3.190890312194824,0.5886586904525757
-0.9578383564949036,3.162809371948242,0.5816804766654968
-0.972382128238678,3.1347601413726807,0.5746168494224548
-0.9904624819755554,3.1175425052642822,0.5695517063140869
-1.0070035457611084,3.096604824066162,0.5638633966445923
-1.0189383029937744,3.060817003250122,0.5554805994033813
-1.0354171991348267,3.0395703315734863,0.5497881770133972
-1.0510339736938477,3.01849365234375,0.5438781380653381
-1.0572022199630737,2.972010374069214,0.5333659648895264
-1.077634572982788,2.965266466140747,0.5299991369247437
-1.1060962677001953,2.980041980743408,0.5304850339889526
-1.1132770776748657,2.936802625656128,0.5206462740898132
-1.1101152896881104,2.868457078933716,0.5064148902893066
-1.1293996572494507,2.8615596294403076,0.5027828216552734
-1.1403220891952515,2.8329482078552246,0.4953368902206421
-1.1505886316299438,2.8044276237487793,0.48800554871559143
-1.1330145597457886,2.7079737186431885,0.46887335181236267
-1.120223045349121,2.6260485649108887,0.45241841673851013
-1.135042667388916,2.611898183822632,0.4475208520889282
-1.1450093984603882,2.5871076583862305,0.4406893849372864
-1.1670767068862915,2.590571641921997,0.43874236941337585
-1.194696307182312,2.604120969772339,0.4384007453918457
-1.2326947450637817,2.6382689476013184,0.4414362907409668
-1.2475465536117554,2.6234190464019775,0.43612509965896606
-1.258682370185852,2.601656913757324,0.4294794797897339
-1.2692482471466064,2.580000638961792,0.42295950651168823
-1.2766609191894531,2.551143169403076,0.41522568464279175
-1.2893378734588623,2.532466411590576,0.40914681553840637
-1.3066283464431763,2.5243124961853027,0.40465763211250305
-1.3089485168457031,2.4889304637908936,0.3957165479660034
-1.3184418678283691,2.4671125411987305,0.3889451026916504
-1.328263759613037,2.4449825286865234,0.382066547870636
-1.3417930603027344,2.4294893741607666,0.37622976303100586
-1.3409698009490967,2.3908236026763916,0.3666667640209198
-1.3567692041397095,2.3826382160186768,0.3617932200431824
-1.3692392110824585,2.367313861846924,0.3557235300540924
-1.378159523010254,2.344951868057251,0.348523885011673
-1.3862788677215576,2.322901964187622,0.34132111072540283
-1.3975363969802856,2.307861089706421,0.3350686728954315
-1.408745527267456,2.29270601272583,0.3288120627403259
-1.4171085357666016,2.2701029777526855,0.3211616277694702
-1.4617760181427002,2.3069701194763184,0.3218687176704407
-1.4474822282791138,2.25246262550354,0.30970460176467896
-1.4433813095092773,2.2143073081970215,0.2998755872249603
-1.4784245491027832,2.2339272499084473,0.2975553870201111
-1.47416353225708,2.19561505317688,0.2873099744319916
-1.4665158987045288,2.154714345932007,0.27689385414123535
-1.476935863494873,2.138989210128784,0.26949018239974976
-1.4873638153076172,2.1231179237365723,0.2618890106678009
-1.4964549541473389,2.1080262660980225,0.2542952299118042
-1.5085140466690063,2.0954880714416504,0.2466874122619629
-1.5140044689178467,2.0731678009033203,0.23768511414527893
-1.5224171876907349,2.0581796169281006,0.22945642471313477
-1.486522912979126,2.083265542984009,-0.12907631695270538
-1.4838889837265015,2.1132285594940186,-0.1393241137266159
-1.4733428955078125,2.129523277282715,-0.14809168875217438
-1.4900271892547607,2.1884090900421143,-0.16003765165805817
-1.4737939834594727,2.1987528800964355,-0.1683589369058609
-1.4622517824172974,2.2151689529418945,-0.17685462534427643
-1.4451323747634888,2.2257094383239746,-0.1850454956293106
-1.4456714391708374,2.261782646179199,-0.1950424313545227
-1.4251511096954346,2.264902114868164,-0.2020861804485321
-1.4224343299865723,2.2980377674102783,-0.2118612378835678
-1.4097449779510498,2.3142693042755127,-0.21995019912719727
-1.408852458000183,2.3504767417907715,-0.22998617589473724
-1.3675695657730103,2.3199551105499268,-0.23333871364593506
-1.3544784784317017,2.3358964920043945,-0.2411586493253708
-1.3301870822906494,2.3311960697174072,-0.24665001034736633
-1.3034508228302002,2.3232455253601074,-0.2516970634460449
-1.270926594734192,2.3049838542938232,-0.2556188404560089
-1.254555583000183,2.313211679458618,-0.26208436489105225
-1.2451398372650146,2.335186004638672,-0.27012112736701965
-1.2351372241973877,2.3572943210601807,-0.2782173454761505
-1.225193738937378,2.3792057037353516,-0.2862665057182312
-1.2168220281600952,2.4045019149780273,-0.2947843074798584
-1.2027349472045898,2.419476270675659,-0.30193790793418884
-1.191836953163147,2.441357374191284,-0.3100065588951111
-1.1844955682754517,2.469982147216797,-0.3188854157924652
-1.1768003702163696,2.4986047744750977,-0.32782232761383057
-1.176485300064087,2.5450119972229004,-0.339129239320755
-1.1704609394073486,2.581031322479248,-0.3492870032787323
-1.1521114110946655,2.5884366035461426,-0.3554394245147705
-1.1413304805755615,2.6135201454162598,-0.36400914192199707
-1.300758719444275,3.037517786026001,-0.4288862943649292
-1.3132590055465698,3.1279726028442383,-0.44762131571769714
-1.305471420288086,3.172110080718994,-0.45994627475738525
-1.2770602703094482,3.1659483909606934,-0.4648299515247345
-1.268470287322998,3.2100324630737305,-0.4770163595676422
-1.2579803466796875,3.2504875659942627,-0.48879244923591614
-1.2336407899856567,3.2546327114105225,-0.4950919449329376
-1.2168132066726685,3.2805399894714355,-0.5047315359115601
-1.1761034727096558,3.2409286499023438,-0.5040156841278076
-1.1257517337799072,3.1717681884765625,-0.4985091984272003
-1.076785922050476,3.101991891860962,-0.4925994277000427
-1.0324896574020386,3.0427403450012207,-0.4880536198616028
-0.9873098731040955,2.979586601257324,-0.4825665056705475
-0.9387120008468628,2.901181697845459,-0.47431620955467224
-0.8984627723693848,2.8443024158477783,-0.4693385362625122
-0.8613206148147583,2.7944185733795166,-0.4652976393699646
-0.8258621096611023,2.747967004776001,-0.46143093705177307
-0.7857085466384888,2.682670831680298,-0.45424753427505493
-0.7558627128601074,2.650383710861206,-0.4525606036186218
-0.7237967848777771,2.6065964698791504,-0.44873762130737305
-0.6932474970817566,2.566324234008789,-0.4450809955596924
-0.660366952419281,2.5145962238311768,-0.43932583928108215
-0.6350288391113281,2.488652229309082,-0.437967449426651
-0.6089403033256531,2.4587979316711426,-0.4359019696712494
-0.5844425559043884,2.4324541091918945,-0.43408674001693726
-0.5594276785850525,2.402176856994629,-0.4314320683479309
-0.5391355752944946,2.3904380798339844,-0.4320666193962097
-0.5125110149383545,2.3484699726104736,-0.4271836280822754
-0.49015939235687256,2.3251633644104004,-0.42550814151763916
-0.4676441550254822,2.2978951930999756,-0.42282742261886597
-0.44999462366104126,2.293062925338745,-0.4242556393146515
-0.4246540367603302,2.2465527057647705,-0.4179263114929199
-0.409600168466568,2.2527503967285156,-0.4213183522224426
-0.3915048837661743,2.243814468383789,-0.42161327600479126
-0.37067797780036926,2.215759754180908,-0.41826504468917847
-0.35397329926490784,2.210272789001465,-0.41915613412857056
-0.3350735902786255,2.189478874206543,-0.4171341061592102
-0.31866076588630676,2.1837942600250244,-0.41765445470809937
-0.30049341917037964,2.1666276454925537,-0.41594308614730835
-0.28134533762931824,2.137878894805908,-0.4119660556316376
-0.2645096182823181,2.1242055892944336,-0.4108811318874359
-0.2487785369157791,2.1180624961853027,-0.41104957461357117
-0.23396067321300507,2.1194686889648438,-0.41250041127204895
-0.21755868196487427,2.1055126190185547,-0.4109730124473572
-0.20265689492225647,2.1067144870758057,-0.4124302566051483
-0.18662600219249725,2.09253191947937,-0.41079890727996826
-0.16673095524311066,2.0286307334899902,-0.39905059337615967
-0.15375418961048126,2.044834613800049,-0.40306058526039124
-0.14158715307712555,2.076247453689575,-0.41010764241218567
-0.1273316591978073,2.084644079208374,-0.4126596748828888
-0.11073105037212372,2.0470805168151855,-0.4057667851448059
-0.09682296216487885,2.0553371906280518,-0.407892644405365
-0.08343545347452164,2.078810691833496,-0.41306519508361816
-0.06924951076507568,2.086876392364502,-0.41520261764526367
-0.053882185369729996,2.064249038696289,-0.4110611081123352
-0.03983217477798462,2.0798544883728027,-0.414315402507782
-0.02538093738257885,2.080040454864502,-0.41451922059059143
-0.010953418910503387,2.087787628173828,-0.41625073552131653
0.003580545075237751,2.095442056655884,-0.41794365644454956
0.018273986876010895,2.080085277557373,-0.4146694839000702
0.03298152983188629,2.0952723026275635,-0.4175083339214325
0.04755346477031708,2.0950350761413574,-0.41729262471199036
0.0622691735625267,2.098525285720825,-0.4178388714790344
0.07715709507465363,2.1058030128479004,-0.41883713006973267
0.09216448664665222,2.1129958629608154,-0.4197236895561218
0.10751756280660629,2.120072364807129,-0.4205951392650604
0.12270064651966095,2.1270508766174316,-0.42147377133369446
0.13897259533405304,2.1492512226104736,-0.42520925402641296
0.15336467325687408,2.140798568725586,-0.4226311445236206
0.17126770317554474,2.1781017780303955,-0.4290928542613983
0.187657430768013,2.1885108947753906,-0.43024230003356934
0.2028896063566208,2.1873691082000732,-0.4291335940361023
0.22113418579101562,2.2167251110076904,-0.43359169363975525
0.24144217371940613,2.261190176010132,-0.4409802258014679
0.25804266333580017,2.267381429672241,-0.44089511036872864
0.2754952311515808,2.2772302627563477,-0.4415082633495331
0.2903735935688019,2.2680065631866455,-0.4381730556488037
0.3123228847980499,2.3119428157806396,-0.44497156143188477
0.33381733298301697,2.3480958938598633,-0.45023277401924133
0.3530328571796417,2.365084648132324,-0.4517965018749237
0.376935750246048,2.4084646701812744,-0.4581953287124634
0.39619383215904236,2.4214186668395996,-0.458526611328125
0.4188823997974396,2.4531521797180176,-0.46239322423934937
0.43870535492897034,2.4657816886901855,-0.46263387799263
0.4664355516433716,2.5198099613189697,-0.47059834003448486
0.49559715390205383,2.5774526596069336,-0.47872570157051086
0.5168941020965576,2.589543342590332,-0.4782901704311371
0.5450998544692993,2.6353988647460938,-0.4840923249721527
0.5772311687469482,2.696035861968994,-0.4925135672092438
0.6076870560646057,2.7451720237731934,-0.4984462261199951
0.63454270362854,2.7753102779388428,-0.5007226467132568
0.6710691452026367,2.842592477798462,-0.5095414519309998
0.705544650554657,2.898367404937744,-0.5162203311920166
0.7417234778404236,2.957594156265259,-0.5232331156730652
0.776787519454956,3.0090811252593994,-0.5284917950630188
0.8204892873764038,3.0900323390960693,-0.5387744903564453
0.865878701210022,3.1704325675964355,-0.5486747026443481
0.9068390727043152,3.2319321632385254,-0.555156409740448
0.9613513946533203,3.337597131729126,-0.5686386227607727
1.0140982866287231,3.431614875793457,-0.5798693299293518
1.0750683546066284,3.547208547592163,-0.5944332480430603
1.1244839429855347,3.6178200244903564,-0.6011075377464294
1.1965159177780151,3.758060932159424,-0.6187791228294373
1.287295937538147,3.9489352703094482,-0.6442353129386902
1.3405842781066895,4.01792049407959,-0.6493955254554749
1.4050604104995728,4.1155686378479,-0.6589033603668213
1.457996129989624,4.176205635070801,-0.6619743704795837
1.4797567129135132,4.1452484130859375,-0.6502161026000977
1.5060548782348633,4.1288161277771,-0.6409080624580383
1.5284096002578735,4.101242542266846,-0.6298806667327881
1.559821367263794,4.098956108093262,-0.6226118803024292
1.5714671611785889,4.046036720275879,-0.6075565814971924
1.3434044122695923,3.3885865211486816,-0.5028374791145325
1.3585848808288574,3.358555793762207,-0.4924580156803131
1.382059931755066,3.3500237464904785,-0.4851956367492676
1.4052387475967407,3.3414342403411865,-0.477790892124176
1.4253535270690918,3.3255317211151123,-0.4693640172481537
1.4461262226104736,3.3091723918914795,-0.46070390939712524
1.4724154472351074,3.3070969581604004,-0.45409297943115234
1.498436450958252,3.3049566745758057,-0.44734111428260803
1.5213085412979126,3.295534133911133,-0.43959173560142517
1.5412677526474,3.278724431991577,-0.4307636618614197
1.5645606517791748,3.268730401992798,-0.42266756296157837
1.5904395580291748,3.2658851146698,-0.41552358865737915
1.6164765357971191,3.2627675533294678,-0.40829595923423767
1.606313705444336,3.1864001750946045,-0.3919029235839844
1.6248399019241333,3.1692631244659424,-0.3829038441181183
1.6213698387145996,3.110811948776245,-0.36900269985198975
1.676098108291626,3.1620404720306396,-0.36786723136901855
1.72981858253479,3.20922589302063,-0.36599162220954895
1.7555148601531982,3.2050936222076416,-0.3580624461174011
1.7471022605895996,3.139634370803833,-0.34339195489883423
1.7672038078308105,3.1248528957366943,-0.3342002034187317
1.818506121635437,3.1637327671051025,-0.3304291367530823
1.365248203277588,2.338982582092285,-0.23845288157463074
0.9704560041427612,1.6371996402740479,-0.16275626420974731
0.9558977484703064,1.5874289274215698,-0.1536356657743454
0.9585347771644592,1.568068504333496,-0.14760036766529083
0.9774537682533264,1.5751599073410034,-0.14398318529129028
0.9885337948799133,1.5686827898025513,-0.1389639973640442
0.9951120615005493,1.555714726448059,-0.13336828351020813
1.0054932832717896,1.549448013305664,-0.12836694717407227
1.0248016119003296,1.5558736324310303,-0.1242109164595604
1.0313581228256226,1.5425889492034912,-0.11830143630504608
1.0371484756469727,1.5296858549118042,-0.11255290359258652
1.056546688079834,1.5357228517532349,-0.10795203596353531
2.5559914112091064,3.6621744632720947,-0.2450331300497055
2.5844318866729736,3.652604818344116,-0.23192965984344482
2.6056411266326904,3.62880539894104,-0.21693167090415955
2.6388258934020996,3.6249122619628906,-0.2031663954257965
2.706559419631958,3.6680052280426025,-0.191519096493721
2.6020710468292236,3.688448905944824,0.4771358370780945
2.5782382488250732,3.712824821472168,0.491621732711792
2.552854299545288,3.7379112243652344,0.5060960054397583
1.0547069311141968,1.5683043003082275,0.2166254222393036
1.0300219058990479,1.5560840368270874,0.21896623075008392
1.0261924266815186,1.576447606086731,0.22581155598163605
1.00615394115448,1.5702472925186157,0.22861774265766144
1.0196243524551392,1.6161391735076904,0.23894231021404266
1.0027140378952026,1.6168874502182007,0.24257703125476837
0.9781113862991333,1.60405433177948,0.24404267966747284
0.9706295132637024,1.6170060634613037,0.24916133284568787
0.9705510139465332,1.6434564590454102,0.25634971261024475
1.3795170783996582,2.376603841781616,0.37502172589302063
1.3649717569351196,2.392972230911255,0.38195231556892395
1.8041638135910034,3.2147066593170166,0.5184823870658875
1.780730128288269,3.2265868186950684,0.5256502032279968
1.7856273651123047,3.293267011642456,0.5416048169136047
1.7496341466903687,3.2851054668426514,0.5453346371650696
2.3923592567443848,4.570056915283203,0.7653732299804688
2.3598403930664062,4.585392951965332,0.7745422720909119
2.328678607940674,4.60846471786499,0.7845035791397095
2.2835607528686523,4.603646278381348,0.789722740650177
2.2598304748535156,4.639652252197266,0.8018304705619812
2.2264156341552734,4.654330253601074,0.8101967573165894
2.199436902999878,4.682784080505371,0.8207313418388367
2.1580464839935303,4.683650493621826,0.8260673880577087
2.1294217109680176,4.712288856506348,0.8363537788391113
2.095346450805664,4.726193904876709,0.843920886516571
2.068054437637329,4.753693103790283,0.8538649678230286
1.9969191551208496,4.682309627532959,0.8458735942840576
1.7378922700881958,4.158980846405029,0.7552257776260376
1.7070459127426147,4.170638561248779,0.7612662315368652
1.6768698692321777,4.181785583496094,0.7671587467193604
1.655860185623169,4.213923931121826,0.7768593430519104
1.625402569770813,4.224696636199951,0.7826526761054993
1.5970932245254517,4.2427215576171875,0.7892932295799255
1.5632455348968506,4.246120452880859,0.7932597994804382
1.5348531007766724,4.26365852355957,0.7998877167701721
1.5074241161346436,4.280633926391602,0.8063396215438843
1.4780285358428955,4.293961524963379,0.8122129440307617
1.4470444917678833,4.303604602813721,0.8169561624526978
1.412037968635559,4.302206993103027,0.8194774985313416
1.3888918161392212,4.33711576461792,0.8289636373519897
1.3602056503295898,4.353383541107178,0.8348954319953918
1.3291168212890625,4.3621063232421875,0.8394272923469543
1.2919578552246094,4.348366737365723,0.8395922183990479
1.273282527923584,4.401113986968994,0.852060079574585
1.2393419742584229,4.4020514488220215,0.8545612692832947
1.2074812650680542,4.410134315490723,0.8584903478622437
1.1803086996078491,4.432629108428955,0.8652176856994629
1.1544724702835083,4.462459564208984,0.8734649419784546
1.1250269412994385,4.4771528244018555,0.8786765336990356
1.095575213432312,4.4956536293029785,0.8841656446456909
1.0615071058273315,4.4952874183654785,0.8859913349151611
1.034387469291687,4.5245680809021,0.8937094211578369
1.0019335746765137,4.53121280670166,0.8970118761062622
0.9734771251678467,4.552461624145508,0.9032052755355835
0.9384690523147583,4.543514251708984,0.9034090042114258
0.7622323632240295,3.827662229537964,0.7622671127319336
0.7298237681388855,3.8062150478363037,0.7592191696166992
0.8487075567245483,4.606335163116455,0.9203674793243408
0.8175892233848572,4.619222640991211,0.9244919419288635
0.7911286354064941,4.658295154571533,0.9339021444320679
0.7561638951301575,4.64804744720459,0.9334760308265686
0.7279859781265259,4.6831464767456055,0.9416503310203552
0.6953198909759521,4.695442199707031,0.9452176094055176
0.6630937457084656,4.70743465423584,0.9487563371658325
0.630890965461731,4.719183444976807,0.9522919058799744
0.6009033918380737,4.745860576629639,0.9588790535926819
0.5687559843063354,4.757132530212402,0.9624078869819641
0.536655843257904,4.77208137512207,0.9664000272750854
0.5048348903656006,4.798373699188232,0.9724228382110596
0.4710223376750946,4.801531791687012,0.9737973213195801
0.43852365016937256,4.819708347320557,0.978269636631012
0.40558940172195435,4.8299994468688965,0.9811828136444092
0.37376314401626587,4.85532808303833,0.9872024059295654
0.3398556113243103,4.865220069885254,0.9901029467582703
0.306980162858963,4.886440277099609,0.9946954250335693
0.2740374207496643,4.911257743835449,1.0000715255737305
0.23996005952358246,4.920560836791992,1.0023401975631714
0.20689287781715393,4.952566146850586,1.0092837810516357
0.17181770503520966,4.953759670257568,1.010007381439209
0.13767559826374054,4.96616792678833,1.0130594968795776
0.10334388166666031,4.982244968414307,1.0165214538574219
0.06902442127466202,5.013451099395752,1.0228142738342285
0.034118764102458954,5.021455764770508,1.0244227647781372
-0.0015321585815399885,5.044526100158691,1.0291556119918823
-0.03673040121793747,5.055865287780762,1.0315454006195068
-0.07219187170267105,5.078441143035889,1.0362780094146729
-0.1075395941734314,5.077807903289795,1.0363140106201172
-0.1434491127729416,5.100026607513428,1.0403478145599365
-0.17967239022254944,5.1219916343688965,1.0443757772445679
-0.21582722663879395,5.120731353759766,1.0437102317810059
-0.25307905673980713,5.153651237487793,1.0500662326812744
-0.2901556193828583,5.174834251403809,1.0540778636932373
-0.27725377678871155,4.397284030914307,0.895480215549469
-0.3034166395664215,4.334329605102539,0.8822030425071716
-0.3306642174720764,4.290337562561035,0.8724989295005798
-0.3621794283390045,4.311074256896973,0.8760185837745667
-0.3884955644607544,4.270570278167725,0.867136538028717
-0.4139917492866516,4.226086139678955,0.8574976325035095
-0.4385848343372345,4.177633285522461,0.8471052050590515
-0.46085822582244873,4.109963893890381,0.8328632116317749
-0.4854668080806732,4.076604843139648,0.8250877857208252
-0.5091918110847473,4.039299488067627,0.8165425658226013
-0.5298559665679932,3.982877254486084,0.8041940927505493
-0.5530891418457031,3.949099063873291,0.7964709401130676
-0.5810043811798096,3.945417642593384,0.7948419451713562
-0.5961790680885315,3.8620870113372803,0.7772367000579834
-0.6173453330993652,3.824198007583618,0.7685840129852295
-0.6345778703689575,3.7673938274383545,0.7559282183647156
-0.6557398438453674,3.7369391918182373,0.7486186623573303
-0.674449622631073,3.695054531097412,0.7390748262405396
-0.6934224963188171,3.6529412269592285,0.729508101940155
-0.7122157216072083,3.614562749862671,0.7207610011100769
-0.731217086315155,3.579871892929077,0.7127472758293152
-0.7453474998474121,3.526505470275879,0.7006309032440186
-0.7645126581192017,3.499326467514038,0.6937799453735352
-0.7854430675506592,3.4794414043426514,0.688398540019989
-0.8016321063041687,3.440781831741333,0.6793643832206726
-0.8184783458709717,3.405729055404663,0.67108553647995
-0.8422539234161377,3.4003958702087402,0.6687074303627014
-0.8559608459472656,3.3579208850860596,0.6586745381355286
-0.8723833560943604,3.3264763355255127,0.6507700681686401
-0.8830341100692749,3.276517629623413,0.6393391489982605
-0.9014438986778259,3.2561028003692627,0.6337177753448486
-0.9189051389694214,3.2318012714385986,0.6273621320724487
-0.9371465444564819,3.2110941410064697,0.6217514276504517
-0.9528284072875977,3.183021068572998,0.6144116520881653
-0.965355396270752,3.147707939147949,0.6056628823280334
-0.9843869209289551,3.1343445777893066,0.6011849641799927
-1.0035045146942139,3.1207971572875977,0.5966886878013611
-1.0097042322158813,3.0668344497680664,0.5844878554344177
-1.0290758609771729,3.052877902984619,0.5799416303634644
-1.03602933883667,3.0064637660980225,0.5689884424209595
-1.0588760375976562,3.0072925090789795,0.5669558048248291
-1.0791763067245483,3.0007097721099854,0.5635465979576111
-1.0865815877914429,2.957733392715454,0.5533109903335571
-1.09381902217865,2.91465163230896,0.5430953502655029
-1.1076581478118896,2.889479875564575,0.5362136960029602
-1.1215153932571411,2.868295907974243,0.5298177003860474
-1.1294047832489014,2.8327488899230957,0.5208329558372498
-1.1484922170639038,2.825742483139038,0.5171405076980591
-1.1431807279586792,2.7578349113464355,0.5022890567779541
-1.131405234336853,2.675745964050293,0.4849441945552826
-1.128352165222168,2.619077444076538,0.4721935987472534
-1.1459076404571533,2.612138509750366,0.468339741230011
-1.1555808782577515,2.587465286254883,0.4613414406776428
-1.1845710277557373,2.604708194732666,0.4617648124694824
-1.225962519645691,2.645857810974121,0.46626099944114685
-1.2410156726837158,2.6310436725616455,0.4608188569545746
-1.2519042491912842,2.6095333099365234,0.45402801036834717
-1.2591952085494995,2.5810329914093018,0.44607773423194885
-1.2734177112579346,2.566190242767334,0.44047170877456665
-1.2814059257507324,2.5370702743530273,0.4323181211948395
-1.2972368001937866,2.52544903755188,0.427156925201416
-1.299730658531189,2.490143060684204,0.4178521931171417
-1.3126920461654663,2.4753692150115967,0.4120532274246216
-1.326088786125183,2.460237741470337,0.4061153531074524
-1.3360546827316284,2.43802809715271,0.3989693522453308
-1.3397542238235474,2.405884027481079,0.3900410532951355
-1.3442423343658447,2.3775620460510254,0.3817613124847412
-1.3599852323532104,2.3693926334381104,0.37676146626472473
-1.369018793106079,2.3471269607543945,0.36929023265838623
-1.3815747499465942,2.3316025733947754,0.36288678646087646
-1.3932162523269653,2.316492795944214,0.3563041687011719
-1.3963803052902222,2.2882344722747803,0.34783387184143066
-1.4082807302474976,2.2726848125457764,0.3411136567592621
-1.4491013288497925,2.302894353866577,0.34113678336143494
-1.4516037702560425,2.274655818939209,0.33224862813949585
-1.4540534019470215,2.2463033199310303,0.3233562409877777
-1.4506386518478394,2.2077605724334717,0.31284579634666443
-1.4573915004730225,2.185577154159546,0.3046424388885498
-1.4976515769958496,2.2155332565307617,0.3035126328468323
-1.4771980047225952,2.155217409133911,0.2899515926837921
-1.47955322265625,2.1262259483337402,0.2802734673023224
-1.4868041276931763,2.1078338623046875,0.2720114588737488
-1.4958010911941528,2.0928096771240234,0.26419422030448914
-1.5107662677764893,2.0830090045928955,0.2563825249671936
-1.5200350284576416,2.067568302154541,0.2477564513683319
-1.5192930698394775,2.0400173664093018,0.2377111315727234
-1.4782230854034424,2.0886340141296387,-0.13736967742443085
-1.4718599319458008,2.1115663051605225,-0.1471209079027176
-1.4716310501098633,2.1442887783050537,-0.15746645629405975
-1.4506291151046753,2.1484830379486084,-0.16587403416633606
-1.443983793258667,2.1710610389709473,-0.17505347728729248
-1.457521915435791,2.2268080711364746,-0.18711911141872406
-1.4197731018066406,2.204160690307617,-0.19253066182136536
-1.4333022832870483,2.25954008102417,-0.2044462412595749
-1.420190453529358,2.276244878768921,-0.21315620839595795
-1.4256595373153687,2.3224711418151855,-0.2245658040046692
-1.4091217517852783,2.331791877746582,-0.23222561180591583
-1.3620189428329468,2.291200637817383,-0.23475389182567596
-1.3370393514633179,2.287083387374878,-0.24084553122520447
-1.3127074241638184,2.282438039779663,-0.24662087857723236
-1.2845877408981323,2.2708475589752197,-0.25143399834632874
-1.2752641439437866,2.293119430541992,-0.25998109579086304
-1.258705496788025,2.301466941833496,-0.26682519912719727
-1.2570350170135498,2.336944341659546,-0.2767876386642456
-1.2431483268737793,2.352325916290283,-0.284517765045166
-1.229477882385254,2.3674280643463135,-0.29213568568229675
-1.2126411199569702,2.3752777576446533,-0.29871615767478943
-1.2076462507247925,2.407421827316284,-0.30837324261665344
-1.1968415975570679,2.4292733669281006,-0.3167714774608612
-1.1857575178146362,2.451077938079834,-0.32524973154067993
-1.178353190422058,2.4795689582824707,-0.33452022075653076
-1.1882249116897583,2.546886444091797,-0.3491286635398865
-1.1761335134506226,2.5686466693878174,-0.3576449751853943
-1.1513980627059937,2.5619428157806396,-0.3621227741241455
-1.1722816228866577,2.657723903656006,-0.3812187910079956
-1.2110577821731567,2.800389051437378,-0.4074472486972809
-1.3191992044448853,3.110992670059204,-0.4589151442050934
-1.2999690771102905,3.1263628005981445,-0.4673815369606018
-1.2850356101989746,3.1523211002349854,-0.4774516820907593
-1.276565670967102,3.1963417530059814,-0.49017009139060974
-1.2502074241638184,3.1972992420196533,-0.49647262692451477
-1.2164751291275024,3.1760873794555664,-0.4990633726119995
-1.1627613306045532,3.1003031730651855,-0.49285823106765747
-1.1072278022766113,3.016855001449585,-0.4849039316177368
-1.063407301902771,2.9618918895721436,-0.4812797009944916
-1.0075151920318604,2.870105504989624,-0.47144609689712524
-0.9734399318695068,2.8360137939453125,-0.4707581698894501
-0.9200396537780762,2.74320125579834,-0.4598301947116852
-0.8908236026763916,2.7194669246673584,-0.46029630303382874
-0.8468795418739319,2.6476845741271973,-0.4524434208869934
-0.8106375932693481,2.5976037979125977,-0.448164165019989
-0.7764469385147095,2.550865888595581,-0.44395673274993896
-0.7374658584594727,2.4853456020355225,-0.4362911880016327
-0.7155889272689819,2.474909543991089,-0.43817049264907837
-0.6866805553436279,2.4383301734924316,-0.43534037470817566
-0.6521301865577698,2.379279613494873,-0.4281371533870697
-0.6309983134269714,2.3683202266693115,-0.42946964502334595
-0.6026766300201416,2.3273212909698486,-0.425229549407959
-0.5759881734848022,2.2897756099700928,-0.4215070903301239
-0.5543768405914307,2.2707035541534424,-0.42094650864601135
-0.5330246090888977,2.251488208770752,-0.4201566278934479
-0.507409930229187,2.2134180068969727,-0.41583722829818726
-0.486871600151062,2.193805456161499,-0.4148656129837036
-0.46499207615852356,2.1665360927581787,-0.4123075306415558
-0.4481782615184784,2.161689519882202,-0.4137299060821533
-0.4246622920036316,2.1228413581848145,-0.40861430764198303
-0.4109826683998108,2.132802724838257,-0.41290467977523804
-0.3890736997127533,2.0973598957061768,-0.4083437919616699
-0.3703208565711975,2.0769124031066895,-0.40630191564559937
-0.35446077585220337,2.0714337825775146,-0.4071801006793976
-0.3381214439868927,2.0620460510253906,-0.4072857201099396
-0.32108980417251587,2.0487782955169678,-0.40665343403816223
-0.3033633530139923,2.027822971343994,-0.404168039560318
-0.2859562933444977,2.006746768951416,-0.4015362858772278
-0.2729554772377014,2.0159075260162354,-0.40496423840522766
-0.2515527606010437,1.9603928327560425,-0.3953801393508911
-0.23875579237937927,1.9693647623062134,-0.3986188769340515
-0.22386512160301208,1.9630985260009766,-0.39858850836753845
-0.2101403772830963,1.9643141031265259,-0.40006986260414124
-0.19493089616298676,1.950192928314209,-0.3984334170818329
-0.1806364506483078,1.9435919523239136,-0.398285835981369
-0.16644181311130524,1.9369577169418335,-0.39778822660446167
-0.1494104415178299,1.8959040641784668,-0.3902338445186615
-0.13619257509708405,1.8966846466064453,-0.39127597212791443
-0.12420817464590073,1.9164608716964722,-0.39626485109329224
-0.1070980504155159,1.8522071838378906,-0.38354551792144775
-0.09457959234714508,1.860417366027832,-0.38576415181159973
-0.08140694350004196,1.8609060049057007,-0.3864113986492157
-0.06845590472221375,1.8612951040267944,-0.3870476186275482
-0.05574556067585945,1.8692817687988281,-0.3890698254108429
-0.042577702552080154,1.8619256019592285,-0.3877263367176056
-0.029744155704975128,1.8697725534439087,-0.38956767320632935
-0.016591889783740044,1.8775311708450317,-0.3914151191711426
-0.0035725522320717573,1.8928632736206055,-0.39476656913757324
0.00956752523779869,1.892873764038086,-0.3946166932582855
0.023043114691972733,1.9195595979690552,-0.4000449478626251
0.037267204374074936,1.9652661085128784,-0.40945181250572205
0.05072620138525963,1.9573463201522827,-0.4077033996582031
0.06407546252012253,1.9417598247528076,-0.40398892760276794
0.07819713652133942,1.9566701650619507,-0.4066041111946106
0.09179740399122238,1.9561967849731445,-0.4060388505458832
0.10417429357767105,1.9327104091644287,-0.40072131156921387
0.12179236859083176,2.0008349418640137,-0.41415396332740784
0.13595667481422424,2.0001308917999268,-0.4131465554237366
0.15245084464550018,2.033679962158203,-0.4192351698875427
0.16660530865192413,2.0327770709991455,-0.4182276427745819
0.18212658166885376,2.047046422958374,-0.4202289581298828
0.19491447508335114,2.0307817459106445,-0.4156787395477295
0.21009838581085205,2.037259578704834,-0.4157867729663849
0.22847633063793182,2.074094295501709,-0.422105997800827
0.2429356724023819,2.0727460384368896,-0.4206518530845642
0.25736361742019653,2.0713791847229004,-0.41880059242248535
0.27828285098075867,2.119283437728882,-0.426889032125473
0.2964634895324707,2.1404154300689697,-0.4295239746570587
0.30920830368995667,2.123509168624878,-0.42456474900245667
0.3326994776725769,2.178568124771118,-0.43369320034980774
0.35154062509536743,2.1993746757507324,-0.4358236491680145
0.3757231533527374,2.250288963317871,-0.4438748061656952
0.39604493975639343,2.2745397090911865,-0.44661423563957214
0.4176732003688812,2.30238938331604,-0.4498303234577179
0.4401299059391022,2.333920478820801,-0.4535132944583893
0.4681895673274994,2.3916287422180176,-0.4622081220149994
0.49332937598228455,2.4302594661712646,-0.4671207666397095
0.5166570544242859,2.457406520843506,-0.46973103284835815
0.5431109666824341,2.4956352710723877,-0.47397541999816895
0.5723391771316528,2.5449321269989014,-0.48028650879859924
0.5988436341285706,2.5789835453033447,-0.4836297035217285
0.6303678154945374,2.631483316421509,-0.49033796787261963
0.650607705116272,2.6352438926696777,-0.4875756502151489
0.69114089012146,2.717064619064331,-0.4990288317203522
0.7267305254936218,2.7762181758880615,-0.5061970353126526
0.767245888710022,2.849881649017334,-0.5158358216285706
0.8066805601119995,2.915794849395752,-0.5236664414405823
0.8554598093032837,3.0109939575195312,-0.5363678336143494
0.8973926901817322,3.0760228633880615,-0.5433869957923889
0.9411169290542603,3.1444008350372314,-0.5508698225021362
0.9970783591270447,3.2492339611053467,-0.5643510222434998
1.053270936012268,3.349895477294922,-0.5765505433082581
1.1132761240005493,3.457324504852295,-0.5895951390266418
1.1706792116165161,3.5492911338806152,-0.5995436310768127
1.2499239444732666,3.70296311378479,-0.6195566058158875
1.3311177492141724,3.8559250831604004,-0.6386188864707947
1.3965396881103516,3.957047939300537,-0.6486624479293823
1.4702496528625488,4.0755767822265625,-0.6611252427101135
1.5150182247161865,4.109951496124268,-0.6596572995185852
1.5359054803848267,4.0788702964782715,-0.647188127040863
1.5795305967330933,4.109154224395752,-0.64457768201828
1.605584979057312,4.092146873474121,-0.6344451308250427
1.6215842962265015,4.049760818481445,-0.6204360723495483
1.408432126045227,3.4488537311553955,-0.5217803716659546
1.3926324844360352,3.343564033508301,-0.4993177354335785
1.4191460609436035,3.3419668674468994,-0.4925794303417206
1.4427410364151,3.3329999446868896,-0.48473259806632996
1.4627097845077515,3.3169782161712646,-0.47570982575416565
1.4824682474136353,3.300844430923462,-0.46670085191726685
1.502817988395691,3.284268379211426,-0.457459956407547
1.526069164276123,3.27466082572937,-0.449288010597229
1.5553569793701172,3.2791595458984375,-0.4428767263889313
1.574603796005249,3.2624690532684326,-0.43360716104507446
1.6009443998336792,3.2593917846679688,-0.426037073135376
1.631271481513977,3.2628164291381836,-0.41910693049430847
1.6325613260269165,3.2111055850982666,-0.4051780700683594
1.6278386116027832,3.1491494178771973,-0.39019474387168884
1.6392481327056885,3.1179893016815186,-0.3789932131767273
1.706842303276062,3.193122386932373,-0.38053831458091736
1.7212291955947876,3.1687679290771484,-0.3700072467327118
1.7359298467636108,3.1440470218658447,-0.3593124449253082
1.7448463439941406,3.1089742183685303,-0.347475528717041
1.7912739515304565,3.141801357269287,-0.3431459367275238
1.3721387386322021,2.3697800636291504,-0.25274014472961426
1.3354120254516602,2.270345687866211,-0.23611591756343842
0.950313150882721,1.5900510549545288,-0.16098925471305847
0.9327600002288818,1.5375014543533325,-0.15147507190704346
0.9677476286888123,1.571341872215271,-0.15044184029102325
0.9788608551025391,1.5649302005767822,-0.1452876329421997
0.9894431829452515,1.5587314367294312,-0.1401491016149521
