X,Y,Z
1.7422720193862915,6.452792167663574,0.9141899943351746
1.6872419118881226,6.434809684753418,0.9140923023223877
1.6266623735427856,6.389935493469238,0.9101414084434509
1.5697929859161377,6.355757236480713,0.9077115058898926
0.788853108882904,3.292109251022339,0.47142115235328674
1.4695943593978882,6.326940536499023,0.9084419012069702
1.4176322221755981,6.306528091430664,0.9078771471977234
1.3471412658691406,6.198843002319336,0.8942015171051025
1.304476261138916,6.215408802032471,0.8984628915786743
1.2588342428207397,6.216465473175049,0.9005165100097656
1.2072898149490356,6.182895660400391,0.8975523710250854
1.1512806415557861,6.12623929977417,0.8912795186042786
1.106916904449463,6.12613582611084,0.8930305242538452
1.0514836311340332,6.064918041229248,0.8854386210441589
1.0084424018859863,6.071874618530273,0.8878270983695984
0.9636656641960144,6.067050457000732,0.8885307908058167
0.7636611461639404,5.037574291229248,0.7389682531356812
0.7379627823829651,5.107524394989014,0.7504661679267883
0.7196294069290161,5.238654613494873,0.7709046602249146
0.6761617064476013,5.193557262420654,0.7650411128997803
0.6395019292831421,5.1979827880859375,0.7665033936500549
0.6104332804679871,5.2674102783203125,0.7775982618331909
0.5659850239753723,5.206068992614746,0.7694321274757385
0.5227140784263611,5.140461444854736,0.7606335878372192
0.48503684997558594,5.124540328979492,0.7591662406921387
0.36235949397087097,4.138341426849365,0.6134044528007507
0.33480021357536316,4.159940242767334,0.6169747114181519
0.305040568113327,4.1621198654174805,0.6177042126655579
0.2738296091556549,4.129333019256592,0.6132590770721436
0.24812452495098114,4.181173324584961,0.6214138865470886
0.405630886554718,7.744150161743164,1.1518490314483643
0.35022225975990295,7.715818881988525,1.1478792428970337
0.2948512136936188,7.702591419219971,1.1460856199264526
0.2402510643005371,7.677354335784912,1.142557144165039
0.18627940118312836,7.6555914878845215,1.1395988464355469
0.13257156312465668,7.625722885131836,1.135486364364624
0.0790833830833435,7.583890438079834,1.1296441555023193
0.025373384356498718,7.553346157073975,1.1250723600387573
-0.02711966261267662,7.530204772949219,1.1213088035583496
-0.07928842306137085,7.514426231384277,1.1186978816986084
-0.13103637099266052,7.486698627471924,1.114363193511963
-0.18276815116405487,7.470200538635254,1.1117548942565918
-0.2337094247341156,7.437901496887207,1.1068496704101562
-0.2856450378894806,7.4207000732421875,1.1040232181549072
-0.33877047896385193,7.457304000854492,1.1086819171905518
-0.2822892367839813,5.390554904937744,0.8008862733840942
-0.32052186131477356,5.404016494750977,0.802392303943634
-0.35708728432655334,5.386351108551025,0.7993128299713135
-0.39293691515922546,5.352977275848389,0.7939377427101135
-0.4295502007007599,5.342526435852051,0.792011559009552
-0.463387668132782,5.304983615875244,0.785548985004425
-0.433591365814209,4.597763538360596,0.6800757646560669
-0.46448659896850586,4.587145805358887,0.6777898669242859
-0.496883749961853,4.583923816680908,0.6766132116317749
-0.5256588459014893,4.553650856018066,0.671491265296936
-0.5553973913192749,4.534713268280029,0.6680803894996643
-0.5865961909294128,4.531001091003418,0.666599452495575
-0.6166725754737854,4.519438743591309,0.6638737320899963
-0.6449037790298462,4.492303848266602,0.6588834524154663
-0.6760018467903137,4.487964630126953,0.6572811603546143
-0.7048052549362183,4.468111991882324,0.6534373760223389
-0.7358330488204956,4.463341236114502,0.6518353819847107
-0.7606971859931946,4.424135208129883,0.6449875831604004
-0.7895528078079224,4.411515712738037,0.641852855682373
-0.8174588084220886,4.390997409820557,0.6375805139541626
-0.8418126106262207,4.355181694030762,0.6311459541320801
-0.7306896448135376,3.6441850662231445,0.5270887613296509
-0.7544713020324707,3.6316821575164795,0.5242859721183777
-0.9200671911239624,4.280908584594727,0.6166654229164124
-0.962329626083374,4.331423282623291,0.6223287582397461
-0.9909582138061523,4.321348190307617,0.6193247437477112
-1.0117454528808594,4.27713680267334,0.6114582419395447
-1.035988211631775,4.2477922439575195,0.6057498455047607
-1.0636870861053467,4.233315944671631,0.6021993160247803
-1.1030200719833374,4.263609886169434,0.6048001646995544
-1.1319656372070312,4.256425857543945,0.6019082069396973
-1.1486226320266724,4.2042388916015625,0.5926996469497681
-1.1795976161956787,4.204102993011475,0.5908514857292175
-1.2088195085525513,4.196206092834473,0.587916374206543
-1.2362984418869019,4.18053674697876,0.5838928818702698
-1.2647861242294312,4.172449588775635,0.580720841884613
-1.2871747016906738,4.145785808563232,0.5748560428619385
-1.3127394914627075,4.13008975982666,0.5705545544624329
-1.3365167379379272,4.106631755828857,0.5651606321334839
-1.370587944984436,4.11219596862793,0.5637311339378357
-1.3942781686782837,4.088320255279541,0.5583325624465942
-1.409088134765625,4.042736530303955,0.5496493577957153
-1.4467211961746216,4.0628437995910645,0.549918532371521
-1.4742075204849243,4.053455352783203,0.5461922883987427
-1.4863096475601196,3.999971389770508,0.5364989638328552
-1.5119397640228271,3.98258113861084,0.5316647887229919
-1.5475656986236572,3.994354486465454,0.5305997133255005
-1.5743075609207153,3.984437942504883,0.5264744758605957
-1.5980867147445679,3.96714448928833,0.5214033126831055
-1.62558114528656,3.9565176963806152,0.5171398520469666
-1.6537185907363892,3.945410966873169,0.5127645134925842
-1.6810424327850342,3.934412717819214,0.5084013938903809
-1.7042396068572998,3.9165501594543457,0.5029141306877136
-1.7225559949874878,3.887904644012451,0.49608492851257324
-1.7524374723434448,3.883638620376587,0.49231234192848206
-1.7670682668685913,3.8434698581695557,0.4839172065258026
-1.7871018648147583,3.817659378051758,0.47738906741142273
-1.8291234970092773,3.841365098953247,0.47678419947624207
-1.8630751371383667,3.8472139835357666,0.4739350974559784
-1.8810336589813232,3.8174750804901123,0.46658265590667725
-1.8978300094604492,3.7837579250335693,0.45867738127708435
-1.9238057136535645,3.7712626457214355,0.45333823561668396
-1.9416385889053345,3.7452752590179443,0.44621527194976807
-1.973694086074829,3.7467052936553955,0.44237855076789856
-1.9999654293060303,3.733430862426758,0.43657705187797546
-2.0187368392944336,3.706299066543579,0.429187536239624
-1.7050549983978271,3.0810928344726562,0.3530126214027405
-1.7253226041793823,3.0703585147857666,0.3480284810066223
-0.8211174011230469,1.4383611679077148,0.16120553016662598
-0.8350958228111267,1.4395678043365479,0.15945376455783844
-0.8526826500892639,1.4475857019424438,0.15838085114955902
-0.8542984127998352,1.4288212060928345,0.15430547297000885
-0.8720307946205139,1.4365897178649902,0.15306298434734344
-0.8698664903640747,1.4108426570892334,0.14818623661994934
-0.8793191313743591,1.4052602052688599,0.14541450142860413
-0.9134382009506226,1.4392476081848145,0.14664320647716522
-0.8981480002403259,1.3938932418823242,0.13962684571743011
-0.8994369506835938,1.3747913837432861,0.13530755043029785
-0.9018958806991577,1.3594789505004883,0.13133642077445984
-0.9107307195663452,1.3538684844970703,0.12828944623470306
-2.3896522521972656,3.4995343685150146,0.3245322108268738
-1.2399957180023193,1.7900196313858032,0.16223978996276855
-1.524612307548523,2.0532689094543457,0.16140076518058777
-1.2839525938034058,1.8964813947677612,-0.11193738132715225
-1.1601061820983887,1.7396807670593262,-0.10702359676361084
-1.1575547456741333,1.792068362236023,-0.11884800344705582
-1.6364266872406006,2.70043683052063,-0.2025863379240036
-1.5237675905227661,2.5987579822540283,-0.20532453060150146
-1.4282582998275757,2.5179762840270996,-0.20850101113319397
-1.3756074905395508,2.4666810035705566,-0.20878314971923828
-1.330155611038208,2.424616813659668,-0.2094636857509613
-1.2776669263839722,2.368499279022217,-0.20871040225028992
-1.2326159477233887,2.3259150981903076,-0.20899012684822083
-1.1835856437683105,2.272092580795288,-0.20791083574295044
-1.1675703525543213,2.279956817626953,-0.2123262733221054
-1.1177849769592285,2.221881866455078,-0.2104334682226181
-1.0791105031967163,2.184227466583252,-0.21029630303382874
-1.0396497249603271,2.142498254776001,-0.2095651924610138
-1.0061566829681396,2.110734462738037,-0.20961463451385498
-0.974327802658081,2.082371234893799,-0.2098097950220108
-0.9413962364196777,2.0501067638397217,-0.2095046490430832
-0.9237731099128723,2.049219846725464,-0.21226872503757477
-0.8841304779052734,1.9984261989593506,-0.20976993441581726
-0.8585907816886902,1.9795496463775635,-0.2104615420103073
-0.8291065692901611,1.9495611190795898,-0.20984727144241333
-0.8034621477127075,1.9262887239456177,-0.20981328189373016
-0.7854883074760437,1.920765995979309,-0.21166285872459412
-0.7485342621803284,1.8683313131332397,-0.20816656947135925
-0.729198157787323,1.8589571714401245,-0.20942577719688416
-0.7147624492645264,1.8600835800170898,-0.21176351606845856
-0.6825632452964783,1.8138424158096313,-0.2086542844772339
-0.6642150282859802,1.8038041591644287,-0.20950894057750702
-0.6513128876686096,1.80820894241333,-0.2120293378829956
-0.6292992234230042,1.7869046926498413,-0.2115257978439331
-0.6091532707214355,1.7689690589904785,-0.21133723855018616
-0.5915838479995728,1.7582732439041138,-0.21187901496887207
-0.5717298984527588,1.7400654554367065,-0.21144984662532806
-0.5511519908905029,1.717923641204834,-0.21048039197921753
-0.5343004465103149,1.706717610359192,-0.21083363890647888
-0.5132462978363037,1.680492639541626,-0.20919790863990784
-0.5035515427589417,1.691275954246521,-0.21206684410572052
-0.4872729778289795,1.679648995399475,-0.21212626993656158
-0.46919122338294983,1.6603864431381226,-0.21118327975273132
-0.4565420150756836,1.6596490144729614,-0.2125818133354187
-0.4445764720439911,1.6626694202423096,-0.21433332562446594
-0.424989253282547,1.6355444192886353,-0.2121630162000656
-0.4211234450340271,1.668320655822754,-0.2177572399377823
-0.39840131998062134,1.6258352994918823,-0.21352331340312958
-0.38160398602485657,1.6057705879211426,-0.2120923548936844
-0.3665911555290222,1.5931713581085205,-0.2115708738565445
-0.3511628210544586,1.5766150951385498,-0.21048752963542938
-0.34176957607269287,1.5864135026931763,-0.2129174917936325
-0.3306613564491272,1.5885756015777588,-0.2143324762582779
-0.31793099641799927,1.583106279373169,-0.2145458459854126
-0.30509158968925476,1.5775734186172485,-0.2147696167230606
-0.2898160219192505,1.556663155555725,-0.21286596357822418
-0.2776126563549042,1.5508573055267334,-0.21301637589931488
-0.2654559314250946,1.5449782609939575,-0.21306875348091125
-0.2533685564994812,1.539023756980896,-0.2130141258239746
-0.24119196832180023,1.5330036878585815,-0.212966650724411
-0.23164735734462738,1.5421640872955322,-0.21502162516117096
-0.21869784593582153,1.5282816886901855,-0.21387025713920593
-0.20694488286972046,1.5219953060150146,-0.2136034369468689
-0.19480153918266296,1.5117861032485962,-0.21276377141475677
-0.18517367541790009,1.5206811428070068,-0.21462033689022064
-0.17352049052715302,1.5141569375991821,-0.21431975066661835
-0.16215340793132782,1.5075339078903198,-0.2139490246772766
-0.15161430835723877,1.5085488557815552,-0.2145223617553711
-0.1410689353942871,1.5094900131225586,-0.2150956243276596
-0.13123315572738647,1.5180591344833374,-0.21676653623580933
-0.11986295133829117,1.5111572742462158,-0.21624742448329926
-0.10989189893007278,1.5196046829223633,-0.21780435740947723
-0.09778103977441788,1.4971293210983276,-0.21485352516174316
-0.08824001997709274,1.513162612915039,-0.2174382358789444
-0.07611405849456787,1.4827957153320312,-0.21336248517036438
-0.06560429185628891,1.483244776725769,-0.2137306183576584
-0.04515673592686653,1.4916964769363403,-0.2151762992143631
-0.013853476382791996,1.4922537803649902,-0.21560418605804443
0.006897561717778444,1.4923150539398193,-0.2155151069164276
0.027635419741272926,1.4920878410339355,-0.21542605757713318
0.03878037631511688,1.5228022336959839,-0.21973365545272827
0.05950232222676277,1.5067297220230103,-0.21699534356594086
0.06962401419878006,1.4985908269882202,-0.21563182771205902
0.07962318509817123,1.4903846979141235,-0.2142712026834488
0.0894971638917923,1.482136845588684,-0.21274597942829132
0.09997108578681946,1.481532096862793,-0.21229241788387299
0.11198241263628006,1.5040043592453003,-0.21515676379203796
0.12306734174489975,1.5109630823135376,-0.2158045619726181
0.13424909114837646,1.517845630645752,-0.21641427278518677
0.14403574168682098,1.5092719793319702,-0.2146594375371933
0.15310394763946533,1.4929218292236328,-0.2118079960346222
0.16348984837532043,1.4919127225875854,-0.21115602552890778
0.17567382752895355,1.5061990022659302,-0.2126733958721161
0.1842319220304489,1.489691138267517,-0.20975713431835175
0.198577418923378,1.5191857814788818,-0.21322275698184967
0.20930097997188568,1.517868161201477,-0.2123483419418335
0.21874551475048065,1.5088365077972412,-0.21041882038116455
0.22925037145614624,1.5073957443237305,-0.20956066250801086
0.24395503103733063,1.5326653718948364,-0.2122533917427063
0.2532983124256134,1.5234484672546387,-0.21014152467250824
0.2691633105278015,1.5523101091384888,-0.2132779210805893
0.27881190180778503,1.542889952659607,-0.2111331969499588
0.29527363181114197,1.5715035200119019,-0.21416506171226501
0.3046700358390808,1.5619932413101196,-0.2118561863899231
0.3200894892215729,1.5827913284301758,-0.21365849673748016
0.33271217346191406,1.5882760286331177,-0.21337741613388062
0.34235960245132446,1.5784770250320435,-0.21103385090827942
0.35500743985176086,1.5838096141815186,-0.21063002943992615
0.37207525968551636,1.6079320907592773,-0.21264643967151642
0.3814358115196228,1.5979702472686768,-0.21014738082885742
0.396281361579895,1.6105190515518188,-0.21060791611671448
0.4115278422832489,1.6228928565979004,-0.21099616587162018
0.43054500222206116,1.6502387523651123,-0.21317803859710693
0.4379187226295471,1.6324704885482788,-0.2095281183719635
0.45135149359703064,1.6370739936828613,-0.20875360071659088
0.4585553705692291,1.6191774606704712,-0.20512330532073975
0.47647011280059814,1.6384758949279785,-0.2060943990945816
0.49329572916030884,1.6539740562438965,-0.2065209299325943
0.504737377166748,1.650758147239685,-0.2045965939760208
0.5325145125389099,1.6992565393447876,-0.2090281993150711
0.5491093397140503,1.710523009300232,-0.20880988240242004
0.571985125541687,1.740081548690796,-0.2106258124113083
0.5913732647895813,1.7584413290023804,-0.2110709846019745
0.6061647534370422,1.76188063621521,-0.20967990159988403
0.6261994242668152,1.7798430919647217,-0.20999543368816376
0.6476624011993408,1.8013383150100708,-0.210587739944458
0.670713484287262,1.8263026475906372,-0.2115040123462677
0.6836076974868774,1.8218127489089966,-0.20892632007598877
0.7074815034866333,1.8462861776351929,-0.20966540277004242
0.7301825881004333,1.8669583797454834,-0.20986606180667877
0.7487188577651978,1.876653790473938,-0.20872747898101807
0.770432710647583,1.8933507204055786,-0.20832018554210663
0.8003233671188354,1.9276072978973389,-0.20970109105110168
0.8198009133338928,1.9366202354431152,-0.20829416811466217
0.8607301712036133,1.9955564737319946,-0.21208319067955017
0.8853378891944885,2.014862060546875,-0.21154792606830597
0.9121415615081787,2.0373473167419434,-0.21123076975345612
0.9427323341369629,2.066551923751831,-0.2114724963903427
0.9649452567100525,2.0780892372131348,-0.20980848371982574
1.0106711387634277,2.1386466026306152,-0.21297842264175415
1.0425220727920532,2.1669325828552246,-0.2127160131931305
1.0781528949737549,2.2019150257110596,-0.2130022943019867
1.122820258140564,2.2540316581726074,-0.21466830372810364
1.1539804935455322,2.2779650688171387,-0.21356752514839172
1.1913419961929321,2.311729669570923,-0.21318550407886505
1.2254362106323242,2.338285446166992,-0.21200959384441376
1.2540087699890137,2.3544158935546875,-0.20974518358707428
1.2775166034698486,2.3598744869232178,-0.2064262181520462
1.3169111013412476,2.3920340538024902,-0.20518992841243744
1.2990245819091797,2.3221659660339355,-0.19528937339782715
1.3068952560424805,2.3002238273620605,-0.18953002989292145
1.3208591938018799,2.2881245613098145,-0.184494286775589
1.3388668298721313,2.282539129257202,-0.17993900179862976
1.4161521196365356,2.377598524093628,-0.18301482498645782
1.4603995084762573,2.4150807857513428,-0.18140916526317596
1.4834213256835938,2.415148973464966,-0.17671658098697662
1.5162243843078613,2.4319241046905518,-0.17316840589046478
1.6281505823135376,2.573838710784912,-0.17817409336566925
1.6674987077713013,2.595433235168457,-0.174092099070549
1.689430594444275,2.5909433364868164,-0.1682603359222412
1.71713125705719,2.5964863300323486,-0.1630263328552246
1.3981000185012817,2.0828287601470947,-0.12598291039466858
1.4078880548477173,2.0671122074127197,-0.12018479406833649
1.4436979293823242,2.0901801586151123,-0.11650400608778
1.4447859525680542,2.0612165927886963,-0.10962563008069992
1.4268083572387695,2.007326126098633,-0.10156206786632538
1.4399126768112183,1.9982327222824097,-0.09577400237321854
1.4469417333602905,1.9789475202560425,-0.08915726840496063
1.450080156326294,1.9575142860412598,-0.08253359794616699
2.8030622005462646,3.9281179904937744,0.3146775960922241
2.756824254989624,3.9217512607574463,0.3237425684928894
2.6105661392211914,3.7757790088653564,0.320648193359375
2.620502471923828,3.8484537601470947,0.3351115882396698
2.6966335773468018,4.0218400955200195,0.35853084921836853
2.6696109771728516,4.048271656036377,0.3690200448036194
2.6567273139953613,4.093067646026611,0.38083723187446594
1.6418719291687012,2.5690255165100098,0.24364221096038818
1.630326271057129,2.5942440032958984,0.2505113482475281
1.5824084281921387,2.559368371963501,0.2513670325279236
2.5701181888580322,4.222311019897461,0.4212864637374878
2.5501763820648193,4.260782718658447,0.43165695667266846
2.959632396697998,5.030457973480225,0.5170516967773438
2.943114757537842,5.084208965301514,0.5295803546905518
2.9226558208465576,5.130904674530029,0.5413818359375
2.8879969120025635,5.158477306365967,0.550899863243103
2.876471996307373,5.230624675750732,0.5653468370437622
2.843064069747925,5.256798267364502,0.5744144916534424
2.818826675415039,5.299771308898926,0.5853370428085327
2.8047986030578613,5.367793560028076,0.5987762212753296
2.761028528213501,5.380797863006592,0.6060824394226074
2.742727279663086,5.441534519195557,0.6186863780021667
2.7458996772766113,5.543330669403076,0.6359009146690369
1.2237838506698608,2.5155141353607178,0.29102823138237
1.2051118612289429,2.524123430252075,0.2943868339061737
1.183271884918213,2.525470018386841,0.2968840003013611
1.1720162630081177,2.547450065612793,0.3017268180847168
1.1585674285888672,2.5659964084625244,0.3062431812286377
1.146038293838501,2.588247060775757,0.310995876789093
2.5598912239074707,5.897693634033203,0.7133679389953613
2.5279836654663086,5.940166473388672,0.7231553196907043
2.501284599304199,5.992737293243408,0.734125018119812
2.47763729095459,6.056273460388184,0.7466183304786682
2.4448277950286865,6.102280139923096,0.7564159631729126
2.417085886001587,6.162586688995361,0.7680807709693909
1.7692179679870605,4.60706901550293,0.5772855877876282
1.7000558376312256,4.520737171173096,0.5694318413734436
1.5968316793441772,4.339224815368652,0.549474835395813
1.566617488861084,4.353850364685059,0.553849458694458
2.2656991481781006,6.442685604095459,0.8232628107070923
2.2394416332244873,6.516775608062744,0.8364534378051758
2.2073757648468018,6.572001934051514,0.8472174406051636
2.1726174354553223,6.623654842376709,0.857671856880188
2.138373374938965,6.678895950317383,0.8682230114936829
2.0703799724578857,6.630621433258057,0.8650903701782227
2.011096477508545,6.607682228088379,0.8652607798576355
1.9480981826782227,6.565276145935059,0.8627914786338806
1.8914333581924438,6.54086446762085,0.8626683354377747
1.8248862028121948,6.4826579093933105,0.8580829501152039
1.7721210718154907,6.472633361816406,0.8592385649681091
1.7145469188690186,6.443483352661133,0.857878565788269
1.6559338569641113,6.40625,0.855430006980896
1.60557222366333,6.3945698738098145,0.8563509583473206
0.8020567297935486,3.292959213256836,0.4423072636127472
0.7842103838920593,3.3208813667297363,0.44725751876831055
1.2783504724502563,5.591436386108398,0.7547796368598938
1.3939390182495117,6.3033366203308105,0.85285484790802
1.342085361480713,6.278507232666016,0.8514809608459473
1.2834149599075317,6.219172477722168,0.8454462885856628
1.2332240343093872,6.193363666534424,0.843942403793335
1.1793533563613892,6.148281574249268,0.8394923806190491
1.137097716331482,6.1637654304504395,0.8430560231208801
1.075033187866211,6.06842565536499,0.8314833045005798
1.0367460250854492,6.10615348815918,0.8381792306900024
0.9861545562744141,6.063216209411621,0.8337962627410889
0.9367424249649048,6.023712158203125,0.8299039602279663
0.7473703622817993,5.038274765014648,0.6951625943183899
0.7182142734527588,5.0892109870910645,0.7030304670333862
0.6970086693763733,5.209104061126709,0.7205016613006592
0.660007119178772,5.209805965423584,0.7215191721916199
0.6237125992774963,5.2140631675720215,0.723057746887207
0.5873907208442688,5.218066215515137,0.7245962619781494
0.5484209060668945,5.1987810134887695,0.7226790189743042
0.5065732598304749,5.148454189300537,0.7161979079246521
0.37481600046157837,4.111429214477539,0.5723860263824463
0.34799838066101074,4.136971950531006,0.5764098167419434
0.32131919264793396,4.166182041168213,0.5809754729270935
0.29127299785614014,4.152764797210693,0.5796260237693787
0.2642982602119446,4.185486793518066,0.5846157670021057
0.23490683734416962,4.194932460784912,0.5861013531684875
0.38027510046958923,7.762984752655029,1.0849725008010864
0.32443854212760925,7.7266950607299805,1.0803059339523315
0.2692946195602417,7.690000534057617,1.0756299495697021
0.21530310809612274,7.672249794006348,1.0736513137817383
0.1599927693605423,7.627078533172607,1.0678077936172485
0.1064709797501564,7.604804992675781,1.0645229816436768
0.05332307144999504,7.5782880783081055,1.0606969594955444
0.0004656625387724489,7.524320602416992,1.0530811548233032
-0.05179346725344658,7.516409873962402,1.051962971687317
-0.10489660501480103,7.511992931365967,1.0513856410980225
-0.15647360682487488,7.48014497756958,1.0470192432403564
-0.20815247297286987,7.471241474151611,1.0452487468719482
-0.2583533823490143,7.423332214355469,1.037973165512085
-0.3096748888492584,7.417605876922607,1.0366498231887817
-0.36243483424186707,7.44243860244751,1.0396454334259033
-0.30195024609565735,5.411816596984863,0.7556697726249695
-0.3385710120201111,5.394222736358643,0.7529414296150208
-0.37487441301345825,5.376433372497559,0.7498929500579834
-0.4108007252216339,5.358437538146973,0.7466545701026917
-0.44649648666381836,5.340201377868652,0.7434223890304565
-0.42573341727256775,4.693545818328857,0.6528113484382629
-0.45043012499809265,4.609734535217285,0.6406149864196777
-0.48048147559165955,4.587378025054932,0.6370003819465637
-0.5113430023193359,4.5764079093933105,0.6348146200180054
-0.5409532189369202,4.557607650756836,0.6312960982322693
-0.5708627104759216,4.538551330566406,0.6277633309364319
-0.5980600118637085,4.5040082931518555,0.6221394538879395
-0.6305039525032043,4.507589340209961,0.6218069195747375
-0.6596017479896545,4.487967014312744,0.6183063387870789
-0.6889366507530212,4.4720139503479,0.6152425408363342
-0.7176262140274048,4.4520697593688965,0.6113095879554749
-0.7455578446388245,4.432023048400879,0.6074193716049194
-0.774678111076355,4.419411659240723,0.6045791506767273
-0.8025487065315247,4.398941993713379,0.6006883382797241
-0.8266123533248901,4.359270095825195,0.5942147970199585
-0.7169575095176697,3.6432769298553467,0.4957062900066376
-0.7414511442184448,3.6346731185913086,0.49332669377326965
-0.7669723629951477,3.6335790157318115,0.49201300740242004
-0.9345932006835938,4.283074855804443,0.578605055809021
-0.9763166308403015,4.329655170440674,0.5835257172584534
-1.0029252767562866,4.30796480178833,0.579261302947998
-1.0332586765289307,4.301103591918945,0.5769298076629639
-1.055040717124939,4.2642436027526855,0.5703061819076538
-1.0859280824661255,4.2648234367370605,0.5687251687049866
-1.1111117601394653,4.242660045623779,0.5641332268714905
-1.140627145767212,4.235170841217041,0.5614938735961914
-1.1685352325439453,4.219870567321777,0.5578211545944214
-1.1933783292770386,4.1971635818481445,0.5530986785888672
-1.2163265943527222,4.170783519744873,0.547662079334259
-1.2500739097595215,4.181415557861328,0.5471107363700867
-1.2730337381362915,4.154613018035889,0.5416613221168518
-1.3002229928970337,4.1384663581848145,0.5375679731369019
-1.326680064201355,4.122313976287842,0.5335457921028137
-1.3524125814437866,4.106203556060791,0.5293204188346863
-1.3826000690460205,4.104758262634277,0.5268757343292236
-1.4077787399291992,4.088424205780029,0.5225439667701721
-1.423190712928772,4.042433261871338,0.5144143104553223
-1.4570714235305786,4.047287464141846,0.512739896774292
-1.49045991897583,4.052092552185059,0.5110647082328796
-1.509454369544983,4.020678520202637,0.504540205001831
-1.539159893989563,4.01818323135376,0.5016801953315735
-1.5636885166168213,4.000847816467285,0.49694880843162537
-1.5892159938812256,3.9829165935516357,0.49206697940826416
-1.6170217990875244,3.9721925258636475,0.48814910650253296
-1.6467419862747192,3.9688775539398193,0.4848918616771698
-1.667220115661621,3.9439775943756104,0.47895389795303345
-1.6860734224319458,3.9153382778167725,0.4725881814956665
-1.7138817310333252,3.9037795066833496,0.4681588113307953
-1.7427520751953125,3.8957531452178955,0.464222252368927
-1.7674330472946167,3.880890130996704,0.45927107334136963
-1.7834402322769165,3.8484320640563965,0.45218271017074585
-1.812569260597229,3.8439321517944336,0.44838306307792664
-1.8331611156463623,3.8174924850463867,0.44185760617256165
-1.8734670877456665,3.833059787750244,0.44026458263397217
-1.8852391242980957,3.79317045211792,0.43208613991737366
-1.9173229932785034,3.795048952102661,0.42865484952926636
-1.925304889678955,3.747938394546509,0.419634610414505
-1.9623854160308838,3.7555840015411377,0.416653573513031
-1.9779003858566284,3.721639394760132,0.408951073884964
-1.9987454414367676,3.7022476196289062,0.40275177359580994
-2.0269243717193604,3.6963603496551514,0.39803457260131836
-1.7080963850021362,3.064389705657959,0.3263954520225525
-1.7334282398223877,3.0595901012420654,0.3222769498825073
-0.8381975293159485,1.4567420482635498,0.15160305798053741
-0.8477269411087036,1.4514631032943726,0.14923149347305298
-0.8537613749504089,1.4391353130340576,0.14605242013931274
-0.8638501167297363,1.4333577156066895,0.1435214877128601
-0.8814525008201599,1.4411404132843018,0.14226755499839783
-0.8786640763282776,1.4156818389892578,0.13769586384296417
-0.8843072056770325,1.4032312631607056,0.13433876633644104
-0.8857483267784119,1.3841259479522705,0.13035127520561218
-0.8946613669395447,1.3786402940750122,0.12758736312389374
-0.8972429633140564,1.3632508516311646,0.12389564514160156
-0.9026961922645569,1.3505603075027466,0.12025827914476395
-2.424783945083618,3.576265573501587,0.3118339478969574
-2.425583839416504,3.529231071472168,0.3010863661766052
-1.3264262676239014,1.9019749164581299,0.15836060047149658
-1.3595426082611084,1.9306743144989014,-0.09611985087394714
-1.3064396381378174,1.9751923084259033,-0.1179666593670845
-1.3698612451553345,2.1380698680877686,-0.13721074163913727
-1.7621948719024658,2.885038137435913,-0.20269985496997833
-1.6765755414962769,2.790572166442871,-0.20151761174201965
-1.58712637424469,2.7293612957000732,-0.2071443498134613
-0.839590847492218,1.468386173248291,-0.11407651752233505
-1.4636472463607788,2.6015894412994385,-0.20653024315834045
-1.4257550239562988,2.577688217163086,-0.20902998745441437
-1.3565255403518677,2.4952664375305176,-0.20647062361240387
-1.3222249746322632,2.47353196144104,-0.20860634744167328
-1.2794418334960938,2.4340994358062744,-0.2090895175933838
-1.2241374254226685,2.3703062534332275,-0.20722343027591705
-1.1871600151062012,2.340724468231201,-0.20823316276073456
-1.1498727798461914,2.306809425354004,-0.20855574309825897
-1.1181442737579346,2.283040761947632,-0.20967525243759155
-1.0846586227416992,2.2556636333465576,-0.21030505001544952
-1.040181279182434,2.2032086849212646,-0.20844098925590515
-1.011600375175476,2.181865930557251,-0.20934148132801056
-0.9781027436256409,2.1498045921325684,-0.2091429978609085
-0.9371545314788818,2.099647045135498,-0.2069520801305771
-0.9190164804458618,2.0988340377807617,-0.20951960980892181
-0.8874022364616394,2.06558895111084,-0.2087523490190506
-0.8486181497573853,2.014152765274048,-0.20599207282066345
-0.832377552986145,2.0164036750793457,-0.20862580835819244
-0.8092266321182251,2.0003597736358643,-0.20928813517093658
-0.7837271094322205,1.9767719507217407,-0.20907318592071533
-0.7585121989250183,1.952967882156372,-0.20874477922916412
-0.7348029613494873,1.9326499700546265,-0.20864389836788177
-0.7071879506111145,1.9012316465377808,-0.20731474459171295
-0.6912055611610413,1.898559331893921,-0.2090071439743042
-0.6661677956581116,1.8701390027999878,-0.2078237682580948
-0.6502348184585571,1.8672550916671753,-0.20932117104530334
-0.6343762874603271,1.8642388582229614,-0.2108001559972763
-0.6137359142303467,1.8463366031646729,-0.21057212352752686
-0.591221034526825,1.8207809925079346,-0.20939917862415314
-0.5701167583465576,1.7987689971923828,-0.2084762454032898
-0.555031955242157,1.7951213121414185,-0.20962417125701904
-0.5311599373817444,1.7615911960601807,-0.2072422206401825
-0.5166249871253967,1.757590889930725,-0.20829562842845917
-0.5018882155418396,1.7535573244094849,-0.20931249856948853
-0.484224796295166,1.7381733655929565,-0.2088325321674347
-0.46783313155174255,1.726372480392456,-0.20876574516296387
-0.4518086016178131,1.7143858671188354,-0.20864398777484894
-0.43791231513023376,1.7097749710083008,-0.20941102504730225
-0.4256317615509033,1.712681770324707,-0.21097300946712494
-0.4098976254463196,1.7003753185272217,-0.2106190174818039
-0.396203875541687,1.695469617843628,-0.2111687958240509
-0.38094064593315125,1.6828813552856445,-0.21075128018856049
-0.3691452145576477,1.6853318214416504,-0.21215583384037018
-0.35142838954925537,1.6612216234207153,-0.2101147323846817
-0.33971691131591797,1.6634947061538696,-0.2113875150680542
-0.3326334059238434,1.6884747743606567,-0.2155570685863495
-0.31365516781806946,1.65250825881958,-0.21194720268249512
-0.302096962928772,1.6545183658599854,-0.21305140852928162
-0.28895044326782227,1.6488580703735352,-0.2131452113389969
-0.2761135697364807,1.6430621147155762,-0.21320949494838715
-0.2633852958679199,1.6371662616729736,-0.21326270699501038
-0.25191983580589294,1.6388367414474487,-0.21428130567073822
-0.23814696073532104,1.6251237392425537,-0.21312662959098816
-0.22650544345378876,1.626673698425293,-0.21399030089378357
-0.21160781383514404,1.6012234687805176,-0.21128448843955994
-0.1995055228471756,1.5948612689971924,-0.21109223365783691
-0.18747353553771973,1.588424801826477,-0.21080107986927032
-0.17636464536190033,1.5896129608154297,-0.2114298939704895
-0.1668487787246704,1.606129765510559,-0.21411249041557312
-0.15324851870536804,1.5840588808059692,-0.21166476607322693
-0.14153267443180084,1.5772905349731445,-0.21125444769859314
-0.13117890059947968,1.5858930349349976,-0.21275541186332703
-0.1195220872759819,1.5789916515350342,-0.21214507520198822
-0.10851160436868668,1.5797293186187744,-0.21256953477859497
-0.09683844447135925,1.5726723670959473,-0.21195942163467407
-0.08672843873500824,1.5887157917022705,-0.2144530862569809
-0.07527138292789459,1.5815184116363525,-0.21363294124603271
-0.0636049285531044,1.5665034055709839,-0.2117648869752884
-0.05271076038479805,1.566878080368042,-0.21198534965515137
-0.04163326323032379,1.5671812295913696,-0.21220944821834564
-0.03044104389846325,1.5519315004348755,-0.21026340126991272
-0.019848162308335304,1.567584753036499,-0.21238397061824799
-0.00898189190775156,1.5754233598709106,-0.21345609426498413
0.0019407251384109259,1.5522195100784302,-0.21033228933811188
0.012794329784810543,1.5366806983947754,-0.20825731754302979
0.02372197061777115,1.5520497560501099,-0.21025638282299042
0.03502107039093971,1.5750913619995117,-0.21322345733642578
0.04620281234383583,1.5825724601745605,-0.2140912115573883
0.0560787208378315,1.5512892007827759,-0.20972733199596405
0.06753580272197723,1.5663557052612305,-0.2116411030292511
0.0770476683974266,1.5349558591842651,-0.20711469650268555
0.08902410417795181,1.5576239824295044,-0.20987313985824585
0.1008363664150238,1.5724722146987915,-0.21158036589622498
0.11176083981990814,1.5717841386795044,-0.21120445430278778
0.12327942252159119,1.578743577003479,-0.2118402123451233
0.13178107142448425,1.5470492839813232,-0.2071247696876526
0.14391912519931793,1.561597466468811,-0.20862342417240143
0.15631692111492157,1.5760473012924194,-0.21010811626911163
0.16893592476844788,1.5903995037078857,-0.2115807831287384
0.18087008595466614,1.5969693660736084,-0.21194298565387726
0.19121867418289185,1.5880663394927979,-0.2101360261440277
0.20223575830459595,1.5868029594421387,-0.20936408638954163
0.21430324018001556,1.593137264251709,-0.20960041880607605
0.2275678813457489,1.6070500612258911,-0.21083460748195648
0.23642021417617798,1.5902270078659058,-0.207914337515831
0.25059428811073303,1.6077911853790283,-0.2094293087720871
0.2629854381084442,1.613789677619934,-0.2094467729330063
0.27421170473098755,1.612047553062439,-0.2084634006023407
0.2894821763038635,1.6331219673156738,-0.21042506396770477
0.30075904726982117,1.6312334537506104,-0.20925460755825043
0.31348156929016113,1.636879563331604,-0.20905637741088867
0.3280738890171051,1.6499823331832886,-0.20978620648384094
0.3442838490009308,1.6705838441848755,-0.21147017180919647
0.35588839650154114,1.6683123111724854,-0.21018865704536438
0.367411345243454,1.6659870147705078,-0.2088003158569336
0.3651529550552368,1.6030845642089844,-0.19986800849437714
0.3783108592033386,1.6081706285476685,-0.19942888617515564
0.3986671268939972,1.6433513164520264,-0.20272140204906464
0.41003450751304626,1.6407380104064941,-0.20120956003665924
0.4194101095199585,1.6305454969406128,-0.19875003397464752
0.4416433572769165,1.669037938117981,-0.2022009640932083
0.46165767312049866,1.6960018873214722,-0.20418211817741394
0.48181983828544617,1.7228423357009888,-0.2060994654893875
0.507617712020874,1.7681869268417358,-0.21005506813526154
0.5132133364677429,1.7425256967544556,-0.2055651992559433
0.5388330221176147,1.7837125062942505,-0.20893456041812897
0.5538044571876526,1.7874782085418701,-0.20785900950431824
0.5684770345687866,1.7912483215332031,-0.20670269429683685
0.5891733765602112,1.8133883476257324,-0.2076093852519989
0.609087347984314,1.831611156463623,-0.208018958568573
0.6243900656700134,1.8349021673202515,-0.20670086145401
0.6448143124580383,1.8527692556381226,-0.20696263015270233
0.6603440046310425,1.85580313205719,-0.20541980862617493
0.6823878884315491,1.8770360946655273,-0.20589686930179596
0.7063219547271729,1.901624083518982,-0.20666588842868805
0.7361458539962769,1.9405089616775513,-0.20892493426799774
0.7522103190422058,1.9429560899734497,-0.2070997655391693
0.7814164161682129,1.9777323007583618,-0.20863811671733856
0.7980867624282837,1.9797368049621582,-0.20667310059070587
0.8311630487442017,2.021134376525879,-0.2087593972682953
0.8570752143859863,2.044358491897583,-0.20880857110023499
0.8832374215126038,2.067373752593994,-0.20874464511871338
0.9148775935173035,2.1006369590759277,-0.2095656543970108
0.9421861171722412,2.1229398250579834,-0.20924001932144165
0.9695952534675598,2.1450860500335693,-0.20878152549266815
0.9987652897834778,2.1705944538116455,-0.20854243636131287
1.0335370302200317,2.2062666416168213,-0.20914779603481293
1.071069598197937,2.2448315620422363,-0.2098228484392166
1.1035202741622925,2.2727532386779785,-0.2094118893146515
1.1378730535507202,2.303957462310791,-0.20917391777038574
1.1852004528045654,2.359032392501831,-0.21092182397842407
1.2105563879013062,2.368368148803711,-0.20842845737934113
1.2410694360733032,2.3880507946014404,-0.20674346387386322
1.264691948890686,2.393625259399414,-0.20368874073028564
1.297818660736084,2.416065216064453,-0.2019786834716797
1.3221962451934814,2.420949935913086,-0.19869600236415863
1.310118556022644,2.3612406253814697,-0.19013091921806335
1.299126386642456,2.3052263259887695,-0.1820145845413208
1.3155397176742554,2.296255588531494,-0.17746219038963318
1.3549333810806274,2.3278632164001465,-0.17603924870491028
1.4199994802474976,2.4030275344848633,-0.1776770055294037
1.452439785003662,2.420366048812866,-0.17475512623786926
1.4754459857940674,2.420480251312256,-0.1704282909631729
1.5041816234588623,2.4306464195251465,-0.16665637493133545
1.5514788627624512,2.470445156097412,-0.16482721269130707
1.633772611618042,2.5618185997009277,-0.16592426598072052
1.6806917190551758,2.5969507694244385,-0.1630849391222
1.3637118339538574,2.077467918395996,-0.12633563578128815
1.382797122001648,2.0745019912719727,-0.12164638191461563
1.4011099338531494,2.0718936920166016,-0.11702333390712738
1.4278062582015991,2.082318067550659,-0.11307450383901596
1.442360520362854,2.0725529193878174,-0.10764263570308685
1.4380065202713013,2.037749767303467,-0.100982666015625
1.4266616106033325,1.9934052228927612,-0.09377793967723846
1.4519461393356323,1.999499797821045,-0.08878272771835327
1.4529889822006226,1.9748039245605469,-0.08242738991975784
3.088778257369995,4.3579206466674805,0.327408105134964
2.6819305419921875,3.8472201824188232,0.29799407720565796
2.5945584774017334,3.778942584991455,0.30066004395484924
2.684154987335205,3.9718058109283447,0.3241803050041199
2.6898069381713867,4.046978950500488,0.3383066952228546
2.656672239303589,4.058755397796631,0.34656020998954773
2.6357102394104004,4.090202331542969,0.35637229681015015
1.6117258071899414,2.54339861869812,0.22590219974517822
1.6052595376968384,2.5746047496795654,0.23283171653747559
1.5911920070648193,2.592017412185669,0.23836837708950043
2.5595123767852783,4.240334987640381,0.39614760875701904
2.543370485305786,4.285558700561523,0.4065128564834595
2.953045129776001,5.05556058883667,0.4862648546695709
2.916221857070923,5.076047897338867,0.4949853718280792
2.9047000408172607,5.144489765167236,0.5080779194831848
2.8798415660858154,5.188796043395996,0.5187798738479614
2.858165740966797,5.235457897186279,0.5295074582099915
2.839036703109741,5.289245128631592,0.5409541130065918
2.8040504455566406,5.320255756378174,0.5499585866928101
2.803925037384033,5.416059970855713,0.5656129121780396
2.714695692062378,5.3343095779418945,0.5624340176582336
2.5763185024261475,5.150733470916748,0.5482336282730103
2.6870932579040527,5.472652912139893,0.5875598788261414
1.2266782522201538,2.546354293823242,0.27577653527259827
1.2002817392349243,2.5370755195617676,0.277010053396225
1.182472586631775,2.545086145401001,0.280103862285614
1.1673758029937744,2.560258150100708,0.28390637040138245
1.1532410383224487,2.57910418510437,0.28804510831832886
1.1265639066696167,2.5693395137786865,0.28898170590400696
2.5418596267700195,5.91063928604126,0.6693429350852966
2.513979911804199,5.959787845611572,0.6794310808181763
2.485590934753418,6.013036727905273,0.6896865963935852
2.4604618549346924,6.077176094055176,0.7011389136314392
2.4278624057769775,6.123011112213135,0.710521936416626
1.7881914377212524,4.604573726654053,0.5373572111129761
1.713186264038086,4.503932476043701,0.5285406708717346
1.608983039855957,4.322804927825928,0.5098326802253723
1.5748839378356934,4.32663631439209,0.5127461552619934
2.289336681365967,6.433043956756592,0.7660374045372009
2.2485580444335938,6.463197708129883,0.7732770442962646
2.2232484817504883,6.53692626953125,0.7857473492622375
2.1876134872436523,6.5851263999938965,0.7949509024620056
2.1565778255462646,6.651887893676758,0.8062003254890442
2.101287603378296,6.644537448883057,0.8085237741470337
2.0354225635528564,6.599471092224121,0.8062174916267395
1.9770376682281494,6.572059631347656,0.8059829473495483
1.92228364944458,6.55537223815918,0.8070136308670044
1.8634254932403564,6.527469635009766,0.8061226010322571
1.8061699867248535,6.502784729003906,0.805636465549469
1.7425427436828613,6.451344013214111,0.8018223643302917
1.6887950897216797,6.433047771453857,0.8021205067634583
1.6351383924484253,6.410388946533203,0.8018491864204407
1.5766652822494507,6.368650436401367,0.7989116311073303
0.789945662021637,3.2914743423461914,0.4139414429664612
1.465064525604248,6.302882671356201,0.7946979999542236
1.4131009578704834,6.282531261444092,0.7941932082176208
1.3519998788833618,6.212266445159912,0.787326455116272
1.3182799816131592,6.26664924621582,0.7962846159934998
1.2608355283737183,6.210880279541016,0.7908483147621155
1.2061792612075806,6.166109561920166,0.7866693139076233
1.149374008178711,6.10958194732666,0.7810259461402893
1.1080068349838257,6.12477445602417,0.7845232486724854
1.0613681077957153,6.109107494354248,0.7840949296951294
1.0149375200271606,6.093100547790527,0.7836513519287109
0.961561381816864,6.034792900085449,0.7773025035858154
0.9134310483932495,6.010660648345947,0.7753044366836548
0.7315230965614319,5.054208755493164,0.6528829336166382
0.7157872915267944,5.201004981994629,0.6728391051292419
0.6735751032829285,5.159546375274658,0.6684889197349548
0.6433700919151306,5.210038661956787,0.6760848164558411
0.6031267046928406,5.183491230010986,0.6733071804046631
0.5677080154418945,5.2029290199279785,0.6764587759971619
0.5310280919075012,5.206652641296387,0.6775937676429749
0.4884887933731079,5.144522190093994,0.6701762080192566
0.36482304334640503,4.148218631744385,0.5409502387046814
0.33593833446502686,4.150540828704834,0.5418423414230347
0.307238906621933,4.164336204528809,0.543969452381134
0.2772935628890991,4.154725551605225,0.5429564714431763
0.24976159632205963,4.183568477630615,0.5469968914985657
0.40917760133743286,7.7630133628845215,1.015554666519165
0.3545139729976654,7.750070571899414,1.0144566297531128
0.2982352375984192,7.713555812835693,1.0103291273117065
0.2436605989933014,7.688282012939453,1.0072773694992065
0.18890060484409332,7.643302917480469,1.001400113105774
0.1348484307527542,7.601808547973633,0.9960278272628784
0.08184143155813217,7.594789981842041,0.9952203035354614
0.028007859364151955,7.579658508300781,0.9934008121490479
-0.02455047518014908,7.54091215133667,0.9885302782058716
-0.07686933875083923,7.525078296661377,0.9864164590835571
-0.1286623626947403,7.497321605682373,0.9823565483093262
-0.17979353666305542,7.457592487335205,0.9767785668373108
-0.23166204988956451,7.456227779388428,0.9762740731239319
-0.2841106057167053,7.446728706359863,0.9747477173805237
-0.3368688225746155,7.46785831451416,0.9772828221321106
-0.2817949950695038,5.411463737487793,0.7079318761825562
-0.3183267116546631,5.394032001495361,0.705031156539917
-0.3550826609134674,5.384088039398193,0.7031464576721191
-0.39128097891807556,5.358391284942627,0.6992312073707581
-0.4285305440425873,5.355655670166016,0.6983555555343628
-0.46273863315582275,5.317927837371826,0.6929540038108826
-0.43261289596557617,4.6011857986450195,0.5991601347923279
-0.4642516076564789,4.5982537269592285,0.597986102104187
-0.4952092170715332,4.583488941192627,0.595289409160614
-0.5258902311325073,4.572422981262207,0.5931179523468018
-0.5529300570487976,4.530356407165527,0.5869552493095398
-0.5844202041625977,4.526554107666016,0.5857831835746765
-0.6147903800010681,4.514859676361084,0.5836203694343567
-0.6452717781066895,4.502976417541504,0.5810779929161072
-0.672074556350708,4.471828460693359,0.5760566592216492
-0.7015384435653687,4.459656715393066,0.5735130310058594
-0.731147289276123,4.4472455978393555,0.5709604620933533
-0.7620682120323181,4.442253589630127,0.5693851709365845
-0.7874541282653809,4.4065327644348145,0.5639064311981201
-0.8139061331748962,4.378317832946777,0.5590692162513733
-0.8386742472648621,4.3462605476379395,0.5537253022193909
-0.729175865650177,3.6451077461242676,0.4633685350418091
-0.7536290287971497,3.6363816261291504,0.4612373411655426
-0.7797346711158752,3.6350481510162354,0.4600616693496704
-0.9608060717582703,4.329848289489746,0.5468026399612427
-0.992088794708252,4.3310322761535645,0.5454630255699158
-1.0179425477981567,4.309389591217041,0.5412207841873169
-1.0435911417007446,4.287581920623779,0.5369913578033447
-1.0714362859725952,4.273010730743408,0.5336728692054749
-1.0977919101715088,4.250598430633545,0.5293790102005005
-1.1254055500030518,4.2356414794921875,0.5260709524154663
-1.154099464416504,4.228248596191406,0.5233719944953918
-1.180651068687439,4.213189125061035,0.519751250743866
-1.1953001022338867,4.15693998336792,0.5110938549041748
-1.2335175275802612,4.178472995758057,0.5119573473930359
-1.262608289718628,4.170112133026123,0.5092003345489502
-1.2890434265136719,4.154239654541016,0.505452573299408
-1.3147222995758057,4.138415336608887,0.5014812350273132
-1.33540678024292,4.107680797576904,0.4957432448863983
-1.3640228509902954,4.098647594451904,0.49259042739868164
-1.3976211547851562,4.10409688949585,0.4911920130252838
-1.4262535572052002,4.094613075256348,0.4880230128765106
-1.4514625072479248,4.077908039093018,0.48376867175102234
-1.4709463119506836,4.046552658081055,0.4777287244796753
-1.4981783628463745,4.036954879760742,0.47429174184799194
-1.526755452156067,4.026658058166504,0.4706759750843048
-1.5519764423370361,4.009092330932617,0.4662785232067108
-1.5794461965560913,3.9987738132476807,0.46262645721435547
-1.5945543050765991,3.959735155105591,0.4554949700832367
-1.6269447803497314,3.9637744426727295,0.453345388174057
-1.6487548351287842,3.9383668899536133,0.4477221965789795
-1.671639323234558,3.9164867401123047,0.44255632162094116
-1.7033095359802246,3.9159839153289795,0.4397572875022888
-1.7356677055358887,3.919226884841919,0.4371475875377655
-1.7585593461990356,3.9009525775909424,0.4321519136428833
-1.7810039520263672,3.878417730331421,0.4265648126602173
-1.7949185371398926,3.8381764888763428,0.41908949613571167
-1.8146305084228516,3.8121633529663086,0.4131374657154083
-1.839941143989563,3.8005051612854004,0.4085747301578522
-1.8651444911956787,3.7886884212493896,0.40401703119277954
-1.8849353790283203,3.7620065212249756,0.3976917266845703
-1.9182711839675903,3.7630932331085205,0.394361287355423
-1.9436253309249878,3.7505736351013184,0.38945096731185913
-1.9792020320892334,3.7588372230529785,0.38659703731536865
-1.9897549152374268,3.718520402908325,0.37869855761528015
-2.0046560764312744,3.684487819671631,0.37134286761283875
-1.706596851348877,3.0851075649261475,0.30757826566696167
-1.715428113937378,3.0539004802703857,0.3010295331478119
-1.7316336631774902,3.036224842071533,0.29585832357406616
-0.8432489037513733,1.4549850225448608,0.14002223312854767
-0.8455213904380798,1.435842752456665,0.13643783330917358
-0.8670028448104858,1.4504860639572144,0.13594424724578857
-0.8804810643196106,1.4516819715499878,0.13419155776500702
-0.8824988603591919,1.432425618171692,0.1304170787334442
-0.8800588250160217,1.406663179397583,0.12609055638313293
-0.905872642993927,1.4274582862854004,0.12586432695388794
-0.8943819403648376,1.3887999057769775,0.12033247202634811
-0.8891837000846863,1.3598945140838623,0.11565006524324417
-0.8939401507377625,1.3476577997207642,0.11240195482969284
