X,Y,Z
1.3175307512283325,3.597790479660034,-0.06693923473358154
1.6139692068099976,4.316837310791016,-0.07973332703113556
1.6435540914535522,4.305675029754639,-0.07893536984920502
1.6706068515777588,4.2868828773498535,-0.07799465209245682
1.6976405382156372,4.267858982086182,-0.07702872157096863
1.7160004377365112,4.231037139892578,-0.07573062926530838
1.754833459854126,4.244693756103516,-0.07533948868513107
1.7872378826141357,4.239645004272461,-0.07459502667188644
1.8089604377746582,4.209190368652344,-0.07340658456087112
1.83469557762146,4.189526557922363,-0.07236669212579727
1.8626927137374878,4.1771697998046875,-0.07146050035953522
1.881354808807373,4.143089294433594,-0.07017863541841507
1.9166532754898071,4.144114017486572,-0.06948042660951614
1.9382721185684204,4.116800785064697,-0.06829119473695755
1.966098666191101,4.10360050201416,-0.06729859113693237
1.9866374731063843,4.0763397216796875,-0.06609093397855759
2.011448621749878,4.055452346801758,-0.06496334820985794
2.0393922328948975,4.041489124298096,-0.06394388526678085
2.062561273574829,4.0209527015686035,-0.06279406696557999
2.0819361209869385,3.9933600425720215,-0.06154108792543411
2.1173901557922363,3.9923853874206543,-0.06064732000231743
2.1374425888061523,3.963961124420166,-0.059346843510866165
2.163478136062622,3.9498281478881836,-0.05822040140628815
2.1894969940185547,3.935481548309326,-0.05709061771631241
2.216822385787964,3.9201717376708984,-0.05589961260557175
2.2382047176361084,3.8945107460021973,-0.054543789476156235
2.2558164596557617,3.86627459526062,-0.05316464230418205
2.2775821685791016,3.8444318771362305,-0.05186343938112259
2.3082900047302246,3.8352103233337402,-0.050692491233348846
2.329662561416626,3.8131308555603027,-0.0493343360722065
2.3548433780670166,3.7976481914520264,-0.04803531989455223
2.3766465187072754,3.7748301029205322,-0.04660859704017639
2.410691738128662,3.771752119064331,-0.04540666565299034
2.430659294128418,3.7496252059936523,-0.043962251394987106
2.447118043899536,3.720233678817749,-0.04239313676953316
2.481839418411255,3.7159807682037354,-0.04104089364409447
2.505507469177246,3.700080156326294,-0.0395597368478775
2.5211973190307617,3.6704838275909424,-0.03788454458117485
2.5507421493530273,3.6595568656921387,-0.03634116053581238
2.56475567817688,3.6306521892547607,-0.034608352929353714
2.5895841121673584,3.6130011081695557,-0.03286311402916908
2.5995683670043945,3.57690691947937,-0.030933095142245293
2.6359879970550537,3.579317092895508,-0.02930813655257225
2.589033842086792,3.651623249053955,0.046491023153066635
2.5472021102905273,3.652362585067749,0.04828660562634468
2.516695022583008,3.663951873779297,0.050069745630025864
2.484990358352661,3.676077127456665,0.05184095725417137
2.457047939300537,3.6947858333587646,0.053660452365875244
2.4311845302581787,3.7118303775787354,0.055336419492959976
2.3993983268737793,3.7231414318084717,0.05690586194396019
2.3629324436187744,3.7278804779052734,0.058348506689071655
2.3406684398651123,3.751086473464966,0.059996627271175385
2.3174567222595215,3.774616241455078,0.06162470206618309
2.293198823928833,3.7985055446624756,0.06325934827327728
2.2783467769622803,3.83469295501709,0.06503871083259583
2.2551021575927734,3.8574352264404297,0.06658251583576202
2.2296946048736572,3.8811635971069336,0.06815079599618912
2.211040496826172,3.914240598678589,0.06984615325927734
2.198948860168457,3.9568076133728027,0.07167874276638031
2.1778037548065186,3.9862723350524902,0.07326383143663406
2.190769672393799,4.08138370513916,0.07606957852840424
2.1793930530548096,4.131654262542725,0.07805108278989792
2.1506073474884033,4.146686553955078,0.07933865487575531
2.1328721046447754,4.186519145965576,0.08107955008745193
2.109055519104004,4.216018199920654,0.08262618631124496
2.08255934715271,4.237850189208984,0.08399776369333267
2.05928635597229,4.266537189483643,0.08551313728094101
2.0217580795288086,4.2671427726745605,0.08641541749238968
2.000422477722168,4.303018093109131,0.08802229911088943
1.966432809829712,4.310049057006836,0.08902633190155029
1.9395910501480103,4.3307318687438965,0.09029550850391388
1.9151244163513184,4.3586530685424805,0.09169905632734299
1.8875298500061035,4.3834099769592285,0.09302560240030289
1.8557876348495483,4.3969197273254395,0.09410379081964493
1.8251125812530518,4.409718036651611,0.09514263272285461
1.797286033630371,4.429541110992432,0.09633889049291611
1.7709983587265015,4.4569091796875,0.09764717519283295
1.7353037595748901,4.462525844573975,0.09849471598863602
1.7064063549041748,4.481993198394775,0.09962605684995651
1.680683970451355,4.508356094360352,0.10090498626232147
1.315696358680725,3.6064858436584473,0.08125809580087662
1.2897194623947144,3.6158406734466553,0.0819680318236351
1.2748054265975952,3.658351182937622,0.0834469199180603
1.570212483406067,4.609858989715576,0.10577549040317535
1.5504181385040283,4.657711982727051,0.10750225931406021
1.5247924327850342,4.690789222717285,0.10886705666780472
1.5206232070922852,4.794650077819824,0.1118549332022667
1.491365671157837,4.824253082275391,0.11313977092504501
1.454284906387329,4.823305606842041,0.11368882656097412
1.4163169860839844,4.818292617797852,0.1141422763466835
1.3866877555847168,4.843135833740234,0.11527176201343536
1.3657331466674805,4.901790618896484,0.11717510968446732
1.3011177778244019,4.802080154418945,0.11529240757226944
1.2728426456451416,4.833868026733398,0.11656306684017181
1.2449320554733276,4.865303993225098,0.11782468855381012
1.2126802206039429,4.881474494934082,0.11869540810585022
1.1797521114349365,4.897555828094482,0.1195094957947731
1.1457232236862183,4.909622669219971,0.12023323029279709
1.1157464981079102,4.940530300140381,0.12142851948738098
1.0880229473114014,4.978677272796631,0.12280046939849854
1.0549381971359253,4.993759632110596,0.12360672652721405
1.0195331573486328,5.001094818115234,0.12413936853408813
0.988594651222229,5.03117036819458,0.1252443492412567
0.9872690439224243,5.222305774688721,0.13038502633571625
0.9495417475700378,5.2213454246521,0.13073691725730896
0.9024680256843567,5.166257381439209,0.12973478436470032
0.8738946914672852,5.218675136566162,0.1313677579164505
1.181750774383545,7.376274108886719,0.18609246611595154
0.8118972182273865,5.311629295349121,0.13431282341480255
1.5597444772720337,10.703866958618164,0.27127981185913086
1.4660027027130127,10.575179100036621,0.268636018037796
1.384527325630188,10.527054786682129,0.2679953873157501
1.2888036966323853,10.362129211425781,0.2642330527305603
1.200470209121704,10.239049911499023,0.2615377902984619
1.1094348430633545,10.084312438964844,0.25804078578948975
1.0320054292678833,10.021855354309082,0.25689607858657837
0.9623101353645325,10.028770446777344,0.25753822922706604
0.3834557831287384,4.313600540161133,0.11091692745685577
0.3477626442909241,4.250017166137695,0.10940302163362503
0.31801244616508484,4.260173797607422,0.10979323089122772
0.2893725335597992,4.277865886688232,0.11038074642419815
0.26082199811935425,4.299257755279541,0.11106979846954346
0.23260025680065155,4.332157135009766,0.11205317825078964
0.20198579132556915,4.325871467590332,0.11195069551467896
0.07951484620571136,2.0094730854034424,0.05203484743833542
0.14075878262519836,4.32047700881958,0.11194871366024017
0.10921962559223175,4.26279354095459,0.1105290874838829
0.07924925535917282,4.247831344604492,0.11022129654884338
0.022383389994502068,1.9132871627807617,0.049663711339235306
0.00911111943423748,1.9719709157943726,0.05118672549724579
-0.0047433688305318356,2.018845558166504,0.05240575969219208
-0.03852923959493637,4.142956256866455,0.10755394399166107
-0.06666453927755356,4.099638938903809,0.10644437372684479
-0.09443072974681854,4.067845821380615,0.10563883185386658
-0.058756086975336075,1.9476768970489502,0.05055854469537735
-0.07193192094564438,1.931605339050293,0.05011642351746559
-0.16376179456710815,3.7060763835906982,0.09611359983682632
-0.18411515653133392,3.599555253982544,0.09331439435482025
-0.20480933785438538,3.524122476577759,0.09132733941078186
-0.2307780683040619,3.5459988117218018,0.09185096621513367
-0.25824859738349915,3.5793447494506836,0.0926104485988617
-0.28728029131889343,3.6319780349731445,0.0938728079199791
-0.3053681552410126,3.5482053756713867,0.09161458164453506
-0.3314937651157379,3.561551809310913,0.09186960756778717
-0.3492290675640106,3.4892265796661377,0.08992059528827667
-0.37169888615608215,3.467273473739624,0.0892348438501358
-0.39294740557670593,3.4413537979125977,0.08842743188142776
-0.4119442105293274,3.3998045921325684,0.0872252881526947
-0.43250393867492676,3.3736350536346436,0.08642358332872391
-0.451215535402298,3.3357269763946533,0.0853271633386612
-0.47478988766670227,3.332458734512329,0.0851190984249115
-0.4895641803741455,3.275059461593628,0.08347437530755997
-0.5132342576980591,3.279345750808716,0.08340834826231003
-0.5344651341438293,3.268045663833618,0.08294982463121414
-0.5585051774978638,3.2719533443450928,0.08287889510393143
-0.5778073072433472,3.24877667427063,0.08212673664093018
-0.6098702549934387,3.294560194015503,0.08308304846286774
-0.6279683113098145,3.267310857772827,0.0821675956249237
-0.6549124717712402,3.2859201431274414,0.08240896463394165
-0.6672921776771545,3.231616497039795,0.08082589507102966
-0.6848479509353638,3.2039942741394043,0.07991719245910645
-0.6880609393119812,3.111388683319092,0.0773932933807373
-0.7110101580619812,3.114245891571045,0.07719937711954117
-0.725050151348114,3.0789294242858887,0.07606503367424011
-0.7248825430870056,2.9866302013397217,0.07353558391332626
-0.6982558965682983,2.792104482650757,0.06851151585578918
-0.7052940726280212,2.737949848175049,0.06695154309272766
-0.7260199785232544,2.740616798400879,0.06675519794225693
-0.7466520667076111,2.7431728839874268,0.0665409192442894
-0.7684032320976257,2.749335527420044,0.06641530990600586
-0.7917479276657104,2.7589690685272217,0.06636816263198853
-0.9050658345222473,3.0717179775238037,0.07357578724622726
-0.95554119348526,3.1626274585723877,0.07541092485189438
-0.9769466519355774,3.1560935974121094,0.074882373213768
-1.02541983127594,3.235045909881592,0.07637597620487213
-1.0597686767578125,3.2650532722473145,0.07669571787118912
-1.0828120708465576,3.257497549057007,0.07612300664186478
-1.0951553583145142,3.220399856567383,0.07485605776309967
-1.1322230100631714,3.257225275039673,0.07527023553848267
-1.1541510820388794,3.2495343685150146,0.07465311139822006
-1.1844358444213867,3.2635717391967773,0.07452724874019623
-1.212531328201294,3.269918441772461,0.07421870529651642
-1.2506117820739746,3.3015379905700684,0.07445304095745087
-1.2840253114700317,3.32222056388855,0.07440679520368576
-1.324906826019287,3.36077880859375,0.07475310564041138
-1.3596922159194946,3.380572557449341,0.07465966045856476
-1.3594022989273071,3.313260555267334,0.07264681905508041
-2.336544990539551,5.584356784820557,0.12149529904127121
-2.376847267150879,5.575842380523682,0.1203392893075943
-2.406252384185791,5.541962146759033,0.11864305287599564
-2.455845594406128,5.550102233886719,0.11780928075313568
-2.5008528232574463,5.547138214111328,0.11673837155103683
-2.5353829860687256,5.522878170013428,0.11512923240661621
-2.550635814666748,5.459892272949219,0.11273739486932755
-2.5943679809570312,5.456581115722656,0.11156826466321945
-2.604969024658203,5.382218360900879,0.10893578827381134
-2.651867389678955,5.385429859161377,0.10786016285419464
-2.684523820877075,5.360522270202637,0.1061679944396019
-2.360394239425659,4.636033058166504,0.0907953679561615
-2.415966749191284,4.664599418640137,0.09027361869812012
-2.4353296756744385,4.623668670654297,0.08839396387338638
-2.4583499431610107,4.593786239624023,0.08668191730976105
-2.466158866882324,4.536349773406982,0.08446740359067917
-2.486826181411743,4.4983229637146,0.08255068957805634
-2.5081875324249268,4.46408748626709,0.08072973042726517
-2.5257320404052734,4.427252292633057,0.07883197069168091
-1.2294174432754517,2.1224915981292725,0.03719766065478325
-2.573399066925049,4.372600555419922,0.07533003389835358
-2.587442398071289,4.327968597412109,0.0732300877571106
-1.2681934833526611,2.0904624462127686,0.0347243994474411
-2.4801926612854004,4.027613639831543,0.06561329960823059
-2.4398019313812256,3.9010088443756104,0.062238357961177826
-2.369047164916992,3.7332558631896973,0.05826643481850624
-2.3532869815826416,3.6552767753601074,0.05574054643511772
-2.365717649459839,3.619302988052368,0.05381328612565994
-2.3790335655212402,3.58717679977417,0.05194304510951042
-2.397455930709839,3.5655035972595215,0.050222914665937424
-2.4128799438476562,3.53620982170105,0.04830656200647354
-2.432380437850952,3.5133512020111084,0.046421848237514496
-2.4409594535827637,3.478827953338623,0.04440750554203987
-2.5395491123199463,3.5670149326324463,0.04377404972910881
-2.601546049118042,3.6042978763580322,0.04240529611706734
-2.6383063793182373,3.6065807342529297,0.04053853452205658
-2.6396853923797607,3.5570709705352783,0.03792782500386238
-2.520012617111206,3.5520923137664795,-0.04778565466403961
-2.441061496734619,3.497764825820923,-0.04915683716535568
-2.5781409740448,3.749640703201294,-0.05471264198422432
-2.733264446258545,4.040946960449219,-0.061155255883932114
-2.703382968902588,4.060961723327637,-0.06352748721837997
-2.687746047973633,4.099344730377197,-0.06608368456363678
-2.669405937194824,4.139188289642334,-0.06866145879030228
-2.662351608276367,4.194669723510742,-0.07145018130540848
-2.6323184967041016,4.213545322418213,-0.07359368354082108
-1.2553529739379883,2.043344497680664,-0.0365387424826622
-1.2364418506622314,2.0457029342651367,-0.037399668246507645
-2.544231414794922,4.276293754577637,-0.07980798184871674
-1.234686017036438,2.1103293895721436,-0.04016926884651184
-2.484377384185791,4.320281505584717,-0.08384688198566437
-2.4581005573272705,4.3442277908325195,-0.08580746501684189
-2.430882453918457,4.36842155456543,-0.08777038007974625
-2.3911187648773193,4.372478008270264,-0.08931823819875717
-2.3671746253967285,4.403196334838867,-0.09137217700481415
-2.3468830585479736,4.440530300140381,-0.09356468170881271
-2.307490825653076,4.443495273590088,-0.0949830561876297
-2.278468608856201,4.467180252075195,-0.09683600068092346
-2.259125232696533,4.507558345794678,-0.09901785105466843
-2.2276551723480225,4.523157596588135,-0.10065064579248428
-2.2010092735290527,4.553504467010498,-0.10258861631155014
-2.1777758598327637,4.590574741363525,-0.1046653464436531
-2.145432710647583,4.605744361877441,-0.10620938986539841
-2.12306547164917,4.641841411590576,-0.10823435336351395
-2.0927670001983643,4.664107322692871,-0.10990142822265625
-2.0698904991149902,4.704151153564453,-0.11199124902486801
-2.0158519744873047,4.6722822189331055,-0.1123613491654396
-1.9681049585342407,4.650183200836182,-0.11291329562664032
-1.940977931022644,4.6784539222717285,-0.11464682221412659
-1.9071792364120483,4.692300319671631,-0.1160065084695816
-1.8765031099319458,4.713027000427246,-0.1175338551402092
-1.8430501222610474,4.726175308227539,-0.11887192726135254
-1.8098540306091309,4.738954067230225,-0.12017412483692169
-2.0846292972564697,5.578550338745117,-0.1425432562828064
-2.0525074005126953,5.615364074707031,-0.14456942677497864
-1.4332516193389893,4.007986068725586,-0.1039428561925888
-1.3881285190582275,3.9700698852539062,-0.10371655225753784
-1.3448576927185059,3.9354217052459717,-0.1035066545009613
-1.3006267547607422,3.896754026412964,-0.10315503180027008
-1.2583562135696411,3.8613293170928955,-0.10287559777498245
-0.9768623113632202,3.069931745529175,-0.08230478316545486
-0.9713112711906433,3.128962993621826,-0.08442189544439316
-0.949017345905304,3.1357789039611816,-0.08507782220840454
-0.8139597177505493,2.7604167461395264,-0.07530810683965683
-0.7825910449028015,2.724794864654541,-0.07474292814731598
-0.7667673230171204,2.741440773010254,-0.07560477405786514
-0.7445607781410217,2.735401153564453,-0.07583978027105331
-0.7267616391181946,2.74824857711792,-0.07655605673789978
-0.7140097618103027,2.7798054218292236,-0.07779575139284134
-0.6821696758270264,2.735487699508667,-0.07690897583961487
-0.9992661476135254,4.129209041595459,-0.11662594974040985
-0.9704294204711914,4.13606071472168,-0.11734218150377274
-1.4384818077087402,6.336260795593262,-0.18045559525489807
-1.3935481309890747,6.346266746520996,-0.18142837285995483
-1.3425109386444092,6.3253021240234375,-0.18151450157165527
-1.2921724319458008,6.303865432739258,-0.18158413469791412
-1.2452119588851929,6.297362327575684,-0.1820725053548813
-1.1919080018997192,6.263928413391113,-0.1816767007112503
-1.1392326354980469,6.226070404052734,-0.18114370107650757
-1.0671004056930542,6.07237434387207,-0.17722757160663605
-0.958017885684967,5.683040618896484,-0.16638591885566711
-0.9526703357696533,5.901557922363281,-0.1733328104019165
-0.9365527033805847,6.078007698059082,-0.17894969880580902
-0.8948551416397095,6.092161178588867,-0.17980001866817474
-0.858575165271759,6.1446757316589355,-0.18179357051849365
-0.8178340196609497,6.1659674644470215,-0.18287326395511627
-0.7627314925193787,6.074639797210693,-0.1806156188249588
-0.7127789855003357,6.017783164978027,-0.17927320301532745
-0.6615744233131409,5.948975563049316,-0.17755286395549774
-4.560782432556152,43.81017303466797,-1.3100035190582275
-0.5734243392944336,5.907095432281494,-0.17696787416934967
-0.5236006379127502,5.813704967498779,-0.1745072901248932
-0.48363417387008667,5.824990749359131,-0.17511332035064697
-0.2761404514312744,3.6402411460876465,-0.10956653207540512
-0.24179023504257202,3.513536214828491,-0.10588330775499344
-0.21781910955905914,3.5229222774505615,-0.10630108416080475
-0.20402726531028748,3.719275712966919,-0.1123734563589096
-0.1827901005744934,3.818101406097412,-0.11549142748117447
-0.15840747952461243,3.885619878768921,-0.11759626120328903
-0.1321035772562027,3.9100403785705566,-0.11840293556451797
-0.10487540066242218,3.910862445831299,-0.11850106716156006
-0.07895945757627487,3.9778573513031006,-0.12061135470867157
-0.05201498791575432,4.036870002746582,-0.12248804420232773
-0.023483730852603912,4.044945240020752,-0.12273246049880981
0.004771709442138672,4.107481956481934,-0.12462785094976425
0.03389034420251846,4.173722743988037,-0.12664170563220978
0.06277374178171158,4.165578842163086,-0.12640467286109924
0.09270983189344406,4.211884498596191,-0.12782618403434753
0.1220584362745285,4.2150444984436035,-0.1278839409351349
0.19523660838603973,5.419776439666748,-0.16433876752853394
0.2302646040916443,5.359785079956055,-0.16243377327919006
0.26710012555122375,5.3502607345581055,-0.16206689178943634
0.24305160343647003,4.2723870277404785,-0.12936030328273773
0.2711952030658722,4.247223377227783,-0.12851855158805847
0.30051377415657043,4.237427234649658,-0.1280590146780014
0.3279874324798584,4.2118988037109375,-0.12713412940502167
0.3598214387893677,4.240654468536377,-0.12785322964191437
0.47291186451911926,5.147874355316162,-0.1550312489271164
0.5095018148422241,5.1522369384765625,-0.1549956351518631
0.5423769950866699,5.1174821853637695,-0.15367282927036285
0.5759680271148682,5.098104476928711,-0.15281924605369568
0.6088986992835999,5.0746259689331055,-0.15185150504112244
0.6441316604614258,5.070285797119141,-0.15146371722221375
0.6741899847984314,5.02699613571167,-0.14992131292819977
0.7072645425796509,5.006690502166748,-0.14898113906383514
0.7388525605201721,4.9824066162109375,-0.14789354801177979
0.770738959312439,4.9617838859558105,-0.1469241827726364
0.8026459217071533,4.940915107727051,-0.145953968167305
0.8343003988265991,4.9198431968688965,-0.14498694241046906
0.865562379360199,4.898596286773682,-0.14397312700748444
0.8955207467079163,4.86940860748291,-0.14265906810760498
0.9266602993011475,4.8516716957092285,-0.14169925451278687
0.9602229595184326,4.845159530639648,-0.14107045531272888
0.98758465051651,4.807789325714111,-0.1395510584115982
1.0159701108932495,4.77794075012207,-0.13823650777339935
1.0475341081619263,4.7631449699401855,-0.1372797191143036
1.0766253471374512,4.740659236907959,-0.13611966371536255
1.1084226369857788,4.729336261749268,-0.13528399169445038
1.135777473449707,4.6987624168396,-0.13390310108661652
1.1645642518997192,4.675637245178223,-0.13273021578788757
1.1951122283935547,4.659884452819824,-0.1316729187965393
1.222902536392212,4.63654088973999,-0.13042163848876953
1.2507095336914062,4.612959384918213,-0.12916843593120575
1.278567910194397,4.589127063751221,-0.12791234254837036
1.3103618621826172,4.580173015594482,-0.12706540524959564
1.338679552078247,4.559795379638672,-0.12580427527427673
1.3629021644592285,4.528177738189697,-0.12425506114959717
1.3894399404525757,4.503787517547607,-0.12290719896554947
1.4184021949768066,4.48658561706543,-0.12175729870796204
1.4470210075378418,4.469254970550537,-0.12059449404478073
1.4704880714416504,4.436940670013428,-0.11896086484193802
1.5005543231964111,4.426889896392822,-0.11794719099998474
1.516956090927124,4.375885963439941,-0.11584307253360748
1.279872179031372,3.6107301712036133,-0.09496863931417465
1.2993077039718628,3.587196111679077,-0.09370613098144531
1.33158540725708,3.600356101989746,-0.09336390346288681
1.6253331899642944,4.303533554077148,-0.1107640489935875
1.649510145187378,4.277616500854492,-0.10926064103841782
1.6878117322921753,4.287868499755859,-0.10868203639984131
1.7037681341171265,4.2437334060668945,-0.10667361319065094
1.7366868257522583,4.243060111999512,-0.10574908554553986
1.7660152912139893,4.230967998504639,-0.10451533645391464
1.793860912322998,4.215023994445801,-0.10318807512521744
1.8135792016983032,4.181078910827637,-0.10141578316688538
1.838375210762024,4.16172981262207,-0.09996436536312103
1.8726361989974976,4.163591384887695,-0.09902416169643402
1.8986104726791382,4.143252849578857,-0.09751073271036148
1.9273560047149658,4.129990577697754,-0.09618240594863892
1.9482853412628174,4.102904319763184,-0.09447813034057617
1.9687564373016357,4.07581090927124,-0.09277714043855667
1.9999847412109375,4.069315433502197,-0.09152323752641678
2.0251858234405518,4.04813289642334,-0.08990518003702164
2.0524017810821533,4.034434795379639,-0.08844266086816788
2.0683095455169678,3.9999725818634033,-0.08651875704526901
2.095404863357544,3.9858779907226562,-0.0850164145231247
2.119398832321167,3.9643490314483643,-0.08333148807287216
2.1534807682037354,3.9637601375579834,-0.08205904811620712
2.1725046634674072,3.9355628490448,-0.08017978817224503
2.1820223331451416,3.8900725841522217,-0.07795040309429169
2.212897777557373,3.8816189765930176,-0.07644496113061905
2.2502784729003906,3.887202262878418,-0.0751798152923584
2.251962184906006,3.83199405670166,-0.0727415382862091
2.290792465209961,3.8362622261047363,-0.0713464543223381
2.3130013942718506,3.813812255859375,-0.0694579929113388
2.3214035034179688,3.772094964981079,-0.0672125443816185
2.3588836193084717,3.7764623165130615,-0.06575964391231537
2.385028600692749,3.7600371837615967,-0.06387510895729065
2.401515245437622,3.730994462966919,-0.06172950565814972
2.438453435897827,3.735008716583252,-0.06014327332377434
2.4686362743377686,3.724536657333374,-0.058196600526571274
2.484391450881958,3.6952662467956543,-0.05593979358673096
2.512381076812744,3.6857824325561523,-0.053974080830812454
2.525094747543335,3.6486518383026123,-0.051416851580142975
2.55774188041687,3.644974708557129,-0.04936304688453674
2.5767645835876465,3.6219992637634277,-0.04699746146798134
2.6017539501190186,3.604121685028076,-0.04455236345529556
2.619544506072998,3.5815675258636475,-0.042047638446092606
2.2106645107269287,2.980424642562866,-0.03298002481460571
2.5653035640716553,3.591585159301758,0.060679152607917786
2.5516769886016846,3.629915714263916,0.06374487280845642
2.5066909790039062,3.6231470108032227,0.06592094898223877
2.4899210929870605,3.6535685062408447,0.06861025094985962
2.4575161933898926,3.6659960746765137,0.07095236331224442
2.448268413543701,3.709628105163574,0.07378672063350677
2.417081594467163,3.72066593170166,0.07594374567270279
2.401482343673706,3.7585461139678955,0.07860095798969269
2.3744804859161377,3.7756173610687256,0.08073847740888596
2.3827507495880127,3.8486721515655518,0.08404790610074997
2.361884355545044,3.879767417907715,0.08644362539052963
2.375194549560547,3.967487096786499,0.09011848270893097
2.367335557937622,4.017533302307129,0.09288278967142105
2.343630790710449,4.044908046722412,0.09510833024978638
2.3114984035491943,4.058815002441406,0.09701502323150635
2.2830119132995605,4.0748610496521,0.09888236969709396
2.259467363357544,4.101299285888672,0.10101654380559921
2.2290751934051514,4.1178507804870605,0.10284611582756042
2.198878049850464,4.13400936126709,0.10465671867132187
2.184515953063965,4.176861763000488,0.10708923637866974
2.1513593196868896,4.185211658477783,0.10862967371940613
2.1305654048919678,4.222052574157715,0.11089916527271271
2.0997819900512695,4.237401962280273,0.11258185654878616
2.0702006816864014,4.251889705657959,0.1141931414604187
2.046952724456787,4.280407905578613,0.11617645621299744
2.008918523788452,4.28109884262085,0.11735643446445465
1.9775490760803223,4.2956366539001465,0.11891723424196243
1.9566855430603027,4.3308610916137695,0.12102695554494858
1.9233633279800415,4.337178707122803,0.12231636047363281
1.8997327089309692,4.368839263916016,0.12426434457302094
1.877108097076416,4.404046535491943,0.12632346153259277
1.845824956893921,4.417208671569824,0.12773612141609192
1.8426415920257568,4.498775482177734,0.13114698231220245
1.8195854425430298,4.533365249633789,0.13315536081790924
1.8010399341583252,4.582706928253174,0.13555246591567993
1.7734637260437012,4.6101484298706055,0.1373193860054016
1.7384910583496094,4.615067005157471,0.1383906751871109
1.3370361328125,3.627048969268799,0.10950292646884918
1.3019055128097534,3.6107356548309326,0.10968594998121262
1.2758592367172241,3.61999249458313,0.11062537133693695
1.617292046546936,4.695956230163574,0.14436021447181702
1.5945279598236084,4.736669063568115,0.14645016193389893
1.5841093063354492,4.818281650543213,0.14984449744224548
1.5568486452102661,4.851733684539795,0.1516626477241516
1.5196222066879272,4.855305194854736,0.1525377482175827
1.4940381050109863,4.895871162414551,0.154581680893898
1.4376963376998901,4.831259250640869,0.15328527987003326
1.4105600118637085,4.863614559173584,0.15506581962108612
1.3817851543426514,4.896181583404541,0.15679268538951874
1.344717264175415,4.8983635902404785,0.15751869976520538
1.2846232652664185,4.813478469848633,0.15543748438358307
1.2549779415130615,4.837399005889893,0.1568526178598404
1.227014422416687,4.868699550628662,0.15851886570453644
1.1957374811172485,4.892524719238281,0.1598966270685196
1.1653577089309692,4.919886112213135,0.1613433063030243
1.133821964263916,4.943246364593506,0.16267003118991852
1.1009254455566406,4.958648204803467,0.16373592615127563
1.0713809728622437,4.98905086517334,0.1653047502040863
1.0374975204467773,5.00415563583374,0.1663510501384735
1.0051313638687134,5.026660442352295,0.16755151748657227
0.9650668501853943,5.010629653930664,0.16747578978538513
2.1278767585754395,11.481742858886719,0.38482555747032166
2.022003650665283,11.350146293640137,0.38146573305130005
1.9145915508270264,11.206350326538086,0.37770652770996094
1.8066506385803223,11.042279243469238,0.3729814291000366
1.7008579969406128,10.877293586730957,0.36818090081214905
1.604502558708191,10.757695198059082,0.364911824464798
1.5135929584503174,10.656481742858887,0.36225688457489014
1.4172070026397705,10.512136459350586,0.3581468164920807
1.3348435163497925,10.452037811279297,0.35680267214775085
1.237446665763855,10.263466835021973,0.35091057419776917
1.1505913734436035,10.143889427185059,0.34737807512283325
1.0733065605163574,10.093441009521484,0.3462165892124176
0.9992063045501709,10.061786651611328,0.34570708870887756
0.3905492126941681,4.237353801727295,0.14584249258041382
0.36485612392425537,4.2866530418396,0.147700697183609
0.3317544460296631,4.25017786026001,0.1465824842453003
0.302500456571579,4.26017951965332,0.1470734179019928
0.27383214235305786,4.277758598327637,0.14783290028572083
0.2469073086977005,4.338044166564941,0.15008072555065155
0.21715877950191498,4.347445487976074,0.1505596935749054
0.08493942022323608,1.9774599075317383,0.06851059943437576
0.15180180966854095,4.2213006019592285,0.14631633460521698
0.12259320914745331,4.230057239532471,0.1466931700706482
0.09601288288831711,4.383029937744141,0.1520826369524002
0.06273756921291351,4.196221828460693,0.14568740129470825
0.015228589065372944,1.9050406217575073,0.06616061180830002
0.002112662885338068,2.045640707015991,0.07103962451219559
-0.05342189222574234,4.1065521240234375,0.1426146775484085
-0.08087413012981415,4.051437854766846,0.1407134085893631
-0.11149046570062637,4.140534400939941,0.1438279002904892
-0.06647112965583801,1.962536334991455,0.06814376264810562
-0.1681099236011505,4.11909294128418,0.1429460346698761
-0.19200630486011505,4.020346164703369,0.13944941759109497
-0.19498807191848755,3.5550239086151123,0.12325240671634674
-0.21925288438796997,3.545790433883667,0.1228824108839035
-0.24392329156398773,3.544182538986206,0.12277466058731079
-0.4766530692577362,6.290713787078857,0.21766702830791473
-0.52854984998703,6.38843297958374,0.2208036333322525
-0.5776981115341187,6.43122673034668,0.22204285860061646
-0.33640435338020325,3.4738810062408447,0.11981608718633652
-0.3685730993747711,3.549130916595459,0.12229251861572266
-0.395254909992218,3.5659070014953613,0.12271705269813538
-0.413829505443573,3.512711763381958,0.12068497389554977
-0.43213018774986267,3.4593770503997803,0.11865599453449249
-0.4447762668132782,3.3711702823638916,0.11544684320688248
-0.47247883677482605,3.39894437789917,0.11621701717376709
-0.48083576560020447,3.2912893295288086,0.11236594617366791
-0.49577662348747253,3.2377490997314453,0.11030832678079605
-0.5208464860916138,3.2496399879455566,0.11046453565359116
-0.541832447052002,3.2383029460906982,0.10984024405479431
-0.5602522492408752,3.2114036083221436,0.10869292914867401
-0.5783864259719849,3.184394121170044,0.10754983872175217
-0.5938911437988281,3.145801544189453,0.10600661486387253
-0.6153997778892517,3.141679286956787,0.10556629300117493
-0.634128212928772,3.1220338344573975,0.10460588335990906
-0.6491351127624512,3.0870535373687744,0.10314466804265976
-0.6722806096076965,3.090101957321167,0.10295719653367996
-0.6971835494041443,3.100602149963379,0.10302126407623291
-0.725476861000061,3.1261932849884033,0.10352832823991776
-0.7398764491081238,3.0907270908355713,0.10199113935232162
-0.6908186674118042,2.801326274871826,0.09212145954370499
-0.7025226354598999,2.7662150859832764,0.09064922481775284
-0.7236974239349365,2.7688381671905518,0.09041967242956161
-0.7356623411178589,2.7374093532562256,0.0890616625547409
-0.7545626759529114,2.7322776317596436,0.08851791173219681
-0.7826645374298096,2.760920524597168,0.08907485753297806
-0.8223230838775635,2.8267300128936768,0.0908164530992508
-0.9323886036872864,3.1240153312683105,0.09994392096996307
-0.9563053846359253,3.124964952468872,0.09954708069562912
-0.9824346899986267,3.1332433223724365,0.09930507093667984
-1.0143290758132935,3.160012722015381,0.09965447336435318
-1.0431705713272095,3.175300359725952,0.09963300079107285
-1.0726895332336426,3.190199375152588,0.09958718717098236
-1.106276035308838,3.2159171104431152,0.09987501800060272
-1.1331335306167603,3.223137140274048,0.0995238646864891
-1.1657689809799194,3.2447147369384766,0.09959890693426132
-2.0648069381713867,5.626742362976074,0.17170502245426178
-2.0984811782836914,5.597638130187988,0.1697864979505539
-2.1248221397399902,5.55012321472168,0.16732776165008545
-2.156381607055664,5.521221160888672,0.16531683504581451
-2.199796199798584,5.520932197570801,0.16414575278759003
-2.262326240539551,5.567371845245361,0.16435843706130981
-2.3294122219085693,5.620083808898926,0.16471104323863983
-2.359144926071167,5.582291126251221,0.16238896548748016
-2.3932886123657227,5.5592875480651855,0.1604084074497223
-2.4310238361358643,5.542942523956299,0.15860562026500702
-2.5008108615875244,5.597509384155273,0.15881121158599854
-2.533128261566162,5.565854549407959,0.15654699504375458
-2.560955047607422,5.527347087860107,0.1540539264678955
-2.590874195098877,5.496176242828369,0.15173202753067017
-2.6027395725250244,5.425726413726807,0.14831745624542236
-2.6369752883911133,5.400534152984619,0.1461256593465805
-2.677805185317993,5.389183044433594,0.1443089246749878
-2.3453800678253174,4.642907619476318,0.12294688075780869
-2.388486385345459,4.651677131652832,0.12179557234048843
-2.4203615188598633,4.635220527648926,0.1199277862906456
-2.4512195587158203,4.614604473114014,0.11791716516017914
-2.4780402183532715,4.591432571411133,0.11581943184137344
-2.508105754852295,4.575126647949219,0.11389341950416565
-2.5316359996795654,4.5443243980407715,0.11155670136213303
-2.5362627506256104,4.479066371917725,0.1083681508898735
-1.2149888277053833,2.1125049591064453,0.05031304806470871
-1.2248096466064453,2.0978095531463623,0.04917287454009056
-2.5879275798797607,4.363509654998779,0.10054382681846619
-1.2536484003067017,2.08075213432312,0.04709848389029503
-2.493501901626587,4.07855224609375,0.0906212255358696
-2.506195306777954,4.038671016693115,0.0879991203546524
-2.5299694538116455,4.014638423919678,0.0856681540608406
-2.5440220832824707,3.97800612449646,0.08305572718381882
-2.552431583404541,3.9354710578918457,0.08032241463661194
-2.4975719451904297,3.7940735816955566,0.07553078234195709
-2.473968267440796,3.7019801139831543,0.07173112779855728
-2.4252192974090576,3.5794732570648193,0.06744248420000076
-2.4337100982666016,3.5406219959259033,0.06470061838626862
-2.4532365798950195,3.517644166946411,0.06218775361776352
-2.484293222427368,3.5149712562561035,0.06001284345984459
-2.6289877891540527,3.666116714477539,0.06014888733625412
-2.6413826942443848,3.6331229209899902,0.057131316512823105
-2.6362619400024414,3.578831672668457,0.053768374025821686
-2.931650400161743,4.102718830108643,-0.06827066093683243
-2.4595069885253906,3.494194269180298,-0.06083153188228607
-2.4369866847991943,3.519390344619751,-0.06394810229539871
-2.7907156944274902,4.091381072998047,-0.07716201990842819
-2.7733519077301025,4.131365776062012,-0.08070443570613861
-2.787658214569092,4.220316410064697,-0.08519775420427322
-2.729987144470215,4.197348117828369,-0.0873178020119667
-2.7069551944732666,4.2307353019714355,-0.09053494036197662
-2.7028958797454834,4.293384075164795,-0.09434989094734192
-2.7202672958374023,4.38838529586792,-0.09882095456123352
-1.2564222812652588,2.0607872009277344,-0.047507911920547485
-2.636493444442749,4.398160934448242,-0.10373125970363617
-2.6971161365509033,4.571063041687012,-0.11005212366580963
-2.628676652908325,4.529600143432617,-0.1112327054142952
-2.529296398162842,4.433526515960693,-0.11097262799739838
-2.511340856552124,4.475034236907959,-0.11402071267366409
-2.498117685317993,4.527021408081055,-0.11737333238124847
-2.468407154083252,4.5521135330200195,-0.11997858434915543
-2.4535787105560303,4.60435676574707,-0.12329881638288498
-2.425194501876831,4.628127574920654,-0.12578994035720825
-2.3922927379608154,4.645157337188721,-0.12807893753051758
-2.3595070838928223,4.666208267211914,-0.13048474490642548
-2.3399415016174316,4.710895538330078,-0.13350529968738556
-2.3139002323150635,4.741065979003906,-0.1360902488231659
-2.290093183517456,4.778542518615723,-0.13886258006095886
-2.2551956176757812,4.795048713684082,-0.1410086750984192
-2.2323355674743652,4.835793495178223,-0.14385010302066803
-2.2076802253723145,4.872768878936768,-0.14658887684345245
-2.1825504302978516,4.909665584564209,-0.14927589893341064
-2.1469075679779053,4.925294399261475,-0.1512884795665741
-2.123840570449829,4.969212055206299,-0.15416905283927917
-2.096750259399414,5.001819133758545,-0.15667691826820374
-2.1604254245758057,5.258570194244385,-0.16629253327846527
-2.131206750869751,5.295679569244385,-0.16894826292991638
-2.123080253601074,5.387110710144043,-0.1733715683221817
-2.126199245452881,5.507369518280029,-0.17873534560203552
-2.098874807357788,5.551183223724365,-0.18165826797485352
-2.070683240890503,5.599177837371826,-0.1846638023853302
-1.4527959823608398,4.01669454574585,-0.13346892595291138
-1.4021687507629395,3.964268445968628,-0.13269957900047302
-1.351525068283081,3.9074885845184326,-0.13174410164356232
-1.312798261642456,3.8835535049438477,-0.13185489177703857
-1.2648860216140747,3.8336567878723145,-0.13101977109909058
-1.2194716930389404,3.7868261337280273,-0.13025504350662231
-0.9822178483009338,3.1248250007629395,-0.10816093534231186
-0.9604586362838745,3.1315503120422363,-0.10907013714313507
-0.9103962779045105,3.0447027683258057,-0.10666181892156601
-0.8024477958679199,2.7549664974212646,-0.09704339504241943
-0.7707982063293457,2.719353437423706,-0.09632453322410583
-0.7539132237434387,2.7321584224700928,-0.09729932248592377
-0.7369105815887451,2.7448532581329346,-0.09827713668346405
-0.7184534668922424,2.7537529468536377,-0.09907069802284241
-0.7084407210350037,2.79661226272583,-0.10108070820569992
-0.9844744801521301,4.007181167602539,-0.1455194056034088
-0.9520586729049683,3.99491024017334,-0.1457373946905136
-0.9224969148635864,3.9937942028045654,-0.1463649868965149
-0.8909251093864441,3.98492693901062,-0.1466088891029358
-0.856116533279419,3.960575819015503,-0.14626598358154297
-0.8221124410629272,3.9398343563079834,-0.14606334269046783
-0.8031193614006042,3.9875333309173584,-0.14839139580726624
-1.0862864255905151,5.594813823699951,-0.20899862051010132
-1.155812382698059,6.185547828674316,-0.231791689991951
-1.0844932794570923,6.039835453033447,-0.2270180881023407
-0.9835299849510193,5.712734699249268,-0.21539202332496643
-0.94122314453125,5.70399808883667,-0.21571925282478333
-0.9544796347618103,6.0458245277404785,-0.2293521612882614
-0.9150034785270691,6.071631908416748,-0.23090888559818268
-0.8766965270042419,6.108801364898682,-0.2328663021326065
-0.8350805044174194,6.130356788635254,-0.23425361514091492
-0.7829824090003967,6.06242561340332,-0.2322111576795578
-0.7389650344848633,6.052189350128174,-0.2323817014694214
-0.6913531422615051,6.0106401443481445,-0.23124606907367706
-0.6463593244552612,5.9881415367126465,-0.23076970875263214
-0.6012679934501648,5.961430549621582,-0.23013904690742493
-0.5534917712211609,5.907229423522949,-0.22845768928527832
-0.5097302794456482,5.8798017501831055,-0.22780823707580566
-0.4662386476993561,5.8520660400390625,-0.22708703577518463
-0.25505125522613525,3.5115458965301514,-0.13641257584095
-0.2304709404706955,3.5132358074188232,-0.13663333654403687
-0.20734722912311554,3.545948028564453,-0.13807110488414764
-0.29591822624206543,5.745838642120361,-0.22400324046611786
-0.25426575541496277,5.708747863769531,-0.22281798720359802
-0.21326673030853271,5.679171562194824,-0.22177430987358093
-0.17305050790309906,5.661006927490234,-0.22118601202964783
-0.13183286786079407,5.615257740020752,-0.2195313572883606
-0.09250649809837341,5.60042142868042,-0.21909207105636597
-0.053033601492643356,5.542376518249512,-0.21697083115577698
-0.011671388521790504,4.457508087158203,-0.1744968295097351
0.019344501197338104,4.4652886390686035,-0.1747807264328003
0.06240345537662506,5.468113899230957,-0.21401819586753845
0.07736941426992416,4.210909366607666,-0.16480866074562073
0.13831065595149994,5.458913803100586,-0.21365952491760254
0.1330447643995285,4.119701862335205,-0.1611771136522293
0.21187065541744232,5.397973537445068,-0.21102924644947052
0.1963905394077301,4.2500386238098145,-0.1660350263118744
0.2264164239168167,4.248551845550537,-0.165866419672966
0.25733187794685364,4.270259857177734,-0.16661278903484344
0.28537702560424805,4.24501371383667,-0.16549688577651978
0.3129790425300598,4.219595432281494,-0.16428440809249878
0.3415445387363434,4.209558963775635,-0.16367997229099274
0.37532737851142883,4.253717422485352,-0.16518495976924896
0.49152347445487976,5.160281181335449,-0.20014522969722748
0.524235188961029,5.125686168670654,-0.19856777787208557
0.5578923225402832,5.106447219848633,-0.197431743144989
0.5909045934677124,5.083105087280273,-0.19614863395690918
0.6237869262695312,5.055598258972168,-0.1947105973958969
0.6568642854690552,5.035682201385498,-0.19358207285404205
0.6896952986717224,5.0155510902404785,-0.19245681166648865
0.7191649675369263,4.9759416580200195,-0.19047938287258148
0.7521834373474121,4.963187217712402,-0.18950873613357544
0.7856398224830627,4.950123310089111,-0.18852873146533966
0.8162620663642883,4.921452522277832,-0.18696831166744232
0.8478102684020996,4.900296688079834,-0.18570667505264282
0.8802812099456787,4.886663913726807,-0.18464714288711548
0.9102314114570618,4.861350059509277,-0.18309368193149567
0.9421095252037048,4.847350597381592,-0.18197833001613617
0.9716532230377197,4.81765604019165,-0.18027041852474213
1.0019111633300781,4.795534610748291,-0.1788683384656906
1.0283739566802979,4.758017539978027,-0.176842600107193
1.060857892036438,4.750915050506592,-0.17588624358177185
1.0889503955841064,4.724562644958496,-0.1742272526025772
1.1204293966293335,4.709207534790039,-0.17296524345874786
1.1494343280792236,4.686171531677246,-0.17144234478473663
1.17605721950531,4.655442714691162,-0.16959629952907562
1.2078423500061035,4.647337436676025,-0.16850464046001434
1.233525037765503,4.616384983062744,-0.16659632325172424
1.2618545293807983,4.5925703048706055,-0.16493645310401917
1.2937989234924316,4.583713054656982,-0.16383321583271027
1.3220844268798828,4.563483715057373,-0.16227737069129944
1.3509188890457153,4.546929836273193,-0.16078846156597137
1.3772766590118408,4.5227370262146,-0.1590423882007599
1.4021365642547607,4.490602016448975,-0.1570003628730774
1.4332993030548096,4.480795860290527,-0.15576425194740295
1.4590938091278076,4.45607852935791,-0.15396049618721008
1.4843170642852783,4.431319713592529,-0.15212169289588928
1.513031005859375,4.417516708374023,-0.15067127346992493
1.5333842039108276,4.377457618713379,-0.1483139544725418
1.289145827293396,3.5983455181121826,-0.12108864635229111
1.313591718673706,3.5895330905914307,-0.1199062168598175
1.6097476482391357,4.308443546295166,-0.14283843338489532
1.6363093852996826,4.2901177406311035,-0.14114384353160858
1.668940782546997,4.285958766937256,-0.13990046083927155
1.6990164518356323,4.274174690246582,-0.1383792757987976
1.7204126119613647,4.244600296020508,-0.13623568415641785
1.7489100694656372,4.232987880706787,-0.13468122482299805
1.7780766487121582,4.220870018005371,-0.13308578729629517
1.801222562789917,4.194102764129639,-0.13102951645851135
1.8238780498504639,4.167308807373047,-0.1289074420928955
1.858158826828003,4.169293403625488,-0.12767474353313446
1.8864027261734009,4.156642913818359,-0.1259809136390686
1.9119603633880615,4.136399269104004,-0.12403372675180435
1.9369722604751587,4.116169452667236,-0.12207125872373581
1.9581135511398315,4.08889627456665,-0.11983875930309296
1.982017993927002,4.068729400634766,-0.11784673482179642
2.0068066120147705,4.047898769378662,-0.1157907024025917
2.0347137451171875,4.033996105194092,-0.11392928659915924
2.0614559650421143,4.020449638366699,-0.11202225834131241
2.0808887481689453,3.992872714996338,-0.10973453521728516
2.1054019927978516,3.971219062805176,-0.10752467066049576
2.1327011585235596,3.956678867340088,-0.10553357005119324
2.162527561187744,3.9494168758392334,-0.10368827730417252
2.144996404647827,3.8565542697906494,-0.0996239185333252
2.162139892578125,3.824608087539673,-0.0970991775393486
2.1885862350463867,3.8095901012420654,-0.09496989101171494
2.213517427444458,3.795210599899292,-0.09286262094974518
2.2389516830444336,3.7803142070770264,-0.09070444852113724
2.2652249336242676,3.7646822929382324,-0.08846602588891983
2.2860424518585205,3.7429802417755127,-0.08606871962547302
2.306713342666626,3.721142053604126,-0.08363578468561172
2.3323678970336914,3.7051687240600586,-0.08126211911439896
2.3721020221710205,3.7123944759368896,-0.07936051487922668
2.3896634578704834,3.687211275100708,-0.07673566788434982
2.410250186920166,3.6644928455352783,-0.0740770474076271
2.455137252807617,3.6769678592681885,-0.07201706618070602
2.458869695663452,3.632150888442993,-0.06885664165019989
2.4876954555511475,3.6220004558563232,-0.06624629348516464
2.52341365814209,3.6210873126983643,-0.06370095908641815
2.530564546585083,3.5827205181121826,-0.06049118563532829
2.571277379989624,3.5873587131500244,-0.05777204409241676
2.589953660964966,3.5642948150634766,-0.054590485990047455
2.6359145641326904,3.5791149139404297,-0.05188514664769173
2.5610427856445312,3.6134397983551025,0.0790201872587204
2.5284008979797363,3.626760482788086,0.08232443034648895
2.516195297241211,3.663630723953247,0.08587980270385742
2.50144362449646,3.701958417892456,0.08951254189014435
2.5103507041931152,3.7758383750915527,0.09394499659538269
2.528921127319336,3.861769199371338,0.09857561439275742
2.5168397426605225,3.906794309616089,0.10220746695995331
2.4918792247772217,3.9319355487823486,0.1052929237484932
2.4639248847961426,3.9494380950927734,0.10807039588689804
2.4306344985961914,3.9607765674591064,0.11060094088315964
2.408820867538452,3.9922595024108887,0.11368843913078308
2.380995750427246,4.00884485244751,0.1161976158618927
2.356363296508789,4.0323486328125,0.11888912320137024
2.317976474761963,4.0364603996276855,0.12099491059780121
2.298354387283325,4.070030212402344,0.12390036880970001
2.268070936203003,4.082446098327637,0.12610530853271484
2.2439379692077637,4.109041690826416,0.12871696054935455
2.217132329940796,4.132359981536865,0.1312214583158493
2.1908316612243652,4.15512228012085,0.13367928564548492
2.168994188308716,4.184093952178955,0.13628995418548584
2.134877920150757,4.192773342132568,0.1381787210702896
2.1109209060668945,4.222284317016602,0.14074808359146118
2.080923557281494,4.2370805740356445,0.14278024435043335
2.0576391220092773,4.265714645385742,0.1452893614768982
2.0235118865966797,4.273303985595703,0.147002711892128
1.9987752437591553,4.302089691162109,0.14943088591098785
1.974432110786438,4.330419540405273,0.151828333735466
1.9888770580291748,4.443783283233643,0.15721416473388672
1.982534408569336,4.514858245849609,0.16112002730369568
1.924370288848877,4.471963405609131,0.16091735661029816
1.903936505317688,4.514552116394043,0.16376742720603943
1.8664872646331787,4.513205528259277,0.1649804264307022
1.832119345664978,4.518778324127197,0.16644683480262756
1.8082799911499023,4.55352258682251,0.16890978813171387
1.791688084602356,4.610310077667236,0.17221473157405853
1.7684024572372437,4.648479461669922,0.17481659352779388
4.556646347045898,12.233210563659668,0.4630785584449768
1.3183223009109497,3.61629319190979,0.13778187334537506
1.2922321557998657,3.6256539821624756,0.13894322514533997
1.2591806650161743,3.6165578365325928,0.13941514492034912
1.6069481372833252,4.722936153411865,0.18310491740703583
1.5765000581741333,4.741358280181885,0.1848478466272354
1.538485050201416,4.737359523773193,0.1857050657272339
1.5220997333526611,4.804053783416748,0.18924513459205627
1.4835314750671387,4.8037943840026855,0.19018128514289856
1.4472990036010742,4.806629180908203,0.1912156343460083
1.434752106666565,4.8876800537109375,0.195367693901062
1.4167912006378174,4.953790187835693,0.19894585013389587
1.385606050491333,4.978763580322266,0.20075471699237823
1.299028992652893,4.8000969886779785,0.19433529675006866
