X,Y,Z
0.3569534420967102,1.6063868999481201,-0.1494830846786499
0.36452099680900574,1.5888134241104126,-0.14712102711200714
0.3666794002056122,1.5484501123428345,-0.14266718924045563
0.3931456208229065,1.610201358795166,-0.14762109518051147
0.39200061559677124,1.5584604740142822,-0.14217104017734528
0.41342923045158386,1.597261667251587,-0.14489871263504028
0.42336776852607727,1.5907272100448608,-0.14348064363002777
0.4262907803058624,1.5577895641326904,-0.139687180519104
0.4466307759284973,1.588593602180481,-0.1416182965040207
0.4522726833820343,1.5668495893478394,-0.13885293900966644
0.4674110412597656,1.5787492990493774,-0.13898590207099915
0.4906596839427948,1.6165859699249268,-0.1413750797510147
1.3892905712127686,4.464170932769775,-0.3877390921115875
1.4180001020431519,4.447261333465576,-0.38365301489830017
1.4450533390045166,4.426567077636719,-0.3791375458240509
1.475233554840088,4.416913986206055,-0.3754638731479645
1.4953478574752808,4.377551555633545,-0.3692946434020996
1.2715095281600952,3.6394500732421875,-0.3046413064002991
1.2776367664337158,3.575593948364258,-0.2969130277633667
1.3073323965072632,3.581700086593628,-0.29488396644592285
1.5969254970550537,4.284664154052734,-0.3497214913368225
1.6195482015609741,4.2556538581848145,-0.3442932665348053
1.6562448740005493,4.262729644775391,-0.3417704105377197
1.6860369443893433,4.251367568969727,-0.3376062214374542
1.7133592367172241,4.236558437347412,-0.33314427733421326
1.7392603158950806,4.217892169952393,-0.32838112115859985
1.7626533508300781,4.191600799560547,-0.32297787070274353
1.7886943817138672,4.172407150268555,-0.31811726093292236
1.811159372329712,4.1460418701171875,-0.3125426471233368
1.8392047882080078,4.134007930755615,-0.30813515186309814
1.8647550344467163,4.114325523376465,-0.3030773997306824
1.896712303161621,4.108611583709717,-0.29905593395233154
1.9210503101348877,4.089014530181885,-0.2938823997974396
1.9456603527069092,4.069060325622559,-0.28864729404449463
1.9704245328903198,4.048794269561768,-0.2833705544471741
1.991734504699707,4.021292209625244,-0.27759408950805664
2.013474464416504,3.9976933002471924,-0.27200692892074585
2.040252447128296,3.9844231605529785,-0.26713794469833374
2.071420669555664,3.9774394035339355,-0.2625647485256195
2.101409435272217,3.9664299488067627,-0.2576209008693695
2.1222808361053467,3.942350387573242,-0.25182396173477173
2.141050100326538,3.914740562438965,-0.24583859741687775
2.120934247970581,3.8148083686828613,-0.2352394461631775
2.154839277267456,3.8140125274658203,-0.23081791400909424
2.1727797985076904,3.786163091659546,-0.2246292382478714
2.194368600845337,3.7649788856506348,-0.21887047588825226
2.228537082672119,3.7633235454559326,-0.21409821510314941
2.2456445693969727,3.7352540493011475,-0.20779931545257568
2.2742438316345215,3.727360486984253,-0.20262683928012848
2.2963805198669434,3.704904317855835,-0.19632922112941742
2.3175439834594727,3.6827919483184814,-0.1901036947965622
2.3374133110046387,3.661255359649658,-0.18390966951847076
2.3749935626983643,3.6652283668518066,-0.17878927290439606
2.3873627185821533,3.629486083984375,-0.17159758508205414
2.41554594039917,3.6204733848571777,-0.16558320820331573
2.43554949760437,3.597914695739746,-0.15881676971912384
2.4381415843963623,3.5491855144500732,-0.15075501799583435
2.4653208255767822,3.5401551723480225,-0.14442232251167297
2.4938504695892334,3.529960870742798,-0.1376640945672989
2.5087192058563232,3.500491142272949,-0.129884272813797
2.5310068130493164,3.4846701622009277,-0.12271337956190109
2.175316095352173,2.9516825675964355,-0.09779544174671173
2.7688698768615723,3.911771535873413,0.2035008817911148
2.7315173149108887,3.918520450592041,0.2106206864118576
2.7026638984680176,3.938068151473999,0.2181287705898285
2.680192470550537,3.9718105792999268,0.2264888435602188
2.6566359996795654,3.9965884685516357,0.233644038438797
2.6270499229431152,4.0156989097595215,0.24040333926677704
2.5919392108917236,4.028769016265869,0.2467498779296875
2.559373140335083,4.039921760559082,0.2525109648704529
2.55427885055542,4.098011493682861,0.2612569034099579
2.4986369609832764,4.076987266540527,0.26478174328804016
2.4731976985931396,4.1012043952941895,0.2709765136241913
2.4404876232147217,4.111313819885254,0.27611130475997925
2.4213814735412598,4.149337291717529,0.2829670011997223
2.401254177093506,4.187624454498291,0.2899496853351593
2.364229440689087,4.1903839111328125,0.2941301763057709
2.3117387294769287,4.165785312652588,0.2963111996650696
2.2450804710388184,4.117561340332031,0.2965741753578186
2.2218775749206543,4.147476673126221,0.30240345001220703
2.1959049701690674,4.169758319854736,0.3075695037841797
2.1805970668792725,4.212588787078857,0.31419283151626587
2.145739793777466,4.221374034881592,0.3181351125240326
2.117798328399658,4.24383544921875,0.32312914729118347
2.0847182273864746,4.251183986663818,0.3267873525619507
2.0612242221832275,4.279602527618408,0.3321450352668762
2.0314700603485107,4.297802925109863,0.33645522594451904
1.9949119091033936,4.301696300506592,0.3396455645561218
1.9689987897872925,4.326155185699463,0.34439438581466675
1.9880039691925049,4.4497599601745605,0.3570692539215088
4.4708099365234375,10.200738906860352,0.824806809425354
1.9260737895965576,4.484780311584473,0.36527019739151
1.9189051389694214,4.559476375579834,0.37399742007255554
1.8824883699417114,4.561697959899902,0.37671416997909546
1.8695814609527588,4.621368885040283,0.384207546710968
1.8420521020889282,4.648881912231445,0.3888939619064331
1.8047800064086914,4.654835224151611,0.3917445242404938
1.791664958000183,4.722139358520508,0.39975762367248535
1.3451495170593262,3.6209347248077393,0.3082684874534607
1.3225244283676147,3.637331962585449,0.3114152252674103
1.2938815355300903,3.6391518115997314,0.31315892934799194
1.25045645236969,3.600562810897827,0.31137892603874207
1.6296420097351074,4.803800106048584,0.41746461391448975
1.6010031700134277,4.829573631286621,0.42168545722961426
1.5624902248382568,4.825549602508545,0.4233250916004181
1.5410597324371338,4.877114772796631,0.4297076463699341
1.5053117275238037,4.888026237487793,0.4324365556240082
1.4555466175079346,4.850033283233643,0.43081456422805786
1.4345433712005615,4.9047369956970215,0.43740519881248474
1.383262276649475,4.85449743270874,0.4346390664577484
1.361683964729309,4.908851146697998,0.4411817789077759
1.3012120723724365,4.824326992034912,0.4349829852581024
1.2699663639068604,4.848534107208252,0.43861472606658936
1.2403461933135986,4.876073360443115,0.44254159927368164
1.2137717008590698,4.9146270751953125,0.44748061895370483
1.1813278198242188,4.930328845977783,0.4503697156906128
1.1533910036087036,4.968716621398926,0.4551282525062561
1.1190201044082642,4.984368801116943,0.45775818824768066
1.0859562158584595,5.003446102142334,0.4607093632221222
1.0540771484375,5.02598762512207,0.46398860216140747
1.0205925703048706,5.0406599044799805,0.46656253933906555
0.9913842082023621,5.078027248382568,0.47124549746513367
2.1742961406707764,11.580584526062012,1.0767828226089478
2.064565658569336,11.44225025177002,1.0659996271133423
1.9541361331939697,11.28764533996582,1.0536983013153076
1.8463160991668701,11.124134063720703,1.040510654449463
1.7419743537902832,10.967390060424805,1.0279438495635986
1.6434868574142456,10.844625473022461,1.0183576345443726
1.5552891492843628,10.77487564086914,1.0132195949554443
1.4447951316833496,10.534897804260254,0.992082417011261
1.3620452880859375,10.479021072387695,0.988284170627594
1.2696274518966675,10.329758644104004,0.975678026676178
1.1900957822799683,10.272451400756836,0.9717723727226257
1.1056174039840698,10.176082611083984,0.9638792872428894
1.0305861234664917,10.148629188537598,0.962103545665741
0.40700283646583557,4.309208393096924,0.40888893604278564
0.37609750032424927,4.304146766662598,0.40879708528518677
0.342703253030777,4.263960361480713,0.4053814113140106
0.31338027119636536,4.2778520584106445,0.4071309566497803
0.2850887179374695,4.303169250488281,0.4098232388496399
0.3312624990940094,5.593820571899414,0.5329358577728271
0.29010531306266785,5.557126045227051,0.5296582579612732
0.25480374693870544,5.636670112609863,0.5374869108200073
0.21623659133911133,5.6732635498046875,0.5412551164627075
0.17673327028751373,5.674590587615967,0.5416825413703918
0.1379171758890152,5.70676326751709,0.5448778867721558
0.09866859763860703,5.7386860847473145,0.54788738489151
0.05919892340898514,5.797556400299072,0.5534959435462952
0.01862434856593609,5.961145877838135,0.5691298246383667
-0.023027032613754272,6.0194549560546875,0.5747405886650085
-0.06448239088058472,5.9841508865356445,0.5714408159255981
-0.07234203070402145,4.082361221313477,0.3897533118724823
-0.10353844612836838,4.198409557342529,0.4006144404411316
-0.0610496923327446,1.931680679321289,0.18423040211200714
-0.15634165704250336,4.041170120239258,0.38524264097213745
-0.18073487281799316,3.9584319591522217,0.37720373272895813
-0.1868152916431427,3.549354314804077,0.33810266852378845
-0.21144935488700867,3.5480055809020996,0.33775240182876587
-0.23548957705497742,3.5387420654296875,0.3365340530872345
-0.278375506401062,3.781378984451294,0.35926055908203125
-0.3039614260196686,3.771653890609741,0.3580114543437958
-0.3274294435977936,3.7385082244873047,0.35455918312072754
-0.3541138470172882,3.743936061859131,0.3547842502593994
-0.37330931425094604,3.675682783126831,0.3479287028312683
-0.39270326495170593,3.6150591373443604,0.34168171882629395
-0.4157758951187134,3.596888303756714,0.33948203921318054
-0.44578981399536133,3.636467695236206,0.3427441418170929
-0.46959611773490906,3.6217761039733887,0.3408993184566498
-0.495327353477478,3.622343063354492,0.34050825238227844
-0.5207740068435669,3.61885666847229,0.33961251378059387
-0.5426841974258423,3.5960628986358643,0.33680862188339233
-0.5661631226539612,3.5846590995788574,0.33509135246276855
-0.5896204710006714,3.573084592819214,0.33337387442588806
-0.613090455532074,3.5613317489624023,0.33165478706359863
-0.6378350853919983,3.557077169418335,0.3306503891944885
-0.6641469597816467,3.56028151512146,0.3301944136619568
-1.2415891885757446,6.4126176834106445,0.5932528972625732
-1.2937970161437988,6.446147441864014,0.5948929190635681
-1.3492860794067383,6.490611553192139,0.5975357294082642
-1.4066606760025024,6.5383381843566895,0.6004701256752014
-1.4562592506408691,6.5436320304870605,0.5994958281517029
-1.4861335754394531,6.469306468963623,0.5909369587898254
-1.517573356628418,6.406283378601074,0.583388090133667
-0.6763103008270264,2.7708661556243896,0.2515631318092346
-0.6992487907409668,2.7813267707824707,0.2517413794994354
-0.7169772386550903,2.7688815593719482,0.24983815848827362
-0.7341562509536743,2.756432056427002,0.24794448912143707
-0.7507694959640503,2.744006872177124,0.24591320753097534
-0.7735891938209534,2.7539563179016113,0.2458946853876114
-0.7922927141189575,2.74875545501709,0.24452853202819824
-1.794683814048767,6.064896106719971,0.5374761819839478
-1.0195984840393066,3.3596198558807373,0.29662376642227173
-1.0333305597305298,3.3229849338531494,0.2921869158744812
-1.887184500694275,5.927410125732422,0.5188929438591003
-1.07454252243042,3.2979390621185303,0.2874363958835602
-1.330451250076294,3.9884843826293945,0.3460395038127899
-1.3582159280776978,3.9793193340301514,0.343683660030365
-1.3768295049667358,3.944267988204956,0.3390817940235138
-1.3928866386413574,3.905789375305176,0.33402931690216064
-1.4084880352020264,3.867269992828369,0.3290145993232727
-1.4347681999206543,3.8578126430511475,0.32648220658302307
-1.4648557901382446,3.8550446033477783,0.32445552945137024
-1.4888572692871094,3.8377037048339844,0.32124996185302734
-1.5289703607559204,3.864046335220337,0.32149508595466614
-1.6072721481323242,3.983983278274536,0.32944154739379883
-1.6459754705429077,4.002104759216309,0.32888656854629517
-2.357017993927002,5.617702960968018,0.4586297869682312
-2.383881092071533,5.572826385498047,0.45202258229255676
-2.421196699142456,5.5570783615112305,0.4475401043891907
-2.494584083557129,5.623057842254639,0.44956985116004944
-2.532444715499878,5.606477737426758,0.44493865966796875
-2.560774564743042,5.563970565795898,0.4381125867366791
-2.5730128288269043,5.489921569824219,0.42891666293144226
-2.5959901809692383,5.444962501525879,0.42179733514785767
-2.635486125946045,5.434998989105225,0.4174216389656067
-2.686286687850952,5.445245265960693,0.4144952595233917
-2.707364320755005,5.391619682312012,0.4065830111503601
-2.3770761489868164,4.654913902282715,0.34767353534698486
-2.414914131164551,4.653314113616943,0.34407275915145874
-2.4456284046173096,4.637588024139404,0.3394242823123932
-2.485253095626831,4.634533405303955,0.335519939661026
-2.4987452030181885,4.583273887634277,0.3281424045562744
-2.5197861194610596,4.549831867218018,0.32183846831321716
-2.545719623565674,4.5267791748046875,0.31636953353881836
-2.5768959522247314,4.509469985961914,0.311117559671402
-1.2101845741271973,2.083991765975952,0.14187847077846527
-2.6059916019439697,4.421170711517334,0.2967839241027832
-2.609213352203369,4.360653877258301,0.28846532106399536
-1.2639505863189697,2.0797805786132812,0.13545337319374084
-2.6652660369873047,4.318195819854736,0.2767358124256134
-2.6806836128234863,4.281418323516846,0.2697501480579376
-2.9909236431121826,4.708725929260254,0.29150134325027466
-3.0201148986816406,4.6812005043029785,0.28415870666503906
-3.042764902114868,4.648280143737793,0.27654829621315
-3.0422773361206055,4.583582401275635,0.26705703139305115
-3.0450525283813477,4.52112340927124,0.2574693262577057
-3.0846829414367676,4.5135087966918945,0.25087398290634155
-3.100318670272827,4.47473669052124,0.2423669397830963
-3.1212377548217773,4.4415178298950195,0.23395568132400513
-2.938537836074829,4.12178373336792,0.21062856912612915
-2.9345433712005615,4.0625739097595215,0.20109786093235016
-2.611368417739868,3.5643749237060547,0.17020007967948914
-2.625389337539673,3.5349714756011963,0.162310391664505
-2.456576347351074,3.465914487838745,-0.12315776199102402
-2.432255268096924,3.4827752113342285,-0.13003483414649963
-2.9785008430480957,4.334220886230469,-0.16954106092453003
-2.95937442779541,4.375279903411865,-0.17862606048583984
-2.9453389644622803,4.4219865798950195,-0.18758565187454224
-2.9224748611450195,4.460141181945801,-0.1962316930294037
-2.894935369491577,4.487024784088135,-0.203998401761055
-2.8667731285095215,4.513981342315674,-0.21167011559009552
-2.8446478843688965,4.555232048034668,-0.2201504409313202
-1.2589999437332153,2.0480761528015137,-0.10169383883476257
-2.7957100868225098,4.621267318725586,-0.235437273979187
-2.7572720050811768,4.634868144989014,-0.24202239513397217
-1.2299250364303589,2.101447582244873,-0.11229204386472702
-2.704239845275879,4.696842670440674,-0.2566249966621399
-2.6482532024383545,4.679025173187256,-0.26105040311813354
-2.598865032196045,4.67059326171875,-0.2658621072769165
-2.5700228214263916,4.695075988769531,-0.27229708433151245
-2.543752908706665,4.7267374992370605,-0.2791074514389038
-2.5122084617614746,4.752042770385742,-0.2856038510799408
-2.4855968952178955,4.783253192901611,-0.29226991534233093
-2.457463264465332,4.810558319091797,-0.2986559569835663
-2.439937114715576,4.862790584564209,-0.30653199553489685
-2.41127610206604,4.894099712371826,-0.31313732266426086
-2.3831326961517334,4.924839973449707,-0.319639652967453
-2.357057571411133,4.958611011505127,-0.3262723386287689
-2.331009864807129,4.996382713317871,-0.3330383896827698
-2.301290512084961,5.026937961578369,-0.33937105536460876
-2.2787976264953613,5.071033477783203,-0.34653493762016296
-2.2510664463043213,5.1043548583984375,-0.35300543904304504
-2.2056727409362793,5.1025471687316895,-0.3569362759590149
-2.1656675338745117,5.110832691192627,-0.36149924993515015
-2.1387951374053955,5.147122383117676,-0.3679458498954773
-2.1896097660064697,5.374520301818848,-0.38823145627975464
-1.496645450592041,3.749990463256836,-0.273533433675766
-1.462123155593872,3.742420196533203,-0.2756521999835968
-1.4356919527053833,3.752393960952759,-0.2789725661277771
-1.4121551513671875,3.769392728805542,-0.28281164169311523
-1.3947551250457764,3.8046889305114746,-0.2879343032836914
-1.3647894859313965,3.80702543258667,-0.2905154228210449
-1.880839467048645,5.368188858032227,-0.41307222843170166
-1.5996900796890259,4.6695380210876465,-0.36218515038490295
-1.5706100463867188,4.691439151763916,-0.3667200207710266
-1.8784362077713013,5.746365547180176,-0.4524040222167969
-0.9790896773338318,3.068892240524292,-0.24333548545837402
-0.9687608480453491,3.1128039360046387,-0.24857227504253387
-0.9447815418243408,3.111846685409546,-0.2502158284187317
-0.805607259273529,2.7224278450012207,-0.2202957421541214
-0.7862421870231628,2.727937936782837,-0.22209057211875916
-0.7616680860519409,2.714538097381592,-0.22234156727790833
-0.7447901368141174,2.7271480560302734,-0.2247081995010376
-0.7214356064796448,2.7171614170074463,-0.2252252846956253
-0.7089800238609314,2.748464345932007,-0.22899280488491058
-0.6734395027160645,2.6890735626220703,-0.22519785165786743
-0.992866039276123,4.085803031921387,-0.3439165949821472
-0.9804871678352356,4.160625457763672,-0.3519919514656067
-1.4625672101974487,6.410380840301514,-0.5449593663215637
-1.4055404663085938,6.367055416107178,-0.543599009513855
-1.3434596061706543,6.296612739562988,-0.5399045348167419
-1.2948054075241089,6.282689094543457,-0.5410146713256836
-1.2412021160125732,6.241652488708496,-0.5397840142250061
-1.1863988637924194,6.1965861320495605,-0.5379551649093628
-1.1335867643356323,6.154801368713379,-0.5361915826797485
-1.0631158351898193,6.0091118812561035,-0.525340735912323
-0.9547725915908813,5.62480354309082,-0.49346959590911865
-0.9467681050300598,5.823176860809326,-0.5126813650131226
-0.9338241815567017,6.01418399810791,-0.5310623645782471
-0.8938215374946594,6.0358171463012695,-0.5344333052635193
-0.8562756776809692,6.076448917388916,-0.5395249724388123
-0.8113442063331604,6.062803745269775,-0.5398148894309998
-0.7583787441253662,5.98320198059082,-0.5342302322387695
-0.714104950428009,5.9689154624938965,-0.5340519547462463
-0.6688268184661865,5.950531482696533,-0.5334880948066711
-0.6230893135070801,5.916240692138672,-0.5314911007881165
-0.5793114304542542,5.893191337585449,-0.5305097699165344
-0.5354795455932617,5.865950584411621,-0.5291673541069031
-0.49023234844207764,5.819060802459717,-0.5256170034408569
-0.44824522733688354,5.814552307128906,-0.5259038805961609
-0.24366390705108643,3.477276086807251,-0.31492874026298523
-0.22097693383693695,3.5021276473999023,-0.31761789321899414
-0.31955868005752563,5.694202899932861,-0.5171612501144409
-0.2777329385280609,5.653507709503174,-0.5137649178504944
-0.06809602677822113,1.6207950115203857,-0.1473836451768875
-0.055727001279592514,1.5901145935058594,-0.14469043910503387
-0.043815407902002335,1.5593419075012207,-0.14199165999889374
-0.03315643593668938,1.5673749446868896,-0.14283184707164764
-0.022096684202551842,1.5558980703353882,-0.14177025854587555
-0.010802175849676132,1.5171151161193848,-0.138227641582489
-0.00026659309514798224,1.5677251815795898,-0.14283691346645355
0.010536378249526024,1.5560188293457031,-0.14177526533603668
0.021403800696134567,1.559797763824463,-0.14213137328624725
0.03183455392718315,1.5401759147644043,-0.14023961126804352
0.04349740222096443,1.5749268531799316,-0.14330442249774933
0.0543571412563324,1.566815733909607,-0.1424727737903595
0.0649414211511612,1.5586365461349487,-0.1416441798210144
0.07577886432409286,1.5581583976745605,-0.1415226310491562
0.08701655268669128,1.5653865337371826,-0.14197824895381927
0.0983581468462944,1.5725336074829102,-0.1424313634634018
0.11000900715589523,1.5795845985412598,-0.1428772658109665
0.12039601057767868,1.5710458755493164,-0.14192304015159607
0.13131746649742126,1.5701937675476074,-0.1416693478822708
0.137618288397789,1.5189093351364136,-0.13675634562969208
0.1515289694070816,1.5528041124343872,-0.13952216506004333
0.16208286583423615,1.5478602647781372,-0.1387937068939209
0.17283305525779724,1.546730399131775,-0.1384192258119583
0.184044748544693,1.5493888854980469,-0.13838443160057068
0.1957181841135025,1.5558457374572754,-0.1385752409696579
0.20390334725379944,1.5352139472961426,-0.13636274635791779
0.219573974609375,1.5684667825698853,-0.13893193006515503
0.2304753214120865,1.5669468641281128,-0.13842441141605377
0.2425295114517212,1.5730476379394531,-0.1385846883058548
0.25212904810905457,1.5637089014053345,-0.13729062676429749
0.26548704504966736,1.5773388147354126,-0.1380174607038498
0.2790854871273041,1.5908520221710205,-0.13872982561588287
0.2889455258846283,1.5812345743179321,-0.1374186873435974
0.29555460810661316,1.5563050508499146,-0.13477912545204163
0.31529363989830017,1.6001235246658325,-0.137996107339859
0.320061057806015,1.5674718618392944,-0.134619802236557
0.33896464109420776,1.6033656597137451,-0.13713005185127258
0.3469933271408081,1.585777997970581,-0.13505171239376068
0.35625961422920227,1.5758082866668701,-0.1336115300655365
0.36884599924087524,1.5809791088104248,-0.13339054584503174
0.3797121047973633,1.5784776210784912,-0.1325245499610901
0.3887792229652405,1.5683205127716064,-0.13101977109909058
0.3960168957710266,1.5505131483078003,-0.12887857854366302
0.4166049659252167,1.585478663444519,-0.13107630610466003
0.4294879734516144,1.5901869535446167,-0.1307111382484436
0.44557809829711914,1.6060503721237183,-0.1312565952539444
0.45248648524284363,1.5880091190338135,-0.12902303040027618
0.465933233499527,1.5923165082931519,-0.12860095500946045
0.47684335708618164,1.5891706943511963,-0.12751922011375427
1.3726755380630493,4.463765621185303,-0.3558170795440674
1.4009904861450195,4.447040557861328,-0.35212141275405884
1.4367088079452515,4.452253341674805,-0.3501453995704651
1.4571309089660645,4.408956050872803,-0.34429389238357544
1.4796596765518188,4.377041339874268,-0.33921775221824646
1.5094568729400635,4.36711311340332,-0.33587446808815
1.268342137336731,3.589045763015747,-0.2738870680332184
1.2933100461959839,3.580338954925537,-0.27107226848602295
1.3259327411651611,3.593536376953125,-0.26980915665626526
1.6159193515777588,4.288296699523926,-0.3191460967063904
1.6423752307891846,4.270151615142822,-0.3150128424167633
1.675039529800415,4.26608943939209,-0.31186792254447937
1.7017502784729004,4.247378826141357,-0.307638555765152
1.7290525436401367,4.232404708862305,-0.3035464584827423
1.7522659301757812,4.206240177154541,-0.2986229360103607
1.7753549814224243,4.179887771606445,-0.29370489716529846
1.80135178565979,4.160529613494873,-0.289298415184021
1.8295406103134155,4.148489475250244,-0.28527796268463135
1.8511221408843994,4.122091770172119,-0.2802704870700836
1.883164882659912,4.116410732269287,-0.2765743136405945
1.905218482017517,4.089328765869141,-0.2714729309082031
1.9330135583877563,4.076542377471924,-0.2672458589076996
1.9603478908538818,4.063746929168701,-0.262985497713089
1.9846372604370117,4.043532371520996,-0.2582029402256012
2.0045723915100098,4.0121846199035645,-0.2526092529296875
2.0371153354644775,4.009167671203613,-0.24881216883659363
2.063868761062622,3.9957375526428223,-0.24433380365371704
2.0875141620635986,3.9749040603637695,-0.23933671414852142
2.1152501106262207,3.960493803024292,-0.2346607744693756
2.1363589763641357,3.9361133575439453,-0.2293529361486435
2.1479480266571045,3.89447283744812,-0.22298726439476013
2.138451337814331,3.8152101039886475,-0.21451684832572937
2.149538993835449,3.77336049079895,-0.20820464193820953
2.1900746822357178,3.7863478660583496,-0.2048463374376297
2.203277111053467,3.751814842224121,-0.19890764355659485
2.229858875274658,3.7363498210906982,-0.19372233748435974
2.2673003673553467,3.741417646408081,-0.18964475393295288
2.2795569896698,3.706756114959717,-0.18354254961013794
2.308946132659912,3.697986125946045,-0.1785731464624405
2.3345260620117188,3.68215012550354,-0.17315174639225006
2.3546862602233887,3.6602673530578613,-0.16734160482883453
2.3749048709869385,3.6381123065948486,-0.16149406135082245
2.4045298099517822,3.6282238960266113,-0.15600310266017914
2.427898645401001,3.6128711700439453,-0.15025727450847626
2.423278331756592,3.5549557209014893,-0.14265020191669464
2.45497465133667,3.5476410388946533,-0.13676387071609497
2.4776229858398438,3.5320937633514404,-0.13062116503715515
2.5013465881347656,3.5155670642852783,-0.12415598332881927
2.5179824829101562,3.4894649982452393,-0.1171841099858284
2.551438331604004,3.489511251449585,-0.11108963191509247
2.170886516571045,2.926126003265381,-0.087435282766819
2.751560688018799,3.853471517562866,0.17601008713245392
2.7371697425842285,3.8967978954315186,0.18452304601669312
2.7351250648498535,3.9549763202667236,0.193413645029068
2.6845953464508057,3.9419848918914795,0.19852086901664734
2.6540324687957764,3.9622862339019775,0.205191969871521
2.606297731399536,3.951519250869751,0.20980259776115417
2.6090123653411865,4.0193657875061035,0.218549445271492
2.5613996982574463,4.01255989074707,0.2231075018644333
2.549147129058838,4.056951999664307,0.2302192598581314
2.524465322494507,4.081219673156738,0.23609596490859985
2.5016326904296875,4.113214492797852,0.24231299757957458
2.4787487983703613,4.144916534423828,0.24851422011852264
2.437847852706909,4.141664028167725,0.25233572721481323
2.4113552570343018,4.165855884552002,0.25772204995155334
2.3877618312835693,4.197074890136719,0.263520210981369
2.3501060009002686,4.200109958648682,0.26737987995147705
2.269397020339966,4.124168872833252,0.26611965894699097
2.2388155460357666,4.140564441680908,0.2705262005329132
2.2115366458892822,4.163742542266846,0.27537983655929565
2.1892659664154053,4.192821502685547,0.2804810404777527
2.163532257080078,4.214648246765137,0.2850838005542755
2.1320836544036865,4.230367183685303,0.28917357325553894
2.100774049758911,4.245728015899658,0.2931734025478363
2.073848009109497,4.26734733581543,0.2975237965583801
2.0490288734436035,4.292018890380859,0.3020544648170471
2.0165040493011475,4.302829742431641,0.3055111765861511
1.9864541292190552,4.3208160400390625,0.30940529704093933
1.9704538583755493,4.370664119720459,0.3156389594078064
1.9793874025344849,4.473139762878418,0.32560694217681885
1.9636162519454956,4.522347927093506,0.33177968859672546
1.9381922483444214,4.554238319396973,0.3364885151386261
1.9049456119537354,4.567993640899658,0.3398818373680115
1.861478567123413,4.556173801422119,0.34136319160461426
1.8238276243209839,4.554347038269043,0.34350425004959106
1.794502854347229,4.574114799499512,0.34721359610557556
1.7667990922927856,4.601356506347656,0.35134029388427734
1.7333123683929443,4.6138434410095215,0.3543654978275299
1.3332054615020752,3.627624034881592,0.2802359461784363
1.3052351474761963,3.629326105117798,0.28194302320480347
1.2795965671539307,3.638272762298584,0.2841528058052063
1.64699125289917,4.793012619018555,0.3761512339115143
1.6172858476638794,4.819340705871582,0.38005030155181885
1.5752915143966675,4.808427333831787,0.3810223937034607
1.5370123386383057,4.804234981536865,0.3824736177921295
1.5009630918502808,4.807254314422607,0.3844619393348694
1.4731577634811401,4.840089797973633,0.38862475752830505
1.4405741691589355,4.857821941375732,0.3916022777557373
1.4287141561508179,4.94631814956665,0.4003153145313263
1.3957335948944092,4.963623523712158,0.4033101201057434
1.3631917238235474,4.980544090270996,0.40627050399780273
1.285684585571289,4.831887245178223,0.3954434394836426
1.2550058364868164,4.855871200561523,0.39868366718292236
1.2249971628189087,4.883438587188721,0.40224745869636536
1.1977059841156006,4.922103404998779,0.4067481756210327
1.1633520126342773,4.930171966552734,0.4087269902229309
1.1356574296951294,4.968425750732422,0.41312167048454285
1.10447096824646,4.9952497482299805,0.4163997173309326
1.0705195665359497,5.010456562042236,0.41873615980148315
1.0345357656478882,5.017866134643555,0.4204529821872711
1.0025862455368042,5.040085792541504,0.42340293526649475
0.96456378698349,5.031506061553955,0.42378437519073486
2.127692461013794,11.538558959960938,0.9738624095916748
2.007784128189087,11.3384428024292,0.9588054418563843
1.9037970304489136,11.221884727478027,0.9508385062217712
1.7929404973983765,11.034856796264648,0.9368317127227783
1.6999467611312866,10.942972183227539,0.9308915734291077
1.601000428199768,10.800268173217773,0.920620322227478
1.5047153234481812,10.66849422454834,0.910609245300293
1.409589171409607,10.539939880371094,0.9009076356887817
1.3127776384353638,10.371809005737305,0.8878079056739807
1.2280185222625732,10.2761812210083,0.880908191204071
1.1416116952896118,10.152810096740723,0.87164306640625
1.068386197090149,10.137134552001953,0.8715232610702515
0.9899120330810547,10.07068157196045,0.8665162324905396
0.39500096440315247,4.337156295776367,0.37351229786872864
0.3590295612812042,4.273841381072998,0.3683946430683136
0.3286656141281128,4.268428802490234,0.36827772855758667
0.3002968728542328,4.28997802734375,0.3705058693885803
0.2737959027290344,4.346303939819336,0.3756841719150543
0.24562592804431915,4.398634433746338,0.3803439438343048
0.21044793725013733,4.310817718505859,0.3729003071784973
0.08275057375431061,1.9791609048843384,0.17128106951713562
0.05801120027899742,1.6646400690078735,0.14413303136825562
0.11865398287773132,4.255849361419678,0.36869344115257263
0.032784853130578995,1.575785517692566,0.13655823469161987
0.07953191548585892,5.751339435577393,0.498343288898468
0.04065064713358879,5.922984600067139,0.5131686329841614
-0.000606195128057152,5.981499671936035,0.5182157754898071
-0.0286101121455431,4.0550217628479,0.3513142764568329
-0.05716296657919884,4.046936511993408,0.35063284635543823
-0.08717307448387146,4.135939598083496,0.35827910900115967
-0.054379984736442566,1.9411989450454712,0.16805696487426758
-0.06812835484743118,1.9485644102096558,0.16860122978687286
-0.16803787648677826,4.008872985839844,0.3466956913471222
-0.1867487132549286,3.8210506439208984,0.3303009271621704
-0.19918227195739746,3.559314489364624,0.30754736065864563
-0.22456863522529602,3.5695297718048096,0.3082261383533478
-0.25409016013145447,3.637817859649658,0.3137871325016022
-0.29350438714027405,3.8222813606262207,0.3293611705303192
-0.31542015075683594,3.7659032344818115,0.3241850435733795
-0.34137287735939026,3.755866765975952,0.32301241159439087
-0.36180371046066284,3.695340871810913,0.31752386689186096
-0.3797125816345215,3.6192471981048584,0.310618132352829
-0.4029030203819275,3.6011345386505127,0.30858173966407776
-0.4286184012889862,3.606064558029175,0.3085355758666992
-0.46126431226730347,3.660949230194092,0.31276044249534607
-0.4846811294555664,3.6422789096832275,0.31071585416793823
-0.5099841952323914,3.6388840675354004,0.3099919557571411
-0.5299835205078125,3.6006903648376465,0.3062027096748352
-0.5511434078216553,3.573962450027466,0.3033066391944885
-0.5760764479637146,3.570108413696289,0.3023603558540344
-0.5994007587432861,3.558450937271118,0.3007761538028717
-0.6321603655815125,3.600294828414917,0.3037187159061432
-0.6501330733299255,3.5576062202453613,0.2995433807373047
-0.6730980277061462,3.545499563217163,0.2978125214576721
-1.2689144611358643,6.443945407867432,0.5398795008659363
-1.317496657371521,6.454235076904297,0.5393423438072205
-1.3717243671417236,6.4908647537231445,0.5410242080688477
-1.4343286752700806,6.561215877532959,0.5455064177513123
-1.4636600017547607,6.47909688949585,0.5373366475105286
-1.4972811937332153,6.423651218414307,0.5310618281364441
-1.5317384004592896,6.371689796447754,0.5250691175460815
-0.6972389221191406,2.8159115314483643,0.2313208132982254
-0.698506772518158,2.7393996715545654,0.22432070970535278
-0.7244691848754883,2.760929822921753,0.22537072002887726
-0.7364206910133362,2.729635238647461,0.22207415103912354
-0.7604270577430725,2.7433598041534424,0.22232703864574432
-0.7939346432685852,2.7906835079193115,0.2253054529428482
-1.784296989440918,6.112672328948975,0.4916265904903412
-1.805527687072754,6.029458999633789,0.48306789994239807
-1.8428362607955933,6.0020928382873535,0.47903352975845337
-1.8726526498794556,5.952287197113037,0.47293734550476074
-1.9020332098007202,5.906393051147461,0.46716421842575073
-1.0946834087371826,3.3223469257354736,0.2615889608860016
-1.1326578855514526,3.359105348587036,0.26325327157974243
-1.3707009553909302,3.9736642837524414,0.30996599793434143
-1.3876010179519653,3.9349374771118164,0.3054264783859253
-1.3986625671386719,3.8815460205078125,0.2996430993080139
-1.4220348596572876,3.8649213314056396,0.29676318168640137
-1.447198748588562,3.851588726043701,0.2941185534000397
-1.4740173816680908,3.841587781906128,0.2917208969593048
-1.5047863721847534,3.8423819541931152,0.29010480642318726
-1.5511820316314697,3.882894992828369,0.2912881672382355
-1.6271597146987915,3.995311737060547,0.297826886177063
-1.6604375839233398,3.998685836791992,0.29614678025245667
-2.3674838542938232,5.591460704803467,0.41136544942855835
-2.4059062004089355,5.575328350067139,0.4073841869831085
-2.43734073638916,5.544939994812012,0.40212225914001465
-2.5108299255371094,5.6107177734375,0.4038677215576172
-2.5217995643615723,5.533363342285156,0.3952251374721527
-2.560396909713745,5.515921115875244,0.3908594846725464
-2.5846686363220215,5.470430374145508,0.38443055748939514
-2.624988555908203,5.460173606872559,0.38030433654785156
-2.635495901107788,5.390402317047119,0.37214043736457825
-2.6694681644439697,5.365274906158447,0.3669537305831909
-2.696213960647583,5.325996398925781,0.360831081867218
-2.3960647583007812,4.656484603881836,0.3122890591621399
-2.437560796737671,4.661600589752197,0.3094105124473572
-2.473345994949341,4.651844501495361,0.30538830161094666
-2.48163104057312,4.590172290802002,0.2979643642902374
-2.518183946609497,4.583869457244873,0.2940768897533417
-2.53865909576416,4.550537109375,0.2883968949317932
-2.5613207817077637,4.520191669464111,0.28287172317504883
-1.1915202140808105,2.068589210510254,0.12769529223442078
-1.2054705619812012,2.060629367828369,0.12544234097003937
-2.6209182739257812,4.414370536804199,0.26485249400138855
-1.248612642288208,2.0715837478637695,0.12241770327091217
-1.258995532989502,2.0562915802001953,0.11955328285694122
-2.6714723110198975,4.297835350036621,0.24560217559337616
-2.7387452125549316,4.343479633331299,0.24389639496803284
-2.999629020690918,4.686568737030029,0.25823310017585754
-2.602536678314209,4.005040645599365,0.21633045375347137
-2.5872905254364014,3.92669415473938,0.20770539343357086
-2.609027862548828,3.9031875133514404,0.20188599824905396
-2.6537721157073975,3.9109902381896973,0.1974407583475113
-2.729862689971924,3.968012571334839,0.19529087841510773
-2.909313917160034,4.171623229980469,0.1998959630727768
-2.9947690963745117,4.23117208480835,0.19671761989593506
-2.9357573986053467,4.091401100158691,0.18416976928710938
-2.631512403488159,3.618009090423584,0.15736062824726105
-2.628488302230835,3.5624377727508545,0.14905811846256256
-2.4925622940063477,3.488685131072998,-0.11074808984994888
-2.444533348083496,3.474656581878662,-0.11626458913087845
-2.97493839263916,4.294646263122559,-0.15070432424545288
-2.9531304836273193,4.333041191101074,-0.15897811949253082
-2.931523084640503,4.36624813079834,-0.16653555631637573
-2.9118235111236572,4.407238006591797,-0.17440417408943176
-2.8957600593566895,4.45482063293457,-0.18253754079341888
-2.8666141033172607,4.477991580963135,-0.18931381404399872
-2.826763868331909,4.489136695861816,-0.1955280900001526
-2.804154872894287,4.525984287261963,-0.20272955298423767
-2.788757562637329,4.571823596954346,-0.2101440578699112
-2.754350423812866,4.592341899871826,-0.2164570689201355
-1.2293953895568848,2.084213972091675,-0.1005864366889
-2.7117910385131836,4.671257019042969,-0.23040848970413208
-2.6915550231933594,4.714137077331543,-0.23745253682136536
-2.6605284214019775,4.740371227264404,-0.24366439878940582
-2.6414406299591064,4.786423206329346,-0.2508215606212616
-2.6151890754699707,4.8182878494262695,-0.25713661313056946
-2.5926120281219482,4.861151695251465,-0.2639790177345276
-2.557222604751587,4.8795599937438965,-0.2694849371910095
-2.5373873710632324,4.924746513366699,-0.27633196115493774
-2.498152732849121,4.935718059539795,-0.28129950165748596
-2.451671838760376,4.932548522949219,-0.2852942943572998
-2.40775990486145,4.932140827178955,-0.289352685213089
-2.373297691345215,4.948524475097656,-0.2942938506603241
-2.349529266357422,4.989757537841797,-0.300662636756897
-2.3198184967041016,5.02053689956665,-0.30637723207473755
-2.293039560317993,5.058228969573975,-0.3125531077384949
-2.264017343521118,5.088072776794434,-0.31814464926719666
-2.2324740886688232,5.1144700050354,-0.32343387603759766
-2.181703567504883,5.097891807556152,-0.3259139060974121
-2.186014175415039,5.210122585296631,-0.33664974570274353
-2.1177639961242676,5.149514198303223,-0.33623823523521423
-2.1673004627227783,5.377435207366943,-0.3546237349510193
-1.4915434122085571,3.7788169384002686,-0.25156480073928833
-1.4517654180526733,3.7564806938171387,-0.25241830945014954
-1.4269278049468994,3.76995587348938,-0.255607545375824
-1.3987386226654053,3.7761456966400146,-0.25833919644355774
-1.3809776306152344,3.8115222454071045,-0.2628811001777649
-1.3614792823791504,3.8431575298309326,-0.26720505952835083
-1.6036863327026367,4.629533767700195,-0.32441258430480957
-1.5838613510131836,4.677290439605713,-0.33030763268470764
-1.878030776977539,5.680039405822754,-0.4040878117084503
-1.8673992156982422,5.785742282867432,-0.41448044776916504
-0.9752092957496643,3.0962865352630615,-0.2233455628156662
-0.9604964256286621,3.1252074241638184,-0.226955384016037
-0.8659762144088745,2.8890576362609863,-0.21120287477970123
-0.7984647154808044,2.734177350997925,-0.201070636510849
-0.7733606696128845,2.7210159301757812,-0.20131315290927887
-0.7500830292701721,2.7112410068511963,-0.20176710188388824
-0.7382535338401794,2.7426235675811768,-0.20529046654701233
-0.7189448475837708,2.747635841369629,-0.20678915083408356
-0.7032732367515564,2.7676639556884766,-0.209339901804924
-1.0608012676239014,4.304464340209961,-0.32724255323410034
-0.9755288362503052,4.080474376678467,-0.31174522638320923
-0.9699713587760925,4.185673713684082,-0.3213616609573364
-1.42996346950531,6.373882293701172,-0.49150022864341736
-0.9348094463348389,4.309035301208496,-0.3336540460586548
-1.3143647909164429,6.274970054626465,-0.4879298508167267
-1.2636168003082275,6.249415874481201,-0.4879503846168518
-1.215578317642212,6.234921455383301,-0.48883724212646484
-1.162302017211914,6.19338321685791,-0.48724278807640076
-1.1102547645568848,6.155264377593994,-0.4858751595020294
-0.9952071309089661,5.752258777618408,-0.4556254744529724
-0.9475712776184082,5.712769031524658,-0.4540247619152069
-0.9548120498657227,6.015205383300781,-0.47968417406082153
-0.9125480651855469,6.021623611450195,-0.48142385482788086
-0.8746922016143799,6.0585761070251465,-0.485634982585907
-0.8363106846809387,6.099226474761963,-0.49019771814346313
-0.7853488922119141,6.039111137390137,-0.48664912581443787
-0.7375636696815491,5.997922420501709,-0.48459339141845703
-0.6932944655418396,5.983498573303223,-0.4843142330646515
-0.6471063494682312,5.949400901794434,-0.4824589490890503
-0.6024251580238342,5.922680377960205,-0.4812100827693939
-0.5564829707145691,5.88405179977417,-0.4790186583995819
-0.5115218758583069,5.8411335945129395,-0.4764293134212494
-0.4685022830963135,5.8173322677612305,-0.47503745555877686
-0.2549068033695221,3.46738600730896,-0.2834837734699249
-0.23202292621135712,3.488462209701538,-0.2855626046657562
-0.2087191790342331,3.513293981552124,-0.28797295689582825
-0.2992510199546814,5.707373142242432,-0.4684053659439087
-0.07492982596158981,1.6490044593811035,-0.13540160655975342
-0.061180174350738525,1.5911237001419067,-0.1307203322649002
-0.04899021238088608,1.5564814805984497,-0.12795017659664154
-0.03722032159566879,1.5256446599960327,-0.1254969835281372
-0.027213284745812416,1.5608911514282227,-0.1284792125225067
-0.015824323520064354,1.510435938835144,-0.12430527061223984
-0.00548120541498065,1.5611201524734497,-0.1284610778093338
0.005378639325499535,1.5611213445663452,-0.12845201790332794
0.015816062688827515,1.5026516914367676,-0.12363818287849426
0.02709890715777874,1.5492157936096191,-0.12747226655483246
0.038150519132614136,1.560676097869873,-0.12830910086631775
0.04948490113019943,1.5759483575820923,-0.12946373224258423
0.05849655345082283,1.5250027179718018,-0.12518687546253204
0.07103276997804642,1.5673503875732422,-0.12857511639595032
0.08211721479892731,1.566819190979004,-0.1284482628107071
0.09042062610387802,1.523481845855713,-0.12471550703048706
0.10380680859088898,1.5655704736709595,-0.12797720730304718
0.11578892916440964,1.5803650617599487,-0.12900711596012115
0.12677699327468872,1.5795410871505737,-0.12876586616039276
0.1342245489358902,1.5359586477279663,-0.12504681944847107
0.14886324107646942,1.5776606798171997,-0.1281781792640686
0.15702803432941437,1.5495051145553589,-0.1256283074617386
0.16817891597747803,1.552278995513916,-0.12559573352336884
0.18074168264865875,1.5665738582611084,-0.1264975666999817
0.19370417296886444,1.5807455778121948,-0.12738624215126038
0.20060572028160095,1.548514723777771,-0.12445119023323059
0.21129274368286133,1.5471291542053223,-0.1239967942237854
0.22197024524211884,1.5456697940826416,-0.12354239821434021
0.23387858271598816,1.5518261194229126,-0.12369845807552338
0.24485699832439423,1.5501689910888672,-0.12323030084371567
0.2580777704715729,1.5638571977615356,-0.12389549612998962
0.2688477039337158,1.5620864629745483,-0.12332891672849655
0.2851150333881378,1.5909072160720825,-0.1251746267080307
0.2918982207775116,1.5659576654434204,-0.12278980761766434
0.3042706549167633,1.5715808868408203,-0.12281233817338943
0.31833329796791077,1.584740161895752,-0.12331904470920563
0.3339860737323761,1.605446457862854,-0.12441097944974899
0.3434228003025055,1.5955400466918945,-0.12312968820333481
0.35874202847480774,1.612178087234497,-0.1238953247666359
0.3603515326976776,1.5679367780685425,-0.119988352060318
0.3802643120288849,1.603351354598999,-0.12207997590303421
0.3783106505870819,1.5477839708328247,-0.1172649934887886
0.39279434084892273,1.5603054761886597,-0.11762497574090958
0.4075608253479004,1.572677493095398,-0.11796295642852783
0.4204787313938141,1.5774003267288208,-0.11770255863666534
0.43865689635276794,1.6008068323135376,-0.11875144392251968
0.45595183968544006,1.6203340291976929,-0.11950782686471939
0.4606791138648987,1.5947428941726685,-0.11693473905324936
0.47177010774612427,1.5915642976760864,-0.11601713299751282
0.48952826857566833,1.6107152700424194,-0.11668181419372559
1.394313931465149,4.476027011871338,-0.32206785678863525
1.42482328414917,4.466610431671143,-0.3192589282989502
1.4474072456359863,4.430856227874756,-0.3145524561405182
1.4733058214187622,4.406078815460205,-0.310657799243927
1.4958209991455078,4.373989105224609,-0.3060917854309082
1.2541584968566895,3.587534189224243,-0.24913917481899261
1.2765835523605347,3.5715150833129883,-0.2460707724094391
1.3094618320465088,3.584679126739502,-0.24502362310886383
1.59861421585083,4.284282684326172,-0.2904597222805023
1.6318031549453735,4.284487724304199,-0.2879590690135956
1.656594157218933,4.262634754180908,-0.2839890718460083
1.6867119073867798,4.251031398773193,-0.28061461448669434
1.7162926197052002,4.239393711090088,-0.2772911787033081
1.7421109676361084,4.220638751983643,-0.2733767032623291
1.7645827531814575,4.1946001052856445,-0.2689889967441559
1.7933309078216553,4.182614326477051,-0.26548558473587036
1.8198027610778809,4.162882328033447,-0.2614193558692932
1.8419439792633057,4.136288166046143,-0.2569209933280945
1.8729667663574219,4.131124973297119,-0.25370514392852783
1.8944318294525146,4.104374408721924,-0.2491554468870163
1.9196990728378296,4.084228038787842,-0.24495352804660797
1.9448826313018799,4.063879013061523,-0.24066920578479767
1.9635396003723145,4.033443450927734,-0.2357824146747589
1.9958888292312622,4.03082275390625,-0.2325185090303421
2.0274534225463867,4.024008274078369,-0.22890454530715942
2.046245813369751,3.9928061962127686,-0.22389252483844757
2.0728366374969482,3.979292631149292,-0.21983250975608826
2.0963923931121826,3.95833420753479,-0.21528857946395874
2.1276514530181885,3.9507153034210205,-0.21141816675662994
2.1471033096313477,3.9226198196411133,-0.20643135905265808
2.133244752883911,3.8368983268737793,-0.1984509974718094
2.159191608428955,3.822577476501465,-0.19416165351867676
2.1745777130126953,3.7870936393737793,-0.1886613667011261
2.1998801231384277,3.772669553756714,-0.184260755777359
2.232654094696045,3.7717339992523193,-0.180498868227005
2.250584840774536,3.7430758476257324,-0.17524421215057373
2.2844278812408447,3.7410404682159424,-0.17119264602661133
2.301060199737549,3.7126920223236084,-0.16583551466464996
2.313504219055176,3.677520513534546,-0.16017669439315796
2.34332537651062,3.66807222366333,-0.1555035561323166
2.3714914321899414,3.6594395637512207,-0.15083786845207214
2.3870058059692383,3.630868911743164,-0.1452937126159668
2.408376455307007,3.607556104660034,-0.13965953886508942
2.431856632232666,3.591970443725586,-0.1344030201435089
2.4421136379241943,3.5568201541900635,-0.1283489465713501
2.4668056964874268,3.539940118789673,-0.12269745022058487
2.493830442428589,3.5307109355926514,-0.11729003489017487
2.506317615509033,3.498061180114746,-0.11078348010778427
2.5412843227386475,3.4970972537994385,-0.10513213276863098
2.1741385459899902,2.952975034713745,-0.08400069922208786
2.686058759689331,3.7906103134155273,0.155994713306427
2.6726505756378174,3.833167552947998,0.1633852869272232
2.670522928237915,3.891331195831299,0.1712617725133896
2.6511900424957275,3.9231226444244385,0.17779605090618134
2.6489806175231934,3.985419988632202,0.1856093555688858
2.645578384399414,4.0435051918029785,0.19305625557899475
2.5999674797058105,4.035630226135254,0.1971820443868637
2.5482664108276367,4.022085189819336,0.20087753236293793
2.5306408405303955,4.060554027557373,0.20706883072853088
2.5144150257110596,4.097866535186768,0.21299636363983154
2.4836266040802,4.116344451904297,0.21785829961299896
2.448667287826538,4.127907752990723,0.22232353687286377
2.4316246509552,4.164859294891357,0.2279052585363388
2.39736008644104,4.1754302978515625,0.23207013309001923
2.3699440956115723,4.199769020080566,0.23684830963611603
2.2920103073120117,4.131368160247803,0.236258864402771
2.248202085494995,4.119619846343994,0.23869715631008148
2.207322835922241,4.114895820617676,0.24143247306346893
2.2125301361083984,4.200249195098877,0.2494804710149765
2.178570508956909,4.2089524269104,0.25289857387542725
2.1456210613250732,4.216870307922363,0.2561756670475006
2.1153371334075928,4.231921672821045,0.25980502367019653
2.0875370502471924,4.254174709320068,0.263802707195282
2.059389591217041,4.276307582855225,0.26782703399658203
2.03279447555542,4.297430515289307,0.27166324853897095
1.999171495437622,4.30436372756958,0.2745741307735443
1.9642791748046875,4.311622619628906,0.2773517072200775
2.005772352218628,4.489476680755615,0.2911994159221649
4.441446304321289,10.131447792053223,0.6623615622520447
4.4111762046813965,10.25888442993164,0.6760050058364868
1.9203717708587646,4.5556769371032715,0.30237364768981934
1.8960952758789062,4.5909528732299805,0.30683863162994385
1.8497086763381958,4.571806907653809,0.3076625168323517
