X,Y,Z
-1.643648386001587,3.546842336654663,-0.19548538327217102
-1.5981016159057617,3.5160694122314453,-0.19613096117973328
-1.5662875175476074,3.5131142139434814,-0.19825726747512817
-1.5214447975158691,3.477322816848755,-0.19841918349266052
-1.47869074344635,3.444676637649536,-0.1987164467573166
-1.4311753511428833,3.40114426612854,-0.19821637868881226
-1.3868539333343506,3.364520788192749,-0.1981029212474823
-1.329661250114441,3.2908244132995605,-0.1956479549407959
-1.2865896224975586,3.249100685119629,-0.19501887261867523
-1.2634013891220093,3.2580485343933105,-0.19732286036014557
-1.2081396579742432,3.183039903640747,-0.19447600841522217
-1.1798171997070312,3.176875591278076,-0.1957930326461792
-1.137703537940979,3.1298999786376953,-0.1945154219865799
-1.110458254814148,3.1229920387268066,-0.19565078616142273
-1.0906835794448853,3.1380867958068848,-0.19808541238307953
-1.0470008850097656,3.082881450653076,-0.19606132805347443
-1.0177122354507446,3.067913055419922,-0.19656266272068024
-0.986673891544342,3.0451438426971436,-0.1965235322713852
-0.9520489573478699,3.0110843181610107,-0.19561924040317535
-0.9213500022888184,2.987884521484375,-0.19538533687591553
-0.8935412764549255,2.9717912673950195,-0.19558781385421753
-0.8651248812675476,2.951653003692627,-0.1955002099275589
-0.831211507320404,2.912658214569092,-0.1941196471452713
-0.8042060732841492,2.8958659172058105,-0.19406993687152863
-0.7805548310279846,2.8901216983795166,-0.19475674629211426
-0.7564422488212585,2.8803136348724365,-0.195148304104805
-0.7267212867736816,2.8476505279541016,-0.19398149847984314
-0.7026125192642212,2.837545394897461,-0.19426865875720978
-0.6743019223213196,2.8082590103149414,-0.1931580901145935
-0.6474187970161438,2.782491445541382,-0.19227440655231476
-0.6297801733016968,2.794445514678955,-0.1939866691827774
-0.6086848974227905,2.7910563945770264,-0.19464321434497833
-0.5750480890274048,2.7304351329803467,-0.19119152426719666
-0.40519979596138,1.9934778213500977,-0.1401263177394867
-0.386695921421051,1.9732768535614014,-0.13924255967140198
-0.3729494512081146,1.9758702516555786,-0.1399632692337036
-0.3591855466365814,1.978367567062378,-0.14068393409252167
-0.34165647625923157,1.9616516828536987,-0.13994257152080536
-0.32654908299446106,1.9562796354293823,-0.13999372720718384
-0.3140602707862854,1.966172695159912,-0.1411420702934265
-0.29919999837875366,1.9605636596679688,-0.14118114113807678
-0.28331097960472107,1.9471319913864136,-0.14065849781036377
-0.268319696187973,1.9413535594940186,-0.14057569205760956
-0.25367772579193115,1.9354288578033447,-0.14047929644584656
-0.2410999834537506,1.9448543787002563,-0.1415027529001236
-0.2266613245010376,1.9387115240097046,-0.1413986086845398
-0.21230171620845795,1.9324644804000854,-0.14128971099853516
-0.19796733558177948,1.9261282682418823,-0.14105798304080963
-0.18422044813632965,1.927466630935669,-0.1413988322019577
-0.16939514875411987,1.9131577014923096,-0.14059141278266907
-0.15674521028995514,1.92202889919281,-0.14149203896522522
-0.14282144606113434,1.9152765274047852,-0.14124928414821625
-0.13495971262454987,1.9978349208831787,-0.14748457074165344
-0.1226578950881958,2.029834747314453,-0.15000471472740173
-0.11142891645431519,2.0850846767425537,-0.15425421297550201
-0.09891260415315628,2.1285979747772217,-0.15765057504177094
-0.0867382064461708,2.195389747619629,-0.16278773546218872
-0.07371388375759125,2.2660162448883057,-0.16809123754501343
-0.058328207582235336,2.293734550476074,-0.17021535336971283
-0.04336433485150337,2.3486058712005615,-0.1743641197681427
-0.028243262320756912,2.454015016555786,-0.1822787970304489
-0.011387775652110577,2.5047852993011475,-0.18614980578422546
0.005998573265969753,2.4892241954803467,-0.18495824933052063
0.02362329326570034,2.489123582839966,-0.18490366637706757
0.040554095059633255,2.4655330181121826,-0.18311434984207153
0.05841198191046715,2.496351480484009,-0.1853748857975006
0.07554024457931519,2.4881012439727783,-0.18474285304546356
0.09221475571393967,2.4719595909118652,-0.18340276181697845
0.11003956198692322,2.486844062805176,-0.1843412220478058
0.12581047415733337,2.4510066509246826,-0.1815270334482193
0.1444747895002365,2.477309465408325,-0.18332673609256744
0.162220299243927,2.484034776687622,-0.18368466198444366
0.17889323830604553,2.475102663040161,-0.18277762830257416
0.19851014018058777,2.504899024963379,-0.184695303440094
0.21352003514766693,2.472411870956421,-0.18202424049377441
0.22852620482444763,2.4476218223571777,-0.1799391508102417
0.24514377117156982,2.442125082015991,-0.1792840212583542
0.26577866077423096,2.475268840789795,-0.18135875463485718
0.28461259603500366,2.4888992309570312,-0.181954026222229
0.3002381920814514,2.471404790878296,-0.18027456104755402
0.31297630071640015,2.434514045715332,-0.1772010177373886
0.32676517963409424,2.409151554107666,-0.17498467862606049
0.3467312455177307,2.430020570755005,-0.17603927850723267
0.36005133390426636,2.40449595451355,-0.1736917346715927
0.3757404386997223,2.3942556381225586,-0.17245450615882874
0.39361992478370667,2.399327039718628,-0.17233465611934662
0.41292375326156616,2.4119434356689453,-0.17275986075401306
0.44116705656051636,2.4743094444274902,-0.17664451897144318
0.45817050337791443,2.4712769985198975,-0.17580485343933105
0.47959446907043457,2.4910829067230225,-0.176591694355011
0.5010654926300049,2.5067882537841797,-0.1770673394203186
0.5169471502304077,2.495663642883301,-0.17566435039043427
0.5374318957328796,2.507345199584961,-0.17576490342617035
0.551296591758728,2.4884395599365234,-0.1736900508403778
0.5753988027572632,2.5150420665740967,-0.17479351162910461
0.6057432293891907,2.5640783309936523,-0.17741906642913818
0.6254094839096069,2.5674490928649902,-0.1768890768289566
0.6477547883987427,2.582080602645874,-0.17700837552547455
0.6712414622306824,2.6003172397613525,-0.17734847962856293
0.6931596994400024,2.610779047012329,-0.17714571952819824
0.7178316712379456,2.62844181060791,-0.1774003505706787
0.7455999851226807,2.6572418212890625,-0.17840532958507538
0.7637596130371094,2.6521730422973633,-0.17700594663619995
0.7907192707061768,2.676888942718506,-0.1775907576084137
0.819403350353241,2.7050251960754395,-0.1783728450536728
0.8385732173919678,2.699241876602173,-0.17688661813735962
0.8666954636573792,2.7231922149658203,-0.17732110619544983
0.8924742937088013,2.7395708560943604,-0.17716243863105774
0.9185378551483154,2.7557170391082764,-0.17697565257549286
0.943980872631073,2.7678184509277344,-0.17649465799331665
0.9709426164627075,2.783372640609741,-0.1762225329875946
1.0033997297286987,2.8133857250213623,-0.1767382025718689
1.0318316221237183,2.8322665691375732,-0.1765177696943283
1.062103271484375,2.854480743408203,-0.1764729768037796
1.087522029876709,2.8617048263549805,-0.17546343803405762
1.1073514223098755,2.854208469390869,-0.17353284358978271
1.1485174894332886,2.9010326862335205,-0.17476274073123932
1.1856416463851929,2.936718225479126,-0.1753040850162506
1.2253708839416504,2.9754035472869873,-0.17593567073345184
1.264207124710083,3.010072946548462,-0.17628559470176697
1.2815628051757812,2.9943735599517822,-0.1735868752002716
1.130549669265747,2.592325210571289,-0.14868856966495514
1.148350715637207,2.5846052169799805,-0.14665357768535614
1.161480188369751,2.566006898880005,-0.14399632811546326
1.1757079362869263,2.55104660987854,-0.1415223628282547
1.1994123458862305,2.557351589202881,-0.14019301533699036
1.2254955768585205,2.566709280014038,-0.1389613300561905
1.2535431385040283,2.5793018341064453,-0.1378779411315918
1.636082649230957,3.308790683746338,-0.17456166446208954
1.715987205505371,3.4129891395568848,-0.17759902775287628
1.7763466835021973,3.474421977996826,-0.17824988067150116
1.3953860998153687,2.6831536293029785,-0.13562442362308502
1.4012272357940674,2.6493735313415527,-0.13184252381324768
1.418784260749817,2.6401383876800537,-0.12930959463119507
1.4292219877243042,2.6168549060821533,-0.12605485320091248
1.4209321737289429,2.559168815612793,-0.1211434081196785
1.4094314575195312,2.4986376762390137,-0.11615116149187088
1.344728708267212,2.3469693660736084,-0.10703950375318527
1.3333709239959717,2.2905380725860596,-0.10239729285240173
1.3393139839172363,2.2645325660705566,-0.09915711730718613
1.3260234594345093,2.2089438438415527,-0.09464547783136368
1.3366492986679077,2.193498134613037,-0.09187737107276917
1.3521696329116821,2.1840741634368896,-0.08923644572496414
1.3584489822387695,2.161857843399048,-0.08611094951629639
1.3725028038024902,2.153064727783203,-0.0835280567407608
1.3874268531799316,2.1435835361480713,-0.08077330887317657
1.3911927938461304,2.117924928665161,-0.07741530984640121
1.4137648344039917,2.121818780899048,-0.07509185373783112
1.41958749294281,2.099201202392578,-0.07172095775604248
1.433647632598877,2.0897226333618164,-0.06878651678562164
1.4380426406860352,2.0677976608276367,-0.06545267254114151
1.438822865486145,2.038740634918213,-0.06171545758843422
1.4523282051086426,2.0292365550994873,-0.0585332065820694
1.4471666812896729,1.994537591934204,-0.05461439490318298
1.4584563970565796,1.9815404415130615,-0.051141172647476196
3.174173355102539,4.478151798248291,0.18682220578193665
2.614957571029663,3.7448196411132812,0.16148975491523743
2.5836384296417236,3.7614970207214355,0.1673809438943863
3.078843593597412,4.552722930908203,0.2084103226661682
2.9722416400909424,4.464132785797119,0.20975995063781738
2.92931866645813,4.47346305847168,0.21550756692886353
2.9103550910949707,4.513427734375,0.22232136130332947
1.6166882514953613,2.5470499992370605,0.12815643846988678
1.6176100969314575,2.5924124717712402,0.13315968215465546
1.5826550722122192,2.5771734714508057,0.13486827909946442
3.0221738815307617,4.999063014984131,0.26630064845085144
3.014383554458618,5.071666240692139,0.27474114298820496
2.9768078327178955,5.093502998352051,0.2804127335548401
2.911370038986206,5.063487529754639,0.2830275297164917
2.7789559364318848,4.914137363433838,0.27865689992904663
2.719461679458618,4.8935322761535645,0.2813369631767273
2.6448540687561035,4.840826988220215,0.2819671928882599
2.5907504558563232,4.821069240570068,0.28432855010032654
2.533534049987793,4.798240661621094,0.2864204943180084
2.463867425918579,4.750787734985352,0.28683820366859436
2.404906749725342,4.7194437980651855,0.28807225823402405
2.3561251163482666,4.7045111656188965,0.2901895344257355
2.3017451763153076,4.679007053375244,0.2915428578853607
1.2205963134765625,2.5288302898406982,0.15911433100700378
1.1955476999282837,2.5233888626098633,0.1602613627910614
1.1878024339675903,2.5527501106262207,0.16357272863388062
1.1666560173034668,2.5537853240966797,0.1650782823562622
1.1479599475860596,2.562122344970703,0.16695573925971985
1.1401607990264893,2.5953195095062256,0.17047670483589172
1.8142564296722412,4.211092472076416,0.27876514196395874
1.7848179340362549,4.223459720611572,0.28169363737106323
1.7412630319595337,4.203457355499268,0.2823611795902252
1.7106409072875977,4.215827465057373,0.2851044237613678
1.6829904317855835,4.2351484298706055,0.2883247137069702
1.6571823358535767,4.2576823234558105,0.2917481064796448
1.635817050933838,4.29079532623291,0.29589322209358215
1.6500364542007446,4.422737121582031,0.30677729845046997
1.6326926946640015,4.474661350250244,0.3121272325515747
1.9070465564727783,5.345115661621094,0.37492409348487854
1.8935288190841675,5.4282026290893555,0.3828459084033966
1.8707581758499146,5.4853196144104,0.38896456360816956
1.888236403465271,5.668415069580078,0.4039134085178375
1.9184693098068237,5.900330066680908,0.4224121868610382
1.8878809213638306,5.950875282287598,0.42802613973617554
1.8628661632537842,6.019758701324463,0.4349914789199829
1.8321197032928467,6.0696940422058105,0.44060346484184265
1.8033249378204346,6.130932807922363,0.44690439105033875
1.7785462141036987,6.210964679718018,0.4544800817966461
1.74753999710083,6.272164344787598,0.46073150634765625
1.7179031372070312,6.336689472198486,0.46723413467407227
1.6799535751342773,6.3748674392700195,0.4718608856201172
1.6410694122314453,6.408932209014893,0.47611314058303833
1.5840219259262085,6.374933242797852,0.4750516414642334
0.792972207069397,3.291428804397583,0.2460387647151947
0.7786118984222412,3.3347864151000977,0.2500561475753784
1.4316996335983276,6.334482669830322,0.4764895737171173
1.3717573881149292,6.2718186378479,0.47325485944747925
1.3241127729415894,6.265977382659912,0.4740618169307709
1.2662714719772339,6.210207939147949,0.47101426124572754
1.2063473463058472,6.138638019561768,0.4667627215385437
1.1570372581481934,6.116271495819092,0.4662514328956604
1.1158616542816162,6.13170051574707,0.4686180353164673
1.0616856813430786,6.073968887329102,0.4653540849685669
1.016151785850525,6.065846920013428,0.46559393405914307
0.9732515215873718,6.0727691650390625,0.4670095443725586
0.9297546744346619,6.079470157623291,0.46844324469566345
0.7384977340698242,5.064337730407715,0.3909851014614105
0.7208541035652161,5.1965813636779785,0.4019947350025177
0.6834704279899597,5.193691253662109,0.40245693922042847
0.649756133556366,5.22149658203125,0.4051487445831299
0.6138157248497009,5.233616828918457,0.406647652387619
0.577416718006134,5.245523452758789,0.4081569015979767
0.5361452698707581,5.202853202819824,0.40542179346084595
0.49443066120147705,5.148231029510498,0.40176209807395935
0.370403915643692,4.162325859069824,0.32516029477119446
0.3393019139766693,4.141496658325195,0.3237946629524231
0.3124007284641266,4.178724765777588,0.3269895911216736
0.2808956801891327,4.145796775817871,0.32470449805259705
0.2534931004047394,4.170936584472656,0.3269815146923065
0.2259637415409088,4.199782848358154,0.3295687437057495
0.3642783463001251,7.783961296081543,0.6111044883728027
0.30693089962005615,7.7357378005981445,0.607527494430542
0.2518738806247711,7.706524848937988,0.6054674983024597
0.19767750799655914,7.684701919555664,0.6040146350860596
0.1439429670572281,7.670287132263184,0.6031718850135803
0.08991259336471558,7.6126627922058105,0.598957359790802
0.035966843366622925,7.605323791503906,0.5983042120933533
-0.01685612089931965,7.562560558319092,0.5948446393013
-0.02164410427212715,2.3559072017669678,0.18528667092323303
-0.038224536925554276,2.367382764816284,0.18617738783359528
-0.05181710049510002,2.2424798011779785,0.17635197937488556
-0.06472691893577576,2.1525399684906006,0.16928459703922272
-0.08238391578197479,2.218197822570801,0.17433299124240875
-0.09125468134880066,2.0697457790374756,0.16256596148014069
-0.10561347007751465,2.0690743923187256,0.1624211221933365
-0.11769146472215652,2.0294265747070312,0.1592261642217636
-0.12899325788021088,1.985824465751648,0.1557316929101944
-0.13740882277488708,1.9071905612945557,0.1494906097650528
-0.15024754405021667,1.9023345708847046,0.14894379675388336
-0.16335920989513397,1.9012724161148071,0.14870142936706543
-0.17826403677463531,1.919508934020996,0.14997397363185883
-0.1908370852470398,1.9104913473129272,0.14912201464176178
-0.20599381625652313,1.924604058265686,0.1500799059867859
-0.21844600141048431,1.915412187576294,0.14920642971992493
-0.23256440460681915,1.9216235876083374,0.14944864809513092
-0.2754405736923218,2.151798725128174,0.16708716750144958
-0.29287707805633545,2.1691784858703613,0.16817866265773773
-0.3076735734939575,2.1632277965545654,0.16746097803115845
-0.3215634822845459,2.15336275100708,0.16645416617393494
-0.3292315602302551,2.1049437522888184,0.1624353528022766
-0.3197817802429199,1.9566045999526978,0.1506672501564026
-0.33187997341156006,1.9467239379882812,0.14959339797496796
-0.3480212390422821,1.9597667455673218,0.15028512477874756
-0.36187925934791565,1.9572936296463013,0.1497839242219925
-0.37695544958114624,1.962417483329773,0.14987550675868988
-0.392728716135025,1.9712817668914795,0.15018804371356964
-0.7541194558143616,3.6548798084259033,0.27771466970443726
-0.7790689468383789,3.649728536605835,0.27659177780151367
-0.9508522152900696,4.306150436401367,0.3254639208316803
-0.9824428558349609,4.307147026062012,0.32468876242637634
-1.0123497247695923,4.300317764282227,0.323336660861969
-1.036029577255249,4.270742416381836,0.3200635313987732
-1.0649871826171875,4.263731479644775,0.3184897303581238
-1.0945082902908325,4.256369113922119,0.3168826699256897
-1.1200737953186035,4.233713626861572,0.31415310502052307
-1.1494678258895874,4.22594690322876,0.31254714727401733
-1.1753675937652588,4.206805229187012,0.310030072927475
-1.1995317935943604,4.183900356292725,0.3071216940879822
-1.228342890739441,4.1756672859191895,0.30528724193573
-1.2525568008422852,4.152323246002197,0.30236855149269104
-1.279118299484253,4.136195182800293,0.2999831736087799
-1.3101862668991089,4.134769439697266,0.2986803352832794
-1.3380378484725952,4.125987529754639,0.29664647579193115
-1.361379623413086,4.102071285247803,0.293512761592865
-1.3842717409133911,4.078089714050293,0.2904074788093567
-1.4177507162094116,4.083227634429932,0.2893582880496979
-1.4461888074874878,4.073391437530518,0.28725501894950867
-1.471170425415039,4.056301116943359,0.28451108932495117
-1.4930317401885986,4.0318427085876465,0.28120940923690796
-1.5207048654556274,4.02164888381958,0.2788885533809662
-1.542972207069397,3.996610164642334,0.2755410969257355
-1.5792570114135742,4.007723808288574,0.2746965289115906
-1.600597858428955,3.9826154708862305,0.27126017212867737
-1.6227035522460938,3.961193323135376,0.2680274248123169
-1.6511660814285278,3.953810930252075,0.2657221853733063
-1.6786717176437378,3.9423866271972656,0.2631162405014038
-1.7014071941375732,3.920053243637085,0.2598021924495697
-1.7183696031570435,3.8872601985931396,0.2556954622268677
-1.7474195957183838,3.883021116256714,0.25343355536460876
-1.7675191164016724,3.856945276260376,0.24970212578773499
-1.7877728939056396,3.830575704574585,0.24594545364379883
-1.8244692087173462,3.839338779449463,0.24445100128650665
-1.8362910747528076,3.7992641925811768,0.23970137536525726
-1.8580126762390137,3.7801852226257324,0.23630474507808685
-1.877392292022705,3.7533559799194336,0.2323310524225235
-1.9034777879714966,3.740385055541992,0.22924260795116425
-1.9358904361724854,3.7414803504943848,0.2269434630870819
-1.953216552734375,3.715038537979126,0.22291821241378784
-1.9817874431610107,3.708918571472168,0.22007879614830017
-2.015129566192627,3.708878517150879,0.2174924910068512
-1.6939066648483276,3.066575050354004,0.17761224508285522
-1.7177982330322266,3.062372922897339,0.1750989407300949
-0.8343040943145752,1.4645016193389893,0.08263098448514938
-0.8445031046867371,1.4587275981903076,0.08114516735076904
-0.8505122065544128,1.4462686777114868,0.07928302139043808
-0.8600778579711914,1.4406843185424805,0.07774975150823593
-0.8696512579917908,1.4350084066390991,0.07620909065008163
-0.8796108365058899,1.4290101528167725,0.07459966093301773
-0.8725841045379639,1.3967151641845703,0.07162290811538696
-0.8940843343734741,1.4109340906143188,0.07102172821760178
-0.8806334137916565,1.3686727285385132,0.06749232113361359
-0.8730431199073792,1.3364651203155518,0.0645153820514679
-0.8901968002319336,1.3439501523971558,0.06343637406826019
-2.390280246734619,3.557490348815918,0.163945734500885
-1.5676970481872559,2.2667291164398193,0.0989656150341034
-1.427831768989563,2.0360231399536133,0.0863070860505104
-1.4070245027542114,1.8975180387496948,0.0693199560046196
-1.3025447130203247,1.9843127727508545,-0.08065561950206757
-1.24672532081604,1.9597160816192627,-0.08474413305521011
-0.7896633148193359,1.369140863418579,-0.06861544400453568
-0.8163977861404419,1.4391809701919556,-0.07359679788351059
-1.7141392230987549,3.0741891860961914,-0.16030839085578918
-1.688655138015747,3.0791757106781006,-0.1635233759880066
-1.8597893714904785,3.447834014892578,-0.18635597825050354
-1.7774378061294556,3.354494571685791,-0.18444277346134186
-1.8737679719924927,3.598949909210205,-0.20114243030548096
-1.8450334072113037,3.6047861576080322,-0.20459751784801483
-1.745872974395752,3.4711523056030273,-0.19998405873775482
-1.710151195526123,3.462594747543335,-0.2023860067129135
-1.6559491157531738,3.415081739425659,-0.2024519145488739
-1.583425760269165,3.3242347240448,-0.19970999658107758
-1.5415959358215332,3.2963387966156006,-0.20060129463672638
-1.4916162490844727,3.2505252361297607,-0.2002820372581482
-1.4443984031677246,3.207540512084961,-0.20002079010009766
-1.4156644344329834,3.2030937671661377,-0.20207469165325165
-1.350679636001587,3.1164181232452393,-0.1988591104745865
-1.3174983263015747,3.100778579711914,-0.1999901384115219
-1.277368187904358,3.0667240619659424,-0.1998731940984726
-1.2470855712890625,3.0537378787994385,-0.20105242729187012
-1.2067484855651855,3.0152065753936768,-0.20048309862613678
-1.1647483110427856,2.972968578338623,-0.19954989850521088
-1.1364446878433228,2.962874412536621,-0.2007022351026535
-1.1020787954330444,2.9340660572052,-0.20051297545433044
-1.0708820819854736,2.9122354984283447,-0.20076891779899597
-1.0329418182373047,2.8719658851623535,-0.1996004730463028
-1.0068718194961548,2.8645389080047607,-0.2007097601890564
-0.9651932716369629,2.808734178543091,-0.19834232330322266
-0.9430922865867615,2.807868719100952,-0.1998155117034912
-0.9111086130142212,2.77728533744812,-0.19908744096755981
-0.8853264451026917,2.765026807785034,-0.19958220422267914
-0.8537145853042603,2.7340190410614014,-0.19872300326824188
-0.8221348524093628,2.698775291442871,-0.19747956097126007
-0.8043810129165649,2.7080578804016113,-0.19948726892471313
-0.7688663005828857,2.6574461460113525,-0.19692446291446686
-0.7499423623085022,2.6627328395843506,-0.1984836608171463
-0.7178553342819214,2.6189661026000977,-0.19635888934135437
-0.6932738423347473,2.6012818813323975,-0.19617892801761627
-0.6750600934028625,2.605959177017212,-0.1976187527179718
-0.652803897857666,2.595456123352051,-0.19781288504600525
-0.6325986981391907,2.5923337936401367,-0.19856955111026764
-0.6028396487236023,2.5473039150238037,-0.19609136879444122
-0.583020031452179,2.543820381164551,-0.19681565463542938
-0.563448965549469,2.5401554107666016,-0.19741447269916534
-0.5373221039772034,2.5059022903442383,-0.19556282460689545
-0.42726510763168335,2.06331205368042,-0.16169366240501404
-0.3953336477279663,1.9783265590667725,-0.1556757539510727
-0.3798418939113617,1.973359227180481,-0.1559421718120575
-0.36456069350242615,1.9682586193084717,-0.1560913771390915
-0.3472879230976105,1.9515475034713745,-0.15529367327690125
-0.33621662855148315,1.9692320823669434,-0.15723775327205658
-0.3212442994117737,1.9637811183929443,-0.15734034776687622
-0.3061464726924896,1.958250880241394,-0.1574486643075943
-0.2923913598060608,1.9603043794631958,-0.15803839266300201
-0.277533620595932,1.954551100730896,-0.15799273550510406
-0.26176393032073975,1.9409643411636353,-0.15731559693813324
-0.24922572076320648,1.9504189491271973,-0.15850992500782013
-0.23283562064170837,1.928868293762207,-0.15718866884708405
-0.22082281112670898,1.9459192752838135,-0.15889091789722443
-0.20471328496932983,1.9241540431976318,-0.1574217826128006
-0.19203142821788788,1.9332513809204102,-0.1584821194410324
-0.17643682658672333,1.911244511604309,-0.15699614584445953
-0.16312529146671295,1.9123923778533936,-0.15741367638111115
-0.1501314491033554,1.9212427139282227,-0.15834036469459534
-0.1383606344461441,1.9455211162567139,-0.160546213388443
-0.1285165697336197,2.0046916007995605,-0.16564777493476868
-0.11812935769557953,2.0676987171173096,-0.17108690738677979
-0.10550593584775925,2.103437900543213,-0.17428526282310486
-0.093594990670681,2.174128293991089,-0.18024465441703796
-0.08082114905118942,2.2408511638641357,-0.18588882684707642
-0.06623584777116776,2.276366949081421,-0.1889583170413971
-0.0507492870092392,2.2923264503479004,-0.19041624665260315
-0.03459098935127258,2.277040481567383,-0.1892859935760498
-0.018462494015693665,2.277228593826294,-0.1892833262681961
-0.0026100031100213528,2.257838249206543,-0.18766292929649353
0.013194985687732697,2.2733726501464844,-0.18895454704761505
0.02858053334057331,2.242086410522461,-0.18636354804039001
0.04500853642821312,2.284646511077881,-0.18991994857788086
0.06055961549282074,2.2726190090179443,-0.1887781172990799
0.07661624997854233,2.272149085998535,-0.18860124051570892
0.09144158661365509,2.2482385635375977,-0.18649153411388397
0.10781051218509674,2.2631168365478516,-0.1876087188720703
0.12398603558540344,2.2701003551483154,-0.18807917833328247
0.13923977315425873,2.261442184448242,-0.18710997700691223
0.1546528935432434,2.2526636123657227,-0.18613123893737793
0.17174966633319855,2.2709736824035645,-0.1874026358127594
0.18594200909137726,2.250351905822754,-0.18546971678733826
0.20298397541046143,2.2645416259765625,-0.18641534447669983
0.22050483524799347,2.282500982284546,-0.1875135749578476
0.23657067120075226,2.2809340953826904,-0.1869979053735733
0.2515309154987335,2.271540403366089,-0.18585659563541412
0.267322301864624,2.269777536392212,-0.1853489875793457
0.2860149145126343,2.291084051132202,-0.18673008680343628
0.3018338084220886,2.289107084274292,-0.18607015907764435
0.31576648354530334,2.2715582847595215,-0.1841423511505127
0.3315050005912781,2.2693686485290527,-0.1834786832332611
0.35198408365249634,2.297856092453003,-0.18529640138149261
0.37042897939682007,2.3107852935791016,-0.1858576089143753
0.38632529973983765,2.3082480430603027,-0.18502186238765717
0.4035426378250122,2.3132736682891846,-0.18479901552200317
0.41985082626342773,2.310438394546509,-0.1839396357536316
0.4359419643878937,2.307523727416992,-0.18309065699577332
0.4520152807235718,2.304497241973877,-0.18222706019878387
0.4694284200668335,2.3090415000915527,-0.18183006346225739
0.4877275824546814,2.3172664642333984,-0.18172530829906464
0.5032579898834229,2.310037612915039,-0.18039579689502716
0.5201883912086487,2.3103561401367188,-0.17967543005943298
0.5362105369567871,2.306771755218506,-0.17862583696842194
0.5665555596351624,2.3637354373931885,-0.18214154243469238
0.5930372476577759,2.4014832973480225,-0.18414649367332458
0.6119245886802673,2.4048757553100586,-0.18348006904125214
0.628675103187561,2.4006447792053223,-0.1822512149810791
0.6493042707443237,2.4113879203796387,-0.1820984184741974
0.6762043833732605,2.4445347785949707,-0.18353967368602753
0.6982865929603577,2.45868182182312,-0.18353725969791412
0.7156655192375183,2.4537880420684814,-0.18208132684230804
0.7438991069793701,2.486182928085327,-0.18340273201465607
0.7586559057235718,2.4736826419830322,-0.18131299316883087
0.789531409740448,2.513176441192627,-0.1829874962568283
0.8103819489479065,2.518932342529297,-0.18217690289020538
0.8306754231452942,2.520642042160034,-0.18103478848934174
0.8556571006774902,2.537081241607666,-0.18095631897449493
0.8830955028533936,2.560793876647949,-0.18125590682029724
0.9199662208557129,2.609982967376709,-0.18332120776176453
0.9406841993331909,2.611006736755371,-0.18195366859436035
0.9561551809310913,2.5972065925598145,-0.17955537140369415
0.9880090951919556,2.6270830631256104,-0.18007758259773254
1.0323512554168701,2.6896088123321533,-0.18275727331638336
1.0535616874694824,2.6898884773254395,-0.1811574548482895
1.0853019952774048,2.7152082920074463,-0.18119759857654572
1.1218163967132568,2.7510666847229004,-0.18188810348510742
1.1526892185211182,2.7722413539886475,-0.18143974244594574
1.1729248762130737,2.768127202987671,-0.1793549507856369
1.1272203922271729,2.6096978187561035,-0.16732560098171234
1.1453958749771118,2.6019163131713867,-0.16506166756153107
1.145471453666687,2.555088996887207,-0.16027285158634186
1.1694414615631104,2.561513662338257,-0.15880002081394196
1.1870859861373901,2.5535314083099365,-0.15641936659812927
1.2098636627197266,2.555917263031006,-0.154653862118721
1.2509011030197144,2.5969836711883545,-0.1551382690668106
1.4913917779922485,3.0440738201141357,-0.17946264147758484
1.5596199035644531,3.128021240234375,-0.18185096979141235
1.5955121517181396,3.145087242126465,-0.18026477098464966
1.4379485845565796,2.787659168243408,-0.15743164718151093
1.3695850372314453,2.612292766571045,-0.14529116451740265
1.3177311420440674,2.472154140472412,-0.1353149563074112
1.346056342124939,2.4836554527282715,-0.13371121883392334
1.3949464559555054,2.5326836109161377,-0.1339768022298813
1.436463713645935,2.5678062438964844,-0.13344413042068481
1.4291595220565796,2.513838529586792,-0.12817832827568054
1.4231114387512207,2.4634790420532227,-0.12317013740539551
1.4018199443817139,2.39021897315979,-0.11708341538906097
1.3761521577835083,2.3103270530700684,-0.11073335260152817
1.353845477104187,2.2373616695404053,-0.10480865836143494
1.3483986854553223,2.1951005458831787,-0.1004142165184021
1.3627541065216064,2.1863460540771484,-0.09757892042398453
1.3653504848480225,2.157188892364502,-0.09371960163116455
1.3845057487487793,2.154362440109253,-0.09095461666584015
1.3792937994003296,2.1160078048706055,-0.08674782514572144
1.4023247957229614,2.1196916103363037,-0.08415672183036804
1.4080578088760376,2.0972273349761963,-0.08047682791948318
1.417093276977539,2.0818121433258057,-0.07708258926868439
1.4359650611877441,2.078463077545166,-0.07390429079532623
1.427555799484253,2.0368635654449463,-0.06938860565423965
1.4246824979782104,2.005549430847168,-0.06530169397592545
1.450000286102295,2.011556625366211,-0.062167346477508545
1.4629356861114502,2.0022783279418945,-0.05852498859167099
1.4761191606521606,1.9926882982254028,-0.05469526723027229
3.075201988220215,4.303386211395264,0.19880308210849762
3.0711915493011475,4.368041038513184,0.20896463096141815
2.592449903488159,3.745103359222412,0.18488070368766785
2.594252586364746,3.805105209350586,0.19330129027366638
2.8821120262145996,4.29793643951416,0.2243550419807434
2.816884756088257,4.265994071960449,0.2281755954027176
2.7623982429504395,4.250025272369385,0.23267999291419983
1.6371145248413086,2.5610501766204834,0.14330491423606873
1.626965880393982,2.585766315460205,0.14761444926261902
1.5882478952407837,2.5637450218200684,0.14916059374809265
2.58558988571167,4.244724273681641,0.2514302730560303
2.5657293796539307,4.283733367919922,0.2581833600997925
2.9795007705688477,5.053952693939209,0.3094630837440491
2.950575351715088,5.088564872741699,0.3163498640060425
2.823511838912964,4.954281806945801,0.31253582239151
2.759462356567383,4.922929763793945,0.3148306608200073
2.6849069595336914,4.870319843292236,0.31565168499946594
2.6231725215911865,4.841502666473389,0.3177035450935364
2.552286386489868,4.795133113861084,0.318485826253891
2.503781318664551,4.78513765335083,0.3214481770992279
2.439910888671875,4.743279457092285,0.3221765160560608
2.3782799243927,4.708734035491943,0.3232385814189911
2.3000876903533936,4.638566017150879,0.3216516971588135
1.2358710765838623,2.5375869274139404,0.17766693234443665
1.2433668375015259,2.598741054534912,0.18365074694156647
1.1932735443115234,2.540363073348999,0.1811361312866211
1.1811225414276123,2.563058853149414,0.18430998921394348
1.1525241136550903,2.550246238708496,0.18494629859924316
1.1457734107971191,2.583012819290161,0.18881182372570038
1.1168227195739746,2.5657835006713867,0.18903358280658722
1.7817845344543457,4.175983428955078,0.3098697066307068
1.7512648105621338,4.188640594482422,0.31300777196884155
1.7209392786026,4.200957775115967,0.3161165118217468
1.6974068880081177,4.227096080780029,0.32021135091781616
1.6691240072250366,4.242305278778076,0.323459655046463
1.6494921445846558,4.283179759979248,0.3285209834575653
1.6266443729400635,4.316679954528809,0.3330548405647278
1.5875316858291626,4.306093692779541,0.33418524265289307
1.590474009513855,4.408475875854492,0.3440774977207184
1.9676997661590576,5.576542377471924,0.43763694167137146
2.0631635189056396,5.9844255447387695,0.47196248173713684
2.007394552230835,5.962000846862793,0.47251418232917786
1.9511674642562866,5.9352803230285645,0.47270217537879944
1.9002418518066406,5.91879940032959,0.4736344516277313
1.8751254081726074,5.983709335327148,0.48107433319091797
1.853711724281311,6.0675530433654785,0.4897947311401367
1.8145217895507812,6.095397472381592,0.4940479099750519
1.783196210861206,6.149006366729736,0.5004064440727234
1.7480268478393555,6.191227912902832,0.5058867931365967
1.722399353981018,6.266842365264893,0.5141159296035767
1.6948708295822144,6.342662811279297,0.5221232175827026
1.6689807176589966,6.429791450500488,0.5310503244400024
1.6135755777359009,6.403547286987305,0.5306438207626343
1.5542536973953247,6.35787296295166,0.5286183953285217
0.7805638313293457,3.2921335697174072,0.27462613582611084
1.459975004196167,6.355790615081787,0.5318289399147034
1.402854561805725,6.312631607055664,0.5295990705490112
1.3407007455825806,6.242342472076416,0.5250905156135559
1.2920807600021362,6.232524871826172,0.5256791710853577
1.2310923337936401,6.153393268585205,0.520386278629303
1.1838605403900146,6.138690948486328,0.5205404162406921
1.1348516941070557,6.116115093231201,0.5197658538818359
1.090170979499817,6.116183280944824,0.5208297371864319
1.0460565090179443,6.1237335205078125,0.5225757360458374
0.9963942170143127,6.0884833335876465,0.5206522941589355
0.9479987621307373,6.056669235229492,0.5190302133560181
0.7901840806007385,5.28923225402832,0.4542413055896759
0.7188817262649536,5.055668354034424,0.43480297923088074
0.7038583755493164,5.21875524520874,0.44950297474861145
0.6631371974945068,5.192604064941406,0.4479289650917053
0.6330840587615967,5.247227668762207,0.4533383548259735
0.589949369430542,5.193409442901611,0.44940054416656494
0.5562343597412109,5.220524787902832,0.4524158835411072
0.5122467875480652,5.150656223297119,0.44677984714508057
0.3792726993560791,4.11167049407959,0.3570135831832886
0.35175737738609314,4.129687786102295,0.3589479923248291
0.32482844591140747,4.155263900756836,0.36155763268470764
0.2978367507457733,4.184545040130615,0.36451202630996704
0.266909122467041,4.159291744232178,0.362642765045166
0.23886314034461975,4.188254356384277,0.3653257191181183
0.38778311014175415,7.753845691680908,0.6766592860221863
0.33332234621047974,7.748537540435791,0.6765481233596802
0.27785348892211914,7.7078423500061035,0.6733765006065369
0.2238388955593109,7.693978309631348,0.6725779175758362
0.16834022104740143,7.648652076721191,0.6688711643218994
0.11481629312038422,7.637960433959961,0.6679312586784363
0.06137201562523842,7.6074371337890625,0.6652894020080566
0.008419850841164589,7.560976505279541,0.6612855195999146
-0.04412269964814186,7.568627834320068,0.6620457768440247
-0.03061467595398426,2.373549222946167,0.20765931904315948
-0.045923907309770584,2.3149242401123047,0.20250925421714783
-0.059990294277668,2.2406508922576904,0.1959184855222702
-0.07368486374616623,2.1857430934906006,0.19103549420833588
-0.08838248252868652,2.173524856567383,0.1898951232433319
-0.09625054150819778,2.0212738513946533,0.17653442919254303
-0.11097808927297592,2.0283234119415283,0.1770986020565033
-0.12406297773122787,2.0119850635528564,0.17556791007518768
-0.13504555821418762,1.9683929681777954,0.17160449922084808
-0.1445516049861908,1.9131048917770386,0.16663727164268494
-0.15715965628623962,1.9043207168579102,0.165733203291893
-0.17027443647384644,1.8993059396743774,0.1651633232831955
-0.18533800542354584,1.9174652099609375,0.16661806404590607
-0.1993909478187561,1.9239062070846558,0.16699205338954926
-0.2126292884349823,1.9225190877914429,0.16663572192192078
-0.22767575085163116,1.9365018606185913,0.16761763393878937
-0.29959943890571594,2.4021878242492676,0.2076435536146164
-0.3132491409778595,2.3769328594207764,0.20519429445266724
-0.32174399495124817,2.316908597946167,0.1997622549533844
-0.3332168459892273,2.283869743347168,0.1965791881084442
-0.3412339985370636,2.2315609455108643,0.1917067915201187
-0.35065871477127075,2.1907384395599365,0.18783852458000183
-0.3266688883304596,1.9541189670562744,0.16723813116550446
-0.3429235517978668,1.9671815633773804,0.16804787516593933
-0.35657525062561035,1.9647959470748901,0.16754411160945892
-0.3707604706287384,1.9661815166473389,0.16726666688919067
-0.3871616721153259,1.9789395332336426,0.1679385006427765
-0.4086547791957855,2.0144052505493164,0.1705264151096344
-0.7667896747589111,3.649794578552246,0.3082185685634613
-0.9285064339637756,4.272193431854248,0.3599168360233307
-0.9692016839981079,4.315151691436768,0.3626597821712494
-0.9967678189277649,4.301013469696045,0.3603719472885132
-1.024686336517334,4.2865824699401855,0.35806167125701904
-1.0539411306381226,4.279621601104736,0.3564080595970154
-1.0836467742919922,4.272336006164551,0.3547261953353882
-1.1025246381759644,4.223391056060791,0.3496113121509552
-1.1335747241973877,4.223373889923096,0.348457008600235
-1.1626665592193604,4.21561861038208,0.3465089201927185
-1.1911871433258057,4.207805633544922,0.3445955216884613
-1.21799898147583,4.192172527313232,0.34203705191612244
-1.2427034378051758,4.168822765350342,0.33886006474494934
-1.267181158065796,4.14531946182251,0.3356943726539612
-1.2980453968048096,4.144099712371826,0.3341004550457001
-1.3260273933410645,4.135406017303467,0.3319282531738281
-1.3516736030578613,4.119071960449219,0.3291527032852173
-1.3753199577331543,4.094982624053955,0.3257473409175873
-1.408822774887085,4.1002326011657715,0.3246917426586151
-1.431533932685852,4.076033115386963,0.32118549942970276
-1.4593931436538696,4.066336154937744,0.31871408224105835
-1.4786021709442139,4.034694194793701,0.3145795166492462
-1.51483952999115,4.046393394470215,0.313777357339859
-1.5276938676834106,3.9959022998809814,0.30817335844039917
-1.5593173503875732,3.9964163303375244,0.3064422905445099
-1.5922743082046509,4.0003886222839355,0.3048202097415924
-1.616154670715332,3.9825963973999023,0.30157899856567383
-1.6466416120529175,3.978734016418457,0.299348920583725
-1.6682641506195068,3.953012466430664,0.29547783732414246
-1.6921589374542236,3.934572458267212,0.2920924127101898
-1.7141075134277344,3.91252064704895,0.2883031666278839
-1.733769416809082,3.8869988918304443,0.2843237519264221
-1.7478541135787964,3.846684455871582,0.27920639514923096
-1.7713465690612793,3.827554702758789,0.27565521001815796
-1.7938532829284668,3.808666706085205,0.2720263600349426
-1.8195282220840454,3.7966980934143066,0.26879897713661194
-1.8450335264205933,3.7845959663391113,0.2655826807022095
-1.8678734302520752,3.764906644821167,0.2617688477039337
-1.893953561782837,3.7520852088928223,0.2584388852119446
-1.9186371564865112,3.739759922027588,0.25499218702316284
-1.9396613836288452,3.7203407287597656,0.25107479095458984
-1.969401240348816,3.7137603759765625,0.24786695837974548
-1.9953041076660156,3.700150728225708,0.24421150982379913
-1.7014352083206177,3.1055452823638916,0.20255495607852936
-1.7104265689849854,3.0740561485290527,0.1980687826871872
-1.7159969806671143,3.0353667736053467,0.19307363033294678
-0.8435032963752747,1.4676873683929443,0.0920899510383606
-0.8414937853813171,1.4419070482254028,0.08920887857675552
-0.8508772850036621,1.4364893436431885,0.0875905379652977
-0.8566475510597229,1.4240610599517822,0.08549366146326065
-0.8747113943099976,1.4314608573913574,0.08455419540405273
-0.8636860847473145,1.3925379514694214,0.080836720764637
-0.880988359451294,1.4002302885055542,0.07986512035131454
-0.9075192213058472,1.4204756021499634,0.07946285605430603
-0.8959619402885437,1.381615161895752,0.0757499635219574
-0.8897819519042969,1.3531283140182495,0.07264117896556854
-0.9076851010322571,1.360097885131836,0.07134268432855606
-2.381617546081543,3.515397787094116,0.17994160950183868
-1.3785747289657593,1.9793953895568848,0.09604114294052124
-1.345072627067566,1.9029262065887451,0.08956190943717957
-1.39634370803833,1.8952709436416626,0.08003279566764832
-1.1838536262512207,1.7066737413406372,-0.06602714955806732
-1.2134034633636475,1.8044195175170898,-0.07580526918172836
-1.2601537704467773,1.904484510421753,-0.08300711959600449
-1.2536405324935913,2.0512583255767822,-0.10375380516052246
-0.9140663743019104,1.6255484819412231,-0.09199881553649902
-1.6992721557617188,3.0725674629211426,-0.17726486921310425
-1.8209797143936157,3.3481762409210205,-0.19673681259155273
-1.809249997138977,3.385268449783325,-0.20245327055454254
-1.772279143333435,3.373704433441162,-0.2051861435174942
-1.7039408683776855,3.299107551574707,-0.20390157401561737
-1.6251078844070435,3.2033891677856445,-0.20112933218479156
-1.5790985822677612,3.1695358753204346,-0.20202158391475677
-1.5395396947860718,3.1453468799591064,-0.203369140625
-1.498944878578186,3.1171364784240723,-0.20436891913414001
-1.4398192167282104,3.050060272216797,-0.2026340812444687
-1.3897942304611206,3.0000603199005127,-0.20190565288066864
-1.3618608713150024,2.995504140853882,-0.2041441947221756
-1.3138965368270874,2.9442079067230225,-0.20308741927146912
-1.2692365646362305,2.8998091220855713,-0.20232722163200378
-1.226723313331604,2.858553171157837,-0.2016994208097458
-1.1900291442871094,2.827363967895508,-0.20165421068668365
-1.1640335321426392,2.8211092948913574,-0.2033787965774536
-1.1263816356658936,2.7857792377471924,-0.2028493732213974
-1.0790927410125732,2.724761724472046,-0.20034824311733246
-1.057019829750061,2.724860668182373,-0.20226438343524933
-1.0338208675384521,2.721064805984497,-0.20386819541454315
-1.003344178199768,2.699037790298462,-0.20405977964401245
-0.9640051126480103,2.6510608196258545,-0.20214267075061798
-0.932053804397583,2.620979070663452,-0.20153038203716278
-0.9009215235710144,2.590465784072876,-0.2008170634508133
-0.8764917254447937,2.578106164932251,-0.20147225260734558
-0.8479013442993164,2.5546798706054688,-0.20113980770111084
-0.8176183104515076,2.5234649181365967,-0.20013973116874695
-0.789395272731781,2.495544910430908,-0.19933822751045227
-0.7650879621505737,2.478510856628418,-0.19938121736049652
-0.7431085109710693,2.4687845706939697,-0.19991125166416168
-0.7255335450172424,2.4738707542419434,-0.20158857107162476
-0.6959829330444336,2.4376907348632812,-0.1999051868915558
-0.6727493405342102,2.4198310375213623,-0.1996614634990692
-0.6477575302124023,2.3942532539367676,-0.1987604796886444
-0.6268377304077148,2.3835954666137695,-0.19893698394298553
-0.6031909584999084,2.3614513874053955,-0.1981474906206131
-0.5844764113426208,2.3580119609832764,-0.19892846047878265
-0.5680111050605774,2.3619155883789062,-0.200313001871109
-0.5426185727119446,2.327810287475586,-0.19840902090072632
-0.5209912061691284,2.3087055683135986,-0.19766512513160706
-0.5021708011627197,2.300818920135498,-0.19787737727165222
-0.468975692987442,2.224238872528076,-0.1921592801809311
-0.4022200107574463,1.975632905960083,-0.17144496738910675
-0.38684841990470886,1.9706882238388062,-0.17169849574565887
-0.37294816970825195,1.9732908010482788,-0.1725604236125946
-0.3576720952987671,1.9681310653686523,-0.17274808883666992
-0.3417353332042694,1.95903480052948,-0.17259643971920013
-0.32938623428344727,1.9689661264419556,-0.17411749064922333
-0.3131169080734253,1.9557923078536987,-0.17348353564739227
-0.3005337417125702,1.9655768871307373,-0.1748630702495575
-0.28565099835395813,1.9598690271377563,-0.17487046122550964
-0.27071282267570496,1.95406973361969,-0.17487992346286774
-0.2550893723964691,1.9404128789901733,-0.17417961359024048
-0.2424546331167221,1.9498250484466553,-0.1754157841205597
-0.22880402207374573,1.9514260292053223,-0.17594854533672333
-0.2134554088115692,1.9374606609344482,-0.1750827580690384
-0.1991611272096634,1.9311126470565796,-0.1749076098203659
-0.18473218381404877,1.9246819019317627,-0.17473354935646057
-0.16987620294094086,1.9103940725326538,-0.1736949384212494
-0.157134011387825,1.919257640838623,-0.17476876080036163
-0.14722998440265656,1.9668253660202026,-0.1793822944164276
-0.13352692127227783,1.9677687883377075,-0.17975853383541107
-0.12549008429050446,2.0657036304473877,-0.18900847434997559
-0.11147324740886688,2.074277877807617,-0.18994618952274323
-0.0969974547624588,2.074984550476074,-0.19017308950424194
-0.0816078707575798,2.0522680282592773,-0.18826036155223846
-0.06734004616737366,2.052765369415283,-0.1884838491678238
-0.052416931837797165,2.0376172065734863,-0.18725919723510742
-0.038228683173656464,2.0379281044006348,-0.18730978667736053
-0.023946890607476234,2.0303609371185303,-0.1866452395915985
-0.009769728407263756,2.0149145126342773,-0.18526490032672882
0.004256959073245525,2.0304884910583496,-0.1867457628250122
0.01896095648407936,2.0693020820617676,-0.19034911692142487
0.03305678442120552,2.053574800491333,-0.18879926204681396
0.047311555594205856,2.0533063411712646,-0.18868042528629303
0.06158201023936272,2.052938938140869,-0.18856146931648254
0.07644221186637878,2.0680205821990967,-0.1898699402809143
0.09082748740911484,2.0674524307250977,-0.18972350656986237
0.10503717511892319,2.0590157508850098,-0.18871955573558807
0.12023452669382095,2.0737967491149902,-0.18985597789287567
0.13465169072151184,2.07293701171875,-0.18956774473190308
0.1504584103822708,2.0913774967193604,-0.19105178117752075
0.16284194588661194,2.063164472579956,-0.1882517784833908
0.17870120704174042,2.07751202583313,-0.18920370936393738
0.1930951178073883,2.0762650966644287,-0.1887475997209549
0.21254916489124298,2.125239610671997,-0.1928570568561554
0.22320574522018433,2.085066318511963,-0.1888832151889801
0.2368020862340927,2.075779676437378,-0.18768368661403656
0.25422435998916626,2.097292184829712,-0.18913887441158295
0.26774778962135315,2.087820529937744,-0.1878136545419693
0.2853614389896393,2.109103202819824,-0.18925948441028595
0.3022044003009796,2.122535228729248,-0.19000086188316345
0.31345710158348083,2.0973615646362305,-0.18724621832370758
0.3353785574436188,2.1413168907165527,-0.1905447542667389
0.3463566303253174,2.115985155105591,-0.1876905858516693
0.3623681366443634,2.121269702911377,-0.18756034970283508
0.3785059452056885,2.12642765045166,-0.18742221593856812
0.3996269702911377,2.158268451690674,-0.18956513702869415
0.40199172496795654,2.090578556060791,-0.1828971803188324
0.4136005640029907,2.0725245475769043,-0.18059518933296204
0.4477318227291107,2.164966106414795,-0.18790815770626068
0.4693368375301361,2.1923272609710693,-0.1895376592874527
0.4794321358203888,2.166322708129883,-0.1864696741104126
0.5029871463775635,2.2010231018066406,-0.1885661780834198
0.5219940543174744,2.212697744369507,-0.18865929543972015
0.5373977422714233,2.209109306335449,-0.18746048212051392
0.5537413954734802,2.2091848850250244,-0.1865791380405426
0.580615758895874,2.250669240951538,-0.18906007707118988
0.596059262752533,2.246743679046631,-0.18768605589866638
0.6159238219261169,2.2576448917388916,-0.18752899765968323
0.6358405947685242,2.268413543701172,-0.1873646378517151
0.6591396927833557,2.290250062942505,-0.18809010088443756
0.6792059540748596,2.3007543087005615,-0.18774478137493134
0.6994276642799377,2.311096668243408,-0.18738076090812683
0.7249616980552673,2.335991144180298,-0.18814219534397125
0.7447523474693298,2.3421528339385986,-0.1873992681503296
0.7608875036239624,2.337096691131592,-0.18569877743721008
0.7915780544281006,2.376343011856079,-0.1874278485774994
0.8128443360328674,2.38576340675354,-0.18677374720573425
0.8384422659873962,2.405931234359741,-0.1869187206029892
0.858124852180481,2.407402992248535,-0.18557476997375488
0.8825322985649109,2.423609972000122,-0.185266375541687
0.9071857929229736,2.4396026134490967,-0.18490971624851227
0.944773256778717,2.4880735874176025,-0.18695208430290222
0.9733869433403015,2.5106446743011475,-0.18698588013648987
1.0024175643920898,2.5329220294952393,-0.1868835836648941
