X,Y,Z
-1.9321281909942627,4.33423376083374,0.28446483612060547
-1.962491512298584,4.325056552886963,0.2815917432308197
-2.011350631713867,4.354358196258545,0.28116878867149353
-2.040510416030884,4.340973854064941,0.27800121903419495
-2.0707077980041504,4.3268609046936035,0.27471044659614563
-2.093474864959717,4.298757553100586,0.27048543095588684
-2.1184542179107666,4.278014659881592,0.26663151383399963
-2.1507458686828613,4.270823001861572,0.2635907530784607
-2.1640195846557617,4.224926948547363,0.25813937187194824
-2.2024354934692383,4.227250099182129,0.2556149363517761
-2.2102720737457275,4.17488956451416,0.24965307116508484
-2.261754274368286,4.205116271972656,0.24862533807754517
-2.2507176399230957,4.118133544921875,0.24063703417778015
-2.219250440597534,3.9931583404541016,0.23041391372680664
-2.245783567428589,3.978516101837158,0.22659221291542053
-2.2717604637145996,3.9639580249786377,0.22275251150131226
-2.2982187271118164,3.9488964080810547,0.2188267856836319
-2.325674057006836,3.9330151081085205,0.21473699808120728
-2.352006435394287,3.917553186416626,0.2105204313993454
-2.3773717880249023,3.9024345874786377,0.2063649296760559
-2.4036967754364014,3.886502265930176,0.20203480124473572
-2.4305946826934814,3.869969129562378,0.19755175709724426
-2.455488681793213,3.854451894760132,0.19301317632198334
-2.47650408744812,3.8319218158721924,0.1880682408809662
-2.507457971572876,3.821317672729492,0.18347714841365814
-2.5325286388397217,3.804983139038086,0.17854595184326172
-2.5523853302001953,3.7825069427490234,0.17331548035144806
-2.635354518890381,3.849067449569702,0.17180943489074707
-2.037592649459839,2.9337780475616455,0.12727956473827362
-2.0559613704681396,2.9211153984069824,0.12307806313037872
-2.0894250869750977,2.926295042037964,0.11929312348365784
-2.099245309829712,2.9001901149749756,0.11408556997776031
-1.099097490310669,1.498678207397461,0.0567743144929409
-1.1141383647918701,1.497377634048462,0.05426763370633125
-2.0641818046569824,2.9162800312042236,-0.09749099612236023
-2.0424375534057617,2.931365966796875,-0.10287104547023773
-2.0763137340545654,3.0264313220977783,-0.1109006404876709
-2.421718120574951,3.5892856121063232,-0.13712723553180695
-2.39640736579895,3.606013536453247,-0.14280466735363007
-2.3696134090423584,3.6234493255615234,-0.14845910668373108
-2.3466897010803223,3.6473920345306396,-0.15435190498828888
-2.3211851119995117,3.6634507179260254,-0.15960197150707245
-2.2892892360687256,3.6740355491638184,-0.16466304659843445
-2.2619988918304443,3.6906638145446777,-0.16987434029579163
-2.240178346633911,3.7128403186798096,-0.1751045435667038
-2.212820053100586,3.7289764881134033,-0.1800173819065094
-2.185054063796997,3.745074510574341,-0.1849326640367508
-2.1582677364349365,3.7603399753570557,-0.18965424597263336
-2.1311495304107666,3.775541305541992,-0.19425338506698608
-2.125997543334961,3.831845760345459,-0.2009844183921814
-2.076040029525757,3.805649995803833,-0.20329850912094116
-2.060399293899536,3.840494394302368,-0.20876142382621765
-2.0462393760681152,3.883131980895996,-0.2146945297718048
-2.014113187789917,3.8908655643463135,-0.2186681479215622
-1.9921674728393555,3.915048837661743,-0.22341445088386536
-1.9643731117248535,3.9288320541381836,-0.22753094136714935
-1.9357389211654663,3.942781686782837,-0.2316066026687622
-1.9236371517181396,3.991800308227539,-0.23781801760196686
-1.8956785202026367,4.004916191101074,-0.2417697012424469
-1.8669910430908203,4.018133640289307,-0.24566784501075745
-1.828058123588562,4.010056018829346,-0.24819983541965485
-1.8214415311813354,4.072713375091553,-0.2551172077655792
-1.799230933189392,4.0993804931640625,-0.25974977016448975
-1.7772507667541504,4.1299543380737305,-0.2646261751651764
-1.7474322319030762,4.142426013946533,-0.26825082302093506
-1.7205967903137207,4.161849021911621,-0.2723357081413269
-1.6915394067764282,4.1735124588012695,-0.2758469879627228
-1.6620384454727173,4.18511962890625,-0.2792997658252716
-1.6370373964309692,4.211467742919922,-0.28370821475982666
-1.6067426204681396,4.222890377044678,-0.2870883047580719
-1.5799285173416138,4.241091251373291,-0.29087597131729126
-1.5502649545669556,4.251800060272217,-0.29413509368896484
-1.5198440551757812,4.262553691864014,-0.2972414791584015
-1.496506929397583,4.295353889465332,-0.30195462703704834
-1.4661486148834229,4.305593967437744,-0.3050391376018524
-1.436023473739624,4.315517425537109,-0.30809274315834045
-1.1621118783950806,3.576692819595337,-0.257162481546402
-1.1306363344192505,3.566161632537842,-0.2581716775894165
-1.1150827407836914,3.607607841491699,-0.2629925310611725
-1.3148707151412964,4.361278057098389,-0.3200546205043793
-1.2842795848846436,4.370182991027832,-0.3227910101413727
-1.2553293704986572,4.386502742767334,-0.325907826423645
-1.2240849733352661,4.3951334953308105,-0.3284752368927002
-1.1931401491165161,4.403444766998291,-0.3310130834579468
-1.1629149913787842,4.415359020233154,-0.3338533341884613
-1.1376724243164062,4.445883274078369,-0.33793652057647705
-1.1155664920806885,4.491457462310791,-0.34310269355773926
-1.0691534280776978,4.438471794128418,-0.3407481610774994
-1.0354620218276978,4.434280872344971,-0.3421073257923126
-1.005697250366211,4.448938369750977,-0.3449622094631195
-0.9742446541786194,4.455777168273926,-0.3469497561454773
-0.9435449242591858,4.466207027435303,-0.34920576214790344
-0.9166749119758606,4.495497703552246,-0.35296082496643066
-0.8898566365242004,4.524548530578613,-0.35670992732048035
-0.8635038733482361,4.561211109161377,-0.361082524061203
-0.8376230597496033,4.601531505584717,-0.3654942214488983
-0.8105460405349731,4.637874126434326,-0.36962538957595825
-0.7805435657501221,4.658677101135254,-0.3725442886352539
-0.7512240409851074,4.683080673217773,-0.3757663667201996
-0.7192263007164001,4.695849895477295,-0.37801143527030945
-0.6873899698257446,4.708374500274658,-0.3800167143344879
-0.6575957536697388,4.7361040115356445,-0.38327327370643616
-0.6244363784790039,4.740477561950684,-0.3846622109413147
-0.592414915561676,4.752320766448975,-0.3866713047027588
-0.5592198371887207,4.7562384605407715,-0.38793331384658813
-0.524420440196991,4.752279281616211,-0.3883770704269409
-0.48432278633117676,4.689912796020508,-0.3840409219264984
-0.18121404945850372,1.883439302444458,-0.1545402556657791
-0.16811588406562805,1.8846195936203003,-0.15495465695858002
-0.1498788297176361,1.8236349821090698,-0.15019528567790985
-0.13427482545375824,1.7896931171417236,-0.1475866585969925
-0.12625813484191895,1.8565953969955444,-0.15330134332180023
-0.10928618162870407,1.7913494110107422,-0.14811110496520996
-0.09387499839067459,1.737622857093811,-0.14386677742004395
-0.08470416069030762,1.8004363775253296,-0.14921681582927704
-0.07191494852304459,1.8009812831878662,-0.14935167133808136
-0.06051156297326088,1.8364448547363281,-0.1523897647857666
-0.04740425571799278,1.8251361846923828,-0.15155525505542755
-0.035673368722200394,1.8760085105895996,-0.15589357912540436
-0.022012412548065186,1.8256021738052368,-0.15175773203372955
-0.020030256360769272,4.025130748748779,-0.3345820903778076
0.008030256256461143,4.032958030700684,-0.3352324366569519
0.03567592054605484,3.989985227584839,-0.3316761553287506
0.062353525310754776,3.923471212387085,-0.32617825269699097
0.08785860240459442,3.8451180458068848,-0.31956878304481506
0.1140826940536499,3.828874349594116,-0.31799522042274475
0.14098064601421356,3.824106216430664,-0.31738772988319397
0.1665322631597519,3.79972243309021,-0.31517237424850464
0.1917189210653305,3.7751705646514893,-0.31296077370643616
0.21544739603996277,3.731031656265259,-0.30900582671165466
0.23624280095100403,3.6517984867095947,-0.30203235149383545
0.12040463089942932,1.6774866580963135,-0.13855546712875366
0.13785049319267273,1.7503716945648193,-0.14439159631729126
0.1476813703775406,1.7222404479980469,-0.14189644157886505
0.15890808403491974,1.7134472131729126,-0.14094178378582
0.1699734479188919,1.704590916633606,-0.1399298459291458
0.18114377558231354,1.6956405639648438,-0.1389143317937851
0.19290247559547424,1.6943737268447876,-0.13854041695594788
0.20658032596111298,1.708479642868042,-0.13942644000053406
0.2154608964920044,1.6838692426681519,-0.13709776103496552
0.22711163759231567,1.6823772192001343,-0.13660816848278046
0.24113158881664276,1.696198582649231,-0.1373593956232071
0.25289666652679443,1.6945244073867798,-0.1368640512228012
0.2688751816749573,1.7196968793869019,-0.13853758573532104
0.2776094973087311,1.6986290216445923,-0.13642054796218872
0.28798627853393555,1.6890493631362915,-0.13519392907619476
0.29825860261917114,1.6794047355651855,-0.13397206366062164
0.31292924284935,1.692626714706421,-0.13456830382347107
0.32324811816215515,1.6828047037124634,-0.1333424597978592
0.33790040016174316,1.695866346359253,-0.13385619223117828
0.34955865144729614,1.6935592889785767,-0.13312645256519318
0.36691009998321533,1.7178312540054321,-0.13448311388492584
0.37148669362068176,1.6810238361358643,-0.13105252385139465
0.38925257325172424,1.7050350904464722,-0.13238097727298737
0.4027552902698517,1.709965705871582,-0.1321314126253128
0.4236740171909332,1.745080590248108,-0.13418971002101898
0.7541071772575378,3.0157787799835205,-0.23077642917633057
0.7706063389778137,2.9916141033172607,-0.2277824431657791
0.7893949151039124,2.9787683486938477,-0.22567597031593323
0.8077496290206909,2.965895891189575,-0.22342562675476074
0.8280395865440369,2.960421323776245,-0.22174780070781708
0.8397625684738159,2.9248270988464355,-0.21783258020877838
0.8582575917243958,2.9114580154418945,-0.2155609428882599
0.865952730178833,2.8645577430725098,-0.2107979953289032
0.854357898235321,2.7582106590270996,-0.20163773000240326
0.866098165512085,2.730154275894165,-0.19826972484588623
0.8753029108047485,2.69458270072937,-0.19437512755393982
0.9017695188522339,2.7106242179870605,-0.19418179988861084
0.9203216433525085,2.704515218734741,-0.19231601059436798
0.9412708282470703,2.7056846618652344,-0.19094084203243256
0.9596878290176392,2.699341297149658,-0.1890386939048767
0.9838072061538696,2.7073755264282227,-0.1881110668182373
1.0025712251663208,2.7006208896636963,-0.1861281394958496
1.0129237174987793,2.6718997955322266,-0.182530015707016
1.0310449600219727,2.6650989055633545,-0.18047970533370972
1.0436762571334839,2.643559455871582,-0.1774236410856247
1.0591723918914795,2.629124164581299,-0.1748485118150711
1.0770312547683716,2.622002363204956,-0.17268499732017517
1.0935598611831665,2.6110708713531494,-0.1702277511358261
1.1113271713256836,2.603701114654541,-0.1680317223072052
1.1200933456420898,2.574589967727661,-0.16441787779331207
1.1345479488372803,2.559868335723877,-0.1616988480091095
1.14535653591156,2.538090467453003,-0.15850907564163208
1.1350401639938354,2.4700801372528076,-0.15246263146400452
1.152240514755249,2.4622457027435303,-0.1501498818397522
1.1523730754852295,2.4191906452178955,-0.1456979513168335
1.1685892343521118,2.4115395545959473,-0.14335936307907104
1.1916518211364746,2.417773723602295,-0.14184175431728363
1.1894770860671997,2.3710756301879883,-0.13714559376239777
1.2057582139968872,2.3629772663116455,-0.1347241848707199
1.2215081453323364,2.355012893676758,-0.13227218389511108
1.2372198104858398,2.3469340801239014,-0.1298176646232605
1.249836802482605,2.331529378890991,-0.12688717246055603
1.2582470178604126,2.3093814849853516,-0.12358732521533966
1.2700371742248535,2.2941408157348633,-0.12061811983585358
1.2854032516479492,2.2857017517089844,-0.11803245544433594
1.3013116121292114,2.2768197059631348,-0.11534517258405685
1.3125883340835571,2.2614529132843018,-0.11230770498514175
1.3274998664855957,2.2528650760650635,-0.10960571467876434
1.3350950479507446,2.230332851409912,-0.10612772405147552
1.3503412008285522,2.221268892288208,-0.10329660028219223
1.3648364543914795,2.2125227451324463,-0.10046061128377914
1.3794949054718018,2.203542470932007,-0.09758085757493973
1.3906394243240356,2.1874125003814697,-0.09427158534526825
1.4009451866149902,2.1716716289520264,-0.09092491120100021
1.4151012897491455,2.1625990867614746,-0.08790528029203415
1.4258192777633667,2.146308422088623,-0.08442708104848862
1.4398205280303955,2.1370651721954346,-0.08122188597917557
1.4447968006134033,2.114936351776123,-0.07753580063581467
1.464239478111267,2.1111598014831543,-0.07425051182508469
1.4710313081741333,2.092247486114502,-0.07049224525690079
1.484714150428772,2.0826759338378906,-0.06698431074619293
1.4370203018188477,1.9872384071350098,-0.060653239488601685
1.4656479358673096,2.000317096710205,-0.05773055553436279
1.4675499200820923,1.974754810333252,-0.053420521318912506
1.4377080202102661,2.0191173553466797,0.09426499903202057
1.4735713005065918,2.1035103797912598,0.10167676955461502
1.4631794691085815,2.1200664043426514,0.10561272501945496
1.4511104822158813,2.1376025676727295,0.10957661271095276
1.439546823501587,2.154618978500366,0.11341064423322678
1.4283777475357056,2.1712112426757812,0.11707215756177902
1.4113945960998535,2.182105541229248,0.12044405192136765
1.395285725593567,2.1922638416290283,0.12362662702798843
1.3797647953033447,2.2018942832946777,0.1266455203294754
1.3712307214736938,2.2253966331481934,0.1304076761007309
1.3585703372955322,2.242100954055786,0.13377253711223602
1.3426131010055542,2.25152325630188,0.13659420609474182
1.3260120153427124,2.2611725330352783,0.1393437683582306
1.3090177774429321,2.2708828449249268,0.14208373427391052
1.2964860200881958,2.2868666648864746,0.1451440453529358
1.2880035638809204,2.309370517730713,0.1485816091299057
1.2666743993759155,2.312082290649414,0.1507023423910141
1.2530845403671265,2.328172206878662,0.15366877615451813
1.2402116060256958,2.3437235355377197,0.15652161836624146
1.225511908531189,2.3556816577911377,0.15911012887954712
1.208074927330017,2.3645153045654297,0.16141068935394287
1.2147376537322998,2.4221603870391846,0.16711759567260742
1.2078477144241333,2.4515509605407715,0.17083603143692017
1.199183702468872,2.4773178100585938,0.17430968582630157
1.1977219581604004,2.5210983753204346,0.1789829581975937
1.182436466217041,2.5367507934570312,0.18169119954109192
1.1673507690429688,2.552147388458252,0.18436844646930695
1.1556028127670288,2.574432373046875,0.18753963708877563
1.1403077840805054,2.5896127223968506,0.19011905789375305
1.122908115386963,2.6013023853302,0.19239674508571625
1.103879451751709,2.6092846393585205,0.19441251456737518
1.0854923725128174,2.616842031478882,0.1963544636964798
1.0756829977035522,2.645998001098633,0.1999514251947403
1.056502342224121,2.653575897216797,0.20178814232349396
1.0400382280349731,2.6682982444763184,0.20416562259197235
1.0261927843093872,2.6902003288269043,0.20711348950862885
1.010135293006897,2.704454183578491,0.2094428986310959
0.9908677935600281,2.711433172225952,0.21123915910720825
0.9764808416366577,2.733072519302368,0.21403169631958008
0.9489907622337341,2.717864513397217,0.21394681930541992
0.9293413162231445,2.7245171070098877,0.21558357775211334
0.9054070711135864,2.7160205841064453,0.21598762273788452
0.8861414790153503,2.7222397327423096,0.21758489310741425
0.8688942193984985,2.735854387283325,0.21960461139678955
0.8561052083969116,2.7642412185668945,0.22283165156841278
0.8857190608978271,2.9342617988586426,0.23755201697349548
0.8673912286758423,2.9477314949035645,0.23964041471481323
0.8489731550216675,2.961071491241455,0.24173231422901154
0.8275107145309448,2.9670279026031494,0.2431175857782364
0.8133711218833923,2.9990785121917725,0.24660412967205048
0.7938815951347351,3.0122408866882324,0.24855877459049225
0.7726029753684998,3.017660140991211,0.24987740814685822
0.7534262537956238,3.030421733856201,0.25180789828300476
0.731711745262146,3.035633087158203,0.25306814908981323
0.7118107080459595,3.0482637882232666,0.25483301281929016
0.7037519216537476,3.1139349937438965,0.26106226444244385
0.6890654563903809,3.1529953479766846,0.2650933563709259
0.6735222339630127,3.1880946159362793,0.26880425214767456
0.657890796661377,3.227022886276245,0.2728809714317322
0.6380229592323303,3.246795654296875,0.2751713693141937
0.6164060831069946,3.258810043334961,0.2767966687679291
0.5946505069732666,3.2706801891326904,0.27842649817466736
0.5756639838218689,3.297703504562378,0.2813599109649658
0.5535922050476074,3.3092896938323975,0.2830006778240204
0.5304708480834961,3.312995672225952,0.28392258286476135
0.5082616806030273,3.3242857456207275,0.28534168004989624
0.4920574128627777,3.377798080444336,0.2904078960418701
0.472452849149704,3.41196608543396,0.29383692145347595
0.45481762290000916,3.4653310775756836,0.29894790053367615
0.4374268054962158,3.522414445877075,0.3043995797634125
0.4127589464187622,3.5253310203552246,0.3050885796546936
0.38796430826187134,3.5280959606170654,0.30566343665122986
0.36673492193222046,3.565528392791748,0.30926036834716797
0.3424014747142792,3.575716257095337,0.31051376461982727
0.31844645738601685,3.5935065746307373,0.3124479651451111
0.29751157760620117,3.6460113525390625,0.3174169957637787
0.27780240774154663,3.7255804538726807,0.324617862701416
0.2550926208496094,3.777879238128662,0.32938438653945923
0.22950956225395203,3.795081853866577,0.3311111629009247
0.20371907949447632,3.8199028968811035,0.333525151014328
0.17735904455184937,3.8250808715820312,0.3342359662055969
0.1513569951057434,3.841743230819702,0.3359682261943817
0.12631845474243164,3.897141695022583,0.340906023979187
0.10181853920221329,4.002950668334961,0.35021108388900757
0.07372821122407913,4.023016452789307,0.3520345985889435
0.04612234979867935,4.062333583831787,0.3555598556995392
0.01791965775191784,4.070328235626221,0.3563615381717682
-0.01039193756878376,4.078126430511475,0.3571636974811554
-0.03972121700644493,4.1830267906188965,0.36626291275024414
-0.07039319723844528,4.248798370361328,0.371906578540802
-0.10063862055540085,4.279341697692871,0.3744843006134033
-0.13012664020061493,4.270773410797119,0.37365686893463135
-0.15954454243183136,4.26200008392334,0.37282970547676086
-0.1941978931427002,4.373539924621582,0.3825443387031555
-0.23049238324165344,4.488714694976807,0.392322838306427
-0.2643641531467438,4.525869369506836,0.39526087045669556
-0.29799994826316833,4.558917045593262,0.3978595435619354
-0.3360843360424042,4.64605188369751,0.4051896333694458
-0.3713919520378113,4.682442665100098,0.40810635685920715
-0.4096117615699768,4.745702266693115,0.41337868571281433
-0.47831737995147705,5.122516632080078,0.4456219971179962
-0.5202329158782959,5.184998989105225,0.4504992961883545
-0.5783404111862183,5.39032506942749,0.4677811563014984
-0.608147919178009,5.3205342292785645,0.4611918032169342
-0.6450939178466797,5.316257953643799,0.46030867099761963
-0.6786929965019226,5.280764102935791,0.45669689774513245
-0.7040014266967773,5.195086479187012,0.4484875798225403
-0.7451351284980774,5.228766918182373,0.45061126351356506
-0.7799102067947388,5.215926647186279,0.4487413763999939
-0.8160110712051392,5.21050500869751,0.4475266635417938
-0.8528623580932617,5.204707145690918,0.4462853968143463
-0.88368159532547,5.168087005615234,0.442343145608902
-0.9006233215332031,5.058575630187988,0.43197646737098694
-0.930986225605011,5.029452800750732,0.4285195767879486
-0.963981568813324,5.015433311462402,0.4263741075992584
-1.0017434358596802,5.024034023284912,0.4261609613895416
-1.0356415510177612,5.009336948394775,0.42397212982177734
-1.0594587326049805,4.95275354385376,0.4181194305419922
-1.0948877334594727,4.95316743850708,0.41696298122406006
-1.1268584728240967,4.938157081604004,0.4145289659500122
-1.1552033424377441,4.907758712768555,0.41082635521888733
-1.1898865699768066,4.899620532989502,0.40897154808044434
-1.223940372467041,4.8913774490356445,0.4071473777294159
-1.2067034244537354,4.687031269073486,0.38882535696029663
-1.2295465469360352,4.64501428604126,0.38401851058006287
-1.261071801185608,4.636719703674316,0.38202691078186035
-1.2914131879806519,4.620443344116211,0.3793579936027527
-1.3234740495681763,4.611529350280762,0.3773249387741089
-1.355168104171753,4.6024885177612305,0.37520235776901245
-1.103805661201477,3.6575818061828613,0.2969365417957306
-1.1238865852355957,3.6353065967559814,0.2939087152481079
-1.1489557027816772,3.6276111602783203,0.2920517921447754
-1.4662140607833862,4.5199666023254395,0.36235347390174866
-1.502544641494751,4.524626731872559,0.36119624972343445
-1.5355861186981201,4.521953105926514,0.3592168688774109
-1.624772071838379,4.680991172790527,0.37002071738243103
-3.4818146228790283,9.817595481872559,0.7722362279891968
-1.6559178829193115,4.567030429840088,0.3573862910270691
-3.6041500568389893,9.728575706481934,0.7574146389961243
-3.6728498935699463,9.711655616760254,0.7518512606620789
-3.729495048522949,9.665472984313965,0.7439191937446594
-1.7551809549331665,4.459587574005127,0.3412320911884308
-1.8052427768707275,4.494424819946289,0.34179407358169556
-1.829087257385254,4.463954448699951,0.3374054431915283
-1.8848294019699097,4.512823581695557,0.3388470709323883
-1.9088085889816284,4.4860405921936035,0.33452463150024414
-1.9449113607406616,4.487743377685547,0.3323412835597992
-1.9495747089385986,4.413634777069092,0.32446718215942383
-1.9802714586257935,4.400193214416504,0.3211185932159424
-1.9902591705322266,4.344542026519775,0.3145587742328644
-2.0289745330810547,4.352665424346924,0.31260326504707336
-2.026125907897949,4.272411823272705,0.30434104800224304
-4.146772384643555,8.58654499053955,0.6062819957733154
-4.163161754608154,8.470660209655762,0.5928133726119995
-4.252297878265381,8.509684562683105,0.5898742079734802
-2.1419293880462646,4.216592788696289,0.2894706130027771
-2.159773349761963,4.181431293487549,0.2841895818710327
-2.230638027191162,4.245906829833984,0.2855696678161621
-2.255829095840454,4.2240190505981445,0.2809095084667206
-2.272404909133911,4.188797950744629,0.27540862560272217
-2.206141471862793,4.003061294555664,0.2601291835308075
-2.2320384979248047,3.984480857849121,0.2557213008403778
-2.2587406635284424,3.969675302505493,0.2514854371547699
-2.285010576248169,3.9548866748809814,0.24713563919067383
-2.312972068786621,3.943390369415283,0.2430233508348465
-2.340442419052124,3.927429676055908,0.23843909800052643
-2.364567995071411,3.9086718559265137,0.23361948132514954
-2.389857292175293,3.8935365676879883,0.2289784699678421
-2.4162402153015137,3.8775033950805664,0.22411705553531647
-2.443296194076538,3.860799551010132,0.21911004185676575
-2.4682130813598633,3.845203161239624,0.21404330432415009
-2.48867130279541,3.822964906692505,0.20861651003360748
-2.5193562507629395,3.8124656677246094,0.20352868735790253
-2.5451157093048096,3.7956156730651855,0.19790762662887573
-2.56927752494812,3.779587745666504,0.19237250089645386
-2.0408074855804443,2.9591753482818604,0.146687850356102
-2.060514211654663,2.9457204341888428,0.1419236809015274
-2.0654683113098145,2.9138143062591553,0.1362605094909668
-2.085477352142334,2.899765968322754,0.13107654452323914
-1.0992885828018188,1.507857322692871,0.06572694331407547
-1.1040090322494507,1.4948267936706543,0.06270649284124374
-2.072796583175659,2.905177354812622,-0.10290814191102982
-2.0528440475463867,2.923862934112549,-0.10907577723264694
-2.0911850929260254,3.025402307510376,-0.11825985461473465
-2.0910747051239014,3.0725913047790527,-0.12526598572731018
-2.084937810897827,3.1141726970672607,-0.13214556872844696
-2.383126974105835,3.614133358001709,-0.15886949002742767
-2.3558602333068848,3.631685972213745,-0.1651482880115509
-2.3286633491516113,3.64890193939209,-0.17127831280231476
-2.303030252456665,3.6648612022399902,-0.17702901363372803
-2.275747299194336,3.6815831661224365,-0.18278902769088745
-2.252310276031494,3.704817771911621,-0.18885962665081024
-2.2219460010528564,3.7137346267700195,-0.19397933781147003
-2.1947946548461914,3.729562520980835,-0.1993393450975418
-2.171067714691162,3.7521538734436035,-0.20506717264652252
-2.1445343494415283,3.767099380493164,-0.21019059419631958
-2.1175522804260254,3.782047748565674,-0.21524754166603088
-2.1004340648651123,3.818023920059204,-0.2215675413608551
-2.061722993850708,3.812187671661377,-0.22531162202358246
-2.042389392852783,3.839977979660034,-0.2309177666902542
-2.0342206954956055,3.892500638961792,-0.2379833608865738
-1.996801733970642,3.8896260261535645,-0.24168848991394043
-1.9722896814346313,3.910557508468628,-0.24681183695793152
-1.9498076438903809,3.9345884323120117,-0.2520243525505066
-1.9210706949234009,3.9484097957611084,-0.25651848316192627
-1.902316689491272,3.983128786087036,-0.2624031603336334
-1.8744161128997803,3.996047258377075,-0.26673638820648193
-1.8591028451919556,4.037271976470947,-0.2729368507862091
-1.8325026035308838,4.057678699493408,-0.2777445316314697
-1.7936251163482666,4.04915189743042,-0.2805115282535553
-1.783980369567871,4.104183673858643,-0.2875930070877075
-1.7549430131912231,4.116397380828857,-0.29166117310523987
-1.7357597351074219,4.153825759887695,-0.29745206236839294
-1.705232858657837,4.166156768798828,-0.3015385568141937
-1.6790045499801636,4.184913158416748,-0.30595576763153076
-1.649610996246338,4.1963043212890625,-0.3098013699054718
-1.6222721338272095,4.215025424957275,-0.31406012177467346
-1.5920013189315796,4.226273059844971,-0.3177831768989563
-1.561716079711914,4.237277507781982,-0.3214980959892273
-1.5347415208816528,4.255130767822266,-0.32568293809890747
-1.5042424201965332,4.265744209289551,-0.32912638783454895
-1.4736721515655518,4.2761359214782715,-0.3325578272342682
-1.4507895708084106,4.308358192443848,-0.33769169449806213
-1.179258108139038,3.585601329803467,-0.28323253989219666
-1.1467894315719604,3.5713675022125244,-0.28414201736450195
-1.1213363409042358,3.579235076904297,-0.2867228090763092
-1.3279669284820557,4.346765518188477,-0.35058897733688354
-1.2997709512710571,4.363158702850342,-0.3542662560939789
-1.2692431211471558,4.371888160705566,-0.3573262095451355
-1.2396626472473145,4.388225078582764,-0.360823392868042
-1.2084195613861084,4.396697998046875,-0.3636573255062103
-1.17837393283844,4.4086432456970215,-0.36678141355514526
-1.1476349830627441,4.416513442993164,-0.36955925822257996
-1.128082513809204,4.469526767730713,-0.37601354718208313
-1.097718596458435,4.4848809242248535,-0.37921765446662903
-1.05246901512146,4.435507297515869,-0.37691423296928406
-1.0214194059371948,4.442550182342529,-0.3793778419494629
-0.9904325604438782,4.449350357055664,-0.38183262944221497
-0.9590775370597839,4.456024169921875,-0.3840518593788147
-0.9326105713844299,4.489280700683594,-0.38855281472206116
-0.9008910059928894,4.495565414428711,-0.3907219171524048
-0.8754099607467651,4.532125473022461,-0.39553332328796387
-0.8480609059333801,4.56088924407959,-0.3996851146221161
-0.8248134851455688,4.616390705108643,-0.4059097170829773
-0.795634925365448,4.64503288269043,-0.409839391708374
-0.7654985785484314,4.665703296661377,-0.41306954622268677
-0.7348635792732239,4.682279586791992,-0.4159501791000366
-0.7045038342475891,4.702524185180664,-0.4190991520881653
-0.6714886426925659,4.707216739654541,-0.42061707377433777
-0.637880265712738,4.711750507354736,-0.42216068506240845
-0.6078943610191345,4.739114284515381,-0.42575326561927795
-0.5758465528488159,4.750817775726318,-0.4279613792896271
-0.5427346229553223,4.75459098815918,-0.4293293356895447
-0.5085902810096741,4.750435829162598,-0.4297717213630676
-0.4671767055988312,4.672484397888184,-0.42354315519332886
-0.1636032611131668,1.7625426054000854,-0.16009031236171722
-0.1506800353527069,1.7558470964431763,-0.15980421006679535
-0.13660971820354462,1.7335532903671265,-0.15803150832653046
-0.1261741667985916,1.757720947265625,-0.16043101251125336
-0.1101422905921936,1.700303077697754,-0.15538744628429413
-0.10233286023139954,1.7748048305511475,-0.16241320967674255
-0.08741074055433273,1.7249438762664795,-0.15806518495082855
-0.07758435606956482,1.776015281677246,-0.1628899723291397
-0.06789103895425797,1.8503602743148804,-0.16980300843715668
-0.05416060984134674,1.823559045791626,-0.16744458675384521
-0.04054927080869675,1.792772650718689,-0.1647266000509262
-0.02857957035303116,1.8241136074066162,-0.16772320866584778
-0.01628858596086502,1.8670507669448853,-0.1717006117105484
-0.007138114422559738,4.029867649078369,-0.37056127190589905
0.02084003947675228,4.022042274475098,-0.3698199987411499
0.04867004603147507,3.9712326526641846,-0.36514443159103394
0.0741129145026207,3.858015775680542,-0.3547482192516327
0.10030227899551392,3.8340985774993896,-0.3523663282394409
0.12670089304447174,3.825563430786133,-0.3513181507587433
0.15310850739479065,3.820735216140747,-0.3506283760070801
0.17784306406974792,3.780752182006836,-0.3467317223548889
0.2029014378786087,3.7483558654785156,-0.3435481786727905
0.2258157879114151,3.696432113647461,-0.3383759558200836
0.2503757178783417,3.6793107986450195,-0.33633366227149963
0.13415351510047913,1.7883412837982178,-0.16325289011001587
0.14053615927696228,1.7137264013290405,-0.15623441338539124
0.15437445044517517,1.7320915460586548,-0.15770334005355835
0.16302533447742462,1.6961641311645508,-0.15413206815719604
0.1747509092092514,1.6950347423553467,-0.15370900928974152
0.1881861835718155,1.7092912197113037,-0.15468525886535645
0.20413453876972198,1.742758870124817,-0.15739718079566956
0.21310552954673767,1.7142834663391113,-0.15451523661613464
0.22190099954605103,1.689673662185669,-0.15188826620578766
0.2383698970079422,1.722838044166565,-0.1544424295425415
0.24745461344718933,1.7019498348236084,-0.1521550863981247
0.2592957019805908,1.7002365589141846,-0.15159043669700623
0.27011364698410034,1.690721869468689,-0.15033209323883057
0.28305283188819885,1.696555733680725,-0.15032577514648438
0.2960841655731201,1.7022918462753296,-0.15031178295612335
0.3050623834133148,1.6849496364593506,-0.14826881885528564
0.3232588768005371,1.7172688245773315,-0.15059353411197662
0.3284655213356018,1.6806671619415283,-0.14686636626720428
0.34176313877105713,1.686029076576233,-0.14670224487781525
0.35175666213035583,1.6760902404785156,-0.14522427320480347
0.36497417092323303,1.6812996864318848,-0.14506350457668304
0.3715609312057495,1.6559995412826538,-0.14227770268917084
0.3883063495159149,1.6762101650238037,-0.14337223768234253
0.40002045035362244,1.6735349893569946,-0.1424165964126587
0.42176520824432373,1.7124049663543701,-0.14499753713607788
0.7638110518455505,3.0114905834198,-0.2537209093570709
0.7778991460800171,2.979867696762085,-0.24979086220264435
0.7984540462493896,2.9745776653289795,-0.24797703325748444
0.8150246739387512,2.9540860652923584,-0.2448088377714157
0.8352614641189575,2.9485838413238525,-0.24292564392089844
0.8513732552528381,2.927910327911377,-0.23979292809963226
0.867308497428894,2.907132625579834,-0.23667292296886444
0.8678658604621887,2.83796763420105,-0.2295047640800476
0.8631317019462585,2.7539775371551514,-0.22118593752384186
0.8748717904090881,2.725893974304199,-0.21744419634342194
0.8914095163345337,2.712488889694214,-0.21487770974636078
0.9076505303382874,2.6990389823913574,-0.2122778743505478
0.9285643100738525,2.7003214359283447,-0.2107401341199875
0.9443486928939819,2.686749219894409,-0.20805467665195465
0.9684990048408508,2.6948728561401367,-0.20700086653232574
0.9899551272392273,2.6955347061157227,-0.20538516342639923
1.002868413925171,2.674290180206299,-0.20200735330581665
1.0210278034210205,2.667581796646118,-0.19972379505634308
1.0335713624954224,2.6461904048919678,-0.19635002315044403
1.0523394346237183,2.63895845413208,-0.19397753477096558
1.0675920248031616,2.6245861053466797,-0.19106951355934143
1.085370421409607,2.6174604892730713,-0.18863487243652344
1.0955328941345215,2.5922529697418213,-0.18491686880588531
1.1135104894638062,2.5847578048706055,-0.18244099617004395
1.1285842657089233,2.5698773860931396,-0.17940114438533783
1.1363343000411987,2.5410349369049072,-0.17537128925323486
1.140533208847046,2.505096435546875,-0.17089711129665375
1.143027663230896,2.4655075073242188,-0.16618628799915314
1.160200595855713,2.4576447010040283,-0.16362513601779938
1.156722068786621,2.4076499938964844,-0.1581767499446869
1.1762934923171997,2.4070019721984863,-0.15604707598686218
1.180644154548645,2.3745925426483154,-0.15183420479297638
1.197169303894043,2.36647367477417,-0.1491718739271164
1.2129669189453125,2.3585853576660156,-0.14645777642726898
1.2286913394927979,2.350599765777588,-0.14374585449695587
1.2377924919128418,2.328336000442505,-0.1400739997625351
1.2502018213272095,2.313000202178955,-0.1368444859981537
1.2618231773376465,2.2979507446289062,-0.1336013674736023
1.284715175628662,2.30328106880188,-0.13153982162475586
1.2929631471633911,2.280907154083252,-0.12780643999576569
1.3048393726348877,2.265300989151001,-0.12440284341573715
1.3237303495407104,2.263522148132324,-0.12178050726652145
1.326969027519226,2.2345988750457764,-0.11767533421516418
1.3465549945831299,2.23213529586792,-0.11488911509513855
1.3571888208389282,2.2166991233825684,-0.11140723526477814
1.3719813823699951,2.2077324390411377,-0.1082153171300888
1.3872672319412231,2.1983203887939453,-0.10490281879901886
1.3935223817825317,2.175999879837036,-0.10096235573291779
1.407679557800293,2.167020082473755,-0.09764808416366577
1.4224544763565063,2.1575047969818115,-0.09417390823364258
1.4284837245941162,2.134908676147461,-0.0900283008813858
1.4422343969345093,2.125789165496826,-0.08652395009994507
1.4522662162780762,2.109623432159424,-0.08257023990154266
1.4639663696289062,2.096905469894409,-0.07868784666061401
1.4682960510253906,2.0749094486236572,-0.07447867095470428
1.4031822681427002,1.953634262084961,-0.06657017767429352
1.447762370109558,1.9889897108078003,-0.06416533887386322
1.460816502571106,1.9795502424240112,-0.060082755982875824
1.4855589866638184,2.1041362285614014,0.11159154772758484
1.4704821109771729,2.1144800186157227,0.1156875416636467
1.4588133096694946,2.1317882537841797,0.12006498128175735
1.442154049873352,2.1428632736206055,0.1241009384393692
1.4314566850662231,2.1591804027557373,0.12810468673706055
1.414992094039917,2.1697895526885986,0.1317170411348343
1.4027482271194458,2.186781167984009,0.13569453358650208
1.3873933553695679,2.196347713470459,0.13900992274284363
1.3788772821426392,2.2198774814605713,0.1432158201932907
1.361980676651001,2.230069637298584,0.14652396738529205
1.3501605987548828,2.2461464405059814,0.1500576138496399
1.333936095237732,2.255615711212158,0.15309306979179382
1.316931128501892,2.265380859375,0.15609964728355408
1.3037829399108887,2.2817513942718506,0.15956875681877136
1.2878162860870361,2.29060435295105,0.16236792504787445
1.2785426378250122,2.3134303092956543,0.16610120236873627
1.2649850845336914,2.3295485973358154,0.16935178637504578
1.2480412721633911,2.3384737968444824,0.17204035818576813
1.233164668083191,2.350560426712036,0.17493502795696259
1.2158803939819336,2.3593575954437256,0.1774735450744629
1.2194393873214722,2.4098620414733887,0.18316754698753357
1.205344796180725,2.42545747756958,0.18621733784675598
1.2020336389541626,2.461653470993042,0.19081206619739532
1.195721983909607,2.4948172569274902,0.19517157971858978
1.1905957460403442,2.531569719314575,0.1997719556093216
1.1719133853912354,2.5400819778442383,0.20217567682266235
1.1605808734893799,2.5622153282165527,0.20559260249137878
1.1488696336746216,2.5843665599823,0.2090187668800354
1.1268231868743896,2.585381269454956,0.21063046157360077
1.1121454238891602,2.6042582988739014,0.21373751759529114
1.0934419631958008,2.6119892597198486,0.21589089930057526
1.0811063051223755,2.633793830871582,0.2191854864358902
1.0652376413345337,2.6484782695770264,0.2218359410762787
1.0488003492355347,2.663236379623413,0.22442948818206787
1.0290520191192627,2.6707584857940674,0.22645357251167297
1.0183396339416504,2.699681043624878,0.23025572299957275
0.9994859099388123,2.7065536975860596,0.23217779397964478
0.9801681041717529,2.713451385498047,0.23401710391044617
0.9553043842315674,2.7056407928466797,0.23452863097190857
0.9328245520591736,2.7050819396972656,0.2356909215450287
0.9186495542526245,2.7262144088745117,0.23871059715747833
0.8971673846244812,2.7250137329101562,0.23977452516555786
0.8706682920455933,2.7089312076568604,0.23943819105625153
0.8651025891304016,2.759566068649292,0.24493277072906494
0.8880735039710999,2.9071364402770996,0.2591313123703003
0.8762948513031006,2.9430651664733887,0.26342251896858215
0.8557642698287964,2.9489564895629883,0.26502901315689087
0.8392833471298218,2.9697279930114746,0.26794302463531494
0.822110116481781,2.990544319152832,0.27073782682418823
0.8006629347801208,2.9962270259857178,0.27218106389045715
0.7817604541778564,3.0131423473358154,0.2746775150299072
0.7607652544975281,3.018383502960205,0.27608513832092285
0.7415840029716492,3.031036138534546,0.2781863808631897
0.7218581438064575,3.0436770915985107,0.28013619780540466
0.7123192548751831,3.101722002029419,0.28625810146331787
0.6940246224403381,3.125678539276123,0.28928008675575256
0.6801548004150391,3.1684114933013916,0.29404589533805847
0.6683403253555298,3.222475290298462,0.2998909652233124
0.6487917304039001,3.2422256469726562,0.3025203347206116
0.6257189512252808,3.2466588020324707,0.30357372760772705
0.6050574779510498,3.2662975788116455,0.30607855319976807
0.5859367251396179,3.2933897972106934,0.3092932105064392
0.5629347562789917,3.2973010540008545,0.3103393018245697
0.5425180196762085,3.3163890838623047,0.3128291368484497
0.5192320942878723,3.3200278282165527,0.3137487471103668
0.4993742108345032,3.350522041320801,0.3171289563179016
0.48334193229675293,3.4077963829040527,0.32306355237960815
0.46244359016418457,3.4341623783111572,0.32609421014785767
0.44685837626457214,3.50280499458313,0.3331637382507324
0.42432618141174316,3.521193742752075,0.3354816138744354
0.39868584275245667,3.5162978172302246,0.3354146182537079
0.37550780177116394,3.5383427143096924,0.3378832936286926
0.3536610007286072,3.5717971324920654,0.341456800699234
0.32930025458335876,3.581876754760742,0.3428155779838562
0.3083283305168152,3.63051700592041,0.34788423776626587
0.2888484597206116,3.706169366836548,0.3555715084075928
0.2665931284427643,3.766272783279419,0.36156460642814636
0.24168600142002106,3.791295051574707,0.3641785979270935
0.21648091077804565,3.8161492347717285,0.3667966425418854
0.1900142878293991,3.8214151859283447,0.36755117774009705
0.16377006471157074,3.8303771018981934,0.3686786890029907
0.13859470188617706,3.8858044147491455,0.37430623173713684
0.11293402314186096,3.9371917247772217,0.37929263710975647
0.08723481744527817,4.01950740814209,0.38726866245269775
0.05964828282594681,4.051109790802002,0.3903789222240448
0.03154696151614189,4.0669684410095215,0.3919917941093445
0.002753996988758445,4.074855327606201,0.3928576111793518
-0.02600444294512272,4.140862941741943,0.3993465006351471
-0.05617297813296318,4.245572566986084,0.40928542613983154
-0.08615047484636307,4.268422603607178,0.4113469421863556
-0.1158154159784317,4.267738342285156,0.4111596941947937
-0.14521002769470215,4.2590765953063965,0.4102238118648529
-0.17618577182292938,4.277384281158447,0.41190382838249207
-0.2139505296945572,4.443078517913818,0.42778971791267395
-0.24704588949680328,4.48424768447876,0.4313929080963135
-0.28197211027145386,4.544571399688721,0.4368508756160736
-0.3179660439491272,4.6085076332092285,0.4426681399345398
-0.35784855484962463,4.7031331062316895,0.4514372944831848
-0.39407655596733093,4.743209362030029,0.4549880027770996
-0.4416287839412689,4.903076171875,0.47002172470092773
-0.5001967549324036,5.155454158782959,0.4935671389102936
-0.5425560474395752,5.217729091644287,0.4988960325717926
-0.5945510864257812,5.353034496307373,0.5111971497535706
-0.6256707906723022,5.298679351806641,0.5054075121879578
-0.6586427688598633,5.263424396514893,0.5014705657958984
-0.6905920505523682,5.224122047424316,0.4971359372138977
-0.7253881096839905,5.211679458618164,0.49506309628486633
-0.7584275603294373,5.183520793914795,0.4915108382701874
-0.7940697073936462,5.178307056427002,0.49017563462257385
-0.8131999373435974,5.069136142730713,0.4790360629558563
-0.8574140071868896,5.117189884185791,0.48278072476387024
-0.8807238340377808,5.042305946350098,0.4748689532279968
-0.9179676175117493,5.051628112792969,0.4746580719947815
-0.948716402053833,5.022352695465088,0.47082722187042236
-0.9995011687278748,5.099881172180176,0.4770357608795166
-1.0401862859725952,5.119686126708984,0.47783225774765015
-1.0637251138687134,5.055392265319824,0.4708040952682495
-1.0919466018676758,5.017696857452393,0.4661395251750946
-1.1249748468399048,5.002609729766846,0.4634000062942505
-1.1475868225097656,4.945748805999756,0.45685017108917236
-1.205732822418213,5.040154933929443,0.4642792046070099
-1.204443335533142,4.884505271911621,0.4486820697784424
-1.2115833759307861,4.770596027374268,0.43700578808784485
-1.2249943017959595,4.686981678009033,0.4279017746448517
-1.2547591924667358,4.67124605178833,0.4249900281429291
-1.2812618017196655,4.644067764282227,0.42106497287750244
-1.30670166015625,4.612912654876709,0.4167977273464203
-1.3387763500213623,4.603910446166992,0.41453689336776733
-1.3711625337600708,4.594581604003906,0.41217613220214844
-1.1188125610351562,3.6586644649505615,0.32685092091560364
-1.1365598440170288,3.628905773162842,0.3228481113910675
-1.1587090492248535,3.613898515701294,0.3201833665370941
-1.4860877990722656,4.526852607727051,0.3993719518184662
-1.515588402748108,4.50908088684082,0.39609384536743164
-1.577701210975647,4.591004371643066,0.40136128664016724
-3.4466664791107178,9.814931869506836,0.8538299202919006
-1.6419185400009155,4.577208518981934,0.39622363448143005
-1.6680351495742798,4.551427841186523,0.3920036852359772
-1.699742078781128,4.5399394035339355,0.38901400566101074
-1.7604954242706299,4.604653358459473,0.39235079288482666
-1.7758598327636719,4.5530805587768555,0.38569021224975586
-1.7761772871017456,4.465333461761475,0.37604331970214844
-1.8227777481079102,4.4930524826049805,0.3761155605316162
-1.8540446758270264,4.480520725250244,0.3727732002735138
-1.9168814420700073,4.543200969696045,0.3755022883415222
-1.891760230064392,4.401784896850586,0.3613182008266449
-4.110846996307373,9.392486572265625,0.765649676322937
-1.9573969841003418,4.390640735626221,0.35536542534828186
-1.9622318744659424,4.320408821105957,0.3471210300922394
-2.0214383602142334,4.370721817016602,0.34837695956230164
-2.0571060180664062,4.371587753295898,0.3456127643585205
-2.091190814971924,4.368656635284424,0.3425477147102356
-2.1059844493865967,4.322883129119873,0.33604249358177185
-2.1551353931427,4.346805095672607,0.33493974804878235
-2.151035785675049,4.266399383544922,0.3255727291107178
-2.175642251968384,4.245466232299805,0.32085832953453064
-2.207710027694702,4.2379913330078125,0.31712576746940613
-4.428844451904297,8.359511375427246,0.619028627872467
-4.474122524261475,8.309467315673828,0.6086217164993286
-2.2353146076202393,4.087260723114014,0.2959747910499573
-2.21905779838562,3.9941587448120117,0.2858444154262543
-2.2450437545776367,3.975464105606079,0.28096485137939453
-2.2721004486083984,3.9603915214538574,0.2762899696826935
-2.2999203205108643,3.949143648147583,0.2717703878879547
-2.3256776332855225,3.9343554973602295,0.2670193910598755
-2.3535571098327637,3.9180898666381836,0.2618561387062073
-2.3778977394104004,3.8991377353668213,0.25652527809143066
-2.4031245708465576,3.8839774131774902,0.2513739764690399
-2.43072772026062,3.8717055320739746,0.2463500052690506
-2.4555845260620117,3.851713180541992,0.2405945509672165
-2.481085777282715,3.8356893062591553,0.23490522801876068
-2.5056557655334473,3.820024251937866,0.22929786145687103
-2.531726121902466,3.803152322769165,0.22332219779491425
-2.557225465774536,3.786409616470337,0.21720217168331146
-2.614331007003784,3.81870698928833,0.21378210186958313
-2.050367832183838,2.9518215656280518,0.16084961593151093
-2.0702176094055176,2.9382197856903076,0.15554463863372803
-2.075040578842163,2.906367063522339,0.14925329387187958
-2.094580888748169,2.8926026821136475,0.14359349012374878
-1.104101538658142,1.5040525197982788,0.07193762809038162
-1.1041078567504883,1.4847785234451294,0.06828203797340393
-2.064359664916992,2.915546178817749,-0.11423651874065399
-2.055311679840088,2.9502620697021484,-0.12156309187412262
-2.06011700630188,3.003624200820923,-0.12948296964168549
-2.0793418884277344,3.0799808502197266,-0.13840723037719727
-2.0796658992767334,3.1311535835266113,-0.14627502858638763
-2.0617990493774414,3.1520025730133057,-0.15241724252700806
-2.3426103591918945,3.639450788497925,-0.1818491369485855
-2.315239906311035,3.656585693359375,-0.18852287530899048
-2.2892005443573,3.672614097595215,-0.19484220445156097
-2.2620840072631836,3.6890437602996826,-0.20106542110443115
-2.2345564365386963,3.7054402828216553,-0.2072855681180954
-2.212489128112793,3.7274041175842285,-0.2135303020477295
-2.1853058338165283,3.743067502975464,-0.21938228607177734
-2.157012462615967,3.759091377258301,-0.22532719373703003
-2.1302242279052734,3.7739977836608887,-0.23093217611312866
-2.1032986640930176,3.7887301445007324,-0.23643918335437775
-2.086552381515503,3.824312210083008,-0.2432284951210022
-2.0476694107055664,3.8183929920196533,-0.24732840061187744
-2.0314114093780518,3.853191614151001,-0.2539799213409424
-2.01424241065979,3.888218641281128,-0.26054859161376953
-1.9981614351272583,3.926804780960083,-0.26740172505378723
-1.96323561668396,3.926605701446533,-0.2715226113796234
-1.9356188774108887,3.939946174621582,-0.27650585770606995
-1.9064005613327026,3.953815221786499,-0.281483918428421
-1.8842732906341553,3.9813151359558105,-0.2873902916908264
-1.8594491481781006,4.001221656799316,-0.29266369342803955
-1.847381830215454,4.049339771270752,-0.29998937249183655
-1.8180221319198608,4.062260627746582,-0.3046298623085022
-1.7916735410690308,4.082112789154053,-0.30981624126434326
-1.773275375366211,4.11950159072876,-0.3163233995437622
-1.7412585020065308,4.12433385848999,-0.32024359703063965
-1.7204692363739014,4.158019542694092,-0.3262912333011627
-1.6905012130737305,4.169948577880859,-0.3306662440299988
-1.6611300706863403,4.181395053863525,-0.33494195342063904
-1.6341755390167236,4.20001745223999,-0.33983314037323
-1.6067817211151123,4.218580722808838,-0.3444836735725403
-1.576483964920044,4.229663848876953,-0.34854647517204285
-1.5492289066314697,4.247683048248291,-0.35315707325935364
-1.5195034742355347,4.2580766677856445,-0.3571227788925171
-1.4886305332183838,4.268641471862793,-0.36099350452423096
-1.4580904245376587,4.2788519859313965,-0.36474788188934326
-1.4349910020828247,4.310961723327637,-0.37039002776145935
-1.1592514514923096,3.5653016567230225,-0.30868905782699585
-1.134132742881775,3.5731143951416016,-0.31164661049842834
-1.3452249765396118,4.3470282554626465,-0.38181033730506897
-1.31423020362854,4.356196880340576,-0.3852429687976837
-1.2858538627624512,4.372471809387207,-0.38928666710853577
-1.2553434371948242,4.38102912902832,-0.3926519453525543
-1.2242802381515503,4.389532089233398,-0.395755797624588
-1.193113923072815,4.3978271484375,-0.3988357484340668
-1.1614995002746582,4.405999183654785,-0.4019540846347809
-1.1288247108459473,4.406174182891846,-0.4042894244194031
-1.0979613065719604,4.413698673248291,-0.4072040021419525
-1.0685744285583496,4.428658485412598,-0.41062283515930176
-1.035487413406372,4.4282684326171875,-0.4126388430595398
-1.0056036710739136,4.442871570587158,-0.4160919487476349
