X,Y,Z
-0.6249545812606812,3.6934711933135986,0.030320165678858757
-0.6516885161399841,3.696781873703003,0.03027539700269699
-0.6760011315345764,3.6844723224639893,0.030094781890511513
-0.7011936902999878,3.6797618865966797,0.02997921034693718
-0.7282437682151794,3.682469129562378,0.029924197122454643
-0.7318997979164124,3.570167303085327,0.028937896713614464
-0.7752247452735901,3.652904510498047,0.029527287930250168
-0.7972416281700134,3.632169008255005,0.029262032359838486
-0.9757338762283325,4.304729461669922,0.034567952156066895
-1.005429744720459,4.297892093658447,0.034400854259729385
-1.0233242511749268,4.241448402404785,0.033839039504528046
-1.0527565479278564,4.234240531921387,0.033671747893095016
-1.0800623893737793,4.219295501708984,0.03340855985879898
-1.106762170791626,4.204294681549072,0.03314923495054245
-1.1273733377456665,4.166451930999756,0.0327117033302784
-1.1541647911071777,4.151003837585449,0.03245100378990173
-1.1872310638427734,4.157920837402344,0.03236646205186844
-1.2159652709960938,4.1496100425720215,0.032139915972948074
-1.239538550376892,4.126319408416748,0.031798601150512695
-1.2676281929016113,4.117778778076172,0.031571973115205765
-1.2938448190689087,4.10142707824707,0.03128417581319809
-1.3222976922988892,4.092344284057617,0.03105362504720688
-1.348123550415039,4.075684070587158,0.03074105642735958
-1.3718516826629639,4.055391788482666,0.030400944873690605
-1.3994026184082031,4.045969009399414,0.03014281950891018
-1.4248645305633545,4.0287885665893555,0.029824713245034218
-1.4501553773880005,4.01145076751709,0.029507571831345558
-1.4772224426269531,4.0015645027160645,0.029235124588012695
-1.4990853071212769,3.976733446121216,0.028850099071860313
-1.5205481052398682,3.9518420696258545,0.02846844121813774
-1.5479682683944702,3.9411838054656982,0.028187552466988564
-1.5752253532409668,3.9303712844848633,0.027904067188501358
-1.5956015586853027,3.9052722454071045,0.027492357417941093
-1.6311614513397217,3.915956974029541,0.02732951007783413
-1.6550360918045044,3.8974428176879883,0.026960525661706924
-1.6696983575820923,3.8571579456329346,0.026441985741257668
-1.6959565877914429,3.845686912536621,0.026116685941815376
-1.7216087579727173,3.8342740535736084,0.02578430250287056
-1.7461974620819092,3.8188462257385254,0.025419974699616432
-1.7809245586395264,3.8243331909179688,0.025191335007548332
-1.7990034818649292,3.7942605018615723,0.02472943812608719
-1.5271618366241455,3.1665406227111816,0.020406361669301987
-1.5515543222427368,3.1633660793304443,0.020153695717453957
-1.5632952451705933,3.131408452987671,0.01970548741519451
-1.5815155506134033,3.113487720489502,0.019351281225681305
-1.6023132801055908,3.1028380393981934,0.019028032198548317
-1.6300486326217651,3.106016159057617,0.0187853816896677
-1.651288390159607,3.0947787761688232,0.018445653840899467
-1.6690224409103394,3.0763676166534424,0.01806083880364895
-1.6936506032943726,3.0718040466308594,0.017747264355421066
-1.6813545227050781,3.0026707649230957,0.017069151625037193
-0.8152044415473938,1.4327329397201538,0.008005289360880852
-0.7625608444213867,1.3188291788101196,0.007238256745040417
-0.7918820977210999,1.3287949562072754,0.007009033113718033
-0.8658603429794312,1.4301739931106567,0.007379794958978891
-0.8837984204292297,1.437533974647522,0.0072495597414672375
-0.8765751719474792,1.4052516222000122,0.006916012614965439
-0.8776325583457947,1.3861339092254639,0.006646627560257912
-0.8514564633369446,1.3240652084350586,0.006172125227749348
-1.2357468605041504,1.8144618272781372,0.007434030994772911
-0.8779593706130981,1.3812780380249023,-0.0103302001953125
-0.9026962518692017,1.4441787004470825,-0.011054407805204391
-0.8537341952323914,1.387211561203003,-0.010841216892004013
-0.8780345916748047,1.4501745700836182,-0.01156110130250454
-0.8172436356544495,1.3727686405181885,-0.011155695654451847
-0.762240469455719,1.3009120225906372,-0.010758145712316036
-0.7489616870880127,1.299591064453125,-0.01093459315598011
-1.3015284538269043,2.297506809234619,-0.0196510199457407
-1.2812176942825317,2.299952983856201,-0.019981110468506813
-1.6387282609939575,2.9904916286468506,-0.026368573307991028
-1.6633689403533936,3.0882341861724854,-0.027619900181889534
-1.636549949645996,3.0936899185180664,-0.0280594602227211
-1.6292160749435425,3.1328186988830566,-0.028783908113837242
-1.6038472652435303,3.137105941772461,-0.029188523069024086
-1.5809894800186157,3.1486828327178955,-0.02965993992984295
-1.557939052581787,3.160147190093994,-0.030131692066788673
-1.5388891696929932,3.178145408630371,-0.0306574497371912
-1.5100282430648804,3.17466139793396,-0.030969975516200066
-1.4869986772537231,3.185509204864502,-0.03140554577112198
-1.4638051986694336,3.1962287425994873,-0.0318400003015995
-1.441372275352478,3.2064034938812256,-0.03225884214043617
-1.4253191947937012,3.230652093887329,-0.03282022848725319
-1.3986362218856812,3.233779191970825,-0.03315643593668938
-1.3812791109085083,3.258204221725464,-0.033701375126838684
-1.3581799268722534,3.2678966522216797,-0.0340903177857399
-1.3383674621582031,3.284493923187256,-0.03454853966832161
-1.3151884078979492,3.293839931488037,-0.03492805361747742
-1.2881368398666382,3.2961227893829346,-0.03523038327693939
-1.2700272798538208,3.3198726177215576,-0.03575851023197174
-1.2469687461853027,3.3285984992980957,-0.036118559539318085
-1.2238234281539917,3.3371737003326416,-0.036479029804468155
-1.2026526927947998,3.3531582355499268,-0.036902330815792084
-1.1820917129516602,3.372877597808838,-0.03736976161599159
-1.1556819677352905,3.3737568855285645,-0.03762352839112282
-1.137095332145691,3.3965437412261963,-0.03812053054571152
-1.1132910251617432,3.404416561126709,-0.0384492464363575
-1.091239094734192,3.4197466373443604,-0.038842737674713135
-1.0662645101547241,3.4276123046875,-0.03915789723396301
-1.0445269346237183,3.4424595832824707,-0.03954602777957916
-1.0272434949874878,3.4721007347106934,-0.04010631516575813
-1.0007801055908203,3.4716877937316895,-0.0403120182454586
-0.9739513397216797,3.471193552017212,-0.04049762338399887
-0.957495391368866,3.508166790008545,-0.041123420000076294
-0.9325494170188904,3.5148773193359375,-0.04139821231365204
-0.9099996089935303,3.5288476943969727,-0.04175710678100586
-0.8871105909347534,3.5427215099334717,-0.042106445878744125
-0.8628679513931274,3.552720785140991,-0.042393602430820465
-0.8376013040542603,3.5587596893310547,-0.04263603314757347
-0.8140600323677063,3.572228193283081,-0.042969781905412674
-0.792563796043396,3.593057155609131,-0.04339180141687393
-0.7674162983894348,3.5985093116760254,-0.043622128665447235
-0.7419309616088867,3.6038477420806885,-0.04383453354239464
-0.7194504737854004,3.6243302822113037,-0.04423397779464722
-0.6980844140052795,3.6523659229278564,-0.044730015099048615
-0.671271026134491,3.649444103240967,-0.04484640806913376
-0.6458346247673035,3.6540286540985107,-0.04505099728703499
-0.6213793158531189,3.6661880016326904,-0.04532116651535034
-0.5980696082115173,3.685889720916748,-0.04568742215633392
-0.5717801451683044,3.6900570392608643,-0.045865558087825775
-0.5489291548728943,3.713266372680664,-0.04628034681081772
-0.5241497755050659,3.724731683731079,-0.046551935374736786
-0.4979044795036316,3.7283294200897217,-0.04669227823615074
-0.4745871126651764,3.754990816116333,-0.04712146893143654
-0.45006415247917175,3.7737419605255127,-0.047454461455345154
-0.4242546260356903,3.784590005874634,-0.04769168049097061
-0.3979918956756592,3.7874398231506348,-0.0478287898004055
-0.37383154034614563,3.813448190689087,-0.04823682829737663
-0.34818756580352783,3.8276400566101074,-0.04848379269242287
-0.3220365345478058,3.8377668857574463,-0.048681993037462234
-0.2942400574684143,3.8321619033813477,-0.04868389666080475
-0.2692529261112213,3.8574905395507812,-0.049080006778240204
-0.12021372467279434,1.914042353630066,-0.02438596449792385
-0.10531137138605118,1.8875361680984497,-0.024068601429462433
-0.09135643392801285,1.872620701789856,-0.023899730294942856
-0.07807331532239914,1.8732210397720337,-0.023930223658680916
-0.06586410850286484,1.8971394300460815,-0.02425961010158062
-0.05245904624462128,1.8897422552108765,-0.024189908057451248
-0.03946130722761154,1.897871732711792,-0.024302201345562935
-0.02624175138771534,1.8981003761291504,-0.02431217022240162
-0.012788031250238419,1.8982385396957397,-0.02432231791317463
0.0004172254411969334,1.9060934782028198,-0.024432405829429626
0.013562995009124279,1.890420913696289,-0.024242056533694267
0.05683230981230736,4.022705554962158,-0.05159098654985428
0.08491146564483643,4.030024528503418,-0.05167117342352867
0.11444596201181412,4.083998680114746,-0.052351854741573334
0.1430494785308838,4.075280666351318,-0.05223115161061287
0.17238876223564148,4.097601890563965,-0.05251093953847885
0.20123490691184998,4.104107856750488,-0.05258776247501373
0.23030655086040497,4.114316463470459,-0.05267592892050743
0.2570761740207672,4.085336208343506,-0.05226503312587738
0.28944525122642517,4.134073734283447,-0.05285002663731575
0.3142852783203125,4.081335067749023,-0.05214083567261696
0.33186689019203186,3.950608491897583,-0.05043930187821388
0.190750852227211,2.09663987159729,-0.0267371516674757
0.38224273920059204,3.9028866291046143,-0.04969963803887367
0.4039513170719147,3.845721483230591,-0.0489022321999073
0.42984870076179504,3.8350532054901123,-0.0487002357840538
0.45376887917518616,3.8086977005004883,-0.048301905393600464
0.4748229682445526,3.762829303741455,-0.04764742776751518
0.49767017364501953,3.736236333847046,-0.04721270874142647
0.5189904570579529,3.6978414058685303,-0.046630971133708954
0.5377493500709534,3.6477901935577393,-0.04590784013271332
0.5607120990753174,3.6285245418548584,-0.04557555168867111
0.5803163647651672,3.589837074279785,-0.04500273987650871
0.37037983536720276,2.195369243621826,-0.027446851134300232
0.38408970832824707,2.185082197189331,-0.027244554832577705
0.39658716320991516,2.16696834564209,-0.0269452091306448
0.41019171476364136,2.156484365463257,-0.026743391528725624
0.426695853471756,2.1612441539764404,-0.02673191763460636
0.44312238693237305,2.165911912918091,-0.026704372838139534
0.46118447184562683,2.178112268447876,-0.026763586327433586
0.4814012348651886,2.19773268699646,-0.026911862194538116
0.4966610372066498,2.194336175918579,-0.02677910216152668
0.5154516100883484,2.206047773361206,-0.026831386610865593
0.777661144733429,3.227721929550171,-0.03911277651786804
0.7958869934082031,3.207183361053467,-0.0387088805437088
0.8074932098388672,3.1599557399749756,-0.03798467293381691
0.8274500370025635,3.146714687347412,-0.03767303749918938
0.8432387113571167,3.1182520389556885,-0.03718206286430359
0.8584738373756409,3.089777708053589,-0.03668295219540596
0.8655560612678528,3.0350356101989746,-0.03586100414395332
0.8843889236450195,3.021465301513672,-0.03552716225385666
0.9052958488464355,3.015270233154297,-0.03528238832950592
0.919342041015625,2.9865071773529053,-0.034775882959365845
0.9292907118797302,2.946589231491089,-0.03413025662302971
0.9468357563018799,2.932793617248535,-0.03377167508006096
0.9597021341323853,2.9039392471313477,-0.033239610493183136
0.967306911945343,2.8602144718170166,-0.032542042434215546
0.9846157431602478,2.8460402488708496,-0.03218483924865723
1.000165581703186,2.8281900882720947,-0.031777333468198776
1.0139485597610474,2.8066747188568115,-0.031321730464696884
1.0275092124938965,2.7850940227508545,-0.03086881712079048
1.0389257669448853,2.755826234817505,-0.030325332656502724
1.0482652187347412,2.7230124473571777,-0.029751591384410858
1.0638304948806763,2.7085812091827393,-0.029364801943302155
1.0791386365890503,2.694108247756958,-0.028974976390600204
1.0886245965957642,2.6649932861328125,-0.02842853218317032
1.0984296798706055,2.6355984210968018,-0.02787569910287857
1.1135497093200684,2.620762825012207,-0.02748020738363266
1.1248500347137451,2.5989198684692383,-0.02699476294219494
1.1453808546066284,2.598480463027954,-0.026733264327049255
1.152146577835083,2.565547227859497,-0.02613179385662079
1.1735055446624756,2.5644452571868896,-0.02585216797888279
1.1907615661621094,2.5564818382263184,-0.025499189272522926
1.1843376159667969,2.4990832805633545,-0.024656830355525017
1.194562554359436,2.4768803119659424,-0.024163253605365753
1.199698567390442,2.4439773559570312,-0.023565493524074554
1.2165812253952026,2.4356207847595215,-0.02319514937698841
1.2221044301986694,2.4066014289855957,-0.022627269849181175
1.223960518836975,2.37054705619812,-0.02199564315378666
1.2403855323791504,2.3619978427886963,-0.021614927798509598
1.2435526847839355,2.329385280609131,-0.021011551842093468
1.271893858909607,2.3451883792877197,-0.020835040137171745
1.2747039794921875,2.312492609024048,-0.02021622844040394
1.2754579782485962,2.2763261795043945,-0.019570330157876015
1.2908005714416504,2.267665147781372,-0.019160546362400055
1.3056334257125854,2.2591607570648193,-0.018748003989458084
1.3209277391433716,2.250255823135376,-0.018320992588996887
1.3327850103378296,2.2341649532318115,-0.017822861671447754
1.3393397331237793,2.2119998931884766,-0.01727929711341858
1.3496105670928955,2.196587562561035,-0.01679036393761635
1.36484956741333,2.187155246734619,-0.016323581337928772
1.3754335641860962,2.1712758541107178,-0.01580686867237091
1.3664336204528809,2.1260523796081543,-0.015070783905684948
1.4085701704025269,2.1592679023742676,-0.01487645972520113
3.1528894901275635,4.76162576675415,-0.031827040016651154
3.128772020339966,4.660343647003174,-0.030171068385243416
1.4227418899536133,2.088803768157959,-0.01305846031755209
2.5989723205566406,3.759333372116089,-0.022612344473600388
3.156148672103882,4.504225730895996,-0.026021849364042282
3.1752490997314453,4.466846942901611,-0.024657651782035828
3.1956300735473633,4.43304967880249,-0.023293234407901764
3.2143707275390625,4.400150775909424,-0.021924758329987526
3.2401843070983887,4.371462821960449,-0.020465724170207977
3.1905081272125244,4.460681915283203,0.03666546568274498
3.153508424758911,4.482125759124756,0.038302935659885406
2.6259448528289795,3.788090705871582,0.03346959874033928
2.5931265354156494,3.8011670112609863,0.0346749871969223
3.1115305423736572,4.6341729164123535,0.043539468199014664
3.1546452045440674,4.769716739654541,0.04603075236082077
3.134897232055664,4.8200249671936035,0.04774874448776245
3.095658302307129,4.836032390594482,0.04906124994158745
1.626792073249817,2.580716371536255,0.02676784247159958
1.6073977947235107,2.5928330421447754,0.027480237185955048
1.6128524541854858,2.6444966793060303,0.028605015948414803
1.6463701725006104,2.7429091930389404,0.030246730893850327
1.646124243736267,2.7885048389434814,0.03130808472633362
1.617479920387268,2.7871594429016113,0.03184188902378082
1.5864291191101074,2.7779855728149414,0.03224572166800499
1.5821365118026733,2.816322088241577,0.03320149704813957
1.5458306074142456,2.800765037536621,0.03352498263120651
1.533005952835083,2.8255858421325684,0.03431161120533943
1.5243273973464966,2.856861114501953,0.0351664274930954
1.5038589239120483,2.8676812648773193,0.03576336055994034
2.450324535369873,4.757259368896484,0.06007464975118637
2.3857476711273193,4.715660572052002,0.06027650460600853
1.198203206062317,2.409773111343384,0.031156765297055244
1.1878516674041748,2.432286262512207,0.03179660812020302
1.1666942834854126,2.4338388442993164,0.032157499343156815
1.177541971206665,2.5021910667419434,0.0334029458463192
1.1731841564178467,2.538696050643921,0.034228309988975525
1.1645389795303345,2.5684213638305664,0.03496954217553139
1.15054452419281,2.5875442028045654,0.03555310145020485
1.134954810142517,2.602938175201416,0.03608641028404236
1.1168241500854492,2.6107630729675293,0.03650566563010216
1.0789941549301147,2.571638822555542,0.03626463562250137
1.0763812065124512,2.6192398071289062,0.03722910210490227
1.9864624738693237,4.935047149658203,0.07068704813718796
1.9602702856063843,4.970699787139893,0.07172922044992447
2.034064531326294,5.264737129211426,0.07652874290943146
2.328500986099243,6.155737400054932,0.09011531621217728
1.9675837755203247,5.319081783294678,0.07840508222579956
2.179104804992676,6.023582935333252,0.08938822895288467
1.9898730516433716,5.622518539428711,0.08397896587848663
1.854880690574646,5.359393119812012,0.08056723326444626
1.8892956972122192,5.587037563323975,0.08448954671621323
1.8558077812194824,5.622923374176025,0.08552683144807816
1.8840090036392212,5.847886085510254,0.0894523486495018
1.8749421834945679,5.961432933807373,0.09169305860996246
1.850635290145874,6.030323505401611,0.09326459467411041
1.823416829109192,6.095696926116943,0.09473536163568497
1.7940958738327026,6.157286167144775,0.09614436328411102
1.7560312747955322,6.192602157592773,0.09715840220451355
1.7284555435180664,6.261145114898682,0.09868839383125305
1.7010225057601929,6.333373546600342,0.10028976202011108
1.666921854019165,6.386837005615234,0.10154812783002853
1.629091501235962,6.4288201332092285,0.10261626541614532
1.5705260038375854,6.39109468460083,0.10242176055908203
0.7852094173431396,3.2940099239349365,0.052993133664131165
0.5064098238945007,2.1919844150543213,0.03540144860744476
0.4926740527153015,2.2031147480010986,0.03570439666509628
0.4753718972206116,2.1989188194274902,0.03575117513537407
0.4531232714653015,2.171698808670044,0.03542522341012955
0.4348939061164856,2.1594855785369873,0.03533947467803955
0.4161324203014374,2.1432864665985107,0.035188235342502594
0.4046875536441803,2.165344476699829,0.035657547414302826
0.3921261131763458,2.1835267543792725,0.036049384623765945
0.377711683511734,2.19399094581604,0.03631836920976639
1.0051090717315674,6.092602252960205,0.10111779719591141
0.9578747153282166,6.068570137023926,0.10098427534103394
0.912769615650177,6.055763244628906,0.10104020684957504
0.5399585366249084,3.7617053985595703,0.0628918930888176
0.519870400428772,3.8157806396484375,0.06393091380596161
0.49808916449546814,3.8580660820007324,0.06477604061365128
0.48404425382614136,3.9661080837249756,0.06673216074705124
0.46669772267341614,4.058619976043701,0.06843741238117218
0.43661871552467346,4.046249866485596,0.06834562867879868
0.40978914499282837,4.064754962921143,0.06875104457139969
0.3770748972892761,4.02869176864624,0.06823816150426865
0.18058237433433533,2.0856480598449707,0.0353773795068264
0.32043829560279846,4.025750637054443,0.06838652491569519
0.29103657603263855,4.008400917053223,0.06819257885217667
0.2625347673892975,4.002539157867432,0.06815072149038315
0.23613238334655762,4.039393424987793,0.06884107738733292
0.20792680978775024,4.0409417152404785,0.06893257051706314
0.17940330505371094,4.034488201141357,0.06889066845178604
0.1530676782131195,4.082472801208496,0.06978227943181992
0.23241357505321503,7.6164350509643555,0.13027629256248474
0.18002063035964966,7.692080497741699,0.1316140592098236
0.12587857246398926,7.6658124923706055,0.1312139928340912
0.07214933633804321,7.635258674621582,0.13074646890163422
0.004781719762831926,1.9137756824493408,0.0327870175242424
-0.00853885617107153,1.9137623310089111,0.03280384838581085
-0.021985188126564026,1.9058433771133423,0.03265993297100067
-0.03495385870337486,1.8900245428085327,0.032381076365709305
-0.048082686960697174,1.889736294746399,0.0323699451982975
-0.060956262052059174,1.8815494775772095,0.032225094735622406
-0.07402558624744415,1.8810808658599854,0.03221400827169418
-0.08741718530654907,1.8883262872695923,0.03232818469405174
-0.10114073753356934,1.8954640626907349,0.03242746368050575
-0.11518149077892303,1.9103145599365234,0.03266042470932007
-0.3640873432159424,5.412761688232422,0.09248572587966919
-0.40107470750808716,5.402315616607666,0.09225612133741379
-0.43640556931495667,5.372148513793945,0.0916944369673729
-0.4720858335494995,5.345608234405518,0.09113547205924988
-0.4370654821395874,4.587941646575928,0.07812002301216125
-0.4695184528827667,4.592588424682617,0.07810426503419876
-0.5005804896354675,4.581451892852783,0.07782316207885742
-0.5297055840492249,4.554586887359619,0.07727926969528198
-0.5627840757369995,4.5584917068481445,0.07724141329526901
-0.5921135544776917,4.539023399353027,0.07676701247692108
-0.6206699013710022,4.515499591827393,0.07622873038053513
-0.6485005021095276,4.487913608551025,0.07562625408172607
-0.6820035576820374,4.49875020980835,0.07567436993122101
-0.7076259851455688,4.455252170562744,0.07481071352958679
-0.7381896376609802,4.4502949714660645,0.074549101293087
-0.7633528113365173,4.414346218109131,0.07375962287187576
-0.7949356436729431,4.416709899902344,0.07361499220132828
-0.8177016377449036,4.368854522705078,0.07263553887605667
-0.847997784614563,4.36307954788208,0.07236120849847794
-0.7350308299064636,3.6448864936828613,0.060282617807388306
-0.7615129947662354,3.647430658340454,0.06013072282075882
-0.7905033230781555,3.661243200302124,0.06016625836491585
-0.9561260342597961,4.284680366516113,0.07018639147281647
-0.9850143790245056,4.274129390716553,0.069790318608284
-1.021531581878662,4.293662071228027,0.06988274306058884
-1.0451396703720093,4.263858795166016,0.06913302838802338
-1.071295142173767,4.2452850341796875,0.06857035309076309
-1.098418951034546,4.230284214019775,0.06806804239749908
-1.1348010301589966,4.248981475830078,0.06810694932937622
-1.161729335784912,4.229553699493408,0.06753207743167877
-1.188380479812622,4.214034557342529,0.06698369234800339
-1.2104135751724243,4.183375358581543,0.06618661433458328
-1.2321956157684326,4.152578830718994,0.06539255380630493
-1.2655311822891235,4.158881664276123,0.06518039107322693
-1.2902209758758545,4.134932518005371,0.06449176371097565
-1.3207954168319702,4.133476734161377,0.06413290649652481
-1.33896005153656,4.09477424621582,0.06318514049053192
-1.3740788698196411,4.107850074768066,0.06303899735212326
-1.399990439414978,4.090843200683594,0.06242455169558525
-1.4283133745193481,4.081048011779785,0.061923783272504807
-1.4565247297286987,4.071072578430176,0.06138679012656212
-1.4784679412841797,4.046534061431885,0.06062430888414383
-1.4934557676315308,4.003537178039551,0.05959072709083557
-1.5267987251281738,4.00767183303833,0.05925171449780464
-1.554640769958496,3.996961832046509,0.05869415029883385
-1.5792587995529175,3.9789044857025146,0.057994406670331955
-1.6088324785232544,3.975476026535034,0.05750996246933937
-1.6239155530929565,3.93556547164917,0.05649654194712639
-1.6451531648635864,3.9097986221313477,0.0556844025850296
-1.6752921342849731,3.905489683151245,0.05517758056521416
-1.6986262798309326,3.88688325881958,0.05442729964852333
-1.7181917428970337,3.8611884117126465,0.053590647876262665
-1.7334802150726318,3.8243587017059326,0.052591439336538315
-1.7649494409561157,3.822857141494751,0.05207802727818489
-1.8008217811584473,3.832009792327881,0.051685135811567307
-1.8132272958755493,3.7915570735931396,0.050601035356521606
-1.527786374092102,3.1399879455566406,0.04145894944667816
-1.5530402660369873,3.1363017559051514,0.04095064848661423
-1.5622072219848633,3.101168394088745,0.04002946615219116
-1.5951231718063354,3.1151254177093506,0.03972142934799194
-1.9403753280639648,3.7281360626220703,0.04694877937436104
-1.6413811445236206,3.099860191345215,0.038512494415044785
-1.6590458154678345,3.081580877304077,0.03776853531599045
-1.690509557723999,3.0911800861358643,0.037346336990594864
-1.7109131813049316,3.079942226409912,0.03666714206337929
-0.7854784727096558,1.3911374807357788,0.01630253903567791
-0.7757153511047363,1.3517534732818604,0.015580547973513603
-0.7550237774848938,1.296041488647461,0.014681711792945862
-0.7715853452682495,1.3044403791427612,0.014511958695948124
-0.8651190996170044,1.4396778345108032,0.015709860250353813
-0.870661735534668,1.427193522453308,0.01526511088013649
-0.8615382313728333,1.3915414810180664,0.014573361724615097
-0.8938899040222168,1.422005295753479,0.014561410993337631
-0.8868628740310669,1.3894702196121216,0.01389586366713047
-1.3101246356964111,1.8817633390426636,0.01567380130290985
-1.3879493474960327,2.0650930404663086,-0.023034796118736267
-1.4522351026535034,2.195922613143921,-0.025257067754864693
-0.8644350171089172,1.3712788820266724,-0.01707456260919571
-0.858984112739563,1.383897066116333,-0.01763024553656578
-0.8752508759498596,1.4335052967071533,-0.018667072057724
-0.8564097881317139,1.426641583442688,-0.018978463485836983
-0.7967849969863892,1.3484909534454346,-0.018287453800439835
-0.7910152077674866,1.3609209060668945,-0.01880240999162197
-0.7731600999832153,1.3531725406646729,-0.01903453655540943
-1.2630735635757446,2.247296094894409,-0.032145917415618896
-1.6212691068649292,2.933025598526001,-0.04265027865767479
-1.6387938261032104,3.0169413089752197,-0.044558167457580566
-1.6020197868347168,3.001241445541382,-0.045000966638326645
-1.5992339849472046,3.0468966960906982,-0.04633644223213196
-1.6117212772369385,3.124044418334961,-0.048168737441301346
-1.5919109582901,3.1429314613342285,-0.04911545291543007
-1.5657707452774048,3.1473004817962646,-0.04981517419219017
-1.5438553094863892,3.1580960750579834,-0.05059618130326271
-1.5248805284500122,3.1759567260742188,-0.05148589238524437
-1.498415231704712,3.179882287979126,-0.052134282886981964
-1.4788120985031128,3.1976423263549805,-0.053005117923021317
-1.456156611442566,3.20801043510437,-0.05374851077795029
-1.4336249828338623,3.2181308269500732,-0.054471611976623535
-1.4102855920791626,3.228415012359619,-0.05517061427235603
-1.3900470733642578,3.2456681728363037,-0.055990539491176605
-1.3704808950424194,3.2624409198760986,-0.05678834021091461
-1.3503222465515137,3.279273509979248,-0.057601749897003174
-1.3267159461975098,3.2888834476470947,-0.058257732540369034
-1.3029565811157227,3.298356533050537,-0.058913007378578186
-1.282577633857727,3.314700126647949,-0.05968216061592102
-1.2595027685165405,3.3235249519348145,-0.06031505763530731
-1.2355989217758179,3.3324742317199707,-0.060937948524951935
-1.2143272161483765,3.348583936691284,-0.06166018918156624
-1.1917201280593872,3.3608295917510986,-0.062313396483659744
-1.1682995557785034,3.3690316677093506,-0.06288488954305649
-1.149810552597046,3.3918755054473877,-0.06373506784439087
-1.125178575515747,3.400115728378296,-0.06429193168878555
-1.1056114435195923,3.4229393005371094,-0.06511695683002472
-1.0790773630142212,3.423197031021118,-0.0655113011598587
-1.0621845722198486,3.452991247177124,-0.06646925210952759
-1.035900354385376,3.4528026580810547,-0.0668511688709259
-1.013506293296814,3.467571496963501,-0.06748532503843307
-0.9926413297653198,3.4898366928100586,-0.068277508020401
-0.9660413861274719,3.489179849624634,-0.06861434131860733
-0.9478374123573303,3.5184338092803955,-0.06954120844602585
-0.9212232828140259,3.5174124240875244,-0.06986372917890549
-0.8981210589408875,3.5314338207244873,-0.07044415175914764
-0.8753644227981567,3.549203634262085,-0.07110986858606339
-0.8504875302314758,3.5552380084991455,-0.07153517752885818
-0.82569420337677,3.5610692501068115,-0.07195834815502167
-0.8007950782775879,3.566742420196533,-0.07236897945404053
-0.7787908911705017,3.5875918865203857,-0.07304807007312775
-0.754508912563324,3.600750207901001,-0.07358016818761826
-0.7277897596359253,3.5982697010040283,-0.07378816604614258
-0.7073168754577637,3.6262197494506836,-0.07462286949157715
-0.6748749613761902,3.5926597118377686,-0.0741872787475586
-0.6593083739280701,3.6511168479919434,-0.07560582458972931
-0.6344828009605408,3.66343355178833,-0.07608015090227127
-0.6088367700576782,3.667776346206665,-0.07638809829950333
-0.5869706869125366,3.695061206817627,-0.07717783004045486
-0.5589290857315063,3.683600425720215,-0.07716218382120132
-0.6531083583831787,4.518463611602783,-0.09486696124076843
-0.6101123690605164,4.445635795593262,-0.09355556219816208
-0.5849595069885254,4.496272563934326,-0.09484108537435532
-0.557469367980957,4.531237602233887,-0.09580271691083908
-0.5264131426811218,4.538875579833984,-0.09619264304637909
-0.49885016679763794,4.58126974105835,-0.09726152569055557
-0.4675198495388031,4.592419147491455,-0.09764735400676727
-0.5017111301422119,5.303248405456543,-0.11294212192296982
-0.4688645005226135,5.353293418884277,-0.11419128626585007
-0.4322086274623871,5.364208221435547,-0.11461317539215088
-0.3979077637195587,5.409933090209961,-0.11574863642454147
-0.3579351007938385,5.381409645080566,-0.1152506098151207
-0.11362472921609879,1.9141602516174316,-0.04103713855147362
-0.09887506812810898,1.8876031637191772,-0.04051079973578453
-0.08540380001068115,1.880440592765808,-0.04040178656578064
-0.07201574742794037,1.873183250427246,-0.04028952494263649
-0.0594523623585701,1.8892526626586914,-0.040653400123119354
-0.04605621099472046,1.8896260261535645,-0.04068202152848244
-0.03288755193352699,1.8899004459381104,-0.04071015119552612
-0.019816532731056213,1.8978933095932007,-0.04090658575296402
-0.006663056090474129,1.913605809211731,-0.04127170518040657
0.006667435634881258,1.917511224746704,-0.041358303278684616
0.05897113308310509,5.5804219245910645,-0.12034834921360016
0.09780380129814148,5.5798773765563965,-0.12032841145992279
0.13829997181892395,5.649338245391846,-0.12182392179965973
0.17503269016742706,5.566267490386963,-0.12003602087497711
0.2144727110862732,5.58443021774292,-0.12039777636528015
0.2542837858200073,5.606218338012695,-0.1207791194319725
0.21979577839374542,4.192491054534912,-0.0902593582868576
0.2475350946187973,4.167473793029785,-0.08966361731290817
0.2764892578125,4.165655136108398,-0.08957164734601974
0.3059976398944855,4.171424865722656,-0.08964535593986511
0.3348180651664734,4.169213771820068,-0.08948149532079697
0.464420884847641,5.314467430114746,-0.11391593515872955
0.5140781998634338,5.447209358215332,-0.11661979556083679
0.5487608313560486,5.412426948547363,-0.1157395988702774
0.5809301733970642,5.358008861541748,-0.11444690823554993
0.6107695698738098,5.291799545288086,-0.11283939331769943
0.637880265712738,5.205989837646484,-0.11078905314207077
0.6602426171302795,5.096899509429932,-0.10825976729393005
0.6845315098762512,5.0109381675720215,-0.10623310506343842
0.7054818868637085,4.909420013427734,-0.10388854891061783
0.842521071434021,5.587953567504883,-0.11799798905849457
0.8627015352249146,5.462347030639648,-0.11504803597927094
0.9027378559112549,5.471715450286865,-0.11495751887559891
0.3789268136024475,2.201526165008545,-0.04613769054412842
0.39010199904441833,2.1757748126983643,-0.04548592120409012
0.4023195505142212,2.157663583755493,-0.044992197304964066
0.4163752794265747,2.151021718978882,-0.044705476611852646
0.43216603994369507,2.151892900466919,-0.044574350118637085
0.4533833861351013,2.1794493198394775,-0.04499750956892967
0.47179314494132996,2.1915249824523926,-0.04509934410452843
0.48871511220932007,2.1958208084106445,-0.045041523873806
0.5054484009742737,2.200049638748169,-0.04495136812329292
0.762194812297821,3.2149243354797363,-0.06542439758777618
0.7824354767799377,3.2020254135131836,-0.0649053305387497
0.7866072058677673,3.124545097351074,-0.06308343261480331
0.8063952922821045,3.1114354133605957,-0.06257060915231705
0.8296803832054138,3.1133999824523926,-0.06232275441288948
0.8450945019721985,3.0849697589874268,-0.06145951896905899
0.858858585357666,3.052783966064453,-0.06053230166435242
0.8757331371307373,3.0317366123199463,-0.05982913449406624
0.896822452545166,3.0255730152130127,-0.05942365527153015
0.9083289504051208,2.9895074367523193,-0.05839375779032707
0.9231818318367004,2.9645161628723145,-0.057575806975364685
0.9410945773124695,2.9506893157958984,-0.05698351934552193
0.9519076943397522,2.9143760204315186,-0.05595863610506058
0.9671905636787415,2.892880916595459,-0.05522630736231804
0.9766613245010376,2.856705665588379,-0.05418341979384422
0.9933830499649048,2.842669725418091,-0.05356713756918907
1.0066673755645752,2.817272901535034,-0.05273066833615303
1.0181909799575806,2.788203239440918,-0.051835231482982635
1.0292571783065796,2.759148597717285,-0.05093909054994583
1.0450680255889893,2.7448513507843018,-0.05028945207595825
1.0564899444580078,2.7195451259613037,-0.04944397881627083
1.0669714212417603,2.690265655517578,-0.04851771518588066
1.0827208757400513,2.6755502223968506,-0.047865625470876694
1.0919849872589111,2.6464591026306152,-0.046945903450250626
1.1127501726150513,2.6462807655334473,-0.04653118550777435
1.115264892578125,2.602792263031006,-0.045357782393693924
1.1367924213409424,2.6019985675811768,-0.04491652920842171
1.1516005992889404,2.586940288543701,-0.04423592612147331
1.1607931852340698,2.561413049697876,-0.043354421854019165
1.168060302734375,2.532331705093384,-0.04242150858044624
1.1722617149353027,2.4959208965301514,-0.04136098921298981
1.186509132385254,2.4805328845977783,-0.04064718633890152
1.1911712884902954,2.44793701171875,-0.03965169936418533
1.2039512395858765,2.432973861694336,-0.03894539922475815
1.2135331630706787,2.4107396602630615,-0.038115259259939194
1.2266981601715088,2.395303964614868,-0.03739071264863014
1.2428138256072998,2.3869917392730713,-0.03676305338740349
1.2405778169631958,2.344061851501465,-0.03559228777885437
1.2601971626281738,2.3424570560455322,-0.03505103662610054
1.2838993072509766,2.347383975982666,-0.034594837576150894
1.2824844121932983,2.308032512664795,-0.033477168530225754
1.2975869178771973,2.2995851039886475,-0.032810311764478683
1.3058068752288818,2.276944160461426,-0.03191149979829788
1.317693829536438,2.2610585689544678,-0.031114593148231506
1.3325122594833374,2.2523672580718994,-0.030402110889554024
1.319149136543274,2.196680784225464,-0.029063966125249863
1.342505693435669,2.2008168697357178,-0.028494875878095627
1.3390913009643555,2.1616604328155518,-0.027356356382369995
1.3572291135787964,2.159560441970825,-0.02669847384095192
1.3634514808654785,2.137136697769165,-0.02576270140707493
1.369686484336853,2.1145639419555664,-0.024817924946546555
1.3918200731277466,2.1187896728515625,-0.024177849292755127
1.410484790802002,2.1158154010772705,-0.023411888629198074
1.4163649082183838,2.0930538177490234,-0.02241302654147148
1.4163683652877808,2.0647010803222656,-0.021353665739297867
1.4434456825256348,2.074489116668701,-0.02065386064350605
1.4620778560638428,2.070979118347168,-0.019776586443185806
3.1755611896514893,4.43772029876709,-0.04051275551319122
3.205747365951538,4.415982723236084,-0.03831402212381363
3.2205123901367188,4.3761796951293945,-0.035924021154642105
3.162118434906006,4.456717491149902,0.05650797858834267
3.120743751525879,4.466709613800049,0.058752723038196564
2.60648775100708,3.7918245792388916,0.05163367837667465
3.151017904281616,4.654407501220703,0.06537415832281113
3.1658055782318115,4.752657890319824,0.06872369349002838
3.134945869445801,4.782381057739258,0.07104402035474777
3.12921142578125,4.8466572761535645,0.0737888365983963
1.6187232732772827,2.5486714839935303,0.039726968854665756
1.6244895458221436,2.6004157066345215,0.04145899787545204
1.5941084623336792,2.5916595458984375,0.04217226430773735
1.641803503036499,2.7135300636291504,0.04503326863050461
1.6435282230377197,2.762580633163452,0.04672781378030777
1.6143715381622314,2.7570955753326416,0.047453004866838455
1.5943934917449951,2.768678665161133,0.04847446084022522
1.5872248411178589,2.8042361736297607,0.049892034381628036
1.555651307106018,2.795067071914673,0.050490256398916245
1.5549263954162598,2.8400635719299316,0.05204920098185539
1.5454912185668945,2.8718321323394775,0.05336323007941246
1.5348632335662842,2.904041051864624,0.05470146983861923
2.4703917503356934,4.755190372467041,0.0907086580991745
2.4229862689971924,4.744434356689453,0.09161871671676636
2.369274616241455,4.7234416007995605,0.09227662533521652
1.1991832256317139,2.4351634979248047,0.0481136180460453
1.1646620035171509,2.4085376262664795,0.048109136521816254
1.1612745523452759,2.444795608520508,0.04934544116258621
1.1816624402999878,2.5344653129577637,0.05166393890976906
1.1696410179138184,2.5572104454040527,0.052630048245191574
1.1482126712799072,2.558330535888672,0.05314301326870918
1.1445200443267822,2.598426342010498,0.054462842643260956
1.1180628538131714,2.588648796081543,0.054737988859415054
1.0931326150894165,2.582305669784546,0.05505143851041794
1.0909039974212646,2.6298060417175293,0.05651753395795822
1.9980134963989258,4.912874221801758,0.10639970749616623
1.9753345251083374,4.955662250518799,0.10815047472715378
2.0185701847076416,5.173682689666748,0.11372397840023041
1.9881031513214111,5.206349849700928,0.11523829400539398
1.967583179473877,5.264175891876221,0.11730911582708359
1.9202159643173218,5.248358249664307,0.11773192137479782
1.9098035097122192,5.33516788482666,0.12045987695455551
1.8746156692504883,5.360023021697998,0.12175694108009338
1.8335483074188232,5.365932464599609,0.12261753529310226
1.9269485473632812,5.771300315856934,0.13264688849449158
1.9327161312103271,5.925645351409912,0.13697828352451324
1.8911046981811523,5.93903112411499,0.13804753124713898
1.8570051193237305,5.982478618621826,0.13976740837097168
1.8356146812438965,6.066617488861084,0.14244410395622253
1.8085715770721436,6.131734371185303,0.1446797400712967
1.7755874395370483,6.177921772003174,0.1464812159538269
1.7480658292770386,6.246592044830322,0.14880681037902832
1.7178373336791992,6.3116302490234375,0.1509939283132553
1.6889522075653076,6.388092517852783,0.15348555147647858
1.6538907289505005,6.437564849853516,0.15532363951206207
1.6014965772628784,6.418581962585449,0.15551413595676422
0.7967493534088135,3.2906906604766846,0.08005589991807938
0.7751274704933167,3.303863525390625,0.0806494727730751
1.4376221895217896,6.333119869232178,0.15513421595096588
1.3855111598968506,6.3087263107299805,0.15506479144096375
1.330226182937622,6.264716148376465,0.1545078158378601
1.281112790107727,6.247023105621338,0.15460065007209778
1.2309497594833374,6.225241661071777,0.15450261533260345
1.1765763759613037,6.184061050415039,0.1539178490638733
1.134273648262024,6.199883460998535,0.15474803745746613
1.085692286491394,6.17684268951416,0.15460769832134247
1.03034508228302,6.111069679260254,0.15339787304401398
0.9862568974494934,6.110414981842041,0.15375995635986328
0.9286730289459229,6.028558731079102,0.15201862156391144
0.755678117275238,5.146313667297363,0.13004425168037415
0.7207673788070679,5.159195423126221,0.1306467056274414
0.6935627460479736,5.229886531829834,0.13272231817245483
0.658151388168335,5.242321968078613,0.13332673907279968
0.4862625300884247,4.10670804977417,0.10460208356380463
0.24114850163459778,2.1695313453674316,0.05534736067056656
0.2226901799440384,2.140094041824341,0.054683197289705276
0.2048000544309616,2.11049222946167,0.05401410534977913
0.19501449167728424,2.1663124561309814,0.05553498491644859
0.1760290265083313,2.120917558670044,0.05444055795669556
0.1632760912179947,2.153266429901123,0.055321481078863144
0.15488234162330627,2.2517495155334473,0.057906538248062134
0.24807247519493103,4.014452934265137,0.10333863645792007
0.2205982506275177,4.023873805999756,0.10368818044662476
0.1926317662000656,4.02530574798584,0.10383705794811249
0.3081219494342804,7.561521530151367,0.1951519399881363
0.25535738468170166,7.563483238220215,0.19529493153095245
0.20571641623973846,7.682183742523193,0.1984633207321167
0.1521836221218109,7.675615310668945,0.19840610027313232
0.09850061684846878,7.64915132522583,0.19784361124038696
0.044094182550907135,7.6027960777282715,0.19672991335391998
-0.008827661164104939,7.587299346923828,0.19632548093795776
-0.06142560392618179,7.567530155181885,0.19582001864910126
-0.11352866142988205,7.527873992919922,0.19480934739112854
-0.16569729149341583,7.519094944000244,0.19460700452327728
-0.2167307436466217,7.47482442855835,0.19349530339241028
-0.26897984743118286,7.457499980926514,0.19296619296073914
-0.32033756375312805,7.447658061981201,0.19258877635002136
-0.371961385011673,7.445262908935547,0.1924133002758026
-0.30785220861434937,5.407412052154541,0.1396716684103012
-0.3454379141330719,5.405144214630127,0.139543816447258
-0.38201287388801575,5.379197597503662,0.13879995048046112
-0.418877512216568,5.372542381286621,0.13846160471439362
-0.4533554017543793,5.33839750289917,0.13742245733737946
-0.4835021197795868,5.261254787445068,0.1352858543395996
-0.4558221101760864,4.608813762664795,0.11838234215974808
-0.48751237988471985,4.597721099853516,0.11797432601451874
-0.5175079703330994,4.578729152679443,0.11732491850852966
-0.548932671546936,4.575075149536133,0.11702761799097061
-0.5774245262145996,4.547957420349121,0.1161363497376442
-0.6068247556686401,4.528376579284668,0.1154433861374855
-0.6383141279220581,4.520109176635742,0.1150410920381546
-0.6673902273178101,4.500124931335449,0.11435062438249588
-0.6958892345428467,4.480009078979492,0.113582082092762
-0.7240782976150513,4.4597249031066895,0.11281175166368484
-0.7547156810760498,4.454652309417725,0.11243169009685516
-0.7842555642127991,4.441625595092773,0.11185426265001297
-0.8099614381790161,4.405259132385254,0.11069231480360031
-0.8366758227348328,4.380397796630859,0.10979354381561279
-0.860503077507019,4.343946933746338,0.10856659710407257
-0.7488577365875244,3.649412155151367,0.0909486711025238
-0.7772834300994873,3.6594436168670654,0.09093901515007019
-0.9439519047737122,4.2946343421936035,0.10641641914844513
-0.9823731184005737,4.326075077056885,0.10689293593168259
-1.0064598321914673,4.2964863777160645,0.1057872474193573
-1.0301892757415771,4.26677131652832,0.10468730330467224
-1.059410810470581,4.259623050689697,0.10414543747901917
-1.080756425857544,4.217998504638672,0.10275744646787643
-1.112058401107788,4.217945575714111,0.10239532589912415
-1.1469746828079224,4.232880115509033,0.10234513133764267
-1.1767524480819702,4.2287678718566895,0.10181380808353424
-1.202237606048584,4.209425449371338,0.10092126578092575
-1.2275793552398682,4.185844421386719,0.09991727024316788
-1.2566629648208618,4.177219390869141,0.09928400814533234
-1.2829843759536743,4.1610541343688965,0.09843142330646515
-1.304057240486145,4.129949569702148,0.09718984365463257
-1.3223304748535156,4.091330528259277,0.09578288346529007
-1.3584883213043213,4.1041741371154785,0.09556493163108826
-1.3894500732421875,4.102060317993164,0.09500733762979507
-1.4098100662231445,4.0703349113464355,0.09374435991048813
-1.4306573867797852,4.042364597320557,0.09254245460033417
-1.4578309059143066,4.032662391662598,0.09176547825336456
-1.4924520254135132,4.040818691253662,0.09138128161430359
-1.5140483379364014,4.0119309425354,0.09015201777219772
-1.548363208770752,4.019763469696045,0.08972971886396408
-1.5681226253509521,3.991142988204956,0.08846435695886612
-1.5919257402420044,3.9733142852783203,0.08744616061449051
-1.6239817142486572,3.9730000495910645,0.08679262548685074
-1.6475446224212646,3.950615406036377,0.08565063029527664
-1.6711394786834717,3.9322268962860107,0.08457116782665253
-1.6942789554595947,3.913822650909424,0.08348226547241211
-1.7113409042358398,3.8808155059814453,0.08208022266626358
-1.7350698709487915,3.8617234230041504,0.0809645801782608
-1.7589272260665894,3.8423471450805664,0.07982882857322693
-1.781130075454712,3.8235108852386475,0.07867754250764847
-1.7981420755386353,3.793961763381958,0.07731420546770096
-1.8328274488449097,3.7990424633026123,0.07662929594516754
-1.8523461818695068,3.772188186645508,0.07529804855585098
-1.8885307312011719,3.7804386615753174,0.07461204379796982
-1.902888536453247,3.7469894886016846,0.07310634106397629
-1.9283819198608398,3.7339553833007812,0.07198140025138855
-1.9652143716812134,3.7412147521972656,0.07122787833213806
-1.6666479110717773,3.121507167816162,0.058665402233600616
-1.6759803295135498,3.089891195297241,0.05729721486568451
-1.700984239578247,3.085139274597168,0.05639735609292984
-1.7262097597122192,3.0800726413726807,0.05548284947872162
-0.8115912675857544,1.4255982637405396,0.02528875134885311
-0.7622605562210083,1.3188215494155884,0.023024115711450577
-0.7632833123207092,1.300153374671936,0.022317219525575638
-0.7944800853729248,1.3316229581832886,0.022448213770985603
-0.8699858784675598,1.4366313219070435,0.02376936562359333
-0.8792917132377625,1.4309635162353516,0.02322293259203434
-0.8850739598274231,1.4182038307189941,0.02253285050392151
-0.8863412737846375,1.3989603519439697,0.021742170676589012
-2.3907816410064697,3.560580253601074,0.0498855821788311
-1.3807960748672485,1.9704861640930176,0.025015586987137794
-1.3161882162094116,2.0047707557678223,-0.0323399156332016
-1.2439322471618652,1.9259586334228516,-0.03196240961551666
-0.8577108979225159,1.3937572240829468,-0.024925610050559044
-0.8657300472259521,1.4300328493118286,-0.026147812604904175
-0.801787257194519,1.3454126119613647,-0.025111479684710503
-0.7702704668045044,1.3141231536865234,-0.025016557425260544
-0.7818090319633484,1.3570959568023682,-0.026342187076807022
-0.8243321776390076,1.454241156578064,-0.028729073703289032
-0.9927970767021179,1.7806878089904785,-0.03578539565205574
-1.6308364868164062,2.976494073867798,-0.06081102043390274
-1.6427695751190186,3.0499908924102783,-0.06329867243766785
-1.6065382957458496,3.0338940620422363,-0.06392691284418106
-1.6262075901031494,3.1249959468841553,-0.06679778546094894
-1.5961805582046509,3.1228792667388916,-0.06768882274627686
-1.5740814208984375,3.1340513229370117,-0.0688345730304718
-1.548772931098938,3.13790225982666,-0.06980768591165543
-1.5325648784637451,3.1631925106048584,-0.07125120609998703
-1.5094809532165527,3.174247980117798,-0.0723579153418541
-1.483772873878479,3.177703619003296,-0.07326516509056091
-1.4681098461151123,3.202138900756836,-0.07465220242738724
-1.4451277256011963,3.2125518321990967,-0.0756840929389
-1.4280922412872314,3.237217903137207,-0.07704334706068039
-1.4047445058822632,3.2473933696746826,-0.07805953174829483
-1.3821338415145874,3.257056951522827,-0.07904063165187836
-1.3680416345596313,3.2883706092834473,-0.08053562790155411
-1.3384103775024414,3.283656358718872,-0.08112934231758118
-1.31494140625,3.2931013107299805,-0.08206703513860703
-1.294482946395874,3.3095617294311523,-0.08317831158638
-1.2686021327972412,3.311182737350464,-0.08390551805496216
-1.2475640773773193,3.327486991882324,-0.08496260643005371
-1.2263301610946655,3.3436686992645264,-0.08602450788021088
-1.2042322158813477,3.355818033218384,-0.08697231113910675
-1.1804596185684204,3.364231586456299,-0.08783562481403351
-1.1592223644256592,3.3798444271087646,-0.08884670585393906
-1.1375312805175781,3.395423412322998,-0.08983132243156433
-1.1109050512313843,3.3959906101226807,-0.09042134881019592
-1.0895601511001587,3.411078453063965,-0.09139104187488556
-1.0699841976165771,3.43361234664917,-0.09257801622152328
-1.0409562587738037,3.426182746887207,-0.09290070831775665
-1.2148345708847046,4.1037492752075195,-0.111890509724617
-1.197741150856018,4.153470516204834,-0.11386620998382568
-1.164631962776184,4.146631240844727,-0.11429107189178467
-1.1419650316238403,4.177201271057129,-0.11575254052877426
-1.1077388525009155,4.17022705078125,-0.11610525101423264
-1.0898269414901733,4.223333358764648,-0.11813066154718399
-1.0762959718704224,4.2952470779418945,-0.12069614231586456
-1.0482330322265625,4.3101983070373535,-0.12167132645845413
-1.023512840270996,4.340188980102539,-0.12307285517454147
-0.9956789016723633,4.362660884857178,-0.12418987601995468
-0.9647495746612549,4.3695855140686035,-0.12486401200294495
-0.9308599233627319,4.3609418869018555,-0.12509241700172424
-0.907620906829834,4.401706218719482,-0.1267426759004593
-0.8701155185699463,4.373429298400879,-0.12640421092510223
