X,Y,Z
-2.2333195209503174,5.583221912384033,0.5978179574012756
-2.2959227561950684,5.6297407150268555,0.599346399307251
-2.3441884517669678,5.635643005371094,0.5964053273200989
-2.3865737915039062,5.626826286315918,0.5919175744056702
-2.40604305267334,5.56831169128418,0.5819313526153564
-2.4673469066619873,5.605800151824951,0.5818399786949158
-2.5144286155700684,5.611002445220947,0.5784257054328918
-2.5568466186523438,5.600956916809082,0.5732766389846802
-2.571319341659546,5.5306477546691895,0.5620260238647461
-2.5983970165252686,5.492782115936279,0.5538430213928223
-2.6219875812530518,5.44766092300415,0.5448527932167053
-2.651797294616699,5.416501522064209,0.5373339653015137
-2.6895463466644287,5.3984832763671875,0.5309975147247314
-2.7111685276031494,5.349043846130371,0.5215824246406555
-2.7357177734375,5.310912609100342,0.5130266547203064
-2.759838581085205,5.27269983291626,0.5045287013053894
-2.46738862991333,4.635426044464111,0.4390607476234436
-2.46835994720459,4.560367107391357,0.4275047779083252
-2.5065345764160156,4.557851791381836,0.4226423501968384
-2.5364599227905273,4.541839599609375,0.4164305627346039
-2.5707361698150635,4.532063007354736,0.4107039272785187
-1.2100368738174438,2.098552942276001,0.18779385089874268
-1.2025996446609497,2.053597927093506,0.1814279556274414
-2.618985176086426,4.406743049621582,0.3841327130794525
-1.2556687593460083,2.081510066986084,0.17893768846988678
-2.652412176132202,4.328606605529785,0.3665800094604492
-2.6738405227661133,4.297667026519775,0.35823044180870056
-2.797250747680664,4.432468414306641,0.36351314187049866
-3.0056560039520264,4.693145751953125,0.37830084562301636
-3.0299980640411377,4.6595635414123535,0.36872947216033936
-3.030210018157959,4.594862937927246,0.35663145780563354
-3.073120355606079,4.5951080322265625,0.34947219491004944
-3.100802183151245,4.567752361297607,0.3396896719932556
-3.0891873836517334,4.486631870269775,0.32595574855804443
-3.1175262928009033,4.467647075653076,0.3167760968208313
-3.173034906387329,4.481768608093262,0.3091939389705658
-2.9464213848114014,4.102741718292236,0.27474015951156616
-2.5980277061462402,3.570639133453369,0.23187343776226044
-2.613614320755005,3.5404560565948486,0.2218749076128006
-2.4734277725219727,3.462596893310547,-0.14678336679935455
-2.4387478828430176,3.4676358699798584,-0.15545079112052917
-2.9248735904693604,4.222742557525635,-0.19896665215492249
-2.9056506156921387,4.263848304748535,-0.21056078374385834
-2.884265661239624,4.2966628074646,-0.22105151414871216
-2.8525781631469727,4.317251205444336,-0.23087432980537415
-2.8154826164245605,4.331692695617676,-0.24039433896541595
-2.757625102996826,4.308138370513916,-0.24708148837089539
-2.7484960556030273,4.364240646362305,-0.2582898736000061
-1.2779099941253662,2.0626466274261475,-0.12576672434806824
-2.717827558517456,4.455607891082764,-0.27915218472480774
-2.6846702098846436,4.475109577178955,-0.28791382908821106
-1.228592038154602,2.082585096359253,-0.13740187883377075
-2.6491968631744385,4.562864303588867,-0.30806174874305725
-2.620314359664917,4.587935924530029,-0.31672433018684387
-2.5978429317474365,4.626974105834961,-0.32634225487709045
-2.5640954971313477,4.645184516906738,-0.3344453275203705
-2.5482120513916016,4.693309307098389,-0.3445107340812683
-2.5174167156219482,4.718160152435303,-0.35282063484191895
-2.4973013401031494,4.76348352432251,-0.3626985251903534
-2.4763495922088623,4.804544448852539,-0.37206658720970154
-2.441603183746338,4.8217010498046875,-0.37967920303344727
-2.420267343521118,4.866696834564209,-0.38929951190948486
-2.3988356590270996,4.911414623260498,-0.39891329407691956
-2.372807502746582,4.945067882537842,-0.40753796696662903
-2.347461223602295,4.9824066162109375,-0.41642704606056213
-2.3144917488098145,5.005795478820801,-0.4241030216217041
-2.2941370010375977,5.057346343994141,-0.4342413544654846
-2.261852979660034,5.079799652099609,-0.4417383372783661
-1.2421754598617554,2.843740224838257,-0.25032681226730347
-1.2185454368591309,2.845147132873535,-0.2534200847148895
-1.2117869853973389,2.885739803314209,-0.2600066065788269
-1.1912381649017334,2.8939473628997803,-0.2637123763561249
-1.167807936668396,2.8947629928588867,-0.26662302017211914
-1.1498693227767944,2.9099836349487305,-0.2707776129245758
-1.1346893310546875,2.9323081970214844,-0.2756131887435913
-1.1196902990341187,2.9543960094451904,-0.2804092764854431
-1.101204514503479,2.9693069458007812,-0.28456613421440125
-2.0311644077301025,5.598864555358887,-0.5413851141929626
-1.922079086303711,5.418374061584473,-0.528598964214325
-1.6101256608963013,4.641045093536377,-0.4566631019115448
-1.57769775390625,4.651679515838623,-0.46162042021751404
-1.8814516067504883,5.681368350982666,-0.5682867765426636
-1.866098165512085,5.771742343902588,-0.5817710161209106
-0.9770283102989197,3.096022367477417,-0.3144363462924957
-0.9553406834602356,3.102475881576538,-0.317452073097229
-0.8406428694725037,2.799818992614746,-0.2885155975818634
-0.794476330280304,2.7159423828125,-0.28174400329589844
-0.7663047313690186,2.691453218460083,-0.2810923755168915
-0.7495695352554321,2.703981399536133,-0.2842404246330261
-0.7326960563659668,2.7164037227630615,-0.28740137815475464
-0.7183387279510498,2.740096092224121,-0.2915642559528351
-0.7008221745491028,2.7524161338806152,-0.29454123973846436
-0.6783509850502014,2.7458009719848633,-0.29551780223846436
-1.4958577156066895,6.240914821624756,-0.6754388213157654
-1.4635756015777588,6.299917697906494,-0.6854044198989868
-1.4208300113677979,6.317188262939453,-0.6905456185340881
-1.3704309463500977,6.300018787384033,-0.6919504404067993
-1.3176918029785156,6.2711052894592285,-0.6920851469039917
-1.262389063835144,6.222578048706055,-0.6899784207344055
-1.2097331285476685,6.18513822555542,-0.6886436939239502
-1.1597082614898682,6.158756732940674,-0.6883889436721802
-1.106757402420044,6.112861156463623,-0.6859422922134399
-0.9829912185668945,5.657314300537109,-0.6373563408851624
-0.9486717581748962,5.694296360015869,-0.6440308094024658
-0.9545374512672424,5.9880218505859375,-0.6793539524078369
-0.9136305451393127,6.00192928314209,-0.683070719242096
-0.8750051259994507,6.030893325805664,-0.6885353922843933
-0.83806312084198,6.078909397125244,-0.6962645053863525
-0.7861279845237732,6.011175155639648,-0.6905367970466614
-0.7401850819587708,5.98546838760376,-0.6891906261444092
-0.6933429837226868,5.947847366333008,-0.6864845156669617
-0.6484302282333374,5.921431064605713,-0.6850810050964355
-0.6031784415245056,5.886955261230469,-0.6827570796012878
-0.5579729080200195,5.856114387512207,-0.6805850267410278
-0.5135316252708435,5.82105016708374,-0.6775981187820435
-0.4714924991130829,5.808859825134277,-0.6772967576980591
-0.25515273213386536,3.4398880004882812,-0.401757150888443
-0.2330787032842636,3.4685726165771484,-0.40580683946609497
-0.20899300277233124,3.4778053760528564,-0.4073573052883148
-0.3020443618297577,5.687464714050293,-0.6667602062225342
-0.2609952688217163,5.658328056335449,-0.6639574766159058
-0.08576729148626328,2.190307378768921,-0.25726357102394104
-0.07003003358840942,2.1753032207489014,-0.255761057138443
-0.05423175171017647,2.160216808319092,-0.254059761762619
-0.03904185816645622,2.1527748107910156,-0.25322768092155457
-0.02414986863732338,2.1607437133789062,-0.254220575094223
-0.00890484731644392,2.1065375804901123,-0.2479090839624405
0.012142726220190525,4.461363315582275,-0.5252034068107605
0.05290041118860245,5.403873443603516,-0.6358077526092529
0.09083957225084305,5.426694393157959,-0.6381657719612122
0.12762826681137085,5.3871917724609375,-0.6332262754440308
0.1612580120563507,5.2621307373046875,-0.6182687282562256
0.15437333285808563,4.105623245239258,-0.48215189576148987
0.18561716377735138,4.166553020477295,-0.4886895418167114
0.21924982964992523,4.246594429016113,-0.4974605441093445
0.24738284945487976,4.221818923950195,-0.4939788579940796
0.2703937888145447,4.123293876647949,-0.4819071590900421
0.30072587728500366,4.144635200500488,-0.48375633358955383
0.3306845426559448,4.158060073852539,-0.4843785762786865
0.16911451518535614,1.9522432088851929,-0.2269793599843979
0.39429813623428345,4.211253643035889,-0.48871177434921265
0.40801629424095154,4.054108619689941,-0.4696175456047058
0.4336671233177185,4.028182506561279,-0.4655965566635132
0.4624042212963104,4.032978534698486,-0.4649167060852051
0.49173611402511597,4.037511825561523,-0.46420222520828247
0.5520287752151489,4.284389495849609,-0.491312712430954
0.5828798413276672,4.288328170776367,-0.4905097484588623
0.6894685626029968,4.8223652839660645,-0.5499095320701599
0.7251019477844238,4.8331074714660645,-0.5492846965789795
0.7578639984130859,4.820494174957275,-0.5459981560707092
0.786346435546875,4.784728050231934,-0.5401501059532166
0.8248674273490906,4.810021877288818,-0.5412214398384094
0.8622139096260071,4.827445983886719,-0.541016697883606
0.8926621079444885,4.806432723999023,-0.5364499688148499
0.922940194606781,4.785211086273193,-0.531894326210022
0.9537939429283142,4.763640403747559,-0.5272853970527649
0.982194185256958,4.734389781951904,-0.5218728184700012
1.0139954090118408,4.7240681648254395,-0.5181859135627747
1.0414941310882568,4.694570541381836,-0.5124344229698181
1.0722949504852295,4.680017948150635,-0.5083401799201965
1.1036686897277832,4.665096282958984,-0.5041831731796265
1.1323134899139404,4.642601490020752,-0.4991394877433777
1.160439372062683,4.620019912719727,-0.4938831031322479
1.188307285308838,4.597265720367432,-0.4886501133441925
1.2203176021575928,4.589262008666992,-0.484981507062912
1.2477390766143799,4.562134265899658,-0.4792754352092743
1.2728888988494873,4.531373023986816,-0.4730185568332672
1.3039716482162476,4.522941589355469,-0.4690358340740204
1.324151873588562,4.476965427398682,-0.4611895680427551
1.357582688331604,4.475479602813721,-0.45794084668159485
1.3868870735168457,4.45876407623291,-0.45305538177490234
1.4115090370178223,4.431068420410156,-0.44686809182167053
1.4393976926803589,4.414340019226074,-0.4418313801288605
1.4724937677383423,4.412045955657959,-0.438210666179657
1.4982566833496094,4.387362003326416,-0.43237408995628357
1.242560625076294,3.5584397315979004,-0.347790002822876
1.2751682996749878,3.5720529556274414,-0.3460788130760193
1.2970579862594604,3.5562503337860107,-0.3415583670139313
1.5948923826217651,4.280317783355713,-0.4074572026729584
1.6245909929275513,4.269580841064453,-0.4027450978755951
1.6536500453948975,4.2588701248168945,-0.39785730838775635
1.6831129789352417,4.247775077819824,-0.3928886950016022
1.7083442211151123,4.225559234619141,-0.3868909180164337
1.7378920316696167,4.213950157165527,-0.3818805515766144
1.7605935335159302,4.188096523284912,-0.37541669607162476
1.7890387773513794,4.176486015319824,-0.37024325132369995
1.8121713399887085,4.149984359741211,-0.3636361360549927
1.8379733562469482,4.130560874938965,-0.35771992802619934
1.8661783933639526,4.118359565734863,-0.3523307740688324
1.887500524520874,4.09194278717041,-0.3457030653953552
1.9188822507858276,4.086390495300293,-0.340798020362854
1.941195011138916,4.059045791625977,-0.3339410424232483
1.9654864072799683,4.039137840270996,-0.32772478461265564
1.9961167573928833,4.033243179321289,-0.3226027488708496
2.0167601108551025,4.005979061126709,-0.31570568680763245
2.0447657108306885,3.9922187328338623,-0.3098110556602478
2.0629043579101562,3.961376667022705,-0.30254265666007996
2.0935864448547363,3.9545302391052246,-0.2969968020915985
2.105998992919922,3.913011312484741,-0.2888491451740265
2.137052297592163,3.9054813385009766,-0.2831745445728302
2.1158385276794434,3.806319236755371,-0.2708955407142639
2.1488471031188965,3.806133508682251,-0.2657518982887268
2.167999029159546,3.777733325958252,-0.2583310902118683
2.1862151622772217,3.749608278274536,-0.25102734565734863
2.215043306350708,3.7421422004699707,-0.24508073925971985
2.236287832260132,3.7208094596862793,-0.2381354719400406
2.270385265350342,3.7188220024108887,-0.23224009573459625
2.2996811866760254,3.7103841304779053,-0.22578060626983643
2.307450294494629,3.6691458225250244,-0.21745476126670837
2.3372976779937744,3.6598856449127197,-0.2106921523809433
2.374711513519287,3.664058208465576,-0.20465339720249176
2.3900246620178223,3.6358165740966797,-0.1967945247888565
2.4069089889526367,3.6063179969787598,-0.18842999637126923
2.4398889541625977,3.603346347808838,-0.18150894343852997
2.449854850769043,3.5685818195343018,-0.1730002909898758
2.47012996673584,3.545452833175659,-0.1645965874195099
2.498049736022949,3.5357697010040283,-0.15676744282245636
2.5168702602386475,3.5131607055664062,-0.14810442924499512
2.52984356880188,3.4800877571105957,-0.13862240314483643
2.1696741580963135,2.945685386657715,-0.11043528467416763
2.7637665271759033,3.903272867202759,0.24733412265777588
2.7517502307891846,3.9492523670196533,0.2582358717918396
2.7217462062835693,3.9693968296051025,0.26720115542411804
2.6889140605926514,3.9817276000976562,0.27521663904190063
2.6537487506866455,3.9953150749206543,0.2830195128917694
2.6281657218933105,4.020941734313965,0.2914245128631592
2.5956549644470215,4.032188415527344,0.2984210252761841
2.577521800994873,4.070961952209473,0.3073120415210724
2.5338122844696045,4.070221424102783,0.3132334351539612
2.5052175521850586,4.087359428405762,0.31999722123146057
2.491429090499878,4.131700038909912,0.32883018255233765
2.4481425285339355,4.129802703857422,0.33390122652053833
2.4339189529418945,4.173806667327881,0.34247303009033203
2.4001636505126953,4.183806419372559,0.3482360243797302
2.3766329288482666,4.214608669281006,0.35545456409454346
2.2939059734344482,4.139845848083496,0.35366398096084595
2.2457597255706787,4.121376037597656,0.35632437467575073
2.2205100059509277,4.143397808074951,0.36241090297698975
2.203763961791992,4.187088966369629,0.37029123306274414
2.1689178943634033,4.196004390716553,0.37503597140312195
2.149519205093384,4.231734752655029,0.3820389211177826
2.119840621948242,4.246222019195557,0.3870922029018402
2.090669870376587,4.264545440673828,0.39234572649002075
2.05850887298584,4.279704570770264,0.3973022699356079
2.0373549461364746,4.315210342407227,0.40405982732772827
2.0005481243133545,4.314808368682861,0.4073580205440521
1.973291039466858,4.335463047027588,0.41260021924972534
1.98734712600708,4.452491760253906,0.42685288190841675
4.456704616546631,10.184285163879395,0.9834743738174438
1.9222952127456665,4.480108261108398,0.4357175827026367
1.9166357517242432,4.553959846496582,0.4459347426891327
1.8960033655166626,4.595860004425049,0.45296797156333923
1.8711881637573242,4.63079833984375,0.4591902196407318
1.825887680053711,4.614992141723633,0.46040403842926025
1.8068618774414062,4.663808822631836,0.4680385887622833
1.7631909847259521,4.6468377113342285,0.4690336585044861
1.3456276655197144,3.6235759258270264,0.36771976947784424
1.3166120052337646,3.6256628036499023,0.3697677254676819
1.2928390502929688,3.6421754360198975,0.3733064830303192
1.2590720653533936,3.629020929336548,0.3737905025482178
1.6320565938949585,4.811880588531494,0.49800536036491394
1.6005256175994873,4.830296039581299,0.5021970868110657
1.5680204629898071,4.848783493041992,0.5061749815940857
1.5236377716064453,4.829981803894043,0.5062770247459412
1.4932721853256226,4.855388164520264,0.5110358595848083
1.4526184797286987,4.843039035797119,0.5117741227149963
1.4372920989990234,4.916151523590088,0.5215857028961182
1.399824619293213,4.918575286865234,0.5235801935195923
1.3664963245391846,4.9357075691223145,0.5271497368812561
1.3027456998825073,4.840041160583496,0.5186617970466614
1.2693265676498413,4.8526411056518555,0.5217470526695251
1.2431631088256836,4.891201972961426,0.5276274681091309
1.214259147644043,4.92219877243042,0.532575786113739
1.184535026550293,4.953155994415283,0.5373318791389465
1.150874137878418,4.968809127807617,0.540465772151947
1.1193968057632446,4.9956464767456055,0.5448598861694336
1.0845410823822021,5.003082275390625,0.5471269488334656
1.0528720617294312,5.0254693031311035,0.5510579943656921
1.0281081199645996,5.085860729217529,0.5588983297348022
0.9874875545501709,5.069957733154297,0.5582745671272278
2.1725668907165527,11.600188255310059,1.280020833015442
2.063638687133789,11.46179485321045,1.2673704624176025
1.9581197500228882,11.326170921325684,1.2549954652786255
1.8474880456924438,11.147533416748047,1.237838864326477
1.7456523180007935,11.014204025268555,1.2248908281326294
1.639776349067688,10.849507331848145,1.208398699760437
1.544776201248169,10.73366641998291,1.1973286867141724
1.4529097080230713,10.620766639709473,1.1865808963775635
1.3613085746765137,10.495555877685547,1.1744672060012817
1.2719980478286743,10.37345027923584,1.162710189819336
1.184093952178955,10.254668235778809,1.15049147605896
1.1042407751083374,10.204774856567383,1.1460278034210205
1.0177559852600098,10.069182395935059,1.1319559812545776
0.4088870882987976,4.348021507263184,0.48931166529655457
0.3732694685459137,4.288788318634033,0.48317623138427734
0.3416373133659363,4.2679667472839355,0.48138004541397095
0.31177011132240295,4.277980804443359,0.48274195194244385
0.2838898301124573,4.310990810394287,0.48670223355293274
0.3284565210342407,5.583804607391357,0.6307361721992493
0.2903279960155487,5.601396083831787,0.6330892443656921
0.25469937920570374,5.676886558532715,0.642021894454956
0.2142236828804016,5.670719146728516,0.6417633891105652
0.17539845407009125,5.6953301429748535,0.6445999145507812
0.13622349500656128,5.719680309295654,0.6473850607872009
0.09698255360126495,5.763165473937988,0.6523681282997131
0.05770993232727051,5.845189571380615,0.6617468595504761
0.01667151227593422,5.973521709442139,0.6764068603515625
-0.02499563805758953,6.004526138305664,0.6800804138183594
-0.0669376477599144,6.0236406326293945,0.6820383071899414
-0.10962945967912674,6.069641590118408,0.686949610710144
-0.15218724310398102,6.084295749664307,0.688343346118927
-0.19495388865470886,6.098649978637695,0.6897352933883667
-0.15787062048912048,4.041500091552734,0.4569448232650757
-0.1802792102098465,3.9162516593933105,0.44267770648002625
-0.18772542476654053,3.5428414344787598,0.40020665526390076
-0.21341796219348907,3.5608859062194824,0.4018988013267517
-0.2380741387605667,3.5593786239624023,0.40140166878700256
-0.2815411388874054,3.805424213409424,0.42881324887275696
-0.3073442876338959,3.7956981658935547,0.42740845680236816
-0.32894381880760193,3.739393472671509,0.4207841157913208
-0.35222339630126953,3.710054874420166,0.4170522391796112
-0.3789452016353607,3.7192203998565674,0.4175264239311218
-0.40119513869285583,3.681835889816284,0.41278913617134094
-0.4248308837413788,3.6636428833007812,0.4102379381656647
-0.4493359327316284,3.6529877185821533,0.40855053067207336
-0.4757164716720581,3.6575686931610107,0.4085869789123535
-0.4999217092990875,3.646608352661133,0.40676894783973694
-0.5192551016807556,3.6008846759796143,0.40093258023262024
-0.5439541339874268,3.5973587036132812,0.39983439445495605
-0.5614207983016968,3.547628402709961,0.39362633228302
-0.5873537063598633,3.5514209270477295,0.39337605237960815
-0.6160075664520264,3.57033109664917,0.3948136270046234
-0.6392623782157898,3.5584864616394043,0.3927343189716339
-0.6597368121147156,3.531200885772705,0.3888058364391327
-1.2494462728500366,6.443481922149658,0.7078505754470825
-1.2983371019363403,6.457857608795166,0.7078313231468201
-1.3511816263198853,6.48696756362915,0.7094272971153259
-1.4102232456207275,6.542234897613525,0.7138931751251221
-1.4559860229492188,6.532521724700928,0.710966169834137
-1.4908814430236816,6.481143951416016,0.7033534646034241
-1.5260411500930786,6.433369159698486,0.6961891055107117
-0.6780949831008911,2.773765802383423,0.29931434988975525
-0.7011635899543762,2.78419828414917,0.29958897829055786
-0.710141122341156,2.7379391193389893,0.2937704622745514
-0.7298014163970947,2.7369449138641357,0.29269149899482727
-0.7545022964477539,2.7545831203460693,0.29356080293655396
-0.7836829423904419,2.7869765758514404,0.2959941327571869
-1.76420259475708,6.112212181091309,0.6469037532806396
-1.7986249923706055,6.070128917694092,0.6401771903038025
-1.829393744468689,6.02069091796875,0.6327276229858398
-1.8573411703109741,5.967772483825684,0.6245604157447815
-1.3405802249908447,4.207370758056641,0.43850257992744446
-1.3558135032653809,4.157817363739014,0.43154221773147583
-1.3803788423538208,4.133630275726318,0.4271745979785919
-1.4067155122756958,4.1168131828308105,0.42362937331199646
-1.4643176794052124,4.191825866699219,0.42934292554855347
-1.4899564981460571,4.174842357635498,0.4254903793334961
-1.5207206010818481,4.172328948974609,0.42313483357429504
-1.5440627336502075,4.1474738121032715,0.4184858500957489
-1.5789868831634521,4.151281356811523,0.4166901707649231
-1.628725528717041,4.194995403289795,0.41884279251098633
-1.6739622354507446,4.2277421951293945,0.4196554720401764
-2.2541635036468506,5.583888530731201,0.5510286688804626
-2.321855306625366,5.64078426361084,0.5533172488212585
-2.364866256713867,5.6318206787109375,0.5489928126335144
-2.3916208744049072,5.58715295791626,0.5412376523017883
-2.4226629734039307,5.557291507720947,0.5346546769142151
-2.5149357318878174,5.6659932136535645,0.5413580536842346
-2.527837038040161,5.592501640319824,0.5305536389350891
-2.5561282634735107,5.550176620483398,0.5226243734359741
-2.5745596885681152,5.490625858306885,0.51313716173172
-2.607593536376953,5.466920852661133,0.5067905783653259
-2.6404669284820557,5.4429931640625,0.5004514455795288
-2.6846864223480225,5.439230442047119,0.4958448112010956
-2.7163379192352295,5.406624794006348,0.4884796440601349
-2.363201856613159,4.625762462615967,0.4140852689743042
-2.409856081008911,4.641632080078125,0.4115150272846222
-2.4406745433807373,4.625978946685791,0.406113862991333
-2.472989320755005,4.609281539916992,0.400430291891098
-2.5161936283111572,4.612973213195801,0.3964945375919342
-2.518620729446411,4.545469284057617,0.3861767649650574
-2.5560457706451416,4.542911052703857,0.3815079927444458
-2.5681073665618896,4.491790294647217,0.37255483865737915
-1.2058079242706299,2.07537579536438,0.16994622349739075
-2.6090729236602783,4.423960208892822,0.35738512873649597
-2.642413377761841,4.413724899291992,0.3515680134296417
-1.2553706169128418,2.0647683143615723,0.16203635931015015
-2.6725776195526123,4.327998638153076,0.3344517648220062
-2.669386863708496,4.261638164520264,0.3239870071411133
-2.9999642372131348,4.7219557762146,0.3530319929122925
-2.9934139251708984,4.638791561126709,0.34031304717063904
-3.041881799697876,4.6450653076171875,0.3342553377151489
-3.0306344032287598,4.564303398132324,0.32189705967903137
-3.0721874237060547,4.560549736022949,0.31472283601760864
-3.1038460731506348,4.539653778076172,0.30607080459594727
-3.1041526794433594,4.478469371795654,0.29451170563697815
-3.138062000274658,4.464895725250244,0.28599119186401367
-2.947132110595703,4.132232666015625,0.25711318850517273
-2.8426551818847656,3.9340150356292725,0.23740938305854797
-2.605813503265381,3.5567710399627686,0.20751218497753143
-2.622817277908325,3.5301709175109863,0.19837459921836853
-2.4560885429382324,3.4655299186706543,-0.14222940802574158
-2.436091184616089,3.488799810409546,-0.15066955983638763
-2.9025492668151855,4.224246025085449,-0.19140347838401794
-2.8993167877197266,4.287412166595459,-0.2030274122953415
-2.90561842918396,4.362651824951172,-0.21483927965164185
-2.8234682083129883,4.3088788986206055,-0.2202356904745102
-2.805197238922119,4.348237991333008,-0.22990958392620087
-2.7864480018615723,4.387580871582031,-0.23948635160923004
-2.756965160369873,4.414888381958008,-0.24854804575443268
-1.2707860469818115,2.0674049854278564,-0.11967028677463531
-2.7019355297088623,4.466100692749023,-0.2654132544994354
-2.682643175125122,4.509038925170898,-0.27481985092163086
-1.2216285467147827,2.0871355533599854,-0.1302601397037506
-2.637300491333008,4.579809188842773,-0.29242151975631714
-2.6034903526306152,4.598626136779785,-0.2999882996082306
-2.583064317703247,4.640902519226074,-0.30907773971557617
-2.5580339431762695,4.672051429748535,-0.3172159492969513
-2.5319249629974365,4.703479766845703,-0.3253582715988159
-2.5077078342437744,4.742403507232666,-0.33411720395088196
-2.4809889793395996,4.7735185623168945,-0.34212565422058105
-2.456354856491089,4.807640075683594,-0.3502972722053528
-2.4249205589294434,4.831794261932373,-0.35764002799987793
-2.406818151473999,4.883816242218018,-0.3670843541622162
-2.3819661140441895,4.921465873718262,-0.3754262924194336
-2.354123592376709,4.951602458953857,-0.3831202983856201
-2.3296656608581543,4.992767333984375,-0.3915296196937561
-2.299865245819092,5.023196697235107,-0.3991583287715912
-2.2742278575897217,5.059990882873535,-0.4071647822856903
-2.248166561126709,5.096670627593994,-0.41520848870277405
-2.2014319896698,5.091067790985107,-0.41968467831611633
-1.6371428966522217,3.86201548576355,-0.32204344868659973
-1.6070210933685303,3.8658361434936523,-0.3259325623512268
-1.5770097970962524,3.8693881034851074,-0.3297906219959259
-1.552101731300354,3.887465000152588,-0.3347156047821045
-1.1324262619018555,2.8974668979644775,-0.25203555822372437
-1.1133664846420288,2.9087393283843994,-0.2554902136325836
-1.101210117340088,2.9380457401275635,-0.2605418264865875
-1.0990409851074219,2.996701955795288,-0.26813602447509766
-1.9764137268066406,5.51017951965332,-0.49732860922813416
-1.6211200952529907,4.623977184295654,-0.4209812581539154
-1.5938235521316528,4.649502277374268,-0.42684993147850037
-1.563519835472107,4.667580604553223,-0.4319612383842468
-1.8688639402389526,5.713721752166748,-0.5327704548835754
-0.9761394262313843,3.057800531387329,-0.2872640788555145
-0.9660090804100037,3.101527452468872,-0.29353588819503784
-0.9398691654205322,3.093029260635376,-0.29485654830932617
-0.8052608966827393,2.718940496444702,-0.2608889639377594
-0.7762652635574341,2.6907339096069336,-0.25984567403793335
-0.7615334391593933,2.7108938694000244,-0.2634614109992981
-0.7425848245620728,2.715935468673706,-0.2656185030937195
-0.715195894241333,2.6908915042877197,-0.26478007435798645
-0.7106751203536987,2.7521796226501465,-0.27230679988861084
-0.6769777536392212,2.7003767490386963,-0.26865577697753906
-1.5046647787094116,6.184121608734131,-0.6185924410820007
-1.4803295135498047,6.273468494415283,-0.6309345960617065
-1.4431581497192383,6.31760311126709,-0.638490617275238
-1.394362211227417,6.30825138092041,-0.6404815316200256
-1.3418127298355103,6.2795000076293945,-0.6405010223388672
-1.2901498079299927,6.250244617462158,-0.6404372453689575
-1.238183617591858,6.216771125793457,-0.639914870262146
-1.1840664148330688,6.175529479980469,-0.638100266456604
-1.133435606956482,6.145175933837891,-0.6373686194419861
-1.0632553100585938,5.999579906463623,-0.6246235370635986
-0.9614447951316833,5.654104709625244,-0.5908914804458618
-0.9525288343429565,5.848307132720947,-0.6133630275726318
-0.9339511394500732,6.004434108734131,-0.6316410899162292
-0.8928181529045105,6.018274784088135,-0.6350013613700867
-0.8590056896209717,6.081785202026367,-0.6436358690261841
-0.8110235929489136,6.044987201690674,-0.6416859030723572
-0.7610086798667908,5.988598823547363,-0.6373721957206726
-0.7172358632087708,5.978142261505127,-0.6376730799674988
-0.6689711213111877,5.93271017074585,-0.634285032749176
-0.6244295835494995,5.9061126708984375,-0.6328870058059692
-0.5806719064712524,5.883050441741943,-0.6318842172622681
-0.5346425771713257,5.832646369934082,-0.6275796890258789
-0.4918929934501648,5.8128790855407715,-0.6263940334320068
-0.449055552482605,5.79672384262085,-0.6256380081176758
-0.2446334809064865,3.471217155456543,-0.375241756439209
-0.22149690985679626,3.4882519245147705,-0.37769782543182373
-0.32209163904190063,5.699769496917725,-0.6177371740341187
-0.28077971935272217,5.670770645141602,-0.6150859594345093
-0.23876827955245972,5.629859924316406,-0.6111745238304138
-0.06861910969018936,1.9366118907928467,-0.21042563021183014
-0.05513921007514,1.9370163679122925,-0.21066756546497345
-0.040874190628528595,1.9024046659469604,-0.20693238079547882
-0.027616458013653755,1.9026381969451904,-0.2069789171218872
-0.014014343731105328,1.887248158454895,-0.20533625781536102
-0.0009062791359610856,1.9105948209762573,-0.20791788399219513
0.012173490598797798,1.8794842958450317,-0.2045806497335434
0.025649113580584526,1.9104337692260742,-0.20781739056110382
0.038606058806180954,1.8946949243545532,-0.2059842199087143
0.05293682962656021,1.9370981454849243,-0.2104804664850235
0.06742789596319199,1.9599788188934326,-0.21286015212535858
0.08102557808160782,1.959482192993164,-0.21269094944000244
0.09611445665359497,1.9899420738220215,-0.21571439504623413
0.23568658530712128,4.2654805183410645,-0.461803674697876
0.12588246166706085,2.0233778953552246,-0.2187948226928711
0.29001569747924805,4.18443489074707,-0.45193716883659363
0.3175716996192932,4.163045883178711,-0.44903549551963806
0.3493042290210724,4.195703506469727,-0.451655775308609
0.38391149044036865,4.255202293395996,-0.45716774463653564
0.4153340458869934,4.271887302398682,-0.4580816924571991
0.44638025760650635,4.276692867279053,-0.4577217400074005
0.47691723704338074,4.281351566314697,-0.45724937319755554
0.5065547823905945,4.27811336517334,-0.4556792080402374
0.5381041765213013,4.290087699890137,-0.45574691891670227
0.5668550133705139,4.278713703155518,-0.4533510208129883
0.5992395877838135,4.290160179138184,-0.45337164402008057
0.7101747989654541,4.839632034301758,-0.5099289417266846
0.7411952614784241,4.8194899559021,-0.5060856938362122
0.7719714045524597,4.799147605895996,-0.5022563934326172
0.8040302991867065,4.786234378814697,-0.49922454357147217
0.8480947613716125,4.841989517211914,-0.5033566951751709
0.8821480870246887,4.836167812347412,-0.500792920589447
0.9096894264221191,4.799698829650879,-0.4949658215045929
0.9428097009658813,4.793577194213867,-0.49230238795280457
0.9684015512466431,4.749086856842041,-0.48572126030921936
0.9998440146446228,4.734893798828125,-0.48228171467781067
1.0322366952896118,4.724267959594727,-0.4788602292537689
1.0561823844909668,4.6794352531433105,-0.4719915986061096
1.0902588367462158,4.67990255355835,-0.46972140669822693
1.1192108392715454,4.657376766204834,-0.46515053510665894
1.14785635471344,4.63468599319458,-0.4605647027492523
1.176358699798584,4.611825466156006,-0.45562976598739624
1.2060500383377075,4.596442699432373,-0.4515116810798645
1.2348320484161377,4.577044486999512,-0.4470098912715912
1.2625850439071655,4.553657531738281,-0.44213688373565674
1.2898523807525635,4.530177593231201,-0.437153697013855
1.3192460536956787,4.51396369934082,-0.43267107009887695
1.343505620956421,4.482795238494873,-0.42684146761894226
1.3678251504898071,4.451375961303711,-0.4209972321987152
1.3976500034332275,4.438373565673828,-0.416928768157959
1.4292675256729126,4.432751655578613,-0.413327157497406
1.4564096927642822,4.411994934082031,-0.4082324802875519
1.481845498085022,4.387461185455322,-0.40285131335258484
1.5048106908798218,4.355310916900635,-0.39678117632865906
1.264020323753357,3.578139066696167,-0.3233586847782135
1.2857996225357056,3.5624117851257324,-0.3191855251789093
1.3127803802490234,3.5611698627471924,-0.3163282573223114
1.6097323894500732,4.273437023162842,-0.3761740028858185
1.6395872831344604,4.262452125549316,-0.37184208631515503
1.672930359840393,4.262419700622559,-0.3682679235935211
1.6990203857421875,4.244091510772705,-0.36309847235679626
1.7268189191818237,4.229043960571289,-0.35818493366241455
1.7418588399887085,4.181110858917236,-0.3504326343536377
1.7674812078475952,4.162275791168213,-0.3451315760612488
1.7956786155700684,4.150582790374756,-0.3403570055961609
1.8177224397659302,4.1243462562561035,-0.3343903422355652
1.852851152420044,4.126168727874756,-0.3306333124637604
1.8785303831100464,4.106375694274902,-0.32502374053001404
1.906235694885254,4.093985557556152,-0.31997936964035034
1.9306341409683228,4.074307918548584,-0.31437021493911743
1.9556465148925781,4.0541090965271,-0.30863210558891296
1.9802042245864868,4.0338850021362305,-0.30287784337997437
1.9990416765213013,4.003213405609131,-0.29620206356048584
2.022549629211426,3.983036518096924,-0.29039064049720764
2.053938627243042,3.9761154651641846,-0.2854125499725342
2.0813114643096924,3.9622490406036377,-0.2798974812030792
2.1078031063079834,3.9486100673675537,-0.27434241771698
2.1234018802642822,3.9140360355377197,-0.2673075199127197
2.1511547565460205,3.8992490768432617,-0.26144489645957947
2.129908561706543,3.799891948699951,-0.2500651478767395
2.1551320552825928,3.786013603210449,-0.24439755082130432
2.1927647590637207,3.791775941848755,-0.2398327887058258
2.199467897415161,3.7430927753448486,-0.23175668716430664
2.232640027999878,3.7419559955596924,-0.2265091985464096
2.265596389770508,3.7407121658325195,-0.22128063440322876
2.275294065475464,3.6985950469970703,-0.21341665089130402
2.3001654148101807,3.683537483215332,-0.20713403820991516
2.34097957611084,3.6950931549072266,-0.20229145884513855
2.3499748706817627,3.652677297592163,-0.19411656260490417
2.366295337677002,3.6238467693328857,-0.186749666929245
2.40706205368042,3.634744882583618,-0.18139199912548065
2.40576171875,3.5796546936035156,-0.17246314883232117
2.430112600326538,3.5635061264038086,-0.16534997522830963
2.462308645248413,3.560664415359497,-0.15874268114566803
2.4778223037719727,3.5311572551727295,-0.15062132477760315
2.501255512237549,3.5149168968200684,-0.14298281073570251
2.5238711833953857,3.4990196228027344,-0.13527511060237885
2.5527665615081787,3.487989902496338,-0.127186581492424
2.1698269844055176,2.926501512527466,-0.10023919492959976
2.7821638584136963,3.901366710662842,0.22115615010261536
2.7362008094787598,3.8951640129089355,0.2282174974679947
2.724701404571533,3.9407265186309814,0.23809126019477844
2.6855714321136475,3.9481351375579834,0.24552688002586365
2.6708757877349854,3.9858248233795166,0.25425365567207336
2.627843141555786,3.9858438968658447,0.26046139001846313
2.605518102645874,4.018587589263916,0.2687707543373108
2.5857391357421875,4.049407005310059,0.27643316984176636
2.543283224105835,4.04813814163208,0.2818009853363037
2.5165185928344727,4.073530197143555,0.28895455598831177
2.4916207790374756,4.097490310668945,0.2956754267215729
2.4737870693206787,4.135106563568115,0.30341872572898865
2.438452959060669,4.146547794342041,0.309032142162323
2.411677122116089,4.170739650726318,0.3154936730861664
2.3863203525543213,4.193840980529785,0.32165640592575073
2.3635170459747314,4.224176406860352,0.3283002972602844
2.265625476837158,4.122059345245361,0.3245280385017395
2.2430591583251953,4.151693820953369,0.33084923028945923
2.2138960361480713,4.166912078857422,0.3359166085720062
2.1836888790130615,4.182419300079346,0.34088778495788574
2.159623622894287,4.2120161056518555,0.3469208776950836
2.1283278465270996,4.227511882781982,0.3518124222755432
2.0987136363983154,4.24190616607666,0.3564245104789734
2.0804758071899414,4.280831336975098,0.36305537819862366
2.048830032348633,4.295689105987549,0.36749956011772156
2.0170764923095703,4.310309410095215,0.3719433546066284
1.993299961090088,4.338138580322266,0.3773982524871826
1.9527634382247925,4.330545425415039,0.37983107566833496
1.9920984506607056,4.504510879516602,0.39802300930023193
1.9636660814285278,4.5293450355529785,0.4031064212322235
1.9369630813598633,4.557389259338379,0.4084724485874176
1.9200739860534668,4.606378555297852,0.4156690537929535
4.252813816070557,10.410270690917969,0.9458264708518982
4.171077728271484,10.425755500793457,0.9529271125793457
1.8168121576309204,4.638671398162842,0.4265248775482178
1.783634901046753,4.651192665100098,0.4301830530166626
1.7621017694473267,4.692331314086914,0.43646544218063354
1.3313345909118652,3.6232967376708984,0.33895936608314514
1.310329794883728,3.6472487449645996,0.3428930938243866
1.2787013053894043,3.6417248249053955,0.3440757393836975
1.6327705383300781,4.758188724517822,0.4517630338668823
1.597041130065918,4.761788368225098,0.45427224040031433
1.5777655839920044,4.817044734954834,0.46178367733955383
1.5359551906585693,4.805759906768799,0.4625890552997589
1.5059348344802856,4.831270694732666,0.46693143248558044
1.4757187366485596,4.8565673828125,0.47128382325172424
1.456182599067688,4.914941787719727,0.47883838415145874
1.4348242282867432,4.969534873962402,0.4860837161540985
1.382118821144104,4.919580936431885,0.482944518327713
1.3468036651611328,4.929119110107422,0.48546290397644043
1.288467526435852,4.851961135864258,0.4794396162033081
1.2581952810287476,4.875723361968994,0.48335933685302734
1.2242069244384766,4.884129047393799,0.48576971888542175
1.1986761093139648,4.93023681640625,0.4919741749763489
1.1670533418655396,4.953588008880615,0.49557867646217346
1.1351579427719116,4.976735591888428,0.49919593334198
1.1022040843963623,4.995870590209961,0.5024411082267761
1.0706003904342651,5.018431663513184,0.5060346722602844
1.0365605354309082,5.033298492431641,0.5089064836502075
1.010276436805725,5.086010456085205,0.5154699683189392
0.9697317481040955,5.069979667663574,0.5148624181747437
2.110633134841919,11.47579574584961,1.1677356958389282
2.002589225769043,11.336910247802734,1.1559644937515259
1.896267294883728,11.1971435546875,1.1441072225570679
1.7977391481399536,11.083096504211426,1.134832501411438
1.6972262859344482,10.949191093444824,1.1230050325393677
1.5902695655822754,10.760713577270508,1.1052331924438477
1.510947585105896,10.748313903808594,1.1055688858032227
1.4028581380844116,10.523574829101562,1.0840959548950195
1.3165273666381836,10.4287109375,1.0759592056274414
1.2283642292022705,10.306153297424316,1.064979910850525
1.1408791542053223,10.179156303405762,1.0530084371566772
1.064840316772461,10.144231796264648,1.0503559112548828
0.9874564409255981,10.089412689208984,1.0456846952438354
0.3906247913837433,4.306955337524414,0.44683659076690674
0.35871565341949463,4.28626012802124,0.4451545178890228
0.32567235827445984,4.24595832824707,0.4414495825767517
0.2994927763938904,4.298468112945557,0.4471799433231354
0.27184927463531494,4.339193820953369,0.4516153931617737
0.3089240789413452,5.566850185394287,0.5796765685081482
0.27348563075065613,5.638668060302734,0.587469756603241
0.23508501052856445,5.659788131713867,0.5900134444236755
0.19620968401432037,5.676764965057373,0.5921565294265747
0.15751974284648895,5.709039688110352,0.5956263542175293
0.11762171238660812,5.741079807281494,0.5989573001861572
0.07752988487482071,5.7417521476745605,0.5990452766418457
0.038953639566898346,5.955822467803955,0.6214282512664795
-0.0025258066598325968,5.994791507720947,0.625573456287384
-0.04414436221122742,5.979079246520996,0.6240431070327759
-0.08738994598388672,6.044678688049316,0.6307348608970642
-0.1297549605369568,6.059501647949219,0.6319777369499207
-0.05542336776852608,1.9534753561019897,0.20365026593208313
-0.07063169777393341,1.9996498823165894,0.2083839476108551
-0.16759413480758667,3.963310480117798,0.41287845373153687
-0.18158072233200073,3.686553716659546,0.3839365243911743
-0.2003639042377472,3.557208776473999,0.370225727558136
-0.2232242375612259,3.52864670753479,0.36691543459892273
-0.25580525398254395,3.6433444023132324,0.3785107135772705
-0.29271483421325684,3.792620897293091,0.3936924338340759
-0.317122220993042,3.767317295074463,0.39075878262519836
-0.342332124710083,3.749558210372925,0.38862499594688416
-0.3656154274940491,3.7200984954833984,0.38515937328338623
-0.38025394082069397,3.6132352352142334,0.373567670583725
-0.4034038484096527,3.5951640605926514,0.37119126319885254
-0.42915746569633484,3.600088596343994,0.3712063133716583
-0.45803675055503845,3.6240313053131104,0.37318411469459534
-0.48634329438209534,3.6439473628997803,0.37476682662963867
-0.510459303855896,3.632894277572632,0.37305039167404175
-0.5303008556365967,3.5948081016540527,0.3684433698654175
-0.5526113510131836,3.57582426071167,0.36582115292549133
-0.5727169513702393,3.5412752628326416,0.36161890625953674
-0.6037605404853821,3.5756452083587646,0.3644775152206421
-0.628608226776123,3.5714685916900635,0.3634166121482849
-0.6475659608840942,3.5365936756134033,0.35911673307418823
-1.2207258939743042,6.4190874099731445,0.6502541303634644
-1.2690263986587524,6.433727264404297,0.6502023339271545
-1.3225878477096558,6.466828346252441,0.651993453502655
-1.3795665502548218,6.514775276184082,0.6553007364273071
-1.433115839958191,6.543254852294922,0.6566593647003174
-1.4744722843170166,6.518394470214844,0.6523688435554504
-1.5055168867111206,6.451715469360352,0.6437828540802002
-1.5483084917068481,6.433875560760498,0.6400865316390991
-0.6952444314956665,2.8040807247161865,0.2781483829021454
-0.7013046741485596,2.746548652648926,0.2716386616230011
-0.7243583798408508,2.7567696571350098,0.2718552350997925
-0.74513840675354,2.7594244480133057,0.2711542844772339
-0.7527509927749634,2.7131335735321045,0.26563575863838196
-0.7871174812316895,2.764211654663086,0.2696755528450012
-1.766456127166748,6.0440216064453125,0.5875204205513
-1.3672465085983276,4.560251712799072,0.4416917860507965
-1.3484246730804443,4.387354850769043,0.42333075404167175
-1.3388351202011108,4.252089023590088,0.4084968566894531
-1.3580138683319092,4.213565349578857,0.4030700922012329
-1.3746086359024048,4.167484283447266,0.3969472050666809
-1.4085990190505981,4.172797679901123,0.39571481943130493
-1.4503493309020996,4.199904918670654,0.3965471386909485
-1.4761351346969604,4.182930946350098,0.39298269152641296
-1.4968187808990479,4.151041030883789,0.38797226548194885
-1.5274057388305664,4.148448467254639,0.38575977087020874
-1.5562987327575684,4.137975215911865,0.3827575743198395
-1.590700387954712,4.141830921173096,0.381092369556427
-1.6544138193130493,4.221769332885742,0.38624802231788635
-2.229339599609375,5.576892852783203,0.5071309804916382
-2.285787343978882,5.60907506942749,0.507005512714386
-2.3424503803253174,5.636680603027344,0.5063450932502747
-2.3695197105407715,5.591957092285156,0.499179869890213
-2.401371955871582,5.561813831329346,0.4931945204734802
-2.4515492916107178,5.574362754821777,0.49075961112976074
-2.509263038635254,5.604560852050781,0.48991891741752625
-2.5303468704223633,5.54847526550293,0.4814016819000244
-2.578981637954712,5.552258014678955,0.4780833423137665
-2.5966079235076904,5.492839813232422,0.4691772162914276
-2.613515615463257,5.433459758758545,0.46016430854797363
-2.670307159423828,5.458310604095459,0.4583617150783539
-2.6718592643737793,5.366788864135742,0.4466613829135895
-2.6916282176971436,5.31372594833374,0.4382645785808563
-2.3985183238983154,4.6589531898498535,0.3805209696292877
-2.4472362995147705,4.677973747253418,0.3783056437969208
-2.457662582397461,4.620034694671631,0.3696940243244171
-2.4806182384490967,4.586032390594482,0.36303597688674927
-2.5115246772766113,4.569602966308594,0.35767239332199097
-2.5471625328063965,4.563651084899902,0.35304775834083557
-2.5718705654144287,4.53676176071167,0.34673869609832764
-1.1949920654296875,2.07365083694458,0.15642371773719788
-1.2090198993682861,2.065704107284546,0.15375439822673798
-2.6200649738311768,4.410948753356934,0.3237546682357788
-1.2401142120361328,2.05670166015625,0.14877404272556305
-1.2504252195358276,2.0415198802948,0.14537958800792694
-2.6625328063964844,4.2815165519714355,0.2998805046081543
-2.7464025020599365,4.353653430938721,0.29981958866119385
-2.981818437576294,4.657332420349121,0.31500062346458435
-3.0227134227752686,4.650004863739014,0.30856144428253174
-3.0309994220733643,4.598447322845459,0.29906728863716125
-3.0610849857330322,4.578961372375488,0.29153621196746826
-3.0975403785705566,4.5643205642700195,0.28387176990509033
-3.0899581909179688,4.489666938781738,0.2724749445915222
-3.1050400733947754,4.451214790344238,0.26334285736083984
-3.16298508644104,4.468233108520508,0.2568235695362091
-2.8467020988464355,3.965787410736084,0.22099201381206512
-2.621504068374634,3.6041452884674072,0.1944665014743805
-2.62351393699646,3.5547168254852295,0.18477538228034973
-2.469231128692627,3.4567008018493652,-0.1289094090461731
-2.4437484741210938,3.4744608402252197,-0.13679419457912445
-2.9521093368530273,4.261946201324463,-0.17612482607364655
-2.893132448196411,4.245243549346924,-0.18362994492053986
-2.8850972652435303,4.297436714172363,-0.1934359073638916
-2.8703677654266357,4.3443779945373535,-0.20307837426662445
-2.820502281188965,4.339322566986084,-0.21026088297367096
-2.8174803256988525,4.401264667510986,-0.22017590701580048
-2.7847328186035156,4.421658039093018,-0.2280512899160385
-2.7974042892456055,4.514562129974365,-0.23965582251548767
-2.7800464630126953,4.556896209716797,-0.2483946979045868
-2.685748815536499,4.476717948913574,-0.2504080533981323
-1.2212382555007935,2.069913387298584,-0.11863922327756882
-2.6622142791748047,4.584926605224609,-0.2687560021877289
-2.6252288818359375,4.59680700302124,-0.27536049485206604
-2.59498929977417,4.622471809387207,-0.2827576696872711
-2.570864677429199,4.6577982902526855,-0.2906714677810669
-2.545555353164673,4.689019203186035,-0.29818645119667053
-2.5257813930511475,4.734667778015137,-0.306543231010437
-2.4983859062194824,4.7663702964782715,-0.31403636932373047
-2.472048044204712,4.797215938568115,-0.3213046193122864
-2.44246768951416,4.825024604797363,-0.32844147086143494
-2.4244513511657715,4.877250671386719,-0.33711734414100647
-2.396212100982666,4.908115863800049,-0.3442893922328949
-2.3687021732330322,4.938325881958008,-0.3513120412826538
-2.3384623527526855,4.965219020843506,-0.3580389618873596
-2.312268018722534,5.0028181076049805,-0.36550018191337585
-2.288867473602295,5.047386169433594,-0.3735366761684418
-2.256736993789673,5.0699381828308105,-0.3798268735408783
-2.2268903255462646,5.099706649780273,-0.3865610957145691
-2.177769184112549,5.086558818817139,-0.3899533152580261
-2.210836410522461,5.266787528991699,-0.40825286507606506
-1.601085901260376,3.8911948204040527,-0.30492541193962097
-1.5662035942077637,3.88405442237854,-0.30751901865005493
-1.543937087059021,3.9094061851501465,-0.312589168548584
-1.5173490047454834,3.9236655235290527,-0.3167833685874939
-1.4981886148452759,3.955712080001831,-0.32237768173217773
-1.4807473421096802,3.9952030181884766,-0.328644335269928
-1.457412838935852,4.020046234130859,-0.3335166573524475
-1.9243069887161255,5.42848539352417,-0.45418915152549744
-1.6133856773376465,4.6540679931640625,-0.3925989866256714
-1.5808943510055542,4.66485595703125,-0.3967170715332031
-1.8896559476852417,5.710762977600098,-0.48938682675361633
-1.8668454885482788,5.77925443649292,-0.49889737367630005
-0.9727028012275696,3.0852885246276855,-0.2682684659957886
-0.9557538628578186,3.106659412384033,-0.2720501124858856
-0.8612502217292786,2.870734453201294,-0.25311464071273804
-0.798252522945404,2.730894088745117,-0.24230515956878662
-0.7731595039367676,2.717696189880371,-0.24268090724945068
-0.7478945255279541,2.70035982131958,-0.24262607097625732
-0.7351038455963135,2.7278831005096436,-0.24661032855510712
-0.7138436436653137,2.725314140319824,-0.2477513551712036
-0.6992858052253723,2.7490036487579346,-0.25124436616897583
-0.7214372754096985,2.9237849712371826,-0.26867154240608215
-1.5071927309036255,6.29603910446167,-0.5816008448600769
-1.4561898708343506,6.275718688964844,-0.5827464461326599
-1.4186455011367798,6.315886974334717,-0.5890794992446899
-1.367393970489502,6.295010566711426,-0.5897481441497803
