X,Y,Z
0.8567177057266235,2.797060966491699,-0.15985333919525146
0.858634352684021,2.735288381576538,-0.15531864762306213
0.8524183034896851,2.65139102935791,-0.14959214627742767
0.8964362144470215,2.7232844829559326,-0.15265578031539917
0.9150533080101013,2.717163562774658,-0.15125694870948792
0.9334682822227478,2.7109715938568115,-0.14983227849006653
0.9544524550437927,2.712006092071533,-0.14880971610546112
0.9736040830612183,2.7052712440490723,-0.14732101559638977
0.9923858046531677,2.6985182762145996,-0.1458466649055481
1.0051647424697876,2.6772050857543945,-0.14351101219654083
1.023284673690796,2.670414447784424,-0.14196687936782837
1.011703610420227,2.587123394012451,-0.13638432323932648
1.0300089120864868,2.579972267150879,-0.13481609523296356
1.041747808456421,2.5584940910339355,-0.13248170912265778
1.0515092611312866,2.5334699153900146,-0.12995372712612152
1.0701195001602173,2.529984474182129,-0.12854214012622833
1.0768425464630127,2.497495174407959,-0.12563969194889069
1.0943433046340942,2.489959955215454,-0.12396936863660812
1.1014775037765503,2.46126651763916,-0.12122941017150879
1.117965579032898,2.4539031982421875,-0.11955837905406952
1.1315604448318481,2.439146041870117,-0.11750130355358124
1.1418403387069702,2.417179584503174,-0.11509986221790314
1.1548861265182495,2.4024009704589844,-0.11298052221536636
1.1709306240081787,2.3947041034698486,-0.11122806370258331
1.1838105916976929,2.379730463027954,-0.10911513864994049
1.19859778881073,2.3680262565612793,-0.10713771730661392
1.2143864631652832,2.3600518703460693,-0.10528314113616943
1.230083703994751,2.3519906997680664,-0.10342641919851303
1.2427445650100708,2.33657169342041,-0.10118988156318665
1.255223274230957,2.321103572845459,-0.09896152466535568
1.2668054103851318,2.3059816360473633,-0.09672116488218307
1.2858502864837646,2.3044421672821045,-0.09505478292703629
1.2940001487731934,2.282025098800659,-0.09247090667486191
1.3098466396331787,2.27305006980896,-0.09038971364498138
1.3168962001800537,2.2509799003601074,-0.0878131091594696
1.3358334302902222,2.248960018157959,-0.08600907772779465
1.3131377696990967,2.17617130279541,-0.0814681425690651
1.3275192975997925,2.167506217956543,-0.07936553657054901
1.3212965726852417,2.125544548034668,-0.076038658618927
1.3525049686431885,2.1429312229156494,-0.07478899508714676
1.350020170211792,2.1075711250305176,-0.07166630774736404
1.3636137247085571,2.0988755226135254,-0.06946630030870438
1.3648420572280884,2.070145845413208,-0.06654176861047745
1.3833980560302734,2.0672714710235596,-0.06436231732368469
1.3878570795059204,2.0455029010772705,-0.061635177582502365
1.4016304016113281,2.0361623764038086,-0.05919034034013748
1.4129890203475952,2.0236072540283203,-0.05658509582281113
1.4168232679367065,2.001885414123535,-0.05374373868107796
1.4125288724899292,1.966647744178772,-0.05037308856844902
1.4342445135116577,1.9702898263931274,-0.04802389070391655
1.4423567056655884,1.954725980758667,-0.04511307552456856
1.4204483032226562,2.008638858795166,0.06253057718276978
1.411643624305725,2.0290374755859375,0.06556585431098938
1.4061812162399292,2.051708698272705,0.06848099082708359
1.394416093826294,2.069061040878296,0.07123739272356033
1.3877465724945068,2.09222412109375,0.0740894228219986
1.3727493286132812,2.102012872695923,0.07636633515357971
1.3735721111297607,2.1386094093322754,0.07961653172969818
1.36207914352417,2.1551077365875244,0.0820736512541771
1.3423837423324585,2.15815806388855,0.08396166563034058
1.3607003688812256,2.2247555255889893,0.088288314640522
1.3522502183914185,2.248060941696167,0.09092359244823456
1.3405545949935913,2.264052152633667,0.09318077564239502
1.3199241161346436,2.2670302391052246,0.09486296772956848
1.306570291519165,2.283668041229248,0.0971398875117302
1.2941292524337769,2.299623489379883,0.09930356591939926
1.281599998474121,2.315476894378662,0.10143455117940903
1.2643438577651978,2.3248653411865234,0.1032308042049408
1.2506968975067139,2.3410096168518066,0.10533682256937027
1.2340258359909058,2.349762201309204,0.10705847293138504
1.2190837860107422,2.361865520477295,0.10889118164777756
1.2051825523376465,2.377667188644409,0.1108635812997818
1.1911141872406006,2.393390655517578,0.11284563690423965
1.1777890920639038,2.40859317779541,0.11475201696157455
1.1638190746307373,2.423959493637085,0.11667820811271667
1.149320363998413,2.439424514770508,0.11854363232851028
1.1346758604049683,2.4547970294952393,0.12041623890399933
1.1237655878067017,2.476889133453369,0.12259235233068466
1.1128718852996826,2.498826503753662,0.12476241588592529
1.097865343093872,2.513904571533203,0.12651537358760834
1.0807594060897827,2.525479555130005,0.12811188399791718
1.0746241807937622,2.561910390853882,0.1309608668088913
1.056739091873169,2.569269895553589,0.13230980932712555
1.069166898727417,2.652609348297119,0.1375708132982254
1.0556226968765259,2.674745559692383,0.13963483273983002
1.0358479022979736,2.6823956966400146,0.1409711390733719
1.0195754766464233,2.696899175643921,0.14263969659805298
1.0007171630859375,2.7038865089416504,0.14390718936920166
0.9840654134750366,2.718226194381714,0.1455083042383194
0.9422556161880493,2.6626875400543213,0.14332205057144165
0.9175711870193481,2.654726266860962,0.14369389414787292
0.9200853705406189,2.723889112472534,0.14822793006896973
0.9035512804985046,2.7375741004943848,0.14976167678833008
0.8589058518409729,2.6659107208251953,0.1465362161397934
0.8689611554145813,2.7649948596954346,0.15267464518547058
0.859020471572876,2.8047783374786377,0.15558992326259613
0.8482274413108826,2.8405869007110596,0.15828095376491547
0.8415421843528748,2.8912999629974365,0.1618213951587677
0.8210606575012207,2.897128105163574,0.1627943068742752
0.8221240639686584,2.9818286895751953,0.16817565262317657
0.8028315901756287,2.9951043128967285,0.1695551723241806
0.7842618823051453,3.0120582580566406,0.17115896940231323
0.7670950293540955,3.032518148422241,0.17295677959918976
0.7457832098007202,3.037778377532959,0.17385247349739075
0.7277359366416931,3.0581438541412354,0.175541952252388
0.7059328556060791,3.0632030963897705,0.17636433243751526
0.688892662525177,3.0910110473632812,0.17851679027080536
0.6673287749290466,3.095691442489624,0.17932753264904022
0.6489436030387878,3.1154868602752686,0.18102455139160156
0.6283436417579651,3.1276233196258545,0.18215177953243256
0.6083691120147705,3.1434478759765625,0.18350285291671753
0.5927658081054688,3.1860620975494385,0.186442568898201
0.5876266956329346,3.286062240600586,0.19275397062301636
0.5673933625221252,3.305403232574463,0.19435645639896393
0.546713650226593,3.3246583938598633,0.19589529931545258
0.5232220888137817,3.3284034729003906,0.19645583629608154
0.5010117292404175,3.3436150550842285,0.19771061837673187
0.479623407125473,3.362473726272583,0.19918705523014069
0.45623165369033813,3.365694522857666,0.19974341988563538
0.43579983711242676,3.391958236694336,0.20167958736419678
0.4157177805900574,3.4258792400360107,0.20394766330718994
0.39161205291748047,3.4286937713623047,0.2043604701757431
0.371639609336853,3.474032163619995,0.20732559263706207
0.35780176520347595,3.5812828540802,0.21400120854377747
0.33357614278793335,3.5914273262023926,0.21489210426807404
0.3098866641521454,3.609180450439453,0.21621227264404297
0.2857806384563446,3.6267991065979004,0.2174065113067627
0.2612820863723755,3.648176908493042,0.2188408523797989
0.236720472574234,3.665466785430908,0.2200395166873932
0.21383337676525116,3.71372652053833,0.22311022877693176
0.19331574440002441,3.8202526569366455,0.22969913482666016
0.16749420762062073,3.840975284576416,0.23105764389038086
0.14076796174049377,3.857649087905884,0.23209626972675323
0.11447257548570633,3.881917953491211,0.23360322415828705
0.08788388967514038,3.906006097793579,0.23511125147342682
0.06114371120929718,3.9338080883026123,0.23685477674007416
0.03493267297744751,4.06279993057251,0.244705468416214
0.00619728397578001,4.078544616699219,0.24560600519180298
-0.022311287000775337,4.101889133453369,0.2469261884689331
-0.051192786544561386,4.128931522369385,0.248479962348938
-0.08033437281847,4.151872634887695,0.24979816377162933
-0.11045467108488083,4.197993278503418,0.2525220215320587
-0.1386270821094513,4.165952205657959,0.25055620074272156
-0.16766661405563354,4.157095432281494,0.24981172382831573
-0.20275481045246124,4.288276672363281,0.2574833035469055
-0.23455896973609924,4.3257222175598145,0.25953105092048645
-0.2686462104320526,4.390169620513916,0.2632060945034027
-0.30293354392051697,4.442673206329346,0.2661720812320709
-0.341640442609787,4.537649631500244,0.2716468274593353
-0.3764957785606384,4.577960014343262,0.27369391918182373
-0.4088520109653473,4.583044528961182,0.2736435830593109
-0.44834357500076294,4.661652088165283,0.27799007296562195
-0.49148380756378174,4.76318883895874,0.28370213508605957
-0.5751206874847412,5.213116645812988,0.3101334571838379
-0.6224736571311951,5.305883407592773,0.3151945173740387
-0.6680929064750671,5.375051021575928,0.31872132420539856
-0.7049952149391174,5.37038516998291,0.31787800788879395
-0.7440546154975891,5.380910396575928,0.3179464638233185
-0.782058596611023,5.375569820404053,0.3170763850212097
-0.8023291230201721,5.258261203765869,0.3096376955509186
-0.8267831802368164,5.179512023925781,0.30432984232902527
-0.863524317741394,5.181482315063477,0.30372628569602966
-0.886315643787384,5.102505207061768,0.29840087890625
-0.913118839263916,5.050288200378418,0.29466676712036133
-0.9437753558158875,5.016936302185059,0.2920394837856293
-0.9665874242782593,4.949089527130127,0.2874223291873932
-0.9888008832931519,4.885098457336426,0.282878577709198
-1.054175615310669,5.030978202819824,0.29048511385917664
-1.0744655132293701,4.9589362144470215,0.2855088710784912
-1.1127573251724243,4.966546535491943,0.2851153612136841
-1.140183925628662,4.928373336791992,0.2821211516857147
-1.1721627712249756,4.912923812866211,0.28033316135406494
-1.205558180809021,4.9049177169799805,0.2788885235786438
-1.2206768989562988,4.824853420257568,0.2733752131462097
-1.2148785591125488,4.665349006652832,0.26339617371559143
-1.2453137636184692,4.649321556091309,0.2615610659122467
-1.2775728702545166,4.640641689300537,0.26013419032096863
-1.3069270849227905,4.624442100524902,0.2581307888031006
-1.333948016166687,4.6005659103393555,0.2557159960269928
-1.3701454401016235,4.606285095214844,0.25493940711021423
-1.1027231216430664,3.6154820919036865,0.19924713671207428
-1.110346794128418,3.5519585609436035,0.19490984082221985
-1.1343950033187866,3.5444250106811523,0.19356299936771393
-1.4726858139038086,4.496975898742676,0.24436715245246887
-1.4910986423492432,4.449876308441162,0.24058902263641357
-1.536880373954773,4.483885288238525,0.24120081961154938
-1.5925546884536743,4.5431342124938965,0.24313786625862122
-1.6405996084213257,4.580018520355225,0.2437526136636734
-1.6379051208496094,4.477371692657471,0.236895352602005
-1.6502453088760376,4.418839931488037,0.2324281483888626
-1.6838144063949585,4.414616584777832,0.23079019784927368
-1.6974704265594482,4.35928201675415,0.22650818526744843
-1.741511583328247,4.383994102478027,0.22631177306175232
-1.8191415071487427,4.491697788238525,0.23029708862304688
-1.8462152481079102,4.472308158874512,0.22773510217666626
-1.862322211265564,4.423434257507324,0.22362852096557617
-1.8638393878936768,4.342341899871826,0.21794965863227844
-1.8868399858474731,4.315483093261719,0.21493121981620789
-1.8664252758026123,4.192384719848633,0.20714162290096283
-1.8943560123443604,4.179949760437012,0.20487487316131592
-1.923852562904358,4.166573524475098,0.20247362554073334
-1.9526903629302979,4.153251647949219,0.20009784400463104
-1.9802143573760986,4.140317916870117,0.19763721525669098
-2.0076518058776855,4.127199649810791,0.19517655670642853
-2.0320675373077393,4.106644630432129,0.19234061241149902
-2.0646445751190186,4.0992279052734375,0.19003969430923462
-2.0850603580474854,4.071470260620117,0.18676304817199707
-2.1154732704162598,4.064675331115723,0.18442125618457794
-2.1423819065093994,4.05067777633667,0.18174630403518677
-2.1668262481689453,4.028918266296387,0.17863382399082184
-2.197852849960327,4.0211005210876465,0.17610563337802887
-2.2208354473114014,3.9996535778045654,0.17288507521152496
-2.2470083236694336,3.9851319789886475,0.17001456022262573
-2.2726943492889404,3.966170310974121,0.16683058440685272
-2.2425222396850586,3.852992057800293,0.15971985459327698
-2.2298176288604736,3.7745814323425293,0.15411604940891266
-2.246936321258545,3.7463409900665283,0.1505543291568756
-2.2648534774780273,3.7173876762390137,0.1468837708234787
-2.281240701675415,3.68912935256958,0.14321579039096832
-2.3091986179351807,3.6810362339019775,0.14031709730625153
-2.333918333053589,3.665536880493164,0.13703209161758423
-2.3552932739257812,3.642672300338745,0.1333221197128296
-2.382920026779175,3.6341257095336914,0.13014192879199982
-2.410883903503418,3.62514066696167,0.12689770758152008
-2.440463066101074,3.614849090576172,0.12339943647384644
-2.467895984649658,3.6057698726654053,0.11989457905292511
-2.0460944175720215,2.9481163024902344,0.09531617909669876
-2.0148532390594482,2.8604769706726074,0.08965488523244858
-2.032755136489868,2.847883939743042,0.08639060705900192
-2.051140546798706,2.8347718715667725,0.08301392197608948
-1.0466538667678833,1.4262348413467407,0.040136173367500305
-1.046101689338684,1.4072728157043457,0.037972308695316315
-2.012928009033203,2.8433327674865723,-0.06670001894235611
-2.0515527725219727,2.9449713230133057,-0.07247237116098404
-2.436018228530884,3.552668809890747,-0.09131879359483719
-2.43611478805542,3.6091740131378174,-0.09652233868837357
-2.408555269241333,3.6275107860565186,-0.10067203640937805
-2.382695198059082,3.644439697265625,-0.10454665869474411
-2.3560566902160645,3.661607265472412,-0.10834226757287979
-2.3284928798675537,3.6790831089019775,-0.11213834583759308
-2.3020451068878174,3.695577621459961,-0.11576379090547562
-2.27095365524292,3.7054967880249023,-0.11906973272562027
-2.2472167015075684,3.728947162628174,-0.12279927730560303
-2.2207767963409424,3.744642734527588,-0.1261260062456131
-2.193986415863037,3.760291337966919,-0.1293884664773941
-2.165646553039551,3.776569366455078,-0.13269776105880737
-2.142237424850464,3.7987518310546875,-0.13610942661762238
-2.11570405960083,3.8134825229644775,-0.13917867839336395
-2.0913760662078857,3.835663318634033,-0.14245179295539856
-2.059460163116455,3.8439249992370605,-0.14521561563014984
-2.0356898307800293,3.865281820297241,-0.14840556681156158
-2.004603862762451,3.8725950717926025,-0.15098169445991516
-1.9833472967147827,3.90093994140625,-0.15434618294239044
-1.9550479650497437,3.915087938308716,-0.1571461707353592
-1.9242814779281616,3.9214975833892822,-0.15955525636672974
-1.9024907350540161,3.9493441581726074,-0.16282323002815247
-1.8704172372817993,3.955892562866211,-0.16514742374420166
-1.845231056213379,3.9762027263641357,-0.16803260147571564
-1.8174376487731934,3.9888765811920166,-0.17054863274097443
-1.7888779640197754,4.001659870147705,-0.1730111986398697
-1.762954592704773,4.0215678215026855,-0.17575420439243317
-1.7350558042526245,4.037823677062988,-0.17836731672286987
-1.7130602598190308,4.0640482902526855,-0.1813417226076126
-1.6872985363006592,4.083155632019043,-0.18396314978599548
-1.6579546928405762,4.095057010650635,-0.18621186912059784
-1.6314040422439575,4.114001274108887,-0.18879352509975433
-1.6020936965942383,4.125401496887207,-0.19102692604064941
-1.581462025642395,4.158315181732178,-0.19421185553073883
-1.5515413284301758,4.169474124908447,-0.19628271460533142
-1.521541714668274,4.180417060852051,-0.198353573679924
-1.4919929504394531,4.190957546234131,-0.20038804411888123
-1.464836835861206,4.208693027496338,-0.2027844339609146
-1.4637956619262695,4.3038716316223145,-0.20881500840187073
-1.432995080947876,4.314130783081055,-0.21072964370250702
-1.133762001991272,3.4964439868927,-0.1719389259815216
-1.1070666313171387,3.4967288970947266,-0.17307673394680023
-1.0844829082489014,3.511892318725586,-0.17495295405387878
-1.3170150518417358,4.375030517578125,-0.2192116230726242
-1.2869421243667603,4.387950420379639,-0.22112791240215302
-1.2581148147583008,4.404331684112549,-0.22322113811969757
-1.227431297302246,4.412895679473877,-0.22491484880447388
-1.1984124183654785,4.428866386413574,-0.22691084444522858
-1.1664236783981323,4.437318325042725,-0.22847069799900055
-1.1368303298950195,4.452966213226318,-0.2303961217403412
-1.1055735349655151,4.460751056671143,-0.2319146990776062
-1.0707659721374512,4.4531073570251465,-0.2326333224773407
-1.0375022888183594,4.452892303466797,-0.23359745740890503
-1.007058024406433,4.467804431915283,-0.23533160984516144
-0.9769906997680664,4.482391834259033,-0.23704804480075836
-0.9456987977027893,4.489029407501221,-0.2383413016796112
-0.9159939885139465,4.503078460693359,-0.2400388866662979
-0.8872885704040527,4.52466344833374,-0.24198207259178162
-0.856194257736206,4.538529872894287,-0.2435217648744583
-0.8255404829978943,4.552075386047363,-0.24504466354846954
-0.7938759922981262,4.557644844055176,-0.2461397796869278
-0.7647045254707336,4.578390598297119,-0.2480701059103012
-0.7355958819389343,4.602859973907471,-0.25002309679985046
-0.7050014138221741,4.623379230499268,-0.25177741050720215
-0.6735603213310242,4.635897636413574,-0.253101646900177
-0.6423869132995605,4.648146629333496,-0.2544175982475281
-0.6247258186340332,4.764610290527344,-0.2614677846431732
-0.5913270115852356,4.768831253051758,-0.26217979192733765
-0.5587435364723206,4.780574321746826,-0.2633044123649597
-0.523770809173584,4.776645660400391,-0.26358702778816223
-0.49132227897644043,4.787895679473877,-0.2647077739238739
-0.17035824060440063,1.7821249961853027,-0.09871868789196014
-0.15996690094470978,1.8065719604492188,-0.1001962423324585
-0.14858177304267883,1.8231877088546753,-0.10123610496520996
-0.12721692025661469,1.7113927602767944,-0.09514602273702621
-0.11923928558826447,1.7705984115600586,-0.09856118261814117
-0.10554038733243942,1.7480148077011108,-0.09743031859397888
-0.09377310425043106,1.7564911842346191,-0.09797006100416183
-0.08188173919916153,1.7648897171020508,-0.09849124401807785
-0.0682930201292038,1.7381407022476196,-0.09705610573291779
-0.05859415978193283,1.8126336336135864,-0.10127957910299301
-0.044203199446201324,1.742812156677246,-0.09744442999362946
-0.03236899897456169,1.7586736679077148,-0.09834707528352737
-0.020828545093536377,1.8212549686431885,-0.10183506458997726
-0.017498621717095375,4.021025657653809,-0.2248198390007019
0.010283351875841618,3.9586479663848877,-0.22132864594459534
0.03741884604096413,3.915580987930298,-0.2189277857542038
0.06423230469226837,3.891833543777466,-0.21752916276454926
0.09070716798305511,3.8679094314575195,-0.21604132652282715
0.11685288697481155,3.8438057899475098,-0.21455566585063934
0.14355185627937317,3.831202983856201,-0.21372146904468536
0.16551247239112854,3.7249202728271484,-0.2076774388551712
0.1885792464017868,3.6691629886627197,-0.2044038027524948
0.21310283243656158,3.652212381362915,-0.2031879723072052
0.2376546710729599,3.638990879058838,-0.2021913379430771
0.26164260506629944,3.6139016151428223,-0.2005431056022644
0.28552040457725525,3.5964627265930176,-0.19933566451072693
0.30984294414520264,3.5866403579711914,-0.19852793216705322
0.3331741988658905,3.5689072608947754,-0.1971658170223236
0.3481292426586151,3.4695212841033936,-0.1913134753704071
0.3654484450817108,3.40108585357666,-0.187188059091568
0.38912802934646606,3.398484468460083,-0.18670552968978882
0.41180098056793213,3.3879811763763428,-0.18578456342220306
0.4321918487548828,3.3618807792663574,-0.18387603759765625
0.45436790585517883,3.3511178493499756,-0.18281890451908112
0.4762479066848755,3.3362934589385986,-0.18154408037662506
0.4994417428970337,3.332934856414795,-0.18090827763080597
0.5213705897331238,3.3217129707336426,-0.17985475063323975
0.5416929125785828,3.3026907444000244,-0.17824925482273102
0.5466482043266296,3.1951138973236084,-0.1718933880329132
0.5644912719726562,3.1682791709899902,-0.1699119657278061
0.5840726494789124,3.1489005088806152,-0.16832894086837769
0.6022871732711792,3.1256461143493652,-0.16656222939491272
0.6222517490386963,3.113823175430298,-0.16529086232185364
0.6420475840568542,3.1018805503845215,-0.1640213429927826
0.6600749492645264,3.082183837890625,-0.1623542159795761
0.6801833510398865,3.06986403465271,-0.16106949746608734
0.699755072593689,3.0575039386749268,-0.15980523824691772
0.7206782102584839,3.052691698074341,-0.15881401300430298
0.737851619720459,3.0325796604156494,-0.15703833103179932
0.7557575702667236,3.016153335571289,-0.15546634793281555
0.77516108751297,3.0032193660736084,-0.15406152606010437
0.772977888584137,2.911083698272705,-0.14862750470638275
0.7907871603965759,2.898263454437256,-0.14717186987400055
0.8042466640472412,2.870307683944702,-0.14496281743049622
0.8195890784263611,2.8497824668884277,-0.14314328134059906
0.8353479504585266,2.828988552093506,-0.14129897952079773
0.8503892421722412,2.8082547187805176,-0.1394614279270172
0.8544895648956299,2.7540009021759033,-0.13591298460960388
0.8708658218383789,2.740734815597534,-0.1344120353460312
0.8872789144515991,2.727315902709961,-0.13290640711784363
0.906568169593811,2.721021890640259,-0.13173173367977142
0.9277666807174683,2.7221717834472656,-0.13088619709014893
0.9243927001953125,2.6532270908355713,-0.12665502727031708
0.9646275043487549,2.7094476222991943,-0.12840478122234344
0.9806892275810242,2.695431709289551,-0.12679430842399597
0.9994077086448669,2.6886067390441895,-0.12552648782730103
1.017926812171936,2.681713342666626,-0.12417314946651459
1.0332186222076416,2.6675517559051514,-0.12250202894210815
1.0212161540985107,2.5843024253845215,-0.11768998205661774
1.0362669229507446,2.5699501037597656,-0.11602960526943207
1.0449949502944946,2.5411722660064697,-0.11370816826820374
1.0623787641525269,2.5340161323547363,-0.11231210827827454
1.068697214126587,2.501735210418701,-0.10983577370643616
1.085959792137146,2.494351387023926,-0.10844147950410843
1.096903920173645,2.472548246383667,-0.10642269998788834
1.1102322340011597,2.4580910205841064,-0.10466892272233963
1.1237149238586426,2.4434289932250977,-0.10289711505174637
1.133756399154663,2.4216179847717285,-0.10083784908056259
1.1505649089813232,2.4137392044067383,-0.0993497222661972
1.1633636951446533,2.398984670639038,-0.09754873812198639
1.1758825778961182,2.3842320442199707,-0.09575280547142029
1.1923143863677979,2.37611985206604,-0.09418930113315582
1.2088698148727417,2.367802381515503,-0.09260851889848709
1.2193779945373535,2.349282741546631,-0.0906030535697937
1.2349905967712402,2.341174840927124,-0.08899819850921631
1.2508411407470703,2.332806348800659,-0.0873630940914154
1.2632803916931152,2.3172664642333984,-0.0854354202747345
1.2789119482040405,2.308739185333252,-0.08371562510728836
1.290284514427185,2.2935080528259277,-0.08178097754716873
1.3020397424697876,2.2779266834259033,-0.07979720830917358
1.3177142143249512,2.2689573764801025,-0.07801996171474457
1.3286089897155762,2.2535951137542725,-0.07601285725831985
1.3055819272994995,2.1810429096221924,-0.07209540158510208
1.3207378387451172,2.1719584465026855,-0.07026521116495132
1.3351694345474243,2.1631758213043213,-0.0684344545006752
1.3409607410430908,2.141240119934082,-0.06619191914796829
1.3429185152053833,2.112358808517456,-0.06369633972644806
1.3531575202941895,2.0965828895568848,-0.061554063111543655
1.3666458129882812,2.0878710746765137,-0.05964906886219978
1.3719478845596313,2.0657200813293457,-0.057310156524181366
1.3859564065933228,2.056403398513794,-0.05526921898126602
1.3924890756607056,2.037864923477173,-0.05298407003283501
1.4018959999084473,2.021962881088257,-0.050669193267822266
1.4153369665145874,2.0126311779022217,-0.048488397151231766
1.3804161548614502,1.9369152784347534,-0.04477493464946747
1.42799711227417,1.974926471710205,-0.04354310408234596
1.440541386604309,1.965846061706543,-0.04118812829256058
1.4486476182937622,1.9502077102661133,-0.038613542914390564
1.4098838567733765,1.9781380891799927,0.05077589675784111
1.4174933433532715,2.0205273628234863,0.05393170937895775
1.413046956062317,2.047346830368042,0.0566815510392189
1.3943123817443848,2.050654411315918,0.0586070790886879
1.387249231338501,2.0741968154907227,0.06108851358294487
1.376174807548523,2.0908563137054443,0.06332431733608246
1.3653098344802856,2.1072189807891846,0.06548675149679184
1.3660545349121094,2.1438114643096924,0.0682460218667984
1.3502764701843262,2.153723955154419,0.07012596726417542
1.374147891998291,2.2261877059936523,0.07400476932525635
1.3573771715164185,2.236392021179199,0.07581571489572525
1.3403915166854858,2.246551275253296,0.07764153182506561
1.3286501169204712,2.2625174522399902,0.07955814152956009
1.3159722089767456,2.2788772583007812,0.08146778494119644
1.3027920722961426,2.295360565185547,0.08337746560573578
1.286275029182434,2.304598569869995,0.08498327434062958
1.2735700607299805,2.320496082305908,0.08682531118392944
1.2563166618347168,2.329824447631836,0.08835702389478683
1.2390108108520508,2.339015483856201,0.08988725394010544
1.2279046773910522,2.3580212593078613,0.09174621105194092
1.2113139629364014,2.366530656814575,0.09318181127309799
1.19710111618042,2.3824362754821777,0.09488706290721893
1.1795660257339478,2.3911101818084717,0.09629446268081665
1.1694892644882202,2.4133636951446533,0.09821682423353195
1.1526135206222534,2.4214141368865967,0.099554643034935
1.138185739517212,2.436795711517334,0.10113023966550827
1.1268267631530762,2.459200620651245,0.10301193594932556
1.112174153327942,2.474369525909424,0.10459508746862411
1.1090866327285767,2.5141470432281494,0.10720162093639374
1.0863261222839355,2.5112600326538086,0.10794935375452042
1.0725926160812378,2.5298283100128174,0.10960503667593002
1.0661956071853638,2.5663247108459473,0.1120537668466568
1.047973394393921,2.573767900466919,0.11322994530200958
1.0573629140853882,2.6498863697052,0.117423415184021
1.046658992767334,2.6792397499084473,0.11950405687093735
1.0272221565246582,2.686701774597168,0.12062087655067444
1.0135220289230347,2.7085249423980713,0.12238003313541412
0.9916272759437561,2.708256959915161,0.12314467132091522
0.9750691056251526,2.7225072383880615,0.12452059239149094
0.9309408068656921,2.6594271659851074,0.12229954451322556
0.9306852221488953,2.7214136123657227,0.12583355605602264
0.91142338514328,2.7278800010681152,0.12680739164352417
0.8714916110038757,2.6711559295654297,0.12483611702919006
0.8750340938568115,2.747873306274414,0.1290467530488968
0.8622373342514038,2.7764008045196533,0.13097739219665527
0.8569644689559937,2.831035852432251,0.1341623216867447
0.8457940220832825,2.8669137954711914,0.1364712119102478
0.830082893371582,2.8877041339874268,0.13807108998298645
0.8124812245368958,2.90482234954834,0.13946880400180817
0.8162732124328613,3.0008840560913086,0.14461582899093628
0.7928037047386169,2.999058723449707,0.14506767690181732
0.7763896584510803,3.0234575271606445,0.146792471408844
0.7572320699691772,3.0363171100616455,0.14795899391174316
0.737419068813324,3.049180746078491,0.14911778271198273
0.7192841172218323,3.069507598876953,0.15055878460407257
0.697415292263031,3.0745155811309814,0.15125879645347595
0.6789144277572632,3.094599485397339,0.1527092307806015
0.6590157747268677,3.106841564178467,0.15377368032932281
0.640131413936615,3.1266846656799316,0.155234232544899
0.6180335879325867,3.1310980319976807,0.15582500398159027
0.5980188250541687,3.1468682289123535,0.15697850286960602
0.5841225981712341,3.1970531940460205,0.15986348688602448
0.5630830526351929,3.208719253540039,0.1608319878578186
0.5578389167785645,3.3164734840393066,0.16664278507232666
0.5358384251594543,3.3279755115509033,0.16757306456565857
0.5135092735290527,3.339365243911743,0.16842855513095856
0.49161142110824585,3.3544652462005615,0.16948123276233673
0.46902042627334595,3.3655529022216797,0.17034092545509338
0.4472205638885498,3.3842365741729736,0.171596959233284
0.42464375495910645,3.3949837684631348,0.17245548963546753
0.4044194519519806,3.4288625717163086,0.17438912391662598
0.38202139735221863,3.4471137523651123,0.17552286386489868
0.3605595529079437,3.476863145828247,0.17725367844104767
0.3471269905567169,3.5918920040130615,0.18334819376468658
0.32234781980514526,3.602015733718872,0.1841079741716385
0.2985028922557831,3.6197116374969482,0.18522360920906067
0.2742868661880493,3.637265682220459,0.1862276941537857
0.24930714070796967,3.6468729972839355,0.18683475255966187
0.2258775532245636,3.683565378189087,0.18884003162384033
0.20228256285190582,3.731808662414551,0.191451296210289
0.18093442916870117,3.830533266067505,0.19666451215744019
0.1546756476163864,3.8433892726898193,0.19740457832813263
0.1285916417837143,3.8677659034729004,0.1986856311559677
0.10217446833848953,3.8919646739959717,0.1999676674604416
0.07469592243432999,3.900388240814209,0.2004501074552536
0.04826820641756058,3.9593214988708496,0.2035381942987442
0.021187234669923782,4.049281120300293,0.2082335352897644
-0.0070181190967559814,4.088345050811768,0.2101781815290451
-0.03560413792729378,4.1038055419921875,0.21089231967926025
-0.06533010303974152,4.146361827850342,0.2130069136619568
-0.09471474587917328,4.169212341308594,0.21411971747875214
-0.12414725869894028,4.184055328369141,0.21483121812343597
-0.1520664542913437,4.151909828186035,0.21312184631824493
-0.18472659587860107,4.240410804748535,0.217466339468956
-0.21826936304569244,4.320860862731934,0.22140027582645416
-0.2505039572715759,4.350387096405029,0.22272777557373047
-0.28298020362854004,4.38359260559082,0.22425444424152374
-0.32316696643829346,4.517728328704834,0.2309487909078598
-0.35690203309059143,4.546512126922607,0.23219458758831024
-0.3906303346157074,4.571170806884766,0.23312807083129883
-0.4255760610103607,4.599417209625244,0.23424673080444336
-0.47351959347724915,4.7594428062438965,0.2420804798603058
-0.5049740076065063,4.740540027618408,0.2408124953508377
-0.6149342060089111,5.415307521820068,0.27475282549858093
-0.6532180905342102,5.418716907501221,0.27446094155311584
-0.6872048377990723,5.383088111877441,0.2721322178840637
-0.7221263647079468,5.36280632019043,0.2706063389778137
-0.7613371014595032,5.373179912567139,0.2706380784511566
-0.7819896340370178,5.255890369415283,0.2642585337162018
-0.8220694661140442,5.273500442504883,0.2646770477294922
-0.8531345725059509,5.233037948608398,0.26199355721473694
-0.8758787512779236,5.1501922607421875,0.257224977016449
-0.9077849984169006,5.124898910522461,0.2553536593914032
-0.9304893016815186,5.049476623535156,0.2510020136833191
-0.9516046047210693,4.970127105712891,0.24648138880729675
-0.9934468865394592,5.001766681671143,0.24739868938922882
-1.013185739517212,4.922196388244629,0.2427140325307846
-1.0338013172149658,4.854151248931885,0.2386404424905777
-1.0670011043548584,4.847013473510742,0.23758044838905334
-1.1040724515914917,4.854763507843018,0.2372494637966156
-1.1279733180999756,4.805242538452148,0.23413395881652832
-1.161271095275879,4.797364234924316,0.23289720714092255
-1.2221993207931519,4.902994155883789,0.23716531693935394
-1.2070555686950684,4.705643653869629,0.22680166363716125
-1.2305657863616943,4.6632981300354,0.22394616901874542
-1.2567859888076782,4.632103443145752,0.22164244949817657
-1.2911396026611328,4.6308112144470215,0.2206813246011734
-1.318213939666748,4.607009410858154,0.218598872423172
-1.3515764474868774,4.605531215667725,0.21758852899074554
-1.3763173818588257,4.573818206787109,0.21515285968780518
-1.0974774360656738,3.55739426612854,0.16660450398921967
-1.1153875589370728,3.5273232460021973,0.1644279509782791
-1.1644232273101807,3.59773325920105,0.16685932874679565
-1.4757918119430542,4.456725597381592,0.20564809441566467
-1.5034762620925903,4.4392924308776855,0.20379933714866638
-1.5790400505065918,4.557861328125,0.20814743638038635
-1.619677186012268,4.572644233703613,0.20771349966526031
-1.6363048553466797,4.521171569824219,0.20413193106651306
-1.647713303565979,4.458898544311523,0.20011866092681885
-1.6708688735961914,4.429498672485352,0.19760408997535706
-1.655396580696106,4.297638416290283,0.19052712619304657
-1.687975287437439,4.293412208557129,0.1891351044178009
-1.7172049283981323,4.281885623931885,0.18730364739894867
-1.7458652257919312,4.270358562469482,0.1855030357837677
-1.7746922969818115,4.258538246154785,0.18368695676326752
-1.8042752742767334,4.246169090270996,0.1818179488182068
-1.8240337371826172,4.2122907638549805,0.17900614440441132
-1.8556936979293823,4.207057952880859,0.17731812596321106
-1.8836721181869507,4.194687366485596,0.1753603219985962
-1.9122583866119385,4.181817054748535,0.173353910446167
-1.9413135051727295,4.168493270874023,0.17130820453166962
-1.9693398475646973,4.155411720275879,0.16920913755893707
-1.9905672073364258,4.128044128417969,0.16648432612419128
-2.021427869796753,4.121803283691406,0.16464509069919586
-2.0465550422668457,4.100748538970947,0.16215023398399353
-2.0711004734039307,4.07974100112915,0.15964145958423615
-2.101569890975952,4.073006629943848,0.15762954950332642
-2.124788284301758,4.052215576171875,0.15508052706718445
-2.1475348472595215,4.027029991149902,0.15227650105953217
-2.106569528579712,3.885136365890503,0.14512650668621063
-2.1113264560699463,3.8336844444274902,0.14136362075805664
-2.125028133392334,3.7993743419647217,0.1382668912410736
-2.154761552810669,3.7916629314422607,0.13607966899871826
-2.1774544715881348,3.769751787185669,0.13331057131290436
-2.198031187057495,3.7488300800323486,0.1305633932352066
-2.2224206924438477,3.7345097064971924,0.12805528938770294
-2.2480008602142334,3.719257354736328,0.12541425228118896
-2.2772161960601807,3.7106974124908447,0.12295540422201157
-2.3015172481536865,3.6957645416259766,0.12021219730377197
-2.3299129009246826,3.6872591972351074,0.11767721176147461
-2.355600357055664,3.670994758605957,0.1147531047463417
-2.379429340362549,3.6556854248046875,0.11181807518005371
-2.4071903228759766,3.646916389465332,0.10907625406980515
-2.43267822265625,3.630059003829956,0.10587118566036224
-2.4520182609558105,3.607675313949585,0.10251102596521378
-2.4792418479919434,3.5985991954803467,0.09951874613761902
-2.0562644004821777,2.9415175914764404,0.07891763001680374
-2.0753333568573,2.928170680999756,0.07606605440378189
-2.0415608882904053,2.84199595451355,0.0713377594947815
-2.114177703857422,2.9004015922546387,0.07001137733459473
-1.0463258028030396,1.4169609546661377,0.03281443566083908
-2.02278470993042,2.8365681171417236,-0.05562181398272514
-2.006385326385498,2.8576786518096924,-0.05885101482272148
-2.4617011547088623,3.5637927055358887,-0.07683876901865005
-2.4367809295654297,3.580801486968994,-0.08033157140016556
-2.422518730163574,3.618619680404663,-0.08427566289901733
-2.395937442779541,3.6361939907073975,-0.08765750378370285
-2.369537353515625,3.6533725261688232,-0.09092914313077927
-2.3419888019561768,3.6710126399993896,-0.09414806216955185
-2.315488576889038,3.6877048015594482,-0.09722989797592163
-2.2892041206359863,3.7039995193481445,-0.10020498186349869
-2.2615442276000977,3.7208712100982666,-0.10316716134548187
-2.2341060638427734,3.73732852935791,-0.10609230399131775
-2.211786985397339,3.7595648765563965,-0.10905557870864868
-2.187819004058838,3.7825076580047607,-0.11200788617134094
-2.152238130569458,3.7848258018493652,-0.114336296916008
-2.129606246948242,3.806478500366211,-0.11713490635156631
-2.101513385772705,3.821979522705078,-0.11973974853754044
-2.069607734680176,3.8303959369659424,-0.12206856906414032
-2.049607276916504,3.858750104904175,-0.12497514486312866
-2.022549867630005,3.872921943664551,-0.1273881494998932
-1.9941906929016113,3.887521982192993,-0.12975864112377167
-1.9687306880950928,3.9091415405273438,-0.1324075162410736
-1.9412895441055298,3.9227638244628906,-0.13468432426452637
-1.9170172214508057,3.9432895183563232,-0.13717254996299744
-1.8882778882980347,3.957054853439331,-0.1393779069185257
-1.8594677448272705,3.9705967903137207,-0.14158104360103607
-1.8349894285202026,3.990488052368164,-0.14395126700401306
-1.8031455278396606,3.9963362216949463,-0.14582176506519318
-1.7789454460144043,4.019903659820557,-0.14825527369976044
-1.748281717300415,4.029003620147705,-0.15016570687294006
-1.7215373516082764,4.04467248916626,-0.1522800624370575
-1.6992014646530151,4.070958614349365,-0.1547876000404358
-1.6663353443145752,4.076014518737793,-0.15643031895160675
-1.6455974578857422,4.1095991134643555,-0.1591569185256958
-1.6165136098861694,4.121054172515869,-0.16101305186748505
-1.587730884552002,4.132156848907471,-0.1628449261188507
-1.5636805295944214,4.157935619354248,-0.1651669591665268
-1.5386122465133667,4.183846950531006,-0.1675133854150772
-1.5060557126998901,4.18731164932251,-0.1689407378435135
-1.4794403314590454,4.204998016357422,-0.1709187626838684
-1.4790568351745605,4.300117492675781,-0.17603440582752228
-1.4457993507385254,4.303112983703613,-0.17733192443847656
-1.1712050437927246,3.5716729164123535,-0.14818505942821503
-1.1187410354614258,3.4942514896392822,-0.14591524004936218
-1.094423532485962,3.5018911361694336,-0.14717282354831696
-1.3324531316757202,4.371943950653076,-0.18480387330055237
-1.2990798950195312,4.373773097991943,-0.18591968715190887
-1.2711714506149292,4.394094944000244,-0.18783193826675415
-1.2421282529830933,4.410441875457764,-0.18958331644535065
-1.2113673686981201,4.418929576873779,-0.19097980856895447
-1.1819367408752441,4.434916019439697,-0.19257177412509918
-1.1504215002059937,4.443140506744385,-0.19383683800697327
-1.1228060722351074,4.466242790222168,-0.19575944542884827
-1.0911084413528442,4.474036693572998,-0.1970272809267044
-1.0526043176651,4.451121807098389,-0.1968904286623001
-1.0210412740707397,4.4584197998046875,-0.19797877967357635
-0.9894276261329651,4.465493679046631,-0.1990671157836914
-0.9612666368484497,4.487557411193848,-0.20083054900169373
-0.9310682415962219,4.501842021942139,-0.20226465165615082
-0.9011024236679077,4.515848636627197,-0.20362722873687744
-0.8707268834114075,4.52971076965332,-0.204886794090271
-0.8401607275009155,4.543375015258789,-0.2061505913734436
-0.8096449375152588,4.556797981262207,-0.2074117660522461
-0.7799721956253052,4.577763080596924,-0.20903648436069489
-0.7504367232322693,4.598475456237793,-0.21058565378189087
-0.7210610508918762,4.622888088226318,-0.21219883859157562
-0.6908044815063477,4.643253803253174,-0.21364052593708038
-0.6697227358818054,4.7290849685668945,-0.21811367571353912
-0.639374315738678,4.756874084472656,-0.21993686258792877
-0.6061650514602661,4.76118803024292,-0.22062593698501587
-0.5736468434333801,4.7730488777160645,-0.22155892848968506
-0.5409917831420898,4.7846879959106445,-0.22249378263950348
-0.505862832069397,4.7728071212768555,-0.22234368324279785
-0.45734676718711853,4.620854377746582,-0.21566130220890045
-0.4217824339866638,4.592865467071533,-0.21472765505313873
-0.3827992379665375,4.514030933380127,-0.2112628072500229
-0.34822505712509155,4.4776763916015625,-0.2097906917333603
-0.3122502863407135,4.413815975189209,-0.20703457295894623
-0.2743236720561981,4.302937984466553,-0.2020723968744278
-0.1004125326871872,1.7725468873977661,-0.08334183692932129
-0.0858989730477333,1.7303334474563599,-0.08139070123434067
-0.07794816792011261,1.8283488750457764,-0.08604089915752411
-0.14771729707717896,4.145123481750488,-0.19516636431217194
-0.11823497712612152,4.122640609741211,-0.19421568512916565
-0.08846865594387054,4.096059799194336,-0.19308213889598846
-0.05958644300699234,4.07316780090332,-0.19198282063007355
-0.030999688431620598,4.042270183563232,-0.19049562513828278
-0.002825928619131446,4.034584999084473,-0.19011181592941284
0.024605371057987213,3.9369616508483887,-0.1854996681213379
0.051963239908218384,3.901576042175293,-0.18382930755615234
0.07855284214019775,3.877720832824707,-0.18260803818702698
0.10505381971597672,3.86148738861084,-0.18170809745788574
0.1310320347547531,3.837275743484497,-0.1804429590702057
0.15719473361968994,3.8245849609375,-0.17972923815250397
0.1779429018497467,3.702587842941284,-0.17389129102230072
0.20192940533161163,3.6622893810272217,-0.1718306541442871
0.22657927870750427,3.64913272857666,-0.17098091542720795
0.2507549822330475,3.631920576095581,-0.16995133459568024
0.27476856112480164,3.614543914794922,-0.1689235419034958
0.29861798882484436,3.5970041751861572,-0.1678975522518158
0.32261091470718384,3.5792765617370605,-0.16682785749435425
0.3379249572753906,3.4798855781555176,-0.16187667846679688
0.3567281663417816,3.427030563354492,-0.1591114103794098
0.37786316871643066,3.401228427886963,-0.15761594474315643
0.3996947407722473,3.3830344676971436,-0.1564824879169464
0.42359745502471924,3.380145311355591,-0.15604278445243835
0.4448733925819397,3.361691474914551,-0.15478844940662384
0.46642380952835083,3.3469748497009277,-0.1537172794342041
0.48725682497024536,3.3282556533813477,-0.15247224271297455
0.5115829706192017,3.332524061203003,-0.1522855907678604
0.5313889980316162,3.3057363033294678,-0.1506810337305069
0.5392621755599976,3.2135164737701416,-0.14600293338298798
0.5586377382278442,3.1943886280059814,-0.14466851949691772
0.5735841989517212,3.1521105766296387,-0.14230024814605713
0.5933549404144287,3.136563301086426,-0.14114639163017273
0.6121848225593567,3.1170644760131836,-0.13982541859149933
0.6339609622955322,3.112741708755493,-0.1390855759382248
0.6521137952804565,3.0930707454681396,-0.13767027854919434
0.6716890335083008,3.080923318862915,-0.1366003304719925
0.6913676857948303,3.068599224090576,-0.13552570343017578
0.7109075784683228,3.0561509132385254,-0.13445472717285156
0.7303491830825806,3.0435738563537598,-0.13328129053115845
0.7492588758468628,3.030970335006714,-0.13211819529533386
0.7680562734603882,3.0182442665100098,-0.13095822930335999
0.7643066048622131,2.9184787273406982,-0.1260388195514679
0.7835673689842224,2.909359931945801,-0.1250600814819336
0.7974890470504761,2.8813233375549316,-0.12318237870931625
0.8150073885917664,2.8683412075042725,-0.12196964025497437
0.8258314728736877,2.8327717781066895,-0.11981067806482315
0.8455299735069275,2.8269922733306885,-0.11891157925128937
0.8548094630241394,2.7875161170959473,-0.1165986880660057
0.8647350668907166,2.7517807483673096,-0.11437591910362244
0.8607020974159241,2.6752827167510986,-0.11050417274236679
0.8997474312782288,2.732393980026245,-0.1121533140540123
0.9187633991241455,2.7260985374450684,-0.11117612570524216
0.9375253915786743,2.7197442054748535,-0.11017630249261856
0.9312934279441833,2.643418073654175,-0.10632398724555969
0.9746515154838562,2.7067461013793945,-0.10807930678129196
0.9959501028060913,2.7073440551757812,-0.10731513798236847
1.009279489517212,2.6857714653015137,-0.10567032545804977
1.0247458219528198,2.6715919971466064,-0.1042705774307251
1.0399283170700073,2.6573805809020996,-0.10285960882902145
1.0307034254074097,2.581315040588379,-0.0990675538778305
1.0427473783493042,2.5596632957458496,-0.09738747030496597
1.0498852729797363,2.5272202491760254,-0.09530212730169296
1.0699023008346558,2.5273358821868896,-0.09441141039133072
1.0806918144226074,2.5057871341705322,-0.092718206346035
1.0919082164764404,2.483914852142334,-0.09099223464727402
1.1027796268463135,2.4620494842529297,-0.08928635716438293
1.1193376779556274,2.4546098709106445,-0.08806818723678589
1.1291910409927368,2.4329299926757812,-0.08634236454963684
1.1456828117370605,2.425251007080078,-0.08511064946651459
1.1594324111938477,2.410090684890747,-0.08358269929885864
1.1688311100006104,2.3882148265838623,-0.08182593435049057
1.1847293376922607,2.3804116249084473,-0.08054684847593307
1.2006897926330566,2.3724448680877686,-0.079258494079113
1.215378761291504,2.3606066703796387,-0.07780944555997849
1.2276743650436401,2.345468759536743,-0.07624033093452454
1.2434595823287964,2.3371829986572266,-0.07486741989850998
1.2590967416763306,2.3288395404815674,-0.07350251078605652
1.2714945077896118,2.3132307529449463,-0.07187413424253464
1.28311288356781,2.297909736633301,-0.07024442404508591
1.298209309577942,2.2894580364227295,-0.06882322579622269
1.3061329126358032,2.266981840133667,-0.0669379010796547
1.3218251466751099,2.2579119205474854,-0.06544450670480728
1.3325910568237305,2.2425377368927,-0.06375055015087128
1.3129594326019287,2.1769583225250244,-0.06066768616437912
1.3280104398727417,2.1678521633148193,-0.059122271835803986
1.3386344909667969,2.15215802192688,-0.0573684386909008
1.3525924682617188,2.14345383644104,-0.055825307965278625
1.3544037342071533,2.114576816558838,-0.053719837218523026
1.3687474727630615,2.1053619384765625,-0.05208669602870941
1.3693886995315552,2.0769739151000977,-0.04998454451560974
1.3747392892837524,2.054706335067749,-0.04798253998160362
1.3930460214614868,2.0518271923065186,-0.04640183225274086
1.3950064182281494,2.0268709659576416,-0.044321589171886444
1.4084981679916382,2.017557382583618,-0.04252401366829872
1.4219480752944946,2.0081393718719482,-0.04065750911831856
1.4120506048202515,1.9672660827636719,-0.03815523162484169
1.4346948862075806,1.9702109098434448,-0.036408696323633194
1.4424246549606323,1.9548957347869873,-0.03428823500871658
1.420910358428955,2.0088276863098145,0.0428781658411026
1.417149305343628,2.035282611846924,0.0451362244784832
1.4015250205993652,2.0460305213928223,0.04703979939222336
1.3913027048110962,2.062382936477661,0.04896213859319687
1.388419270515442,2.092463731765747,0.05117691680788994
1.3685684204101562,2.0961365699768066,0.05271124839782715
1.366500973701477,2.1253559589385986,0.054803162813186646
1.3545777797698975,2.1421804428100586,0.05655898153781891
1.342577576637268,2.1588826179504395,0.05831482633948326
1.3275172710418701,2.1681361198425293,0.05978076905012131
1.349543571472168,2.2415242195129395,0.06302209943532944
1.33668851852417,2.258251905441284,0.06470937281847
1.324803352355957,2.274247407913208,0.06630446761846542
1.3080205917358398,2.2838995456695557,0.06771936267614365
1.294801115989685,2.300344944000244,0.06930625438690186
1.2819007635116577,2.3164479732513428,0.07086169719696045
1.2657356262207031,2.325279951095581,0.07216126471757889
1.2523101568222046,2.3413586616516113,0.07364436239004135
1.2364908456802368,2.3541221618652344,0.07504237443208694
1.2179347276687622,2.3593432903289795,0.07614997029304504
1.2068008184432983,2.378161907196045,0.07768241316080093
1.1928272247314453,2.3938918113708496,0.07906822860240936
1.1752344369888306,2.402538776397705,0.08022758364677429
1.1578116416931152,2.410945177078247,0.08137165009975433
1.1509698629379272,2.44010853767395,0.08319579809904099
1.1365069150924683,2.455448627471924,0.08451201021671295
1.1217564344406128,2.4707634449005127,0.08583002537488937
1.1071135997772217,2.485872983932495,0.08713813126087189
1.0960031747817993,2.507807731628418,0.08867189288139343
1.0885223150253296,2.540786027908325,0.09058867394924164
1.0730080604553223,2.555812120437622,0.09183473885059357
1.0543831586837769,2.563516139984131,0.09282378107309341
1.069987416267395,2.654078722000122,0.09681303799152374
1.0515133142471313,2.6614162921905518,0.09778846800327301
1.034738302230835,2.676321268081665,0.09899724274873734
1.015372633934021,2.6836941242218018,0.0999225378036499
1.001534342765808,2.7055118083953857,0.10138905793428421
0.9853282570838928,2.7197279930114746,0.10256249457597733
