X,Y,Z
-0.8108232617378235,3.406749963760376,0.31022384762763977
-0.8302475214004517,3.3861799240112305,0.30736738443374634
-0.8456206321716309,3.350409984588623,0.3031584918498993
-0.8612508177757263,3.3144068717956543,0.2989305555820465
-0.8822891712188721,3.3009471893310547,0.2967679500579834
-0.9000247120857239,3.2761149406433105,0.2935827672481537
-0.9137604236602783,3.240121364593506,0.28924211859703064
-0.9292129278182983,3.2115678787231445,0.2855968773365021
-0.9436025023460388,3.179107427597046,0.2816145122051239
-0.963433563709259,3.1651647090911865,0.27928873896598816
-0.9785081744194031,3.1362266540527344,0.27566200494766235
-0.9951807260513306,3.114788293838501,0.27259939908981323
-1.0113670825958252,3.093350410461426,0.2694909870624542
-1.0214979648590088,3.053255558013916,0.2647673487663269
-1.0424702167510986,3.046316623687744,0.2629448473453522
-1.0559279918670654,3.0170974731445312,0.2592061460018158
-1.0635586977005005,2.9732565879821777,0.2541927397251129
-1.0915560722351074,2.988145589828491,0.254096120595932
-1.098004937171936,2.944424867630005,0.24903544783592224
-1.108687162399292,2.911438226699829,0.24488064646720886
-1.1148327589035034,2.867513418197632,0.2398398220539093
-1.1404012441635132,2.874375343322754,0.23904196918010712
-1.1406551599502563,2.8199052810668945,0.23303483426570892
-1.150599718093872,2.7907724380493164,0.2291698157787323
-1.151733160018921,2.7398440837860107,0.22351402044296265
-1.144728183746338,2.6710493564605713,0.21645326912403107
-1.1475892066955566,2.627535581588745,0.21147334575653076
-1.1571714878082275,2.602198600769043,0.20788925886154175
-1.1809265613555908,2.608792304992676,0.2068675011396408
-1.2038882970809937,2.61133074760437,0.2054566890001297
-1.232014775276184,2.6242082118988037,0.20484010875225067
-1.2733992338180542,2.6651527881622314,0.20631688833236694
-1.2518759965896606,2.576218605041504,0.19769681990146637
-1.2689378261566162,2.568037986755371,0.1953369379043579
-1.2800060510635376,2.545290946960449,0.1917795091867447
-1.2871098518371582,2.515650749206543,0.18775294721126556
-1.2965677976608276,2.4934163093566895,0.18420322239398956
-1.3093671798706055,2.4780900478363037,0.18118003010749817
-1.3131927251815796,2.4453208446502686,0.17686784267425537
-1.3227660655975342,2.4225921630859375,0.17325825989246368
-1.339272379875183,2.413698673248291,0.17055709660053253
-1.3474007844924927,2.3914735317230225,0.16693085432052612
-1.3633484840393066,2.3826067447662354,0.16421526670455933
-1.3838709592819214,2.3799664974212646,0.1618356555700302
-1.3958516120910645,2.3641011714935303,0.15850763022899628
-1.3914324045181274,2.3215465545654297,0.15335960686206818
-1.4150669574737549,2.3256912231445312,0.1512964963912964
-1.4230663776397705,2.3026819229125977,0.14737649261951447
-1.442304253578186,2.300091028213501,0.14470914006233215
-1.442470908164978,2.267882823944092,0.14018861949443817
-1.4688382148742676,2.2743542194366455,0.13787026703357697
-1.4650750160217285,2.2351131439208984,0.13277775049209595
-1.444806456565857,2.1738874912261963,0.1264401376247406
-1.481001853942871,2.196805477142334,0.12492896616458893
-1.4962923526763916,2.1866214275360107,0.12133617699146271
-1.4792158603668213,2.13224196434021,0.11525081843137741
-1.481909990310669,2.1067512035369873,0.11077342927455902
-1.4964377880096436,2.0966570377349854,0.1069202795624733
-1.4957787990570068,2.0684878826141357,0.10213734954595566
-1.5094478130340576,2.0587308406829834,0.09809400141239166
-1.5183979272842407,2.0426177978515625,0.09355466067790985
-1.4851257801055908,2.096503734588623,-0.07469609379768372
-1.4745666980743408,2.1133193969726562,-0.07914118468761444
-1.4694246053695679,2.140456199645996,-0.08400123566389084
-1.4670451879501343,2.1702585220336914,-0.08882185816764832
-1.4768565893173218,2.2199175357818604,-0.09443330764770508
-1.460216760635376,2.230726718902588,-0.09840147942304611
-1.4446053504943848,2.2407023906707764,-0.10210652649402618
-1.4362595081329346,2.264400005340576,-0.10643324255943298
-1.4192705154418945,2.2749087810516357,-0.11016223579645157
-1.4217005968093872,2.3145437240600586,-0.11513692885637283
-1.4166218042373657,2.3448774814605713,-0.11968182772397995
-1.3913222551345825,2.3416576385498047,-0.12249470502138138
-1.3867428302764893,2.371358871459961,-0.1268884390592575
-1.3536319732666016,2.354292631149292,-0.12879395484924316
-1.359246015548706,2.404803514480591,-0.13435913622379303
-1.330905556678772,2.3936755657196045,-0.13638168573379517
-1.3176857233047485,2.409695625305176,-0.13990038633346558
-1.3036956787109375,2.4259719848632812,-0.14341317117214203
-1.298579454421997,2.4594483375549316,-0.14799226820468903
-1.2885348796844482,2.482135534286499,-0.15184350311756134
-1.3025002479553223,2.5537188053131104,-0.15871834754943848
-1.2838250398635864,2.5629680156707764,-0.16176347434520721
-1.2586647272109985,2.5578551292419434,-0.1638357937335968
-1.272669792175293,2.633267402648926,-0.17112340033054352
-1.22848641872406,2.5893843173980713,-0.17055317759513855
-1.20634126663208,2.590987205505371,-0.17293214797973633
-1.1782997846603394,2.5779755115509033,-0.17425450682640076
-1.1841729879379272,2.6393277645111084,-0.18061834573745728
-1.1838804483413696,2.690464496612549,-0.18626157939434052
-1.142429232597351,2.648801803588867,-0.1855202317237854
-1.1450097560882568,2.706857681274414,-0.19167818129062653
-1.1395405530929565,2.746995210647583,-0.19662076234817505
-1.140352487564087,2.805464506149292,-0.20282764732837677
-1.1201443672180176,2.813405752182007,-0.20542313158512115
-1.1239657402038574,2.88291597366333,-0.21256697177886963
-1.1038079261779785,2.8905036449432373,-0.21514169871807098
-1.0995639562606812,2.9419071674346924,-0.2209070771932602
-1.0797797441482544,2.953188419342041,-0.22366346418857574
-1.0640301704406738,2.975269317626953,-0.22724254429340363
-1.0506618022918701,3.0046024322509766,-0.23140420019626617
-1.0370742082595825,3.033848524093628,-0.2355000078678131
-1.0129878520965576,3.033583164215088,-0.23722957074642181
-1.0046309232711792,3.0812809467315674,-0.24274317920207977
-0.9901549220085144,3.1103177070617676,-0.2468014359474182
-0.9703794717788696,3.1245155334472656,-0.2497374266386032
-0.9548970460891724,3.153534412384033,-0.2536766827106476
-0.9423457980155945,3.1936957836151123,-0.25854945182800293
-0.9219473004341125,3.2075741291046143,-0.26131367683410645
-0.907956063747406,3.24375057220459,-0.2659077048301697
-0.8933360576629639,3.2799346446990967,-0.2704542577266693
-0.8716394305229187,3.2936577796936035,-0.2730819582939148
-0.8531040549278259,3.3184478282928467,-0.27662765979766846
-0.8355308771133423,3.346834897994995,-0.2804848551750183
-0.8194902539253235,3.3826887607574463,-0.28500157594680786
-0.8018176555633545,3.4147675037384033,-0.2890516519546509
-0.7789518237113953,3.4278876781463623,-0.2915014326572418
-0.7630807161331177,3.4711720943450928,-0.2965240776538849
-0.7437772154808044,3.499088764190674,-0.30025139451026917
-0.7295387983322144,3.5536060333251953,-0.3062776029109955
-0.7120638489723206,3.59670090675354,-0.3111402094364166
-0.6928316354751587,3.635981559753418,-0.3157326281070709
-0.6701492071151733,3.65592098236084,-0.318651020526886
-0.6501063108444214,3.691018581390381,-0.3229125142097473
-0.6327614784240723,3.7452192306518555,-0.3287903368473053
-0.6101388335227966,3.772508382797241,-0.3321576416492462
-0.34266406297683716,2.219069719314575,-0.1959712654352188
-0.33283567428588867,2.259836196899414,-0.20016641914844513
-0.3127889037132263,2.2311975955963135,-0.19822341203689575
-0.2992519736289978,2.2486939430236816,-0.20029433071613312
-0.2834797501564026,2.2506816387176514,-0.20091398060321808
-0.2658385932445526,2.237105369567871,-0.20015160739421844
-0.24826931953430176,2.2234084606170654,-0.19938592612743378
-0.23521970212459564,2.2482454776763916,-0.20207944512367249
-0.2195284366607666,2.2497870922088623,-0.20257723331451416
-0.2030942142009735,2.2434778213500977,-0.20231600105762482
-0.3482714593410492,4.171689510345459,-0.3767896592617035
-0.31929993629455566,4.181736946105957,-0.378312885761261
-0.29070690274238586,4.1915483474731445,-0.3798251450061798
-0.2558901309967041,4.104119300842285,-0.3722800612449646
-0.2271900326013565,4.1057658195495605,-0.3727441430091858
-0.19885492324829102,4.114983081817627,-0.3739143908023834
-0.16908536851406097,4.100697040557861,-0.37297096848487854
-0.1403222233057022,4.0939555168151855,-0.37272340059280396
-0.1342007964849472,4.9153361320495605,-0.4476238787174225
-0.09994588047266006,4.916138648986816,-0.447770893573761
-0.06579022854566574,4.9244818687438965,-0.4486265480518341
-0.03081701695919037,4.901470184326172,-0.44664904475212097
0.0032857474870979786,4.885992050170898,-0.445376992225647
0.037255506962537766,4.885869026184082,-0.44518202543258667
0.07099775224924088,4.8699541091918945,-0.4435308873653412
0.10464615374803543,4.85769510269165,-0.4422350227832794
0.13704662024974823,4.81020975112915,-0.43775588274002075
0.17102700471878052,4.809142589569092,-0.4375215768814087
0.2040681689977646,4.800121784210205,-0.43620553612709045
0.23579491674900055,4.76756477355957,-0.43275630474090576
0.2686549425125122,4.761986255645752,-0.4317797124385834
0.30128464102745056,4.752293109893799,-0.4304509460926056
0.3322145342826843,4.711288928985596,-0.42629969120025635
0.36549997329711914,4.7167181968688965,-0.4260060489177704
0.1663454920053482,1.9694029092788696,-0.17755408585071564
0.18000799417495728,1.9682387113571167,-0.17713800072669983
0.19293347001075745,1.9592320919036865,-0.1760251522064209
0.48836106061935425,4.623794078826904,-0.41468384861946106
0.521202802658081,4.628157138824463,-0.4140526056289673
0.5522401332855225,4.616837024688721,-0.41203927993774414
0.58228600025177,4.597574234008789,-0.4093380868434906
0.613200843334198,4.585819721221924,-0.40732768177986145
0.6445199847221375,4.573788166046143,-0.4052346646785736
0.670964241027832,4.534729957580566,-0.4005088210105896
0.7010729908943176,4.5224432945251465,-0.3981782793998718
0.7298747301101685,4.502260208129883,-0.39517492055892944
0.7625173926353455,4.504887104034424,-0.3941872715950012
0.7910425662994385,4.484311580657959,-0.39109304547309875
0.8182525634765625,4.455861568450928,-0.3870811462402344
0.7132694125175476,3.7391624450683594,-0.32357242703437805
0.7391937375068665,3.7342679500579834,-0.3219046890735626
0.7831410765647888,3.8168811798095703,-0.32776394486427307
0.9340941309928894,4.397913455963135,-0.37607502937316895
0.9665045738220215,4.399073123931885,-0.37441596388816833
0.9976051449775696,4.396309852600098,-0.3724655210971832
1.025416612625122,4.378105640411377,-0.3692132532596588
1.055873990058899,4.371053218841553,-0.36691758036613464
1.0822089910507202,4.34876823425293,-0.36317378282546997
1.1125138998031616,4.341331481933594,-0.360578328371048
1.1422721147537231,4.333807945251465,-0.3580252230167389
1.1642889976501465,4.295890808105469,-0.3529621660709381
1.1942262649536133,4.287876605987549,-0.350384384393692
1.223562479019165,4.279828071594238,-0.3475591838359833
1.255581021308899,4.278896331787109,-0.3452818989753723
1.2805684804916382,4.255447864532471,-0.3412332534790039
1.3021526336669922,4.220597267150879,-0.3362850844860077
1.332491397857666,4.215435981750488,-0.333645761013031
1.3612432479858398,4.206482410430908,-0.33057165145874023
1.3904619216918945,4.197160243988037,-0.3274407982826233
1.4107953310012817,4.161827087402344,-0.3223167061805725
1.4423550367355347,4.159484386444092,-0.3197602331638336
1.4655585289001465,4.135087013244629,-0.3153456151485443
1.4937132596969604,4.125253200531006,-0.31202176213264465
1.5192561149597168,4.107859134674072,-0.3081307113170624
1.5483896732330322,4.097224712371826,-0.3046741187572479
1.5766304731369019,4.086696624755859,-0.30122169852256775
1.6014734506607056,4.068910598754883,-0.29714101552963257
1.6290807723999023,4.058195114135742,-0.2935921549797058
1.6483880281448364,4.025392532348633,-0.28841057419776917
1.676895260810852,4.013864517211914,-0.2847157120704651
1.7834253311157227,4.189192771911621,-0.29404783248901367
2.008737325668335,4.631509304046631,-0.32165828347206116
2.040611743927002,4.617862224578857,-0.3172164261341095
2.077594041824341,4.6144795417785645,-0.3134427070617676
2.1077566146850586,4.5968098640441895,-0.3085082173347473
2.1354081630706787,4.575735092163086,-0.3033980429172516
2.1633481979370117,4.554270267486572,-0.2982298731803894
2.201817750930786,4.553441047668457,-0.294356107711792
2.222294807434082,4.517733573913574,-0.2881394326686859
2.263490676879883,4.523731231689453,-0.2844943702220917
2.2908387184143066,4.5015058517456055,-0.2790592312812805
2.327615976333618,4.496095180511475,-0.274588942527771
2.368795871734619,4.501315593719482,-0.27065590023994446
1.7255306243896484,3.2266762256622314,-0.19094008207321167
1.7476518154144287,3.214975357055664,-0.18708547949790955
1.7439512014389038,3.154946804046631,-0.18036992847919464
1.7514636516571045,3.1197190284729004,-0.17514294385910034
1.8011186122894287,3.1590850353240967,-0.17408032715320587
1.3731977939605713,2.370133638381958,-0.12801189720630646
0.9460358619689941,1.6075365543365479,-0.08503957092761993
0.9568235278129578,1.6012524366378784,-0.08287762105464935
0.9636024236679077,1.5881710052490234,-0.08036114275455475
0.9787368178367615,1.5881776809692383,-0.0784565731883049
0.9808255434036255,1.5686149597167969,-0.07557974010705948
1.0016199350357056,1.578688383102417,-0.07411077618598938
1.0127846002578735,1.5716620683670044,-0.07167845219373703
1.0081590414047241,1.5421955585479736,-0.06828103959560394
1.0224862098693848,1.5422135591506958,-0.06620471179485321
1.0288760662078857,1.5286625623703003,-0.06339552998542786
1.05208420753479,1.541332721710205,-0.061655234545469284
2.544616460800171,3.6755387783050537,-0.14140506088733673
2.5746939182281494,3.66433048248291,-0.13503432273864746
2.6024818420410156,3.6544759273529053,-0.12869016826152802
2.6313283443450928,3.6436357498168945,-0.12201054394245148
2.6555845737457275,3.626230478286743,-0.1148088350892067
2.6946611404418945,3.6316065788269043,-0.10826586931943893
2.6243979930877686,3.6804399490356445,0.16846729815006256
2.5973615646362305,3.699249029159546,0.17537571489810944
2.5772979259490967,3.7319116592407227,0.18291597068309784
1.0603859424591064,1.558559536933899,0.07862114161252975
1.0486249923706055,1.566365361213684,0.08119779825210571
1.0324040651321411,1.5676342248916626,0.08338864147663116
1.0212212800979614,1.574814796447754,0.08575605601072311
1.0219708681106567,1.6020416021347046,0.08916494995355606
0.9931955933570862,1.583179235458374,0.08998838067054749
0.9861968159675598,1.5966062545776367,0.09248191863298416
0.9785435199737549,1.6103228330612183,0.09497710317373276
0.9561468958854675,1.6009172201156616,0.09610623866319656
0.9624247550964355,1.637884259223938,0.09992585331201553
1.3706765174865723,2.370500087738037,0.14686140418052673
1.8076908588409424,3.1808230876922607,0.19993248581886292
1.7686161994934082,3.166790723800659,0.20189106464385986
1.764837622642517,3.213242292404175,0.20757801830768585
1.7585840225219727,3.2563912868499756,0.21302537620067596
1.76359224319458,3.3242557048797607,0.22007255256175995
2.3535094261169434,4.516130447387695,0.30248793959617615
2.3289694786071777,4.546069622039795,0.3078327775001526
2.292548656463623,4.555514335632324,0.3118034899234772
2.2657275199890137,4.586021900177002,0.317028284072876
2.23177433013916,4.602344512939453,0.321299284696579
2.1961305141448975,4.610541343688965,0.32485124468803406
2.1639156341552734,4.62546443939209,0.32887372374534607
2.133176803588867,4.648026466369629,0.3332222104072571
2.101654291152954,4.670632362365723,0.3376460373401642
2.068246841430664,4.685249328613281,0.3413957357406616
2.023144483566284,4.670675277709961,0.342955082654953
1.735363483428955,4.085675239562988,0.3021910786628723
1.7085562944412231,4.105177879333496,0.3057352900505066
1.6810321807861328,4.124713897705078,0.3093425929546356
1.6491788625717163,4.128943920135498,0.31170251965522766
1.6259739398956299,4.154659748077393,0.31569594144821167
1.5960023403167725,4.166057109832764,0.31843262910842896
1.5684677362442017,4.1846184730529785,0.32168108224868774
1.5349040031433105,4.188537120819092,0.32384997606277466
1.508288025856018,4.206273555755615,0.32700315117836
1.484114646911621,4.2311787605285645,0.33073660731315613
1.4537256956100464,4.2415266036987305,0.33315861225128174
1.4230806827545166,4.251717567443848,0.33555567264556885
1.3967349529266357,4.276646614074707,0.33916357159614563
1.3644882440567017,4.278683185577393,0.34089845418930054
1.3427376747131348,4.313936233520508,0.34530124068260193
1.3096522092819214,4.315783977508545,0.34685462713241577
1.280834674835205,4.332379341125488,0.34954145550727844
1.2518460750579834,4.348781108856201,0.3522353768348694
1.220791220664978,4.357432842254639,0.354312926530838
1.1986095905303955,4.395720481872559,0.35879451036453247
1.1635611057281494,4.388857841491699,0.3594866991043091
1.13605797290802,4.411996841430664,0.36250731348991394
1.1045070886611938,4.419854164123535,0.36429455876350403
1.0763559341430664,4.4426727294921875,0.3673454523086548
1.0471413135528564,4.457503318786621,0.36972400546073914
1.0160191059112549,4.464555740356445,0.37146711349487305
0.9858805537223816,4.479156494140625,0.3735959231853485
0.9580148458480835,4.504977703094482,0.3766849637031555
0.7978808283805847,3.890024423599243,0.32610100507736206
0.7518504858016968,3.7999107837677,0.31934648752212524
0.7231910824775696,3.7934765815734863,0.3196163475513458
0.8334192633628845,4.545027732849121,0.38379088044166565
0.8038995862007141,4.566051483154297,0.3862893581390381
0.7748676538467407,4.594651699066162,0.38946717977523804
0.7449184656143188,4.615272045135498,0.39197877049446106
0.7140397429466248,4.627926826477051,0.3938246965408325
0.6835415363311768,4.644230842590332,0.39600467681884766
0.650883674621582,4.648838520050049,0.3969716429710388
0.6174928545951843,4.6533122062683105,0.3978968858718872
0.5885637998580933,4.688365459442139,0.40145057439804077
0.5566638708114624,4.700021266937256,0.40302106738090515
0.5265442728996277,4.7269110679626465,0.4059180021286011
0.49359625577926636,4.7303876876831055,0.40681883692741394
0.46106815338134766,4.7414374351501465,0.40809494256973267
0.42961883544921875,4.771690845489502,0.41105228662490845
0.3973361551761627,4.790056228637695,0.4130036532878876
0.36452221870422363,4.800418853759766,0.41428375244140625
0.33270302414894104,4.826083183288574,0.41690653562545776
0.3005564510822296,4.851539134979248,0.4194740951061249
0.265609472990036,4.8457560539245605,0.4191127419471741
0.2329801619052887,4.87468147277832,0.42177245020866394
0.19921629130840302,4.883941173553467,0.4227522611618042
0.16569803655147552,4.900742530822754,0.4244058430194855
0.13205650448799133,4.9173102378845215,0.42606040835380554
0.09766463935375214,4.9414496421813965,0.4282905161380768
0.06330699473619461,4.949795246124268,0.42894843220710754
0.028860367834568024,4.961792469024658,0.4299434721469879
-0.0057549928314983845,4.977441310882568,0.4312756359577179
-0.040547292679548264,5.000631809234619,0.43328210711479187
-0.07640226185321808,5.031350612640381,0.4359624683856964
-0.11169542372226715,5.046274662017822,0.4371582269668579
-0.14648319780826569,5.037627696990967,0.43614494800567627
-0.18185687065124512,5.048186779022217,0.4368153214454651
-0.21721702814102173,5.0546088218688965,0.437147855758667
-0.2542800307273865,5.09187650680542,0.4401668608188629
-0.29211461544036865,5.121061325073242,0.442502498626709
-0.27638882398605347,4.318878650665283,0.3729069232940674
-0.30319154262542725,4.274211883544922,0.36865362524986267
-0.3321537673473358,4.264300346374512,0.3674197494983673
-0.3629678189754486,4.277461051940918,0.3681906461715698
-0.3917865455150604,4.259333610534668,0.36627867817878723
-0.4156285226345062,4.198459625244141,0.36072033643722534
-0.44053158164024353,4.156844615936279,0.3566819429397583
-0.46434280276298523,4.111238479614258,0.3522295653820038
-0.48619773983955383,4.053902626037598,0.3468007445335388
-0.5102235078811646,4.015707969665527,0.3430284559726715
-0.5298330783843994,3.9504082202911377,0.3369743525981903
-0.5540022850036621,3.9235727787017822,0.33422771096229553
-0.5746926069259644,3.877397298812866,0.3296641409397125
-0.5964829921722412,3.842679977416992,0.3260442316532135
-0.6189056038856506,3.8116157054901123,0.32274824380874634
-0.6374072432518005,3.761279344558716,0.3178549110889435
-0.6561062932014465,3.714670181274414,0.31330204010009766
-0.677743673324585,3.687120199203491,0.31038162112236023
-0.6956815719604492,3.644251823425293,0.30598223209381104
-0.7152904272079468,3.6127758026123047,0.30256539583206177
-0.7310460805892944,3.562040328979492,0.2975512444972992
-0.7492281794548035,3.526522397994995,0.293843150138855
-0.7678577303886414,3.4947102069854736,0.29046785831451416
-0.7851067185401917,3.459043264389038,0.286736398935318
-0.7988468408584595,3.4120328426361084,0.2819490134716034
-0.8188025951385498,3.391389846801758,0.2793523073196411
-0.8362742066383362,3.3631627559661865,0.27616748213768005
-0.8538488149642944,3.3347411155700684,0.27297449111938477
-0.8730849027633667,3.313760280609131,0.27041226625442505
-0.8916391730308533,3.2927985191345215,0.2677391469478607
-0.9091331958770752,3.2679286003112793,0.26469507813453674
-0.9248610734939575,3.2393383979797363,0.26139289140701294
-0.9405749440193176,3.2105884552001953,0.25808870792388916
-0.9550250768661499,3.177983045578003,0.25449249148368835
-0.9700919389724731,3.1490936279296875,0.2511775493621826
-0.9846636652946472,3.1202030181884766,0.24773593246936798
-1.0009124279022217,3.098788261413574,0.2449323982000351
-1.0134179592132568,3.0661449432373047,0.2412581592798233
-1.0247478485107422,3.0296263694763184,0.2372855693101883
-1.0483568906784058,3.0299124717712402,0.23621515929698944
-1.0610109567642212,3.000861406326294,0.23272329568862915
-1.0735818147659302,2.971684217453003,0.22921869158744812
-1.0908852815628052,2.957207679748535,0.22688999772071838
-1.0935786962509155,2.902284860610962,0.22145208716392517
-1.1221455335617065,2.916559934616089,0.22131580114364624
-1.1190687417984009,2.851011037826538,0.21503563225269318
-1.1283364295959473,2.818138360977173,0.21121473610401154
-1.1442638635635376,2.8034327030181885,0.2088022530078888
-1.1607309579849243,2.788358211517334,0.2063308209180832
-1.145135521888733,2.6978209018707275,0.19832392036914825
-1.1539974212646484,2.6687281131744385,0.1947849988937378
-1.1626726388931274,2.6395716667175293,0.1912240833044052
-1.16598641872406,2.599851131439209,0.18695423007011414
-1.1873242855072021,2.5988945960998535,0.18543817102909088
-1.2103233337402344,2.6013128757476807,0.18415406346321106
-1.2409166097640991,2.621556043624878,0.18400998413562775
-1.2721375226974487,2.6413626670837402,0.18378175795078278
-1.2831783294677734,2.618814706802368,0.1805989295244217
-1.2787548303604126,2.5646162033081055,0.17523877322673798
-1.2820099592208862,2.5282187461853027,0.17109335958957672
-1.2915209531784058,2.5059926509857178,0.16788873076438904
-1.3007756471633911,2.483757495880127,0.16471152007579803
-1.3073887825012207,2.4539620876312256,0.160933718085289
-1.3187313079833984,2.4347429275512695,0.15789347887039185
-1.3309537172317505,2.4193403720855713,0.15503714978694916
-1.339208722114563,2.3970787525177,0.15176570415496826
-1.3595855236053467,2.394714117050171,0.14967073500156403
-1.3803664445877075,2.391969680786133,0.14748059213161469
-1.395940899848938,2.3830742835998535,0.14487534761428833
-1.379574179649353,2.3204145431518555,0.13905230164527893
-1.4117389917373657,2.33768630027771,0.13792595267295837
-1.4236104488372803,2.321489095687866,0.13477563858032227
-1.4264881610870361,2.2923576831817627,0.1308099627494812
-1.43109929561615,2.266601085662842,0.12708283960819244
-1.4573900699615479,2.2731618881225586,0.12503457069396973
-1.4403692483901978,2.2146384716033936,0.11940617114305496
-1.4760106801986694,2.2381012439727783,0.11820106208324432
-1.4828921556472778,2.214954376220703,0.11430036276578903
-1.458276629447937,2.146986484527588,0.10815020650625229
-1.4718736410140991,2.1378445625305176,0.10501118749380112
-1.4795877933502197,2.1184072494506836,0.10120837390422821
-1.4937764406204224,2.108588457107544,0.0977703109383583
-1.4981199502944946,2.08647084236145,0.09371395409107208
-1.5031558275222778,2.0637218952178955,0.08946023136377335
-1.507103681564331,2.041621446609497,0.08519476652145386
-1.4975669384002686,2.097513198852539,-0.06677787005901337
-1.4822815656661987,2.108215093612671,-0.07070804387331009
-1.4749783277511597,2.1322150230407715,-0.07508502155542374
-1.4622418880462646,2.145566701889038,-0.0788055881857872
-1.4721242189407349,2.1953022480010986,-0.08392120152711868
-1.4602657556533813,2.212430953979492,-0.08775132894515991
-1.4655442237854004,2.255499839782715,-0.09256517887115479
-1.44014573097229,2.2531468868255615,-0.0954672321677208
-1.4383821487426758,2.2864785194396973,-0.09978283196687698
-1.4221264123916626,2.2964820861816406,-0.10301294922828674
-1.4211865663528442,2.3335561752319336,-0.10747277736663818
-1.3999848365783691,2.337092876434326,-0.11037496477365494
-1.3954564332962036,2.3668785095214844,-0.1143970713019371
-1.3740075826644897,2.370227575302124,-0.11711826175451279
-1.3682609796524048,2.400388717651367,-0.12115342170000076
-1.3399932384490967,2.3893260955810547,-0.12300712615251541
-1.326088309288025,2.4058353900909424,-0.1262732446193695
-1.3157826662063599,2.4291014671325684,-0.1298593431711197
-1.3059427738189697,2.4519543647766113,-0.13335973024368286
-1.2905340194702148,2.464355230331421,-0.13627465069293976
-1.2796733379364014,2.487424612045288,-0.13975168764591217
-1.2718088626861572,2.5175516605377197,-0.1436939686536789
-1.261139988899231,2.5401954650878906,-0.14712266623973846
-1.2567511796951294,2.5769827365875244,-0.15137715637683868
-1.2396694421768188,2.5894153118133545,-0.1541835367679596
-1.2209951877593994,2.598119020462036,-0.1567588448524475
-1.2027865648269653,2.6064469814300537,-0.15926159918308258
-1.1902732849121094,2.629164695739746,-0.16265146434307098
-1.1569429636001587,2.605491876602173,-0.16308610141277313
-1.1740119457244873,2.695816993713379,-0.17068365216255188
-1.162847876548767,2.721714496612549,-0.17422541975975037
-1.158614993095398,2.7656919956207275,-0.17891813814640045
-1.1442655324935913,2.7883708477020264,-0.18224215507507324
-1.1300649642944336,2.810818672180176,-0.18554171919822693
-1.1161293983459473,2.8329975605010986,-0.1888037621974945
-1.1003999710083008,2.851531744003296,-0.19181358814239502
-1.1019243001937866,2.9175658226013184,-0.1979828178882599
-1.0886809825897217,2.947323799133301,-0.20177805423736572
-1.0720685720443726,2.965693473815918,-0.20474307239055634
-1.0566436052322388,2.987614393234253,-0.20797044038772583
-1.0404689311981201,3.009640693664551,-0.21109619736671448
-1.0289934873580933,3.046365261077881,-0.21527892351150513
-1.0131903886795044,3.0720322132110596,-0.21873094141483307
-0.9940721988677979,3.0863122940063477,-0.22135373950004578
-0.9769303798675537,3.1079800128936768,-0.224440798163414
-0.9615551233291626,3.1370933055877686,-0.2280106097459793
-0.9413771033287048,3.1511991024017334,-0.2305135875940323
-0.9335120320320129,3.2061898708343506,-0.23601298034191132
-0.9149925112724304,3.227581024169922,-0.23910397291183472
-0.8982756733894348,3.256397247314453,-0.24256956577301025
-0.8811806440353394,3.285139799118042,-0.24605387449264526
-0.8648678660392761,3.317528247833252,-0.24983428418636322
-0.8417474627494812,3.3233351707458496,-0.2516185939311981
-0.8310992121696472,3.3820695877075195,-0.25739938020706177
-0.8134732842445374,3.41426682472229,-0.26104307174682617
-0.789300799369812,3.419811248779297,-0.26267123222351074
-0.7687733173370361,3.4403271675109863,-0.2654534578323364
-0.7579886317253113,3.506382465362549,-0.27178335189819336
-0.7369250059127808,3.5306477546691895,-0.2747963070869446
-0.7197144031524658,3.573824882507324,-0.2791973948478699
-0.7019616365432739,3.6169238090515137,-0.2836272716522217
-0.6817382574081421,3.6484155654907227,-0.28716975450515747
-0.6618292331695557,3.6836249828338623,-0.291034460067749
-0.6407585740089417,3.7188644409179688,-0.29475730657577515
-0.6203038096427917,3.757761240005493,-0.29873380064964294
-0.6011226773262024,3.8080945014953613,-0.3036547303199768
-0.5798836350440979,3.846734046936035,-0.30766522884368896
-0.5586900115013123,3.889112949371338,-0.31200745701789856
-0.5341054797172546,3.9160642623901367,-0.3148963153362274
-0.5101584196090698,3.946660280227661,-0.3180740773677826
-0.49009236693382263,4.011891841888428,-0.32407423853874207
-0.4652712643146515,4.042200565338135,-0.32728198170661926
-0.4429726004600525,4.0994553565979,-0.33269208669662476
-0.4169738292694092,4.129513740539551,-0.3356561064720154
-0.3947976231575012,4.209847450256348,-0.3427463471889496
-0.3599434196949005,4.150382041931152,-0.33846354484558105
-0.3341989815235138,4.191530227661133,-0.34239500761032104
-0.3067568242549896,4.216989994049072,-0.34503987431526184
-0.27626562118530273,4.203451633453369,-0.3442405164241791
-0.23977619409561157,4.092559337615967,-0.3354809284210205
-0.21124893426895142,4.0940937995910645,-0.33593863248825073
-0.1830589920282364,4.103207588195801,-0.33703529834747314
-0.15448787808418274,4.104348182678223,-0.3374525010585785
-0.15234754979610443,4.969180107116699,-0.40864628553390503
-0.11658433824777603,4.9506611824035645,-0.40723374485969543
-0.08205858618021011,4.951338291168213,-0.4074178636074066
-0.047390665858983994,4.928416728973389,-0.4056788384914398
-0.013043134473264217,4.905258655548096,-0.40388500690460205
0.021036213263869286,4.881885051727295,-0.4017994701862335
0.05529496818780899,4.854377746582031,-0.39939260482788086
0.03941218554973602,2.148634195327759,-0.17672483623027802
0.05511416867375374,2.1794497966766357,-0.17921388149261475
0.069485604763031,2.1556761264801025,-0.1771974414587021
0.08335568755865097,2.127930164337158,-0.17473500967025757
0.09827935695648193,2.131208896636963,-0.1748305708169937
0.11373763531446457,2.1382558345794678,-0.175239697098732
0.12790729105472565,2.125772714614868,-0.17405951023101807
0.14296123385429382,2.1287360191345215,-0.17412614822387695
0.1611628383398056,2.1743180751800537,-0.17754855751991272
0.1787441074848175,2.20422625541687,-0.17968881130218506
0.41087785363197327,4.657978534698486,-0.3790861964225769
0.4439665973186493,4.662832260131836,-0.37887635827064514
0.47556236386299133,4.651961326599121,-0.3773455321788788
0.5068769454956055,4.640913009643555,-0.3755687475204468
0.5371624827384949,4.621918678283691,-0.3731711804866791
0.5687577128410339,4.610384464263916,-0.37138262391090393
0.5998210906982422,4.598685264587402,-0.36961209774017334
0.630649983882904,4.586795806884766,-0.36777251958847046
0.660042405128479,4.567037105560303,-0.36508795619010925
0.6891922354698181,4.547091007232666,-0.3624131381511688
0.7181841135025024,4.52300500869751,-0.3594104051589966
0.7483600974082947,4.5103302001953125,-0.35735276341438293
0.7783276438713074,4.497472763061523,-0.3552034795284271
0.806513786315918,4.476813316345215,-0.3522597551345825
0.7039795517921448,3.759251832962036,-0.29470786452293396
0.7255463600158691,3.7314603328704834,-0.29145148396492004
0.7535210251808167,3.7339751720428467,-0.29055607318878174
0.9220331311225891,4.411250591278076,-0.3418837785720825
0.9523788690567017,4.4049530029296875,-0.3398916721343994
0.9834940433502197,4.402255058288574,-0.33819401264190674
1.0131229162216187,4.391687393188477,-0.33589524030685425
1.0424087047576904,4.376976490020752,-0.33326783776283264
1.072520136833191,4.369860649108887,-0.33109813928604126
1.0986342430114746,4.34746789932251,-0.3276943266391754
1.122495174407959,4.317389488220215,-0.3237433433532715
1.1525294780731201,4.309639930725098,-0.3214627504348755
1.178943157196045,4.286499977111816,-0.31802406907081604
1.2125623226165771,4.293492317199707,-0.3166533410549164
1.2353895902633667,4.262828350067139,-0.31249791383743286
1.2646526098251343,4.254422664642334,-0.30998992919921875
1.2919973134994507,4.2382354736328125,-0.3069065511226654
1.3218861818313599,4.229198455810547,-0.3042804002761841
1.3447858095169067,4.201714038848877,-0.3002142906188965
1.3734382390975952,4.192630767822266,-0.29748618602752686
1.3998818397521973,4.175849914550781,-0.29420560598373413
1.4263896942138672,4.158824920654297,-0.29091259837150574
1.454921841621399,4.149130344390869,-0.28802406787872314
1.4757115840911865,4.117153167724609,-0.28349751234054565
1.506407618522644,4.114527225494385,-0.2810497581958771
1.532340168952942,4.096822738647461,-0.2775314450263977
1.5607779026031494,4.086278438568115,-0.27449485659599304
1.5912970304489136,4.083071708679199,-0.2718217074871063
1.6165716648101807,4.064953804016113,-0.268125057220459
1.6387395858764648,4.039453029632568,-0.2639675438404083
1.6609034538269043,4.013726234436035,-0.2598015069961548
1.6972569227218628,4.024108409881592,-0.2578638792037964
1.984619379043579,4.618256568908691,-0.2928934693336487
2.0291783809661865,4.633185386657715,-0.29069724678993225
2.0661261081695557,4.6298933029174805,-0.2873419225215912
2.0896689891815186,4.598156452178955,-0.2821560800075531
2.1205050945281982,4.584270477294922,-0.2780210077762604
2.151472330093384,4.570070266723633,-0.2738553583621979
2.1838185787200928,4.554962158203125,-0.269490122795105
2.2150304317474365,4.540121555328369,-0.26515626907348633
2.245386838912964,4.525440216064453,-0.26077353954315186
2.27585768699646,4.510446071624756,-0.25635963678359985
2.310824155807495,4.501662731170654,-0.25218385457992554
2.3415825366973877,4.485996723175049,-0.2475770264863968
1.7264207601547241,3.2535958290100098,-0.17675527930259705
1.7409673929214478,3.2282979488372803,-0.1725974678993225
1.7409049272537231,3.175218343734741,-0.1669255793094635
1.7489957809448242,3.139719009399414,-0.16219724714756012
1.7697564363479614,3.1282424926757812,-0.15871906280517578
1.3499137163162231,2.3480334281921387,-0.11684935539960861
1.3248878717422485,2.267946243286133,-0.11063479632139206
0.9516038298606873,1.6046682596206665,-0.07667514681816101
0.958163321018219,1.5917458534240723,-0.07445370405912399
0.9651703238487244,1.5784566402435303,-0.07214337587356567
0.9718017578125,1.5652929544448853,-0.06981050968170166
0.9903506636619568,1.572197437286377,-0.06838604807853699
1.0116150379180908,1.5819097757339478,-0.0669720470905304
1.0031803846359253,1.5456385612487793,-0.0635988637804985
1.0217469930648804,1.5522445440292358,-0.062009237706661224
1.0324503183364868,1.5452358722686768,-0.059735532850027084
1.0429199934005737,1.538276195526123,-0.05744067579507828
1.052809238433838,1.531609058380127,-0.05515546351671219
2.5619938373565674,3.6735048294067383,-0.12708407640457153
2.590698480606079,3.66308856010437,-0.12137868255376816
2.614377498626709,3.6464226245880127,-0.1153286024928093
2.6604390144348145,3.656709671020508,-0.1096625030040741
2.6833176612854004,3.6401443481445312,-0.10314857214689255
2.605952262878418,3.679891347885132,0.15171955525875092
2.5885043144226074,3.715735673904419,0.1586819440126419
2.5498175621032715,3.7184886932373047,0.16395023465156555
1.0548553466796875,1.5626753568649292,0.0709487721323967
1.0384464263916016,1.5641580820083618,0.07298712432384491
1.0228955745697021,1.564951777458191,0.07484844326972961
1.0094724893569946,1.5689036846160889,0.07678534835577011
0.9995970129966736,1.5797313451766968,0.07903676480054855
0.9962223172187805,1.6001777648925781,0.08173160254955292
0.9746849536895752,1.5904475450515747,0.08279407024383545
0.9626741409301758,1.5976474285125732,0.08467735350131989
0.9607893228530884,1.6214029788970947,0.08742912858724594
1.376021385192871,2.35937762260437,0.12926213443279266
1.3428809642791748,2.3423430919647217,0.1303236484527588
1.785001516342163,3.1679532527923584,0.178862065076828
1.766039252281189,3.187304735183716,0.18245533108711243
1.7717047929763794,3.250782012939453,0.1885690689086914
1.7549116611480713,3.2774083614349365,0.19248084723949432
2.3744895458221436,4.516127109527588,0.26853302121162415
2.3424429893493652,4.532588958740234,0.27260202169418335
2.314274311065674,4.555545330047607,0.2770356833934784
2.2771780490875244,4.565248012542725,0.2805047631263733
2.2434489727020264,4.581677436828613,0.2843936085700989
2.213576316833496,4.604602813720703,0.2886545658111572
2.178063154220581,4.612651348114014,0.2918930947780609
2.147921085357666,4.635136127471924,0.2958967387676239
2.113891124725342,4.650529384613037,0.2994164824485779
2.0802361965179443,4.665456771850586,0.302886039018631
2.050801992416382,4.686765670776367,0.3066997528076172
1.9878895282745361,4.633067607879639,0.3055652678012848
1.7304266691207886,4.115283012390137,0.27335336804389954
1.691502332687378,4.105961799621582,0.27467021346092224
1.665374755859375,4.124859809875488,0.2778240740299225
1.6365768909454346,4.1361918449401855,0.2804606854915619
1.6064732074737549,4.147801876068115,0.2830395996570587
1.5763663053512573,4.159168720245361,0.285505086183548
1.5488885641098022,4.17762565612793,0.28847530484199524
1.5222855806350708,4.195522308349609,0.2913678288459778
1.4903655052185059,4.1985297203063965,0.29323649406433105
1.4623091220855713,4.2164764404296875,0.2960314154624939
1.4343198537826538,4.234156131744385,0.2987435460090637
1.4086370468139648,4.25903844833374,0.3019851744174957
1.3836349248886108,4.2834601402282715,0.3051730990409851
1.3514049053192139,4.2854132652282715,0.3067737817764282
1.3180928230285645,4.287477970123291,0.30825844407081604
1.291750192642212,4.311625003814697,0.311251163482666
1.260762333869934,4.320649147033691,0.31317248940467834
1.2400225400924683,4.36298131942749,0.31750404834747314
1.209561824798584,4.371387481689453,0.3193851411342621
1.1787331104278564,4.3796706199646,0.3211636245250702
1.1487890481948853,4.395551681518555,0.32340162992477417
1.1192644834518433,4.411080360412598,0.32561442255973816
1.0899136066436768,4.426328182220459,0.32781514525413513
1.0591005086898804,4.433682441711426,0.3294316828250885
1.0334657430648804,4.463605880737305,0.3327311873435974
0.9994035959243774,4.4632649421691895,0.33359137177467346
0.9709541201591492,4.485381126403809,0.3361319303512573
0.9374576807022095,4.484436511993408,0.33696281909942627
0.7628520727157593,3.7804856300354004,0.2848249077796936
0.7380067706108093,3.793264865875244,0.28655821084976196
0.8476966023445129,4.529710292816162,0.3429871201515198
0.8197183609008789,4.558521747589111,0.34585040807724
0.7913742065429688,4.587161540985107,0.3487250506877899
0.7590824365615845,4.592529773712158,0.3498464524745941
0.7270731329917908,4.597621917724609,0.35095685720443726
0.6979694366455078,4.625679969787598,0.35385391116142273
0.667022168636322,4.641983509063721,0.35560593008995056
0.6342330574989319,4.646511554718018,0.356463760137558
0.6054094433784485,4.681709289550781,0.35969579219818115
0.5727188587188721,4.685755252838135,0.3605495095252991
0.5418779253959656,4.705039024353027,0.362593412399292
0.510097861289978,4.724198818206787,0.3645935356616974
0.47844165563583374,4.743122100830078,0.36638206243515015
0.4458172023296356,4.754077911376953,0.36757487058639526
0.4140230715274811,4.776453018188477,0.3696713149547577
0.382064551115036,4.7946977615356445,0.3714640736579895
0.3481590151786804,4.797232627868652,0.37206602096557617
0.31625545024871826,4.822824001312256,0.37433427572250366
0.2829912304878235,4.832668304443359,0.37524428963661194
0.25000569224357605,4.850062370300293,0.3767595589160919
0.21701382100582123,4.871119022369385,0.37857872247695923
0.18280358612537384,4.8802924156188965,0.3794969618320465
0.1493104100227356,4.896993160247803,0.3810165524482727
0.11553852260112762,4.913477897644043,0.3823661506175995
0.08151160925626755,4.929737567901611,0.3836154341697693
0.04746302589774132,4.961337089538574,0.3860771358013153
0.012288006022572517,4.961545944213867,0.3861153721809387
-0.022314973175525665,4.98098087310791,0.3876683712005615
-0.057003095746040344,4.988491058349609,0.38831228017807007
-0.09238562732934952,5.026927471160889,0.39114701747894287
-0.1278487741947174,5.049546241760254,0.3926981985569
-0.16242578625679016,5.032986164093018,0.3912208378314972
-0.19877216219902039,5.051191329956055,0.3924616873264313
-0.23427367210388184,5.057487487792969,0.3927983045578003
-0.2702869772911072,5.071311950683594,0.3937380313873291
-0.3082166314125061,5.1160101890563965,0.39682450890541077
-0.29140543937683105,4.3366241455078125,0.3360389471054077
-0.3164696991443634,4.260706424713135,0.32983991503715515
-0.3466345965862274,4.266209125518799,0.32997000217437744
-0.3776625990867615,4.2792510986328125,0.33069664239883423
-0.40222394466400146,4.222280025482178,0.32601553201675415
-0.42696237564086914,4.1768412590026855,0.3220168650150299
-0.4511699974536896,4.127337455749512,0.3177223205566406
-0.4755610525608063,4.0893635749816895,0.314348042011261
-0.4991367757320404,4.047364711761475,0.3106847405433655
-0.5197159051895142,3.9859139919281006,0.30555227398872375
-0.5409694910049438,3.9359664916992188,0.3012712597846985
-0.5645158886909485,3.905179977416992,0.2983071506023407
-0.585483968257904,3.8627662658691406,0.2944885492324829
-0.6052861213684082,3.816401958465576,0.2903946042060852
-0.6254163384437561,3.773742198944092,0.28660181164741516
-0.6450204849243164,3.73098087310791,0.2828253209590912
-0.6658844351768494,3.69968318939209,0.27983590960502625
-0.6858566999435425,3.6644129753112793,0.2764532268047333
-0.7049800157546997,3.6291182041168213,0.27310454845428467
-0.7229537963867188,3.589900255203247,0.2694838047027588
-0.738348662853241,3.5391006469726562,0.2650128901004791
-0.7555387616157532,3.499685525894165,0.2614220380783081
-0.7713662385940552,3.4564123153686523,0.25740134716033936
-0.7983988523483276,3.466350793838501,0.2573433220386505
-0.8084961175918579,3.404057502746582,0.25194409489631653
-0.8301473259925842,3.3909080028533936,0.2501979470252991
-0.8460685014724731,3.3549206256866455,0.24678294360637665
-0.8617883920669556,3.3188130855560303,0.2433222383260727
-0.8792866468429565,3.294157028198242,0.24061185121536255
-0.8995504975318909,3.280697822570801,0.23873883485794067
-0.9134583473205566,3.244575023651123,0.235232874751091
-0.9273364543914795,3.208294153213501,0.23172613978385925
-0.944496214389801,3.18306303024292,0.229025736451149
-0.9615508317947388,3.16176700592041,0.22650808095932007
-0.9759703874588013,3.132967233657837,0.22344693541526794
-0.9876474738121033,3.0966994762420654,0.21988123655319214
-1.004220724105835,3.075073480606079,0.21735596656799316
-1.022250771522522,3.056906223297119,0.21507219970226288
-1.040616512298584,3.0425736904144287,0.21301518380641937
-1.045658826828003,2.991450548171997,0.20834405720233917
-1.0657908916473389,2.9844467639923096,0.20677122473716736
-1.078226923942566,2.95520281791687,0.20365537703037262
-1.0974293947219849,2.9440767765045166,0.20179060101509094
-1.1124138832092285,2.9218835830688477,0.19911246001720428
-1.112216591835022,2.8636012077331543,0.19394612312316895
-1.125670313835144,2.8416872024536133,0.19127745926380157
-1.1377787590026855,2.815962076187134,0.1883523166179657
-1.1455097198486328,2.7792344093322754,0.18469665944576263
-1.1527823209762573,2.742539167404175,0.18100884556770325
-1.1358097791671753,2.652440071105957,0.17381098866462708
-1.1363897323608398,2.605576753616333,0.16951163113117218
-1.1653530597686768,2.6227645874023438,0.1693606972694397
-1.1819770336151123,2.6111509799957275,0.16733112931251526
-1.1999034881591797,2.6030826568603516,0.16544480621814728
-1.225443959236145,2.612830400466919,0.16467277705669403
-1.2394099235534668,2.5977139472961426,0.16233526170253754
-1.2541323900222778,2.5820932388305664,0.1599084883928299
-1.2858995199203491,2.6013972759246826,0.15963536500930786
-1.2771313190460205,2.5405237674713135,0.15434010326862335
-1.3063571453094482,2.556445360183716,0.15376195311546326
-1.293176293373108,2.488764524459839,0.14813949167728424
-1.3031855821609497,2.4660284519195557,0.145211324095726
-1.3103750944137573,2.440223455429077,0.14206446707248688
-1.3226338624954224,2.4248416423797607,0.13951969146728516
-1.3391492366790771,2.4158873558044434,0.13729095458984375
-1.3444470167160034,2.3862383365631104,0.13387246429920197
-1.3603934049606323,2.377310276031494,0.1315966546535492
-1.3797913789749146,2.3752598762512207,0.12967583537101746
-1.3996061086654663,2.3728315830230713,0.1276843547821045
-1.4123815298080444,2.3562889099121094,0.12482716888189316
-1.4238582849502563,2.3403706550598145,0.12200653553009033
-1.4226089715957642,2.3046481609344482,0.11816863715648651
-1.4382497072219849,2.2950501441955566,0.11560208350419998
-1.4142805337905884,2.222616672515869,0.10987117141485214
-1.458422064781189,2.2593562602996826,0.10946318507194519
-1.4645904302597046,2.2368526458740234,0.10616091638803482
-1.4758734703063965,2.2201902866363525,0.10300323367118835
-1.464112639427185,2.1718249320983887,0.09839664399623871
-1.4647353887557983,2.1432199478149414,0.09474223107099533
-1.4731277227401733,2.1233553886413574,0.09126609563827515
-1.4867850542068481,2.1139419078826904,0.08827266097068787
-1.491015076637268,2.0919365882873535,0.08474461734294891
-1.5010565519332886,2.0752460956573486,0.08116816729307175
-1.5094730854034424,2.0595860481262207,0.07762324064970016
-1.513638973236084,2.037229537963867,0.07369823753833771
-1.4811323881149292,2.090169668197632,-0.0619993694126606
-1.4742263555526733,2.1140098571777344,-0.06593071669340134
-1.492483377456665,2.1725029945373535,-0.07078529894351959
-1.4581056833267212,2.1580119132995605,-0.07334630191326141
-1.4425277709960938,2.168346881866455,-0.07650358229875565
-1.4653431177139282,2.237386703491211,-0.08170992136001587
-1.4484400749206543,2.2482495307922363,-0.08485483378171921
-1.436675786972046,2.2649245262145996,-0.08806411176919937
-1.4261071681976318,2.2852938175201416,-0.09143339842557907
-1.413048505783081,2.302438259124756,-0.09463625401258469
-1.4048583507537842,2.325592041015625,-0.0979660376906395
-1.392166256904602,2.34218168258667,-0.10100052505731583
-1.394486904144287,2.3860039710998535,-0.10523153841495514
-1.3771032094955444,2.3959574699401855,-0.10796572268009186
-1.3448750972747803,2.3782689571380615,-0.10933691263198853
-1.3500837087631226,2.4289233684539795,-0.11382710933685303
-1.321091890335083,2.4180405139923096,-0.1154392659664154
-1.307902455329895,2.433946371078491,-0.11822834610939026
-1.2991890907287598,2.46057391166687,-0.1215687021613121
-1.2883429527282715,2.483746290206909,-0.12471090257167816
-1.2776927947998047,2.506652593612671,-0.12781748175621033
-1.2671500444412231,2.5293469429016113,-0.13090096414089203
-1.2780662775039673,2.5978634357452393,-0.13634860515594482
-1.2485811710357666,2.5860631465911865,-0.13764415681362152
-1.2253385782241821,2.584087371826172,-0.13934846222400665
-1.2221099138259888,2.6242799758911133,-0.1433282494544983
-1.178761601448059,2.57970929145813,-0.14259517192840576
-1.1903953552246094,2.6556835174560547,-0.14854052662849426
-1.1559736728668213,2.6281635761260986,-0.14867928624153137
-1.1759319305419922,2.725719928741455,-0.15594974160194397
