X,Y,Z
0.6332054734230042,4.71925687789917,0.8670377731323242
0.6007645726203918,4.7309346199035645,0.8701227903366089
0.5692093968391418,4.750006198883057,0.8746128678321838
0.5369760394096375,4.7611846923828125,0.8776848316192627
0.5060511231422424,4.7913031578063965,0.8843172192573547
0.47261443734169006,4.794445037841797,0.8857892751693726
0.4402800500392914,4.812755107879639,0.8896939754486084
0.40835753083229065,4.838500499725342,0.8950216174125671
0.37491005659103394,4.848711967468262,0.8975237011909485
0.34208881855010986,4.874039649963379,0.9028788208961487
0.3089120090007782,4.887601375579834,0.906089723110199
0.2757786512374878,4.9047698974609375,0.9100170731544495
0.24180446565151215,4.914161205291748,0.9119353890419006
0.20808438956737518,4.930994033813477,0.9152563214302063
0.17374244332313538,4.955292224884033,0.9200145602226257
0.1395767629146576,4.971652984619141,0.9233413338661194
0.10519712418317795,4.980093479156494,0.9252420663833618
0.07081401348114014,4.999817371368408,0.9292861819267273
0.03628016263246536,5.030886173248291,0.9351350665092468
0.0006686554406769574,5.031045913696289,0.9349781274795532
-0.03453458473086357,5.053999423980713,0.9391053915023804
-0.0699474960565567,5.072866916656494,0.9425178170204163
-0.10554483532905579,5.087645530700684,0.9452158212661743
-0.1410810649394989,5.094497203826904,0.9464866518974304
-0.1772969663143158,5.116462230682373,0.9505563974380493
-0.2130099982023239,5.107562065124512,0.9483208060264587
-0.2502742409706116,5.144473552703857,0.9546430706977844
-0.28827357292175293,5.1849493980407715,0.9616646766662598
-0.27313098311424255,4.366427898406982,0.8094781637191772
-0.29789528250694275,4.284079551696777,0.7938823103904724
-0.32997244596481323,4.3049702644348145,0.7974559664726257
-0.3616723418235779,4.325741291046143,0.8006889820098877
-0.3880493640899658,4.285106182098389,0.792405366897583
-0.4127642512321472,4.232839584350586,0.7820238471031189
-0.4371756613254547,4.184254169464111,0.7723754048347473
-0.4620991349220276,4.139272212982178,0.7634270191192627
-0.48635923862457275,4.098015785217285,0.7552262544631958
-0.5066277980804443,4.029964447021484,0.7420120239257812
-0.5302637815475464,3.996213912963867,0.7347680926322937
-0.5518648028373718,3.9509055614471436,0.725452184677124
-0.5705494284629822,3.886406898498535,0.7126556634902954
-0.593368411064148,3.856060266494751,0.7061863541603088
-0.6128652691841125,3.8065857887268066,0.696260392665863
-0.6329772472381592,3.764604091644287,0.6877572536468506
-0.6541270017623901,3.7340261936187744,0.680955171585083
-0.6741902232170105,3.6995584964752197,0.6734406352043152
-0.6920610666275024,3.653581380844116,0.663867712020874
-0.7127597332000732,3.6264452934265137,0.6577839255332947
-0.7272462248802185,3.5689916610717773,0.6462438702583313
-0.7401352524757385,3.507746696472168,0.6340841054916382
-0.7609401345252991,3.48793888092041,0.6291886568069458
-0.7774962186813354,3.4492239952087402,0.620750904083252
-0.8009991645812988,3.4442551136016846,0.618454098701477
-0.8245428800582886,3.4391086101531982,0.61614990234375
-0.8318707942962646,3.3664448261260986,0.6017804145812988
-0.8524655699729919,3.349785804748535,0.5974828004837036
-0.8700481057167053,3.3218414783477783,0.5909773111343384
-0.8865723609924316,3.2940235137939453,0.5843692421913147
-0.8976292610168457,3.2475693225860596,0.5745136141777039
-0.9176223278045654,3.2344326972961426,0.5705977082252502
-0.935921847820282,3.2136123180389404,0.5653215050697327
-0.9521632194519043,3.185197114944458,0.5587275624275208
-0.9673195481300354,3.156954288482666,0.5520284175872803
-0.9864002466201782,3.1434872150421143,0.5477773547172546
-0.9994489550590515,3.1115550994873047,0.5403536558151245
-1.0062452554702759,3.061225652694702,0.5297879576683044
-1.0279996395111084,3.0545146465301514,0.5267485976219177
-1.0405559539794922,3.0222439765930176,0.5193744897842407
-1.0585590600967407,3.0083582401275635,0.5149392485618591
-1.0710018873214722,2.979929208755493,0.5079624056816101
-1.0884246826171875,2.96594500541687,0.5034914016723633
-1.10068941116333,2.937265396118164,0.4965282380580902
-1.1064422130584717,2.8902690410614014,0.48646143078804016
-1.1237647533416748,2.8758509159088135,0.4819319546222687
-1.1344996690750122,2.84731125831604,0.47478270530700684
-1.1449003219604492,2.8187453746795654,0.4676862359046936
-1.1446537971496582,2.7651712894439697,0.4565144181251526
-1.1208280324935913,2.6543354988098145,0.4358986020088196
-1.1272212266921997,2.6185827255249023,0.4277913272380829
-1.1604975461959839,2.6468393802642822,0.4299311339855194
-1.165598750114441,2.6113784313201904,0.42165759205818176
-1.192681074142456,2.625209093093872,0.4213657081127167
-1.201494574546814,2.5962765216827393,0.4140913486480713
-1.2395120859146118,2.6303470134735107,0.41688185930252075
-1.2440495491027832,2.5945730209350586,0.40843692421913147
-1.2613513469696045,2.586850881576538,0.404331773519516
-1.2682698965072632,2.5582196712493896,0.39700332283973694
-1.3107595443725586,2.598212480545044,0.40013357996940613
-1.2954856157302856,2.524142265319824,0.3857484459877014
-1.3125487565994263,2.515982151031494,0.38135212659835815
-1.3111141920089722,2.473658323287964,0.37176138162612915
-1.3238805532455444,2.4587132930755615,0.3663509488105774
-1.3375061750411987,2.4431896209716797,0.3606942892074585
-1.3436611890792847,2.413933515548706,0.3529795706272125
-1.3576905727386475,2.402315139770508,0.3477211892604828
-1.358099341392517,2.3670806884765625,0.3391086757183075
-1.3743702173233032,2.3583714962005615,0.33420222997665405
-1.3831627368927002,2.3359274864196777,0.327277272939682
-1.3910760879516602,2.3138632774353027,0.3202272653579712
-1.4022212028503418,2.298745632171631,0.31420737504959106
-1.4137228727340698,2.28328275680542,0.3080461919307709
-1.41539466381073,2.250946283340454,0.2995060980319977
-1.4574915170669556,2.2847559452056885,0.29958727955818176
-1.4409489631652832,2.226891279220581,0.2875383794307709
-1.475372314453125,2.2469277381896973,0.28544142842292786
-1.4848308563232422,2.2274651527404785,0.2781085968017578
-1.464411973953247,2.1670446395874023,0.2656360864639282
-1.4784761667251587,2.1582093238830566,0.25959381461143494
-1.480707049369812,2.129122018814087,0.2506258487701416
-1.4947723150253296,2.120037078857422,0.24406376481056213
-1.5014671087265015,2.1017236709594727,0.23641715943813324
-1.5024772882461548,2.0730366706848145,0.22713004052639008
-1.5162535905838013,2.0637705326080322,0.21984530985355377
-1.5246096849441528,2.0486743450164795,0.21190810203552246
-1.483314871788025,2.0950815677642822,-0.13006527721881866
-1.4766066074371338,2.11832857131958,-0.13924574851989746
-1.4612512588500977,2.128413200378418,-0.14722129702568054
-1.4555978775024414,2.155271053314209,-0.1565551608800888
-1.4358115196228027,2.158583879470825,-0.16364088654518127
-1.4369750022888184,2.1945974826812744,-0.17318496108055115
-1.420352816581726,2.204782009124756,-0.18078112602233887
-1.4380768537521362,2.2668468952178955,-0.1923738569021225
-1.4272091388702393,2.2868499755859375,-0.2006906121969223
-1.387553334236145,2.26035475730896,-0.20475327968597412
-1.4017235040664673,2.319485664367676,-0.21623677015304565
-1.372836947441101,2.308907985687256,-0.2212946116924286
-1.3595515489578247,2.325106143951416,-0.22887830436229706
-1.3541887998580933,2.354527711868286,-0.23772844672203064
-1.3295435905456543,2.3499884605407715,-0.24300368130207062
-1.312090516090393,2.35908579826355,-0.2496289163827896
-1.281847596168518,2.3439836502075195,-0.25354060530662537
-1.2615621089935303,2.345456600189209,-0.25903522968292236
-1.2404859066009521,2.3471803665161133,-0.2645682394504547
-1.2267924547195435,2.362424373626709,-0.27154648303985596
-1.2188067436218262,2.3876891136169434,-0.27957120537757874
-1.212188720703125,2.4164490699768066,-0.2880508005619049
-1.2047882080078125,2.4454267024993896,-0.29659128189086914
-1.1833158731460571,2.4465198516845703,-0.3018459677696228
-1.1759358644485474,2.4751555919647217,-0.3103373944759369
-1.1646637916564941,2.4968795776367188,-0.31797200441360474
-1.170659065246582,2.5574653148651123,-0.33065053820610046
-1.155436635017395,2.572120428085327,-0.3374534845352173
-1.1497843265533447,2.6078262329101562,-0.3470122516155243
-1.1153303384780884,2.579784393310547,-0.3480681777000427
-1.185933232307434,2.797529697418213,-0.38248762488365173
-1.2834205627441406,3.0877513885498047,-0.427663117647171
-1.2923121452331543,3.1711466312408447,-0.44478264451026917
-1.278198003768921,3.200972318649292,-0.4543936252593994
-1.257556438446045,3.216503381729126,-0.4620886445045471
-1.2526053190231323,3.2714357376098633,-0.4754124581813812
-1.2375884056091309,3.300999164581299,-0.48514869809150696
-1.2192755937576294,3.3233530521392822,-0.4936908483505249
-1.2123581171035767,3.3784053325653076,-0.5071394443511963
-1.182746410369873,3.3715217113494873,-0.5114108324050903
-1.1326608657836914,3.302011489868164,-0.5059180855751038
-1.0957231521606445,3.268733501434326,-0.5056085586547852
-1.0471574068069458,3.1984500885009766,-0.4993201196193695
-1.0079729557037354,3.153409004211426,-0.49679452180862427
-0.9543005228042603,3.0601282119750977,-0.48652413487434387
-0.9225077033042908,3.032740831375122,-0.48632535338401794
-0.8756637573242188,2.9533188343048096,-0.4774700701236725
-0.8460820317268372,2.929034948348999,-0.4773983955383301
-0.8098564147949219,2.8784220218658447,-0.4728948473930359
-0.7733017802238464,2.8237786293029785,-0.46752411127090454
-0.7420533299446106,2.7875776290893555,-0.4648885726928711
-0.7078347206115723,2.7360846996307373,-0.4595540463924408
-0.6810781359672546,2.7104153633117676,-0.45845678448677063
-0.6483644247055054,2.6582984924316406,-0.45279961824417114
-0.6224830746650696,2.632216691970825,-0.45115676522254944
-0.5949599742889404,2.59846830368042,-0.44818374514579773
-0.5675292611122131,2.560637950897217,-0.4443820118904114
-0.5431371927261353,2.533851146697998,-0.4424338936805725
-0.5237744450569153,2.5295321941375732,-0.4441389739513397
-0.49617356061935425,2.4835758209228516,-0.43836942315101624
-0.469692587852478,2.4412007331848145,-0.4332030713558197
-0.4525972604751587,2.4439353942871094,-0.4359733760356903
-0.4327702224254608,2.4314229488372803,-0.43590670824050903
-0.41117504239082336,2.407433271408081,-0.4335026741027832
-0.39054009318351746,2.387066125869751,-0.43173545598983765
-0.3688058853149414,2.358966112136841,-0.42857325077056885
-0.34722673892974854,2.3268485069274902,-0.4246147871017456
-0.3109363317489624,2.188079357147217,-0.40070489048957825
-0.2940838038921356,2.1784543991088867,-0.40035280585289
-0.2788601517677307,2.18013596534729,-0.4020891487598419
-0.2581292688846588,2.1359362602233887,-0.39534974098205566
-0.24469725787639618,2.1527023315429688,-0.3996937572956085
-0.2304798662662506,2.161748170852661,-0.402454137802124
-0.21310368180274963,2.1401238441467285,-0.39951643347740173
-0.200336754322052,2.1642491817474365,-0.40513521432876587
-0.18264220654964447,2.134748697280884,-0.4006587862968445
-0.16751421988010406,2.135810375213623,-0.401610404253006
-0.15317362546920776,2.1444082260131836,-0.4039892852306366
-0.13873781263828278,2.152907133102417,-0.4063737392425537
-0.12461481243371964,2.1689717769622803,-0.4102154076099396
-0.11067304015159607,2.1926679611206055,-0.4152001142501831
-0.0947859138250351,2.185622453689575,-0.41430675983428955
-0.0799868181347847,2.197631597518921,-0.41703832149505615
-0.06492917984724045,2.205702066421509,-0.41904622316360474
-0.04976024851202965,2.2136988639831543,-0.42089715600013733
-0.034716613590717316,2.2369863986968994,-0.4254187047481537
-0.01887909695506096,2.2371480464935303,-0.42556601762771606
-0.00335624348372221,2.252547264099121,-0.428631454706192
0.012295919470489025,2.252488613128662,-0.4287770092487335
0.027944793924689293,2.252401351928711,-0.42850130796432495
0.04374155029654503,2.2598798274993896,-0.42967888712882996
0.0598628968000412,2.2749199867248535,-0.4323123097419739
0.07660525292158127,2.2936718463897705,-0.4356653690338135
0.09226327389478683,2.285515785217285,-0.4336720108985901
0.1088988333940506,2.3002889156341553,-0.43586254119873047
0.1253281682729721,2.307276725769043,-0.4365929663181305
0.14278163015842438,2.3294739723205566,-0.440215528011322
0.16031232476234436,2.343879461288452,-0.4422864317893982
0.17717477679252625,2.3505842685699463,-0.44256624579429626
0.1950835883617401,2.3686482906341553,-0.4449950158596039
0.21292848885059357,2.3827528953552246,-0.44668638706207275
0.2317342758178711,2.4043688774108887,-0.44979128241539
0.25388577580451965,2.452622890472412,-0.45749983191490173
0.2696869969367981,2.439652442932129,-0.45370689034461975
0.2898060083389282,2.4647305011749268,-0.4570036232471466
0.3088805377483368,2.4782114028930664,-0.45814746618270874
0.33213770389556885,2.522059679031372,-0.46472784876823425
0.3557821810245514,2.5619237422943115,-0.4702267646789551
0.37693190574645996,2.582608222961426,-0.4722120761871338
0.39960962533950806,2.6107189655303955,-0.4755350947380066
0.4233059287071228,2.642441987991333,-0.47949454188346863
0.44424325227737427,2.6550893783569336,-0.47953566908836365
0.47531282901763916,2.7244107723236084,-0.48975640535354614
0.5001446008682251,2.7517595291137695,-0.4923292100429535
0.5272119641304016,2.7902941703796387,-0.49690520763397217
0.5540276765823364,2.8248801231384277,-0.5004587173461914
0.583640992641449,2.8705859184265137,-0.5057517290115356
0.616317868232727,2.9273290634155273,-0.5129042267799377
0.651110053062439,2.9874467849731445,-0.52048659324646
0.6829791069030762,3.032310962677002,-0.525262713432312
0.7215560078620911,3.1032233238220215,-0.5341252088546753
0.7638489603996277,3.185011863708496,-0.544708251953125
0.8055404424667358,3.2588930130004883,-0.5537733435630798
0.8429969549179077,3.309868335723877,-0.5587635636329651
0.8904505372047424,3.3979902267456055,-0.5695167779922485
0.9311056733131409,3.4558680057525635,-0.575016438961029
0.9851173162460327,3.557940721511841,-0.587661862373352
1.0385715961456299,3.652024507522583,-0.5987486243247986
1.0850938558578491,3.7158915996551514,-0.6043158769607544
1.1574519872665405,3.8645505905151367,-0.6233237385749817
1.2501518726348877,4.0714826583862305,-0.6512495875358582
1.2914959192276,4.104190826416016,-0.6509628295898438
1.3450545072555542,4.173369884490967,-0.6561763286590576
1.3793667554855347,4.179603576660156,-0.6510038375854492
1.4034423828125,4.156408309936523,-0.6413819789886475
1.4326741695404053,4.147565841674805,-0.6339508295059204
1.4669361114501953,4.1531219482421875,-0.628669798374176
1.4865455627441406,4.11854887008667,-0.6170230507850647
1.5017257928848267,4.072986602783203,-0.6038560271263123
1.2824691534042358,3.4042155742645264,-0.4992547035217285
1.3092093467712402,3.4032764434814453,-0.4937400221824646
1.3270732164382935,3.380701780319214,-0.48485666513442993
1.3533178567886353,3.379596471786499,-0.4790857136249542
1.3740369081497192,3.36383056640625,-0.4711899161338806
1.3921915292739868,3.3405544757843018,-0.462163507938385
1.412245750427246,3.324679136276245,-0.45411416888237
1.4382758140563965,3.32291579246521,-0.4479844272136688
1.4708821773529053,3.335021734237671,-0.44362345337867737
1.4943946599960327,3.32551908493042,-0.43631744384765625
1.504818081855774,3.2876999378204346,-0.4250897169113159
1.5339702367782593,3.2922844886779785,-0.4194773733615875
1.5636341571807861,3.2964510917663574,-0.41367316246032715
1.605467677116394,3.324728488922119,-0.41075122356414795
1.6248446702957153,3.3076155185699463,-0.4020446538925171
1.6114221811294556,3.224198818206787,-0.3853374719619751
1.6181846857070923,3.182565212249756,-0.37381210923194885
1.6262669563293457,3.1443979740142822,-0.3627755641937256
1.651358962059021,3.140977621078491,-0.35570454597473145
1.7112836837768555,3.2024967670440674,-0.3558359146118164
1.7449851036071777,3.2117538452148438,-0.34975889325141907
1.7375531196594238,3.1457901000976562,-0.3354140520095825
1.749361276626587,3.1178276538848877,-0.3253684639930725
1.7785276174545288,3.1200757026672363,-0.3183884620666504
1.365519642829895,2.3573222160339355,-0.23493579030036926
1.3242875337600708,2.251323938369751,-0.2189410924911499
0.9423946142196655,1.5776396989822388,-0.14953100681304932
0.9615535736083984,1.5847160816192627,-0.14616847038269043
0.9724728465080261,1.5784622430801392,-0.1415235847234726
0.9830335974693298,1.5723178386688232,-0.13688424229621887
0.9980405569076538,1.572483777999878,-0.13265955448150635
1.0049495697021484,1.559226632118225,-0.12713871896266937
1.0152759552001953,1.5529128313064575,-0.12227729707956314
1.0258322954177856,1.5463467836380005,-0.11728382855653763
1.0366508960723877,1.5395005941390991,-0.11210805177688599
1.046770453453064,1.5330053567886353,-0.10696365684270859
2.556708335876465,3.6902287006378174,-0.2455919235944748
2.5642433166503906,3.6477766036987305,-0.23067456483840942
2.6014881134033203,3.650905132293701,-0.21867606043815613
2.640211820602417,3.6527442932128906,-0.20577986538410187
2.6508255004882812,3.6168406009674072,-0.1904154121875763
2.68818736076355,3.6191084384918213,-0.17694011330604553
2.6486589908599854,3.726245164871216,0.44971373677253723
2.597977638244629,3.7127513885498047,0.4595307409763336
2.588352918624878,3.755673408508301,0.47557464241981506
1.0482380390167236,1.54642915725708,0.20010629296302795
1.058142900466919,1.5859102010726929,0.2093476802110672
1.0381581783294678,1.5798778533935547,0.2124279886484146
1.0171033143997192,1.5744165182113647,0.21545609831809998
1.0133211612701416,1.5946369171142578,0.22186700999736786
0.9978410601615906,1.5946269035339355,0.22522619366645813
0.9899091124534607,1.6080764532089233,0.23039554059505463
0.9814736247062683,1.621700644493103,0.23557037115097046
0.9653337001800537,1.621748924255371,0.2386900633573532
0.9576843976974487,1.634690761566162,0.24356447160243988
1.3686145544052124,2.3764050006866455,0.35815462470054626
1.821510672569275,3.2183690071105957,0.49050745368003845
1.7829086780548096,3.203437089920044,0.4934028387069702
1.7783056497573853,3.249112129211426,0.5056158304214478
1.7723274230957031,3.2953336238861084,0.5176479816436768
2.4014368057250977,4.5458221435546875,0.7206251621246338
2.3748855590820312,4.575758457183838,0.7317960262298584
2.342405080795288,4.591087818145752,0.7404208183288574
2.3119771480560303,4.613739490509033,0.7501749396324158
2.267033576965332,4.608816146850586,0.755030632019043
2.242445230484009,4.645234107971191,0.7667016983032227
2.212461233139038,4.666839122772217,0.7757351994514465
2.179419755935669,4.681063652038574,0.7835235595703125
2.148282527923584,4.702669143676758,0.792206883430481
2.1157283782958984,4.724597930908203,0.8009107112884521
2.0805017948150635,4.738962173461914,0.8082950115203857
2.037820339202881,4.731078624725342,0.8116530179977417
1.7657132148742676,4.17909049987793,0.7211110591888428
1.7204806804656982,4.155192852020264,0.7207619547843933
1.6892808675765991,4.16697359085083,0.7265244722366333
1.6642019748687744,4.192659854888916,0.7347029447555542
1.6316090822219849,4.196220874786377,0.7389110326766968
1.6102983951568604,4.228242874145508,0.7481465339660645
1.577199101448059,4.2315521240234375,0.7520893812179565
1.5535213947296143,4.264007568359375,0.7610452175140381
1.5248260498046875,4.281635284423828,0.7673627138137817
1.49152410030365,4.284311771392822,0.7709769010543823
1.4614591598510742,4.293796062469482,0.7757763266563416
1.431255578994751,4.303092002868652,0.7805656790733337
1.4076850414276123,4.33839750289917,0.7896230816841125
1.3714743852615356,4.333046913146973,0.7912822961807251
1.338862419128418,4.338418960571289,0.7949264049530029
1.3016735315322876,4.324855327606201,0.7950432300567627
1.278950572013855,4.358935356140137,0.8039485216140747
1.2523181438446045,4.3819260597229,0.8106763958930969
1.228373646736145,4.419942378997803,0.8199164867401123
1.1984810829162598,4.435420036315918,0.8249990940093994
1.172426700592041,4.465541362762451,0.8328566551208496
1.1392477750778198,4.465512752532959,0.8350809216499329
1.1080211400985718,4.472688674926758,0.8386861085891724
1.0793401002883911,4.494865417480469,0.8449057340621948
1.0471104383468628,4.501906871795654,0.8479709625244141
1.019004225730896,4.527463912963867,0.8545775413513184
0.9898656010627747,4.549068927764893,0.860490083694458
0.954931914806366,4.5402631759643555,0.8606484532356262
0.7752721309661865,3.8199856281280518,0.7257057428359985
0.750580370426178,3.836211919784546,0.7301749587059021
0.7225432991981506,3.837293863296509,0.7315084338188171
0.8312467336654663,4.593716144561768,0.8770971298217773
0.8037853837013245,4.6293044090271,0.8853352069854736
0.772761344909668,4.645786762237549,0.8899748921394348
0.7427600622177124,4.6657586097717285,0.8953078985214233
0.7111940979957581,4.67799711227417,0.8990637063980103
0.6769421696662903,4.6749701499938965,0.8994330763816833
0.6500909328460693,4.724909782409668,0.9100461602210999
0.6149898767471313,4.721506118774414,0.9104588031768799
0.5847739577293396,4.7481865882873535,0.9166883826255798
0.5526045560836792,4.759410858154297,0.9199802875518799
0.5215548276901245,4.781854629516602,0.9254920482635498
0.48949408531188965,4.80042028427124,0.9297155737876892
0.45643970370292664,4.811146259307861,0.9324104189872742
0.4227159023284912,4.8216872215271,0.9351285696029663
0.3919825553894043,4.862523555755615,0.9437627792358398
0.35810261964797974,4.8649001121521,0.944979190826416
0.3247183561325073,4.874692916870117,0.9476832151412964
0.29088032245635986,4.880494117736816,0.9493333697319031
0.25766628980636597,4.912962436676025,0.9558945298194885
0.22322772443294525,4.91453218460083,0.9564886093139648
0.1902512162923813,4.954174995422363,0.9645423889160156
0.15623335540294647,4.9705939292907715,0.9681228995323181
0.12233397364616394,4.998274803161621,0.973946750164032
0.08669475466012955,4.9835686683654785,0.971534788608551
0.05214875563979149,4.999399185180664,0.974464476108551
0.017409086227416992,5.037993431091309,0.9818771481513977
-0.017701266333460808,5.045672416687012,0.9833114147186279
-0.053118471056222916,5.0722761154174805,0.9884812831878662
-0.0889568030834198,5.071785926818848,0.9884198307991028
-0.12459129840135574,5.08638858795166,0.9913475513458252
-0.1601412147283554,5.093148231506348,0.9924193620681763
-0.19604350626468658,5.107381343841553,0.9946836233139038
-0.23278731107711792,5.136685848236084,0.9999274015426636
-0.26980453729629517,5.161894798278809,1.0044162273406982
-0.3058416545391083,5.152347564697266,1.002181887626648
-0.2873590588569641,4.331402778625488,0.8422296047210693
-0.3141137361526489,4.283529281616211,0.8326660394668579
-0.3455299735069275,4.304420471191406,0.8359580039978027
-0.3765345811843872,4.317445278167725,0.8377565145492554
-0.40039724111557007,4.246189594268799,0.8232367038726807
-0.42478740215301514,4.193928241729736,0.8124679327011108
-0.4486122727394104,4.141515254974365,0.8017205595970154
-0.47300076484680176,4.100407123565674,0.7932137846946716
-0.4952889382839203,4.047813415527344,0.7822122573852539
-0.5206676125526428,4.021738529205322,0.7761386632919312
-0.5431426763534546,3.9803578853607178,0.7671815752983093
-0.5633947253227234,3.927464723587036,0.7560641765594482
-0.5861461162567139,3.8934006690979004,0.7486146092414856
-0.6078103184700012,3.855421781539917,0.7404642105102539
-0.6275264620780945,3.805917501449585,0.7300414443016052
-0.6457293629646301,3.7565319538116455,0.7193136811256409
-0.6667077541351318,3.7259554862976074,0.7122429013252258
-0.6865553259849548,3.6914947032928467,0.7044832706451416
-0.7055143117904663,3.653110980987549,0.6960155367851257
-0.7203616499900818,3.5957798957824707,0.683991014957428
-0.737252414226532,3.549600839614868,0.6741297245025635
-0.7485784888267517,3.48483943939209,0.660415768623352
-0.7772988080978394,3.5026028156280518,0.6623276472091675
-0.7925711870193481,3.460222005844116,0.6529033184051514
-0.8101719617843628,3.4289567470550537,0.6456195712089539
-0.8345137238502502,3.4235687255859375,0.643205463886261
-0.847147524356842,3.373378276824951,0.6324486136436462
-0.8654877543449402,3.3493618965148926,0.6263590455055237
-0.8803507089614868,3.314182758331299,0.6180975437164307
-0.892784833908081,3.271519660949707,0.6085001826286316
-0.9093356728553772,3.2435100078582764,0.6016495823860168
-0.9308919906616211,3.2338905334472656,0.5982502102851868
-0.9469096660614014,3.2056806087493896,0.5914536714553833
-0.959917426109314,3.1702046394348145,0.5831128358840942
-0.9791054725646973,3.156832695007324,0.5787321329116821
-0.9926795959472656,3.1249005794525146,0.5709648132324219
-1.0068933963775635,3.096627712249756,0.5639359951019287
-1.0212938785552979,3.0681350231170654,0.55687415599823
-1.0303778648376465,3.0250046253204346,0.5472184419631958
-1.051001787185669,3.01849365234375,0.5439409613609314
-1.0597867965698242,2.979257345199585,0.5347229242324829
-1.0723799467086792,2.9507718086242676,0.5274617671966553
-1.1034291982650757,2.9728035926818848,0.5292476415634155
-1.1010314226150513,2.9043467044830322,0.5149367451667786
-1.128228783607483,2.9151673316955566,0.5147082805633545
-1.1294211149215698,2.861544132232666,0.5028228759765625
-1.1432158946990967,2.840090036392212,0.4966247081756592
-1.150596022605896,2.8044188022613525,0.48803943395614624
-1.133039951324463,2.707958698272705,0.4688985049724579
-1.1323766708374023,2.654416799545288,0.4573266804218292
-1.1473877429962158,2.640190601348877,0.4523884057998657
-1.1388219594955444,2.5729610919952393,0.4382948875427246
-1.165573239326477,2.5870141983032227,0.4381510019302368
-1.188289761543274,2.590064525604248,0.4360513985157013
-1.229386329650879,2.631284236907959,0.4402942657470703
-1.2441502809524536,2.6164727210998535,0.43500515818595886
-1.2551721334457397,2.594761848449707,0.42838555574417114
-1.3048797845840454,2.6529078483581543,0.4349631667137146
-1.272992491722107,2.544323205947876,0.41416698694229126
-1.2909260988235474,2.535987615585327,0.40975791215896606
-1.2993861436843872,2.510634660720825,0.40250569581985474
-1.3124381303787231,2.4958291053771973,0.39684975147247314
-1.321997880935669,2.4739797115325928,0.3900597095489502
-1.3244783878326416,2.4382247924804688,0.38104185461997986
-1.3417021036148071,2.4295339584350586,0.3762677013874054
-1.3446813821792603,2.3976142406463623,0.3677404820919037
-1.3566970825195312,2.382673501968384,0.36182981729507446
-1.365310788154602,2.3606317043304443,0.35474538803100586
-1.3859670162200928,2.3583357334136963,0.35053813457489014
-1.3941876888275146,2.336230754852295,0.3433050215244293
-1.421592116355896,2.3476719856262207,0.3408726453781128
-1.4087028503417969,2.2927286624908447,0.32883724570274353
-1.4170781373977661,2.2701196670532227,0.3211798667907715
-1.457627534866333,2.30041241645813,0.320961594581604
-1.4516984224319458,2.2589778900146484,0.3106044828891754
-1.4434034824371338,2.214292287826538,0.2998783588409424
-1.446267008781433,2.185372829437256,0.2911067306995392
-1.4567992687225342,2.1698484420776367,0.2839749753475189
-1.470804214477539,2.1611852645874023,0.2777803838253021
-1.481257438659668,2.145439386367798,0.2703671455383301
-1.4873210191726685,2.123140811920166,0.2619481384754181
-1.5009444952011108,2.114368438720703,0.2551056444644928
-1.5039687156677246,2.08917236328125,0.2459874004125595
-1.513999104499817,2.0731658935546875,0.23773613572120667
-1.517781138420105,2.051924467086792,0.22880633175373077
-1.4865689277648926,2.0832314491271973,-0.129097118973732
-1.4839591979980469,2.1131792068481445,-0.1393236666917801
-1.4733384847640991,2.129523754119873,-0.14812542498111725
-1.4570151567459106,2.1401233673095703,-0.156583771109581
-1.4780397415161133,2.2052865028381348,-0.16894255578517914
-1.4664851427078247,2.2217092514038086,-0.1774437427520752
-1.4281494617462158,2.199563503265381,-0.18291588127613068
-1.445684552192688,2.2617712020874023,-0.1950797438621521
-1.4355288743972778,2.281379222869873,-0.20359523594379425
-1.430640459060669,2.3112752437591553,-0.21311454474925995
-1.4137920141220093,2.3209190368652344,-0.22061412036418915
-1.396796703338623,2.3304688930511475,-0.228070467710495
-1.3674981594085693,2.3199915885925293,-0.23339244723320007
-1.3505080938339233,2.329198122024536,-0.24051544070243835
-1.316644310951233,2.3075690269470215,-0.24419119954109192
-1.312954306602478,2.3402068614959717,-0.253557950258255
-1.2747002840042114,2.311781644821167,-0.25638309121131897
-1.2582963705062866,2.320026397705078,-0.26285937428474426
-1.2561542987823486,2.3557369709014893,-0.2724965214729309
-1.2387959957122803,2.364150285720825,-0.27902352809906006
-1.2216829061508179,2.3722763061523438,-0.28543350100517273
-1.2203365564346313,2.4114255905151367,-0.295647531747818
-1.2061967849731445,2.426424026489258,-0.30281826853752136
-1.1952335834503174,2.4483349323272705,-0.3109097182750702
-1.1743892431259155,2.4490063190460205,-0.31620314717292786
-1.1767221689224243,2.498636484146118,-0.3278600573539734
-1.1796234846115112,2.5520992279052734,-0.34011539816856384
-1.1735081672668457,2.5881552696228027,-0.35030093789100647
-1.148856520652771,2.581395149230957,-0.35450485348701477
-1.141257405281067,2.613548755645752,-0.36403316259384155
-1.3098653554916382,3.0588998794555664,-0.43191903829574585
-1.3057631254196167,3.1101186275482178,-0.4450702369213104
-1.299576759338379,3.1577885150909424,-0.4578753113746643
-1.2886161804199219,3.1946732997894287,-0.4690602123737335
-1.262730360031128,3.1956543922424316,-0.4749026596546173
-1.2690954208374023,3.279364824295044,-0.49316293001174927
-1.2431797981262207,3.2799623012542725,-0.49897754192352295
-1.2167515754699707,3.2805569171905518,-0.5047668814659119
-1.1760624647140503,3.240939140319824,-0.5040441751480103
-1.1282923221588135,3.179062604904175,-0.4996820092201233
-1.0805391073226929,3.1129517555236816,-0.49436578154563904
-1.0299586057662964,3.0354387760162354,-0.486904501914978
-0.98238605260849,2.96494460105896,-0.48021847009658813
-0.9362744092941284,2.893852710723877,-0.47313812375068665
-0.8960815668106079,2.8369576930999756,-0.46814364194869995
-0.8521556258201599,2.7649459838867188,-0.46040624380111694
-0.8213481307029724,2.7332117557525635,-0.4589703679084778
-0.7921175956726074,2.704895257949829,-0.4580327272415161
-0.7536965608596802,2.642982244491577,-0.45131155848503113
-0.7258268594741821,2.6140294075012207,-0.4500291049480438
-0.6952458024024963,2.5737640857696533,-0.446381151676178
-0.6682038903236389,2.5443944931030273,-0.4445422291755676
-0.6407723426818848,2.5110294818878174,-0.441916286945343
-0.6108054518699646,2.4662649631500244,-0.43724361062049866
-0.5880342721939087,2.447420835494995,-0.4367782175540924
-0.5637860894203186,2.420912027359009,-0.4348183274269104
-0.5357263684272766,2.3754284381866455,-0.4293786287307739
-0.514144778251648,2.3559823036193848,-0.42857301235198975
-0.49254870414733887,2.3364450931549072,-0.427592009305954
-0.47226962447166443,2.320488691329956,-0.42700350284576416
-0.4514811038970947,2.300600528717041,-0.42567330598831177
-0.428227037191391,2.2654261589050293,-0.4214619994163513
-0.4088989794254303,2.2489686012268066,-0.42063674330711365
-0.3901725709438324,2.2362446784973145,-0.4202134609222412
-0.36811697483062744,2.2006094455718994,-0.41542646288871765
-0.35273435711860657,2.202690839767456,-0.417736679315567
-0.3350343406200409,2.189481496810913,-0.41715207695961
-0.3169557452201843,2.1724040508270264,-0.4154893755912781
-0.3015007972717285,2.174233913421631,-0.41741645336151123
-0.2802937626838684,2.130274772644043,-0.4105135202407837
-0.2654191553592682,2.131821870803833,-0.412365198135376
-0.2487546056509018,2.1180636882781982,-0.4110579192638397
-0.23142914474010468,2.096595287322998,-0.408058762550354
-0.21756887435913086,2.1055095195770264,-0.41098442673683167
-0.2033703327178955,2.1143460273742676,-0.4139423370361328
-0.18725548684597015,2.1001696586608887,-0.41231825947761536
-0.16727931797504425,2.036273717880249,-0.4005766212940216
-0.15366002917289734,2.0448367595672607,-0.4030861556529999
-0.14150872826576233,2.076247453689575,-0.41013386845588684
-0.12843777239322662,2.1037673950195312,-0.4164724051952362
-0.11151325702667236,2.0623838901519775,-0.408822238445282
-0.09788946062326431,2.078298568725586,-0.41247040033340454
-0.08404967933893204,2.094120502471924,-0.4161275029182434
-0.06899408996105194,2.079214334487915,-0.4136980175971985
-0.05469740182161331,2.094883918762207,-0.41717755794525146
-0.04014396667480469,2.095172882080078,-0.41738030314445496
-0.025479719042778015,2.0876996517181396,-0.41605642437934875
-0.011001803912222385,2.0954477787017822,-0.41778621077537537
0.0036181211471557617,2.114595413208008,-0.4217672049999237
0.0183425173163414,2.0877461433410645,-0.41619986295700073
0.03299516811966896,2.095271587371826,-0.4175111949443817
0.0473896786570549,2.087374448776245,-0.4157696068286896
0.06271428614854813,2.113842725753784,-0.42089173197746277
0.07769222557544708,2.1211187839508057,-0.4218831956386566
0.09310824424028397,2.135965585708618,-0.4242860674858093
0.10783237218856812,2.127729654312134,-0.4221131205558777
0.12351016700267792,2.14235782623291,-0.42450428009033203
0.1379116028547287,2.1339595317840576,-0.4221786558628082
0.15657922625541687,2.1866793632507324,-0.43168070912361145
0.16998015344142914,2.162825107574463,-0.42607367038726807
0.18891549110412598,2.2037951946258545,-0.43323269486427307
0.20427244901657104,2.2026453018188477,-0.4321110248565674
0.2218782752752304,2.224360704421997,-0.4350683391094208
0.23818449676036835,2.2306876182556152,-0.43501773476600647
0.260227769613266,2.28643536567688,-0.44458910822868347
0.27551162242889404,2.2772295475006104,-0.4415017366409302
0.2923404276371002,2.2832281589508057,-0.4411020874977112
0.31338879466056824,2.3195464611053467,-0.4464161992073059
0.33277857303619385,2.3404955863952637,-0.44875144958496094
0.3553265333175659,2.3802714347839355,-0.4546698033809662
0.37459009885787964,2.3932952880859375,-0.45527416467666626
0.3993048667907715,2.4403703212738037,-0.462079793214798
0.4201864004135132,2.4607291221618652,-0.46378350257873535
0.4440995752811432,2.496042251586914,-0.4682709276676178
0.47064274549484253,2.542483329772949,-0.4747867286205292
0.4985485374927521,2.5925474166870117,-0.4814804196357727
0.5222082138061523,2.6159276962280273,-0.48311784863471985
0.5498181581497192,2.6579864025115967,-0.4881989657878876
0.5772759318351746,2.6960339546203613,-0.4924740195274353
0.6093736886978149,2.7526843547821045,-0.49977266788482666
0.6396915316581726,2.7978174686431885,-0.5047507286071777
0.6701683402061462,2.8388559818267822,-0.5088441371917725
0.7055282592773438,2.8983757495880127,-0.5161958336830139
0.7473263740539551,2.980008840560913,-0.5271710157394409
0.7844277620315552,3.0389292240142822,-0.5337148308753967
0.8283377885818481,3.1198346614837646,-0.5439513921737671
0.8739641904830933,3.2001800537109375,-0.5537990927696228
0.9182811379432678,3.272757053375244,-0.5621383786201477
0.9677428603172302,3.3598310947418213,-0.5723953247070312
1.0206705331802368,3.453803777694702,-0.5835812091827393
1.0750850439071655,3.5472099781036377,-0.5943948030471802
1.1313722133636475,3.6399261951446533,-0.6047407388687134
1.1965618133544922,3.7580559253692627,-0.6187217831611633
1.289738655090332,3.956270217895508,-0.6453642845153809
1.3479691743850708,4.039891242980957,-0.6528691053390503
1.4051159620285034,4.11556339263916,-0.6588151454925537
1.4529560804367065,4.161611557006836,-0.6595726013183594
1.4797788858413696,4.145252227783203,-0.6501449942588806
1.5034265518188477,4.121555805206299,-0.6397190093994141
1.531099796295166,4.108499050140381,-0.6309496760368347
1.5570873022079468,4.091728210449219,-0.621464192867279
1.5574792623519897,4.009975910186768,-0.6020933389663696
1.3405685424804688,3.381391763687134,-0.5017293691635132
1.3585783243179321,3.358563184738159,-0.49242523312568665
1.3879815340042114,3.364339828491211,-0.48722830414772034
1.4082322120666504,3.3485825061798096,-0.47878023982048035
1.4253438711166382,3.325540065765381,-0.46933412551879883
1.4461160898208618,3.309180974960327,-0.46067574620246887
1.4755797386169434,3.314178466796875,-0.4550265669822693
1.4952510595321655,3.297893762588501,-0.4463388919830322
1.5180792808532715,3.288489580154419,-0.4385983645915985
1.5346932411193848,3.264678478240967,-0.42885714769363403
1.571286678314209,3.2827253341674805,-0.4244130551815033
1.5938407182693481,3.2728686332702637,-0.4163607954978943
1.619947075843811,3.269719123840332,-0.4091140329837799
1.6185718774795532,3.210664987564087,-0.39484256505966187
1.6319653987884521,3.1830742359161377,-0.384522408246994
1.6250165700912476,3.117680072784424,-0.3697604238986969
1.6688930988311768,3.14827561378479,-0.3662002384662628
1.7224950790405273,3.195519208908081,-0.3643670082092285
1.7667502164840698,3.225541830062866,-0.3602866232395172
1.7470953464508057,3.139643430709839,-0.34334301948547363
1.7767738103866577,3.1417882442474365,-0.3359565734863281
1.8068674802780151,3.143505334854126,-0.3282591998577118
1.3730711936950684,2.3524415493011475,-0.23979155719280243
0.9744057059288025,1.6439090967178345,-0.1634029597043991
0.9438459277153015,1.5674232244491577,-0.15167611837387085
0.9666627645492554,1.5813570022583008,-0.14882464706897736
0.9774786829948425,1.5751475095748901,-0.1439485400915146
0.9885430335998535,1.5686792135238647,-0.13893753290176392
0.9992910027503967,1.5622928142547607,-0.13391759991645813
0.9927181005477905,1.5298653841018677,-0.12674228847026825
1.0269105434417725,1.5591521263122559,-0.12446446716785431
1.031345009803772,1.542599081993103,-0.11828190088272095
1.0371719598770142,1.5296729803085327,-0.1125112771987915
1.0521401166915894,1.5292903184890747,-0.10746010392904282
2.5470428466796875,3.649399518966675,-0.24409785866737366
2.5843474864959717,3.65266752243042,-0.23188163340091705
2.614746570587158,3.641486644744873,-0.21758590638637543
2.6343202590942383,3.6185476779937744,-0.2026551067829132
2.6673452854156494,3.6144967079162598,-0.18852318823337555
2.6244375705718994,3.7202086448669434,0.4812505841255188
2.6003410816192627,3.744751214981079,0.49586933851242065
1.037743330001831,1.5195508003234863,0.20576119422912598
1.054694414138794,1.568310260772705,0.21664349734783173
1.0385838747024536,1.569024682044983,0.22080188989639282
1.0346710681915283,1.5894389152526855,0.22767652571201324
1.0103312730789185,1.5767796039581299,0.22957536578178406
1.0154699087142944,1.609593152999878,0.237980917096138
0.9904324412345886,1.5971451997756958,0.2396237552165985
0.9780607223510742,1.604082465171814,0.2440609186887741
0.9745763540267944,1.6236683130264282,0.250198096036911
0.9665607213973999,1.6368179321289062,0.25532659888267517
1.37555730342865,2.369948387145996,0.3739895522594452
1.3610477447509766,2.3862969875335693,0.3809094727039337
1.8116427659988403,3.2282469272613525,0.5206913352012634
1.784397006034851,3.2333929538726807,0.5267778635025024
1.7855563163757324,3.2933013439178467,0.5416298508644104
1.7695754766464233,3.322650671005249,0.5515815019607544
2.395883321762085,4.576930522918701,0.7665442228317261
2.356283187866211,4.578533172607422,0.7733959555625916
2.3252129554748535,4.601560592651367,0.7833419442176819
2.2938733100891113,4.624387264251709,0.7933027148246765
2.2564289569854736,4.632715702056885,0.8006687164306641
2.22639536857605,4.654332160949707,0.8102421164512634
2.186295509338379,4.654848575592041,0.8158865571022034
2.1612114906311035,4.690675258636475,0.8273676037788391
2.1261816024780273,4.705277919769287,0.8351743221282959
2.0983636379241943,4.7332763671875,0.8452605605125427
2.0648703575134277,4.74665641784668,0.852679431438446
1.999875545501709,4.6894145011901855,0.8472264409065247
1.7408050298690796,4.166104316711426,0.7565742135047913
1.7069886922836304,4.170652866363525,0.7613170146942139
1.6739475727081299,4.174651622772217,0.7658917903900146
1.6529490947723389,4.206786155700684,0.7755842208862305
1.6225402355194092,4.2175421714782715,0.7813606858253479
1.5942825078964233,4.235548496246338,0.7879894971847534
1.5631451606750488,4.246151447296143,0.7932931780815125
1.537356972694397,4.270928382873535,0.8012765049934387
1.5047662258148193,4.273409366607666,0.8050008416175842
1.4766727685928345,4.2903571128845215,0.8115505576133728
1.4469350576400757,4.3036370277404785,0.8169780373573303
1.4155218601226807,4.313196182250977,0.8215844631195068
1.3840888738632202,4.322508811950684,0.8261836171150208
1.357796311378479,4.34608268737793,0.8335052132606506
1.3245182037353516,4.347440242767334,0.8366132974624634
1.2917872667312622,4.348414421081543,0.8396095633506775
1.2731181383132935,4.401156425476074,0.8520827889442444
1.2371045351028442,4.394698143005371,0.8531540632247925
1.2134146690368652,4.43238639831543,0.8628484010696411
1.1840705871582031,4.447508335113525,0.8681579232215881
1.1562598943710327,4.469917297363281,0.874963104724884
1.1248469352722168,4.477188587188721,0.8787257671356201
1.093582034111023,4.488232612609863,0.8827405571937561
1.0649091005325317,4.5102458000183105,0.8889632225036621
1.0342175960540771,4.524601936340332,0.8937347531318665
1.0001604557037354,4.523746967315674,0.8955414891242981
0.9701561331748962,4.537485122680664,0.900233805179596
0.9314264059066772,4.509734630584717,0.8966798186302185
0.7652215957641602,3.8427062034606934,0.7652490735054016
0.7378061413764954,3.847623586654663,0.7674615979194641
0.8460358381271362,4.591243743896484,0.9173272252082825
0.8190382719039917,4.626756191253662,0.9259729385375977
0.7886816263198853,4.643168926239014,0.9308409094810486
0.7562894225120544,4.648033142089844,0.9334427118301392
0.724528968334198,4.660423755645752,0.9370588064193726
0.694270133972168,4.687856197357178,0.9436742067337036
0.6631124019622803,4.707433223724365,0.9487484097480774
0.6309079527854919,4.719181537628174,0.952290415763855
0.6018810868263245,4.7534565925598145,0.9604194760322571
0.5687699913978577,4.757128715515137,0.962419331073761
0.5375797748565674,4.7796831130981445,0.9679490327835083
0.5040500164031982,4.790754795074463,0.9708814024925232
0.47104132175445557,4.801531791687012,0.9737916588783264
0.4385998249053955,4.819704532623291,0.9782541990280151
0.4068950116634369,4.845262050628662,0.9842619895935059
0.3737347722053528,4.855335235595703,0.9871760606765747
0.3400956690311432,4.869048595428467,0.9908449053764343
0.3073815107345581,4.894091606140137,0.9962235689163208
0.2734801173210144,4.903625011444092,0.9984959363937378
0.24057823419570923,4.9358625411987305,1.0054433345794678
0.20607390999794006,4.937276840209961,1.006162405014038
0.17209552228450775,4.965239524841309,1.0123491287231445
0.13798338174819946,4.981473445892334,1.016190528869629
0.10328499227762222,4.982245445251465,1.016525149345398
0.06885892152786255,5.005798816680908,1.0212491750717163
0.03405747562646866,5.021458625793457,1.0244120359420776
-0.0015347505686804652,5.036874771118164,1.0275757312774658
-0.03679198399186134,5.063525676727295,1.0330815315246582
-0.07214805483818054,5.070792198181152,1.034683346748352
-0.10787145793437958,5.093122482299805,1.0393952131271362
-0.14344896376132965,5.100036144256592,1.0403022766113281
-0.1790694296360016,5.10670280456543,1.0412083864212036
-0.21581119298934937,5.120742321014404,1.0436584949493408
-0.2526795268058777,5.146017074584961,1.0484532117843628
-0.290182501077652,5.174845218658447,1.0540186166763306
-0.27630630135536194,4.382011890411377,0.8923153877258301
-0.3016050159931183,4.307605266571045,0.8767041563987732
-0.3324393332004547,4.3132500648498535,0.8771002292633057
-0.3628784716129303,4.31871223449707,0.8775109648704529
-0.3885520100593567,4.2705769538879395,0.8670790195465088
-0.4140467941761017,4.226092338562012,0.857440710067749
-0.4393906593322754,4.185259819030762,0.8485950231552124
-0.46252357959747314,4.1252007484436035,0.8358959555625916
-0.487236350774765,4.091830730438232,0.8281205892562866
-0.5081474781036377,4.031717777252197,0.8149712085723877
-0.530781090259552,3.990487575531006,0.8057003021240234
-0.5513673424720764,3.937739849090576,0.7941590547561646
-0.5803626775741577,3.9416422843933105,0.7940669655799866
-0.594928503036499,3.854527473449707,0.7757090330123901
-0.6136420369148254,3.8015100955963135,0.7640171051025391
-0.6358523964881897,3.774953603744507,0.7574325799942017
-0.657065212726593,3.7444915771484375,0.7501158714294434
-0.6731137037277222,3.6875104904174805,0.7375452518463135
-0.7020406723022461,3.698129415512085,0.7385082244873047
-0.7152184844017029,3.629605770111084,0.7237336039543152
-0.7297163009643555,3.5723588466644287,0.7112186551094055
-0.7453815340995789,3.5265047550201416,0.7005976438522339
-0.7596355676651001,3.4768459796905518,0.6892895102500916
-0.7779138088226318,3.445760726928711,0.6816988587379456
-0.80344557762146,3.448244571685791,0.6808009743690491
-0.8221370577812195,3.420640230178833,0.6739864945411682
-0.8441352248191833,3.4078428745269775,0.6701361536979675
-0.8531800508499146,3.34675669670105,0.6564472913742065
-0.8685110211372375,3.3116261959075928,0.6478345990180969
-0.8810533881187439,3.2691054344177246,0.6378667950630188
-0.903504490852356,3.2635042667388916,0.6351361870765686
-0.9199621677398682,3.2354965209960938,0.6280615329742432
-0.9393340945243835,3.2184605598449707,0.6231614947319031
-0.950652539730072,3.175657033920288,0.6129723787307739
-0.9676331281661987,3.1550493240356445,0.6070582270622253
-0.9821068048477173,3.1270089149475098,0.5997613072395325
-1.0023481845855713,3.1171350479125977,0.5959723591804504
-1.0144988298416138,3.08144474029541,0.5872596502304077
-1.0266039371490479,3.0455992221832275,0.5785466432571411
-1.0422422885894775,3.0246593952178955,0.5724202394485474
-1.0562407970428467,3.0000662803649902,0.5655842423439026
-1.0764914751052856,2.9935004711151123,0.562182605266571
-1.086471438407898,2.9577741622924805,0.5533109307289124
-1.1018214225769043,2.936309576034546,0.547122597694397
-1.110330581665039,2.896700620651245,0.5375406742095947
-1.1158242225646973,2.8539884090423584,0.527162492275238
-1.135050654411316,2.847080945968628,0.5234527587890625
-1.1484326124191284,2.82576847076416,0.517130434513092
-1.14609694480896,2.7649686336517334,0.5035709142684937
-1.1313453912734985,2.6757729053497314,0.48493584990501404
-1.1283153295516968,2.619096279144287,0.47217798233032227
-1.148995280265808,2.619206428527832,0.46958211064338684
-1.1602685451507568,2.5980429649353027,0.46320390701293945
-1.181376338005066,2.5976932048797607,0.460491806268692
-1.2226979732513428,2.6388728618621826,0.4650011658668518
-1.2442835569381714,2.6380393505096436,0.46201175451278687
-1.2735790014266968,2.654782295227051,0.4618679881095886
-1.2625550031661987,2.5879883766174316,0.4472476840019226
-1.309454083442688,2.638826370239258,0.452902227640152
-1.2849054336547852,2.543962240219116,0.4334528148174286
-1.2972453832626343,2.525451898574829,0.42711392045021057
-1.3033528327941895,2.496978759765625,0.41894280910491943
-1.3091347217559814,2.4685182571411133,0.41084766387939453
-1.329818606376648,2.467022657394409,0.40716469287872314
-1.3398098945617676,2.44480037689209,0.4000060260295868
-1.3454103469848633,2.4160265922546387,0.39161446690559387
-1.3556625843048096,2.397780179977417,0.38494253158569336
-1.35996675491333,2.3694119453430176,0.37670522928237915
