X,Y,Z
-1.2800565958023071,1.7903435230255127,-0.09942394495010376
-1.2975915670394897,1.844481110572815,-0.10891518741846085
-1.2200666666030884,1.788251519203186,-0.11696867644786835
-1.5020501613616943,2.4203457832336426,-0.19867867231369019
-1.4538331031799316,2.380824089050293,-0.20138628780841827
-1.4527828693389893,2.417325973510742,-0.21035046875476837
-1.381501317024231,2.3368115425109863,-0.20886078476905823
-0.8390944600105286,1.4666385650634766,-0.13775403797626495
-1.235117793083191,2.1948673725128174,-0.21096862852573395
-1.1865464448928833,2.1456491947174072,-0.21097438037395477
-1.1488314867019653,2.112553358078003,-0.2121376097202301
-1.106353759765625,2.0686426162719727,-0.21197238564491272
-1.062194585800171,2.0211029052734375,-0.2111664116382599
-1.0277721881866455,1.990296483039856,-0.21190498769283295
-0.9923639297485352,1.955512523651123,-0.21200044453144073
-0.9697293043136597,1.9446585178375244,-0.214499369263649
-0.9179279804229736,1.8744004964828491,-0.21022243797779083
-0.8926476240158081,1.8559707403182983,-0.21153439581394196
-0.8662793040275574,1.833653450012207,-0.21225246787071228
-0.8351702690124512,1.800588846206665,-0.21156777441501617
-0.8090023398399353,1.7779699563980103,-0.2120111733675003
-0.786807119846344,1.7619858980178833,-0.21306903660297394
-0.7603388428688049,1.7350605726242065,-0.21269382536411285
-0.7295135855674744,1.69724702835083,-0.21080364286899567
-0.7172362804412842,1.7020589113235474,-0.21411018073558807
-0.682687520980835,1.6530005931854248,-0.2105710357427597
-0.6710532903671265,1.657359004020691,-0.21368622779846191
-0.6535082459449768,1.6472848653793335,-0.21485386788845062
-0.6276217103004456,1.6154063940048218,-0.21306489408016205
-0.6161367297172546,1.6194403171539307,-0.2159440815448761
-0.5950742363929749,1.5979937314987183,-0.2154163122177124
-0.5784186720848083,1.5872411727905273,-0.21617570519447327
-0.5618423223495483,1.5763804912567139,-0.2168269008398056
-0.5429939031600952,1.5580233335494995,-0.21639113128185272
-0.5295553207397461,1.5541077852249146,-0.21790868043899536
-0.5098603367805481,1.5317888259887695,-0.21679723262786865
-0.49416351318359375,1.5203191041946411,-0.21704450249671936
-0.4739963710308075,1.4939461946487427,-0.2151167094707489
-0.4611828923225403,1.489526629447937,-0.2162998914718628
-0.44844862818717957,1.4850037097930908,-0.21745385229587555
-0.4356779158115387,1.4804331064224243,-0.21844160556793213
-0.4174886643886566,1.457216501235962,-0.21667981147766113
-0.4051927626132965,1.452358603477478,-0.21756647527217865
-0.39502158761024475,1.4548590183258057,-0.2195560783147812
-0.38477158546447754,1.457321286201477,-0.22142204642295837
-0.3602994978427887,1.4470844268798828,-0.2227766364812851
0.38099461793899536,1.4424500465393066,-0.2183561772108078
0.3912668228149414,1.4399796724319458,-0.21648859977722168
0.40338385105133057,1.4449471235275269,-0.2157047837972641
0.41978687047958374,1.4647181034088135,-0.2170090526342392
0.4299463927745819,1.462068796157837,-0.21497507393360138
0.44354063272476196,1.470430612564087,-0.21454177796840668
0.45859408378601074,1.482322096824646,-0.2145725041627884
0.4758622348308563,1.5015698671340942,-0.21551378071308136
0.49341756105422974,1.5206551551818848,-0.21638770401477814
0.5113865733146667,1.5395358800888062,-0.21716620028018951
0.5309128165245056,1.5619040727615356,-0.2183840125799179
0.5493862628936768,1.5804753303527832,-0.21892710030078888
0.5605049729347229,1.576927900314331,-0.2163071632385254
0.5767741203308105,1.5879050493240356,-0.2156931757926941
0.5987107157707214,1.6132357120513916,-0.21696273982524872
0.6195492148399353,1.6347661018371582,-0.21760329604148865
0.6335986256599426,1.6380670070648193,-0.2157086730003357
0.6536933183670044,1.655578374862671,-0.21559706330299377
0.6769148111343384,1.6801055669784546,-0.21634621918201447
0.6960191130638123,1.6936619281768799,-0.21559466421604156
0.7226465344429016,1.7250207662582397,-0.21695192158222198
0.74672532081604,1.7489501237869263,-0.21727827191352844
0.773158609867096,1.7760170698165894,-0.2178129255771637
0.7981661558151245,1.799370288848877,-0.21783876419067383
0.8216627240180969,1.8190596103668213,-0.21726380288600922
0.8536158204078674,1.8561437129974365,-0.2186579555273056
0.873274564743042,1.8645926713943481,-0.21651625633239746
0.898261308670044,1.8833141326904297,-0.21544413268566132
0.9416494369506836,1.9405131340026855,-0.21861661970615387
0.9670101404190063,1.958849549293518,-0.21724867820739746
1.015683889389038,2.021939277648926,-0.2206021100282669
1.0562998056411743,2.06722354888916,-0.22178241610527039
1.0846892595291138,2.088081121444702,-0.22014789283275604
1.122917652130127,2.125638484954834,-0.22003228962421417
1.1599493026733398,2.1593101024627686,-0.21934068202972412
1.213973045349121,2.2234878540039062,-0.22150081396102905
1.2535109519958496,2.259990930557251,-0.2206595540046692
1.2730247974395752,2.258523464202881,-0.2158864140510559
1.3008240461349487,2.270125150680542,-0.2121659368276596
1.3122175931930542,2.2550668716430664,-0.20598402619361877
1.3274495601654053,2.2466390132904053,-0.2004031240940094
1.3271839618682861,2.2110369205474854,-0.1922762244939804
1.3585584163665771,2.228977918624878,-0.18880337476730347
1.4515451192855835,2.346132278442383,-0.19329173862934113
1.7311170101165771,2.7556214332580566,-0.2204376757144928
1.8027011156082153,2.8262393474578857,-0.2191844880580902
1.751494288444519,2.7068216800689697,-0.20325446128845215
1.7378935813903809,2.646446704864502,-0.19192910194396973
1.7567096948623657,2.63456392288208,-0.1839437484741211
1.778319001197815,2.62998366355896,-0.1765780746936798
1.4100546836853027,2.0554184913635254,-0.13222728669643402
1.4287517070770264,2.052395820617676,-0.12604129314422607
1.4285191297531128,2.0243632793426514,-0.11837194114923477
1.4313170909881592,1.9988350868225098,-0.1104666143655777
1.4401509761810303,1.983215570449829,-0.103167824447155
1.448392391204834,1.967874526977539,-0.09582550078630447
2.766212224960327,3.9087607860565186,0.39329370856285095
2.65910005569458,3.8162291049957275,0.3943532705307007
2.5344417095184326,3.6930344104766846,0.39110442996025085
2.6721909046173096,3.9604287147521973,0.4294283390045166
2.6689229011535645,4.017576217651367,0.4447997808456421
2.6636931896209717,4.0710577964782715,0.45961517095565796
2.6194260120391846,4.070749282836914,0.4680958390235901
1.6198687553405762,2.558530569076538,0.2993420660495758
1.609580159187317,2.582618236541748,0.30713188648223877
1.5556936264038086,2.537541627883911,0.3064073622226715
2.562852621078491,4.2523193359375,0.5210598707199097
2.958219289779663,4.987765789031982,0.619455099105835
2.9561245441436768,5.064274311065674,0.6371978521347046
2.9364585876464844,5.119163990020752,0.6521326899528503
2.9145662784576416,5.17045783996582,0.6665527820587158
2.8777575492858887,5.189760208129883,0.6764070391654968
2.8633439540863037,5.249545574188232,0.6915829181671143
2.8333020210266113,5.286571979522705,0.7034428119659424
2.810746908187866,5.341169357299805,0.7177841663360596
2.7936906814575195,5.401320934295654,0.7325610518455505
2.7608723640441895,5.429990768432617,0.7430356740951538
2.7491331100463867,5.504145622253418,0.7595804929733276
2.723334789276123,5.554622173309326,0.7726943492889404
1.218132495880127,2.5318984985351562,0.35502690076828003
1.1986411809921265,2.536369562149048,0.3583007752895355
1.1775141954421997,2.537174940109253,0.36106351017951965
1.1588339805603027,2.545250177383423,0.3646489679813385
1.1541659832000732,2.5850775241851807,0.3727948069572449
1.1323025226593018,2.585767984390259,0.3752874433994293
2.543750286102295,5.922987937927246,0.8650708198547363
2.513965368270874,5.968164920806885,0.8770686388015747
2.4892001152038574,6.031921863555908,0.8912755250930786
2.4562952518463135,6.0777082443237305,0.9029082655906677
2.433724880218506,6.148162841796875,0.9182209372520447
2.4009346961975098,6.19316291809082,0.9297944903373718
2.3739240169525146,6.252164840698242,0.943484365940094
1.7184631824493408,4.625919342041016,0.7012492418289185
1.6516335010528564,4.546741485595703,0.6922928690910339
1.5642720460891724,4.4048542976379395,0.6736415028572083
1.5252344608306885,4.3932881355285645,0.6747868657112122
2.2236523628234863,6.55169677734375,1.010607123374939
2.1892037391662598,6.603044509887695,1.022575855255127
2.156754493713379,6.665610313415527,1.03596031665802
2.090949296951294,6.624863624572754,1.033338189125061
2.0271811485290527,6.587162017822266,1.0311695337295532
1.9754327535629272,6.5818095207214355,1.0339692831039429
1.914097547531128,6.542693614959717,1.031476616859436
1.8512547016143799,6.4997429847717285,1.0277340412139893
1.7960480451583862,6.482387065887451,1.0279312133789062
1.738175630569458,6.453393459320068,1.0263042449951172
1.6785426139831543,6.412544250488281,1.022758960723877
1.6251887083053589,6.389687538146973,1.0220386981964111
1.5768064260482788,6.385160446166992,1.0242416858673096
0.7915910482406616,3.3066701889038086,0.5315960645675659
1.4669557809829712,6.326860427856445,1.0194276571273804
1.4074677228927612,6.276464462280273,1.0136597156524658
1.3587429523468018,6.26289701461792,1.013767123222351
1.3079009056091309,6.237631797790527,1.0120090246200562
1.261155366897583,6.230912208557129,1.013225793838501
1.2042222023010254,6.174877166748047,1.0057704448699951
1.1523367166519165,6.145035266876221,1.0026360750198364
1.0942795276641846,6.072876930236816,0.9925817847251892
1.047942876815796,6.057092666625977,0.9917300343513489
1.0081888437271118,6.0790019035339355,0.9970961809158325
0.9615319967269897,6.0587568283081055,0.9955930709838867
0.7557339072227478,4.993943691253662,0.8215860724449158
0.7280237078666687,5.052300453186035,0.832187294960022
0.7021380066871643,5.129602909088135,0.8459764719009399
0.6748266220092773,5.199057579040527,0.8585233688354492
0.6376596689224243,5.195676326751709,0.8590964674949646
0.6015152931213379,5.199681758880615,0.8609291315078735
0.5643375515937805,5.20361852645874,0.8623128533363342
0.5257378220558167,5.18808650970459,0.8603673577308655
0.4787635803222656,5.080178737640381,0.8431275486946106
0.36090344190597534,4.138739109039307,0.6874457597732544
0.3339223265647888,4.164039134979248,0.6922460794448853
0.30445799231529236,4.16613245010376,0.6932356357574463
0.2733112573623657,4.137275695800781,0.6888470649719238
0.24748191237449646,4.192861557006836,0.6983073949813843
0.40284401178359985,7.746186256408691,1.2905439138412476
0.3473239541053772,7.717864990234375,1.2863277196884155
0.29191258549690247,7.69687032699585,1.283398151397705
0.23743070662021637,7.66775369644165,1.2791638374328613
0.1835261434316635,7.642125129699707,1.2754379510879517
0.1298057734966278,7.612396717071533,1.2703015804290771
0.07666364312171936,7.597703456878662,1.2677366733551025
0.02274404652416706,7.56337833404541,1.2619575262069702
-0.029692932963371277,7.532529354095459,1.2568209171295166
-0.02215595170855522,2.0342555046081543,0.33943983912467957
-0.036703865975141525,2.057166576385498,0.34329888224601746
-0.05002192407846451,2.0183727741241455,0.33669936656951904
-0.06377368420362473,2.0103135108947754,0.33518490195274353
-0.07766123116016388,2.0021514892578125,0.33366814255714417
-0.09121479839086533,1.9939032793045044,0.33215683698654175
-0.10407103598117828,1.9740186929702759,0.3287245035171509
-0.11849212646484375,1.9848240613937378,0.3304193913936615
-0.13226673007011414,1.9840047359466553,0.3301127851009369
-0.1456497460603714,1.975415825843811,0.32837381958961487
-0.1623983234167099,2.012850046157837,0.33430203795433044
-0.17967115342617035,2.0501484870910645,0.34021270275115967
-0.1971963495016098,2.0834600925445557,0.3454664945602417
-0.46586281061172485,4.5821919441223145,0.7592241168022156
-0.4969828128814697,4.567468166351318,0.7562456727027893
-0.5284021496772766,4.564199924468994,0.7546753287315369
-0.5578718185424805,4.545416355133057,0.7505801320075989
-0.5861659646034241,4.518789768218994,0.7452319264411926
-0.6175003051757812,4.514873027801514,0.7436620593070984
-0.6472032070159912,4.495394229888916,0.7395512461662292
-0.6760738492012024,4.475803375244141,0.7354806065559387
-0.7038216590881348,4.452319145202637,0.7304494976997375
-0.7342711091041565,4.447735786437988,0.7283948659896851
-0.7646906971931458,4.442943096160889,0.7263402938842773
-0.7899229526519775,4.407522678375244,0.7193095684051514
-0.8168706297874451,4.37941312789917,0.7134914994239807
-0.8392758965492249,4.332298755645752,0.7046502828598022
-0.7316348552703857,3.6422035694122314,0.5912630558013916
-0.7549075484275818,3.6299123764038086,0.5879310965538025
-0.9232708811759949,4.29268217086792,0.6937264204025269
-0.9624944925308228,4.327963829040527,0.697853684425354
-0.9926148653030396,4.321569442749023,0.6952868103981018
-1.0182422399520874,4.296186447143555,0.6897051930427551
-1.0460623502731323,4.281985759735107,0.6857949495315552
-1.071380376815796,4.260280609130859,0.6804096698760986
-1.0988670587539673,4.245782852172852,0.6761859655380249
-1.120028018951416,4.208772659301758,0.668439507484436
-1.1513956785202026,4.208788871765137,0.6665850877761841
-1.1786375045776367,4.193699836730957,0.6623708009719849
-1.207546591758728,4.185971260070801,0.6591807007789612
-1.2385555505752563,4.185511112213135,0.6568269729614258
-1.259021520614624,4.151692867279053,0.6493180990219116
-1.2874406576156616,4.14351224899292,0.6458370089530945
-1.3199026584625244,4.146007061004639,0.6439999341964722
-1.345232367515564,4.126217365264893,0.6387359499931335
-1.3691006898880005,4.102656841278076,0.6326389312744141
-1.3992966413497925,4.101230144500732,0.6298401355743408
-1.4244033098220825,4.084992408752441,0.6247990131378174
-1.4499837160110474,4.068386077880859,0.6196815967559814
-1.4730684757232666,4.044241428375244,0.6134308576583862
-1.5012418031692505,4.034478187561035,0.6094042062759399
-1.528817892074585,4.024779319763184,0.6049655079841614
-1.5529752969741821,4.007881164550781,0.5995022058486938
-1.5714706182479858,3.976370096206665,0.591881275177002
-1.6051119565963745,3.98028302192688,0.5894541144371033
-1.6211769580841064,3.9409804344177246,0.5806705355644226
-1.6546069383621216,3.944563627243042,0.5779769420623779
-1.6810325384140015,3.9340875148773193,0.5731025338172913
-1.6980839967727661,3.9021401405334473,0.5651483535766602
-1.7283741235733032,3.898021697998047,0.5611314177513123
-1.750921368598938,3.875929355621338,0.5545313954353333
-1.7780693769454956,3.8643014430999756,0.5492721199989319
-1.8054548501968384,3.8566231727600098,0.5443995594978333
-1.819452166557312,3.820770263671875,0.5355992913246155
-1.8460040092468262,3.8087916374206543,0.5300285816192627
-1.8761934041976929,3.8034417629241943,0.5253564119338989
-1.8992942571640015,3.784090042114258,0.5185577273368835
-1.9243794679641724,3.7721974849700928,0.5126864910125732
-1.956557273864746,3.7738900184631348,0.5086635947227478
-1.9829906225204468,3.7609052658081055,0.502435028553009
-1.9910303354263306,3.713517665863037,0.4916709363460541
-2.0084388256073,3.6872994899749756,0.48355546593666077
-1.706163763999939,3.0836732387542725,0.400357723236084
-1.7232736349105835,3.0659537315368652,0.39397841691970825
-1.737166166305542,3.0409605503082275,0.3865531086921692
-0.845897912979126,1.4577263593673706,0.1832353174686432
-0.8554649949073792,1.4524835348129272,0.18043264746665955
-0.8653112053871155,1.4469975233078003,0.17753702402114868
-0.8755228519439697,1.441210150718689,0.1745215505361557
-0.885496199131012,1.435469150543213,0.1714908480644226
-0.86391681432724,1.3806008100509644,0.16259503364562988
-0.9001913666725159,1.4178320169448853,0.16451172530651093
-0.893547534942627,1.3855427503585815,0.15813890099525452
-0.8986983895301819,1.3732930421829224,0.15412257611751556
-0.8925360441207886,1.3451111316680908,0.14832599461078644
-0.9104176759719849,1.3522512912750244,0.14630229771137238
-2.3799893856048584,3.482701301574707,0.36928755044937134
-1.3786180019378662,1.9900139570236206,0.20648951828479767
-1.5752383470535278,2.1203525066375732,0.19222547113895416
-1.2349400520324707,1.7410491704940796,-0.09611374884843826
-1.5263612270355225,2.4789998531341553,-0.19830046594142914
-1.5263080596923828,2.5195839405059814,-0.20742997527122498
-1.4187391996383667,2.4193453788757324,-0.2100074738264084
-1.3119149208068848,2.3135478496551514,-0.21078917384147644
-1.2517611980438232,2.2441318035125732,-0.20903173089027405
-1.2153115272521973,2.214864730834961,-0.21073466539382935
-1.1731317043304443,2.1752853393554688,-0.21123597025871277
-1.1223890781402588,2.1180765628814697,-0.20984098315238953
-1.084086298942566,2.0805985927581787,-0.20999740064144135
-1.0514622926712036,2.053203821182251,-0.21099531650543213
-1.0224645137786865,2.0325677394866943,-0.21254228055477142
-0.985503077507019,1.9940561056137085,-0.21202737092971802
-0.945707380771637,1.9481580257415771,-0.2105758935213089
-0.9182575345039368,1.926419734954834,-0.21148133277893066
-0.8827955722808838,1.8868591785430908,-0.21029502153396606
-0.8564373254776001,1.8643975257873535,-0.21081623435020447
-0.824127197265625,1.8274667263031006,-0.20958012342453003
-0.8030917644500732,1.8151899576187134,-0.21099574863910675
-0.7773517370223999,1.7921380996704102,-0.21113170683383942
-0.7555617094039917,1.7757518291473389,-0.21187277138233185
-0.7325824499130249,1.755555510520935,-0.21209196746349335
-0.7199567556381226,1.7603933811187744,-0.21520327031612396
-0.6841661930084229,1.707514762878418,-0.21117259562015533
-0.6662198305130005,1.6975642442703247,-0.21235206723213196
-0.6389514803886414,1.662013053894043,-0.21021512150764465
-0.6215901970863342,1.6516696214675903,-0.21110078692436218
-0.6070524454116821,1.6484605073928833,-0.2128525674343109
-0.5927748084068298,1.6450666189193726,-0.21453872323036194
-0.5694338083267212,1.615999698638916,-0.21285758912563324
-0.5529187917709351,1.605009913444519,-0.21338027715682983
-0.5315709114074707,1.5792109966278076,-0.21183715760707855
-0.5203940272331238,1.5826152563095093,-0.21417103707790375
-0.5092663168907166,1.5859161615371704,-0.21648955345153809
-0.4932454526424408,1.5744298696517944,-0.21675628423690796
-0.4774913191795349,1.562793254852295,-0.21685411036014557
-0.46308013796806335,1.554713249206543,-0.21742098033428192
-0.45002827048301697,1.550189733505249,-0.2184540331363678
-0.43705788254737854,1.5455620288848877,-0.21946170926094055
-0.4240432679653168,1.5408872365951538,-0.22029544413089752
-0.4009394645690918,1.4987739324569702,-0.21576081216335297
-0.39042961597442627,1.5012840032577515,-0.2175765484571457
-0.37327200174331665,1.4774689674377441,-0.21556220948696136
-0.3573340177536011,1.4572809934616089,-0.21392400562763214
-0.35418587923049927,1.4896291494369507,-0.21995264291763306
-0.3383335471153259,1.4692745208740234,-0.2182307243347168
-0.3247213065624237,1.456271767616272,-0.21754802763462067
0.31745269894599915,1.4656929969787598,-0.21928679943084717
0.32935649156570435,1.4712107181549072,-0.21891774237155914
0.3552268445491791,1.4894993305206299,-0.2191530466079712
0.36831486225128174,1.4985170364379883,-0.21910032629966736
0.3684495687484741,1.4548850059509277,-0.21136215329170227
0.3873918652534485,1.4862098693847656,-0.21454653143882751
0.4017781615257263,1.4986629486083984,-0.21497038006782532
0.4162449240684509,1.5110429525375366,-0.21520239114761353
0.4351155757904053,1.5381947755813599,-0.21750286221504211
0.45252248644828796,1.5576499700546265,-0.21862845122814178
0.46453872323036194,1.5584301948547363,-0.21713955700397491
0.47989746928215027,1.5702658891677856,-0.21708814799785614
0.4907548129558563,1.5672069787979126,-0.21490879356861115
0.5134705305099487,1.6009443998336792,-0.21773645281791687
0.5248824954032898,1.5975512266159058,-0.2154362052679062
0.5385037660598755,1.6014989614486694,-0.2141255885362625
0.5545910596847534,1.612723469734192,-0.21366626024246216
0.5747148394584656,1.6347757577896118,-0.21460272371768951
0.5914204120635986,1.6456243991851807,-0.21399740874767303
0.6083049178123474,1.6563209295272827,-0.21334680914878845
0.6335331201553345,1.6886762380599976,-0.21526865661144257
0.6520885825157166,1.7027323246002197,-0.21482501924037933
0.6724681258201599,1.720160961151123,-0.21472863852977753
0.6960233449935913,1.7445911169052124,-0.2154444009065628
0.7183075547218323,1.7652699947357178,-0.21554623544216156
0.7395620346069336,1.782094955444336,-0.2150438129901886
0.7549806237220764,1.7844287157058716,-0.21277257800102234
0.7905763983726501,1.8329441547393799,-0.21590697765350342
0.8094966411590576,1.8420401811599731,-0.21424812078475952
0.8443106412887573,1.8864887952804565,-0.21657171845436096
0.8689031004905701,1.9056332111358643,-0.21579661965370178
0.8986618518829346,1.9351259469985962,-0.2161223292350769
0.9336384534835815,1.9749531745910645,-0.21743158996105194
0.9605793952941895,1.9969819784164429,-0.21663661301136017
0.9914997220039368,2.025623321533203,-0.21641507744789124
1.0285097360610962,2.0641720294952393,-0.2170235514640808
1.072564959526062,2.1164770126342773,-0.21891893446445465
1.1011501550674438,2.1372663974761963,-0.21739065647125244
1.1502944231033325,2.195499897003174,-0.21942457556724548
1.2004590034484863,2.2530879974365234,-0.22113053500652313
1.2305717468261719,2.272733211517334,-0.21889817714691162
1.2686530351638794,2.3056461811065674,-0.2177504301071167
1.2734390497207642,2.2767651081085205,-0.21062815189361572
1.2931469678878784,2.2750697135925293,-0.20604386925697327
1.3123091459274292,2.273538589477539,-0.2014176845550537
1.3199570178985596,2.251530408859253,-0.19491985440254211
1.3360342979431152,2.2425031661987305,-0.18937377631664276
1.367323875427246,2.2605316638946533,-0.18612655997276306
1.4639145135879517,2.3846676349639893,-0.1912756711244583
1.5156970024108887,2.431034803390503,-0.18950626254081726
1.6845985651016235,2.66148042678833,-0.2014043778181076
1.7109326124191284,2.663708448410034,-0.195340096950531
1.712308645248413,2.6261842250823975,-0.18622784316539764
1.739043116569519,2.6277942657470703,-0.17983372509479523
1.751891851425171,2.610346555709839,-0.1721181869506836
1.4031147956848145,2.0602784156799316,-0.1304049789905548
1.4263579845428467,2.063645601272583,-0.12490448355674744
1.4441909790039062,2.0611073970794678,-0.11910577118396759
1.426849603652954,2.0068507194519043,-0.11001845449209213
1.437950611114502,1.994451642036438,-0.1033174991607666
1.4463917016983032,1.9790117740631104,-0.09636101126670837
1.455501914024353,1.96294367313385,-0.08899138867855072
2.8116111755371094,3.9416866302490234,0.3654090464115143
2.735278367996216,3.8943498134613037,0.3714810907840729
2.571743965148926,3.717693567276001,0.36404427886009216
2.634307861328125,3.8719542026519775,0.3886542022228241
2.668959140777588,3.9836785793304443,0.4087986350059509
2.6594185829162598,4.030991077423096,0.42234423756599426
2.648646831512451,4.08340311050415,0.4364757239818573
1.6305595636367798,2.554142475128174,0.2780124247074127
1.6165562868118286,2.571563959121704,0.28472813963890076
1.5805575847625732,2.5566885471343994,0.28766322135925293
2.5767431259155273,4.239072322845459,0.4844111204147339
2.5502116680145264,4.2631144523620605,0.4941795766353607
2.9689717292785645,5.043943405151367,0.5927219986915588
2.93829083442688,5.078639030456543,0.6045176386833191
2.925424098968506,5.143049240112305,0.6197935342788696
2.892888069152832,5.169168949127197,0.6301684975624084
2.8662467002868652,5.209419250488281,0.6423298716545105
2.8509154319763184,5.274124622344971,0.6571686267852783
2.8262381553649902,5.32142448425293,0.6698693037033081
2.7887163162231445,5.340071678161621,0.6786778569221497
2.7793309688568115,5.41373348236084,0.6945738792419434
2.7572991847991943,5.471708297729492,0.7081983089447021
2.7490310668945312,5.557112216949463,0.7254220843315125
1.2275457382202148,2.526048421859741,0.33241942524909973
1.2097492218017578,2.5341298580169678,0.3361304998397827
1.1782504320144653,2.514228343963623,0.33599406480789185
1.1741276979446411,2.5541458129882812,0.343749076128006
1.1533862352371216,2.558847427368164,0.3468300402164459
1.1432044506072998,2.584165334701538,0.3525884449481964
2.5555684566497803,5.887273788452148,0.8085803985595703
2.5293915271759033,5.943913459777832,0.8213121891021729
2.503408670425415,6.004307746887207,0.8344981670379639
2.4719998836517334,6.053964614868164,0.8463282585144043
2.446748971939087,6.113332748413086,0.8593528866767883
2.41654109954834,6.161804676055908,0.8709467649459839
2.37766432762146,6.192559719085693,0.8796798586845398
1.7291617393493652,4.603176116943359,0.6570172309875488
1.6562358140945435,4.509799480438232,0.6468089818954468
1.572275161743164,4.374919414520264,0.6303337216377258
1.539020299911499,4.377893447875977,0.6336548328399658
2.2373147010803223,6.510784149169922,0.9464420676231384
2.203519582748413,6.566352367401123,0.9582297205924988
2.175410032272339,6.644078254699707,0.9734269380569458
2.1282942295074463,6.658463478088379,0.979271650314331
2.064326524734497,6.616968154907227,0.9768737554550171
2.003361225128174,6.5822978019714355,0.975468099117279
1.9405312538146973,6.54388427734375,0.9728711843490601
1.8825396299362183,6.519822120666504,0.9723257422447205
1.8210691213607788,6.484313011169434,0.970135509967804
1.7656309604644775,6.458845615386963,0.9693016409873962
1.709577202796936,6.4292073249816895,0.9678570032119751
1.6528983116149902,6.395427227020264,0.965660810470581
1.6004433631896973,6.380256652832031,0.9657260179519653
0.7988550066947937,3.28568959236145,0.49858358502388
1.4916155338287354,6.329944610595703,0.9629302024841309
1.435308575630188,6.286886692047119,0.958764374256134
1.384743094444275,6.2659831047058105,0.9579885601997375
1.3350377082824707,6.248558521270752,0.9575499892234802
1.2849770784378052,6.234889030456543,0.9572855234146118
1.2292035818099976,6.186580181121826,0.9516960978507996
1.1722677946090698,6.126376628875732,0.9442766308784485
1.1323429346084595,6.149123668670654,0.9496427178382874
1.0793721675872803,6.099358081817627,0.9438434839248657
1.0209749937057495,6.018903732299805,0.9331024289131165
0.98633873462677,6.075178623199463,0.9430907964706421
0.9379368424415588,6.047318458557129,0.9400685429573059
0.7382348775863647,4.991690635681152,0.7770757079124451
0.7292748689651489,5.179916858673096,0.807549238204956
0.6925556659698486,5.184647083282471,0.8095173239707947
0.6577848196029663,5.2005615234375,0.8131380677223206
0.6247395277023315,5.235518932342529,0.8193129897117615
0.5843487977981567,5.208892822265625,0.8158912658691406
0.5456314086914062,5.193472385406494,0.8142565488815308
0.5034710168838501,5.135472774505615,0.8059638142585754
0.373489111661911,4.10864782333374,0.645496129989624
0.34845462441444397,4.153280258178711,0.653217613697052
0.31992143392562866,4.163216590881348,0.6550652980804443
0.2917957901954651,4.180657386779785,0.6581130027770996
0.2605867385864258,4.151689529418945,0.6538853645324707
0.2328648716211319,4.184155464172363,0.6593707799911499
0.3772988021373749,7.75063943862915,1.222139596939087
0.3214447498321533,7.706632614135742,1.2159899473190308
0.2668909728527069,7.685459136962891,1.212907314300537
0.21247507631778717,7.660090923309326,1.2089320421218872
0.1574176400899887,7.630499839782715,1.2043507099151611
0.10380057245492935,7.6005024909973145,1.1997617483139038
0.050880447030067444,7.585562229156494,1.1976062059402466
-0.0019059240585193038,7.550961971282959,1.1924035549163818
-0.01491766981780529,2.071927309036255,0.3271951973438263
-0.029195498675107956,2.0447874069213867,0.3227781057357788
-0.043559104204177856,2.052274227142334,0.32384639978408813
-0.056941427290439606,2.021089553833008,0.31882911920547485
-0.07045672088861465,2.0052430629730225,0.3162487745285034
-0.08438141644001007,2.004728317260742,0.3161024749279022
-0.09832454472780228,2.0041160583496094,0.31595590710639954
-0.11155000329017639,1.9880222082138062,0.31315943598747253
-0.12482196092605591,1.979556918144226,0.31158438324928284
-0.1382298469543457,1.9748542308807373,0.31061819195747375
-0.15282846987247467,1.9854469299316406,0.3120707869529724
-0.17115506529808044,2.038233518600464,0.3201634883880615
-0.18802526593208313,2.0639350414276123,0.32400619983673096
-0.44934937357902527,4.58243465423584,0.7186366319656372
-0.48051318526268005,4.575600624084473,0.7166960835456848
-0.5120337009429932,4.572389602661133,0.7153578996658325
-0.5408958792686462,4.545952796936035,0.7104213237762451
-0.5730555653572083,4.542223930358887,0.7090538144111633
-0.6005665063858032,4.507724761962891,0.7029357552528381
-0.6317000389099121,4.503703594207764,0.7014160752296448
-0.6603431105613708,4.484266757965088,0.6972253322601318
-0.6881604790687561,4.460830211639404,0.69245445728302
-0.7181540727615356,4.448563098907471,0.6894345879554749
-0.7490544319152832,4.443746566772461,0.6876134276390076
-0.7786335945129395,4.431099891662598,0.6846140623092651
-0.8051930069923401,4.40308952331543,0.679195761680603
-0.8294982314109802,4.3674774169921875,0.6722573041915894
-0.7189291715621948,3.649578809738159,0.560573399066925
-0.7474097013473511,3.659919500350952,0.560975968837738
-0.7664777636528015,3.624685287475586,0.5544248223304749
-0.9468979835510254,4.329121112823486,0.6608282327651978
-0.9769729375839233,4.322786331176758,0.6585145592689514
-1.0019831657409668,4.297634601593018,0.6529396176338196
-1.0298917293548584,4.283500671386719,0.6490511894226074
-1.0553094148635864,4.261794090270996,0.6440832614898682
-1.0849560499191284,4.254758834838867,0.6413310766220093
-1.1145116090774536,4.2475266456604,0.6385828256607056
-1.1359432935714722,4.210238456726074,0.631320595741272
-1.1669741868972778,4.210245609283447,0.6292433738708496
-1.1933187246322632,4.195284366607666,0.6249943375587463
-1.2196398973464966,4.180120944976807,0.6207422018051147
-1.246563196182251,4.164576530456543,0.6164172291755676
-1.2778260707855225,4.163659572601318,0.6142902374267578
-1.3036346435546875,4.143985748291016,0.6092799305915833
-1.3327926397323608,4.139293193817139,0.6062214374542236
-1.3571032285690308,4.119693279266357,0.6010116934776306
-1.3802926540374756,4.0961809158325195,0.5952465534210205
-1.4063408374786377,4.0796613693237305,0.5904889702796936
-1.4348376989364624,4.070261001586914,0.5867915749549866
-1.4552438259124756,4.038900852203369,0.5796893835067749
-1.4850660562515259,4.036858081817627,0.5767160654067993
-1.50679612159729,4.012831211090088,0.570629358291626
-1.534600019454956,4.002867221832275,0.566501259803772
-1.5625615119934082,3.992623805999756,0.5623390078544617
-1.590764045715332,3.982074022293091,0.5580537915229797
-1.611539363861084,3.9576127529144287,0.5515645742416382
-1.6350624561309814,3.9401869773864746,0.5460931658744812
-1.6680091619491577,3.9438202381134033,0.5434986352920532
-1.686409592628479,3.9113218784332275,0.5358794331550598
-1.7127225399017334,3.896287441253662,0.5306434631347656
-1.740410566329956,3.888914108276367,0.526210606098175
-1.7583205699920654,3.860222816467285,0.5188990235328674
-1.777981162071228,3.8347864151000977,0.5120197534561157
-1.8197169303894043,3.8544809818267822,0.511064887046814
-1.8353859186172485,3.8176348209381104,0.5025712251663208
-1.8710402250289917,3.82692289352417,0.4999263882637024
-1.8964447975158691,3.815105676651001,0.49449190497398376
-1.9153870344161987,3.7889645099639893,0.4871424734592438
-1.9455037117004395,3.7830545902252197,0.48230162262916565
-1.960996150970459,3.749513626098633,0.4739275574684143
-1.9861960411071777,3.736985683441162,0.46790140867233276
-1.9997870922088623,3.7040109634399414,0.45944085717201233
-2.0405056476593018,3.717987298965454,0.4565797448158264
-1.7146430015563965,3.073338747024536,0.3735659122467041
-1.7314413785934448,3.055626153945923,0.36740604043006897
-0.8371689915657043,1.454953670501709,0.17295606434345245
-0.8431427478790283,1.4428201913833618,0.1695012003183365
-0.8612214922904968,1.4505358934402466,0.16830869019031525
-0.8670368790626526,1.4383187294006348,0.1647500991821289
-0.8804694414138794,1.4395798444747925,0.16268974542617798
-0.8780562281608582,1.4139928817749023,0.1575034111738205
-0.875569224357605,1.3883519172668457,0.15232644975185394
-0.8932570815086365,1.395876407623291,0.15074777603149414
-0.8938155174255371,1.3773270845413208,0.14632132649421692
-0.9033008217811584,1.3714635372161865,0.14311474561691284
-0.8979871273040771,1.3426361083984375,0.13745008409023285
-2.3593626022338867,3.4798429012298584,0.3492197096347809
-2.4506733417510986,3.564512014389038,0.3502843976020813
-1.2612804174423218,1.8075640201568604,0.17357411980628967
-1.142456293106079,1.6483652591705322,-0.09485001116991043
-1.4472569227218628,2.120276689529419,-0.12798473238945007
-1.5658282041549683,2.5649428367614746,-0.19924968481063843
-1.5956141948699951,2.6557462215423584,-0.2120438516139984
-1.4951939582824707,2.5290920734405518,-0.20725330710411072
-0.7755513787269592,1.3559294939041138,-0.11663493514060974
-1.3485409021377563,2.3963563442230225,-0.21081458032131195
-1.290946125984192,2.3343520164489746,-0.20991142094135284
-1.2423415184020996,2.285043478012085,-0.20976732671260834
-1.2078782320022583,2.2589428424835205,-0.21145902574062347
-1.1572110652923584,2.2016448974609375,-0.2100163847208023
-1.1178460121154785,2.164659261703491,-0.21029555797576904
-1.0775039196014404,2.123670816421509,-0.20998956263065338
-1.0538628101348877,2.1133615970611572,-0.21251113712787628
-1.024839162826538,2.0925700664520264,-0.21383161842823029
-0.9809229969978333,2.0399668216705322,-0.21176286041736603
-0.9499396681785583,2.0112524032592773,-0.21192197501659393
-0.9145036339759827,1.971630334854126,-0.21080483496189117
-0.8806250095367432,1.9354621171951294,-0.20988896489143372
-0.8571147322654724,1.9200925827026367,-0.21108433604240417
-0.8327004313468933,1.900769591331482,-0.2117072492837906
-0.7978041768074036,1.85624098777771,-0.2094145268201828
-0.7783675193786621,1.8472647666931152,-0.21095235645771027
-0.7425962090492249,1.7986913919448853,-0.20792269706726074
-0.7328640222549438,1.8107144832611084,-0.21174106001853943
-0.7086604237556458,1.786598801612854,-0.21130582690238953
-0.690188467502594,1.776831030845642,-0.21240392327308655
-0.6705124378204346,1.7632644176483154,-0.213017538189888
-0.6498025059700012,1.745842456817627,-0.2131097912788391
-0.626934826374054,1.7208553552627563,-0.2121870517730713
-0.6120519042015076,1.7176591157913208,-0.21378935873508453
-0.5883060097694397,1.6886999607086182,-0.21213582158088684
-0.5688920617103577,1.6704705953598022,-0.21175500750541687
-0.5471535921096802,1.644748330116272,-0.21040228009223938
-0.542661190032959,1.6704260110855103,-0.21549184620380402
-0.5201922655105591,1.640708088874817,-0.2133866250514984
-0.5085947513580322,1.6440589427947998,-0.2155413180589676
-0.4858805537223816,1.6101961135864258,-0.2127743363380432
-0.4723609685897827,1.6058679819107056,-0.21382111310958862
-0.456491619348526,1.5940756797790527,-0.21378585696220398
-0.4451984465122223,1.5970101356506348,-0.21569249033927917
-0.4299539029598236,1.5848798751831055,-0.21554453670978546
-0.41192495822906494,1.5613878965377808,-0.21382476389408112
-0.4037609100341797,1.5752835273742676,-0.2170473337173462
-0.38586002588272095,1.5516173839569092,-0.215108722448349
-0.37316012382507324,1.546531081199646,-0.21569210290908813
-0.36236175894737244,1.5488706827163696,-0.21730965375900269
-0.34635210037231445,1.5285155773162842,-0.2156464159488678
-0.3322528898715973,1.5155997276306152,-0.21492797136306763
-0.31980130076408386,1.5101641416549683,-0.2152806967496872
-0.3092922270298004,1.5121536254882812,-0.21666580438613892
-0.29052162170410156,1.4723299741744995,-0.21203944087028503
-0.2816299498081207,1.4817616939544678,-0.21430963277816772
-0.2712409496307373,1.4835282564163208,-0.21548540890216827
-0.25800153613090515,1.470014214515686,-0.21445739269256592
-0.2502998113632202,1.4868600368499756,-0.21785123646259308
-0.23864512145519257,1.4807857275009155,-0.21781036257743835
-0.22589226067066193,1.466999888420105,-0.21652798354625702
0.2383841574192047,1.4652661085128784,-0.2148682177066803
0.25112244486808777,1.4789924621582031,-0.2159583866596222
0.27447402477264404,1.4909045696258545,-0.2158566266298294
0.28342118859291077,1.4815236330032349,-0.21359297633171082
0.2984030246734619,1.5024371147155762,-0.21554706990718842
0.31113913655281067,1.5118974447250366,-0.21580851078033447
0.32326236367225647,1.517460823059082,-0.21550536155700684
0.3355260491371155,1.5229194164276123,-0.21518191695213318
0.3513016104698181,1.5433826446533203,-0.2169392704963684
0.36040830612182617,1.5335570573806763,-0.21427007019519806
0.37649470567703247,1.5538170337677002,-0.2158256620168686
0.3892137110233307,1.5588862895965576,-0.21524684131145477
0.4039619266986847,1.571351408958435,-0.2156798392534256
0.41484975814819336,1.5687514543533325,-0.2139321267604828
0.4289359152317047,1.5772539377212524,-0.21361249685287476
0.45031026005744934,1.6117918491363525,-0.21680399775505066
0.4658377468585968,1.6237545013427734,-0.2169128656387329
0.4618368446826935,1.5686798095703125,-0.2080787569284439
0.47264647483825684,1.5657190084457397,-0.20609544217586517
0.4882247745990753,1.57743501663208,-0.20600856840610504
0.5062853693962097,1.5964161157608032,-0.20684973895549774
0.533018946647644,1.6410398483276367,-0.21095170080661774
0.5565935373306274,1.6743987798690796,-0.21340817213058472
0.5706133246421814,1.6781620979309082,-0.21202600002288818
0.5873858332633972,1.6890980005264282,-0.21151523292064667
0.6085206270217896,1.7107561826705933,-0.21226663887500763
0.6283511519432068,1.728672742843628,-0.21248242259025574
0.6483473777770996,1.7464497089385986,-0.21256612241268158
0.6686689257621765,1.764017939567566,-0.21257290244102478
0.6936386823654175,1.7921918630599976,-0.21377195417881012
0.71205735206604,1.8019986152648926,-0.21267113089561462
0.7389193177223206,1.8334283828735352,-0.21401090919971466
0.7573989033699036,1.8430211544036865,-0.21274402737617493
0.7838334441184998,1.8702507019042969,-0.21340887248516083
0.8060846924781799,1.8864959478378296,-0.2127598077058792
0.831613302230835,1.9097062349319458,-0.21267515420913696
0.8588312268257141,1.9363124370574951,-0.21294334530830383
0.8883968591690063,1.9660367965698242,-0.21339952945709229
0.9265603423118591,2.0131008625030518,-0.21561864018440247
0.9534624218940735,2.0352911949157715,-0.21497808396816254
0.9893098473548889,2.0746610164642334,-0.21599175035953522
1.0208380222320557,2.1030569076538086,-0.2157096415758133
1.0614395141601562,2.1485512256622314,-0.21705375611782074
1.0830035209655762,2.1556074619293213,-0.2143336683511734
1.134819507598877,2.221374034881592,-0.21731913089752197
1.1772925853729248,2.2655928134918213,-0.21789324283599854
1.2187811136245728,2.3058154582977295,-0.21784982085227966
1.2453263998031616,2.3185746669769287,-0.21511545777320862
1.261094093322754,2.3104732036590576,-0.21037191152572632
1.2905442714691162,2.3258233070373535,-0.20760014653205872
1.2969520092010498,2.300363063812256,-0.20116209983825684
1.3126473426818848,2.2918779850006104,-0.19614480435848236
1.3127880096435547,2.256237268447876,-0.18881426751613617
1.3325399160385132,2.254108428955078,-0.18427523970603943
1.393690586090088,2.3224267959594727,-0.18530137836933136
1.4599803686141968,2.396634101867676,-0.18643850088119507
1.503745675086975,2.429678440093994,-0.1838233768939972
1.6073256731033325,2.5584988594055176,-0.18814468383789062
1.6661412715911865,2.6140151023864746,-0.18664078414440155
1.6843934059143066,2.6027650833129883,-0.17991521954536438
1.7171586751937866,2.6144521236419678,-0.17470066249370575
1.7216134071350098,2.5838963985443115,-0.16655351221561432
1.4008208513259888,2.0714163780212402,-0.1283826380968094
1.4237009286880493,2.0750646591186523,-0.12337224185466766
1.4371449947357178,2.0661134719848633,-0.11758529394865036
1.4425832033157349,2.0435893535614014,-0.11064756661653519
1.4313396215438843,1.9992402791976929,-0.10255897790193558
1.4445127248764038,1.9900552034378052,-0.09631279110908508
1.4582864046096802,1.9802956581115723,-0.0896800309419632
2.7740559577941895,3.9175260066986084,0.3431633412837982
2.6384849548339844,3.783233404159546,0.3408336937427521
2.5446577072143555,3.7097864151000977,0.3432316780090332
2.6678967475891113,3.950012683868408,0.37427034974098206
2.664818286895752,4.007347583770752,0.3882009983062744
2.661268472671509,4.069311618804932,0.4025906026363373
2.636012315750122,4.094025135040283,0.4128216505050659
1.6274205446243286,2.5669634342193604,0.26356562972068787
1.6154791116714478,2.59224534034729,0.2708113491535187
1.5412333011627197,2.5140633583068848,0.2669031023979187
2.564591407775879,4.2493743896484375,0.4579089283943176
2.553112745285034,4.300645351409912,0.4700942635536194
2.9475865364074707,5.051143169403076,0.5597414374351501
2.9296352863311768,5.105373859405518,0.5731775164604187
2.9069089889526367,5.148569107055664,0.5851729512214661
2.880021333694458,5.189299583435059,0.5966647267341614
2.859337091445923,5.243978977203369,0.6097282767295837
2.8416664600372314,5.301097869873047,0.6228868961334229
2.814542293548584,5.340880393981934,0.6340638399124146
2.8006062507629395,5.408507347106934,0.6482892036437988
2.765390157699585,5.43866491317749,0.6579157710075378
2.7498831748962402,5.506360054016113,0.6720470786094666
2.7213714122772217,5.545494556427002,0.682578444480896
1.2286114692687988,2.5494141578674316,0.31645968556404114
1.1980258226394653,2.5334722995758057,0.3168824315071106
1.1726646423339844,2.5277750492095947,0.31856468319892883
1.1611539125442505,2.5497334003448486,0.32364150881767273
1.1543142795562744,2.5821988582611084,0.3300809860229492
2.5800058841705322,5.883453845977783,0.7571452260017395
2.5465781688690186,5.926634788513184,0.7675725817680359
2.514895439147949,5.97290563583374,0.7784048318862915
2.490731716156006,6.032510757446289,0.7908366322517395
2.4615421295166016,6.0812458992004395,0.8019345998764038
2.4323370456695557,6.133834362030029,0.8133485913276672
2.402148962020874,6.190614223480225,0.8251618146896362
1.7445638179779053,4.59467077255249,0.6155825853347778
1.6690359115600586,4.4899516105651855,0.6045222282409668
1.5911729335784912,4.373477458953857,0.5917399525642395
1.554972767829895,4.3694586753845215,0.5939858555793762
2.252751350402832,6.480785846710205,0.8847692608833313
2.2167816162109375,6.529207229614258,0.8951416611671448
2.1898391246795654,6.6028289794921875,0.9089823961257935
2.1591522693634033,6.665085315704346,0.9213024973869324
2.104280471801758,6.6533918380737305,0.9234632253646851
2.0372536182403564,6.6086859703063965,0.9204843044281006
1.9749468564987183,6.574329376220703,0.9188141822814941
1.9124163389205933,6.53563928604126,0.9165212512016296
1.861390233039856,6.5295538902282715,0.91872638463974
1.7971489429473877,6.474574565887451,0.91405189037323
1.7424196004867554,6.452796459197998,0.9138777852058411
1.68345308303833,6.419836521148682,0.9117117524147034
1.628775715827942,6.397411346435547,0.911013126373291
1.5721794366836548,6.363161563873291,0.9086211919784546
0.7891278862953186,3.292051076889038,0.47136756777763367
1.4718090295791626,6.33437442779541,0.9094858765602112
1.4160791635513306,6.2989726066589355,0.9066144824028015
1.3604085445404053,6.259311676025391,0.9027884006500244
1.3092832565307617,6.238125324249268,0.9016514420509338
1.257646083831787,6.208825588226318,0.899337887763977
1.195077896118164,6.118303298950195,0.888137698173523
1.1459347009658813,6.095768928527832,0.8868446946144104
1.0988283157348633,6.080470561981201,0.8862019181251526
1.0456775426864624,6.030627250671387,0.8803005814552307
1.008559226989746,6.071868896484375,0.8877325654029846
0.9604434967041016,6.044085502624512,0.8851017355918884
0.761671245098114,5.022240161895752,0.7366959452629089
0.7377238273620605,5.103653430938721,0.7499057054519653
0.7129225134849548,5.188874244689941,0.7634434700012207
0.6772512793540955,5.201225280761719,0.7660720348358154
0.6409690976142883,5.209494113922119,0.7681392431259155
0.6079448461532593,5.244358539581299,0.7741667032241821
0.5670165419578552,5.213731288909912,0.7705720663070679
0.5244319438934326,5.155818939208984,0.7629498243331909
0.3893134891986847,4.112720489501953,0.6091906428337097
0.36110934615135193,4.122941493988037,0.6110718250274658
0.3367669880390167,4.183044910430908,0.620383083820343
0.30524513125419617,4.162103652954102,0.6177148818969727
0.27501794695854187,4.144737243652344,0.6155922412872314
0.24825331568717957,4.181154251098633,0.621489405632019
0.40615415573120117,7.7518534660339355,1.1530470848083496
0.35092172026634216,7.731262683868408,1.1501418352127075
0.2938845455646515,7.679427623748779,1.1426467895507812
0.24009254574775696,7.677351951599121,1.1426068544387817
0.18621093034744263,7.655579566955566,1.1396877765655518
0.13242539763450623,7.625706195831299,1.1356157064437866
0.07910747826099396,7.591592788696289,1.1309630870819092
0.025198455899953842,7.545628070831299,1.1238622665405273
-0.027239324524998665,7.545661449432373,1.1235930919647217
-0.021540764719247818,2.039904832839966,0.30369436740875244
-0.03571639955043793,2.0397167205810547,0.3036216199398041
-0.04970147833228111,2.031704902648926,0.30239906907081604
-0.06309162080287933,2.008150339126587,0.2988779842853546
-0.07725965231657028,2.0076851844787598,0.2986767888069153
-0.09079162776470184,1.9994248151779175,0.29724958539009094
-0.10383082926273346,1.9833546876907349,0.2946775257587433
-0.11735964566469193,1.97877037525177,0.2938275933265686
-0.13110701739788055,1.9779483079910278,0.2935505211353302
-0.14452099800109863,1.9693061113357544,0.29212531447410583
-0.16035573184490204,1.9952694177627563,0.2957801818847656
-0.17948539555072784,2.0557847023010254,0.3044162094593048
-0.19474241137504578,2.066115140914917,0.30562350153923035
-0.465104877948761,4.594842910766602,0.67899090051651
-0.49637287855148315,4.580078125,0.6761400103569031
-0.5264171957969666,4.561325550079346,0.6727495789527893
-0.5571871399879456,4.550052165985107,0.6704627275466919
-0.5874728560447693,4.538680553436279,0.6677438020706177
-0.6165348291397095,4.5194525718688965,0.6639074087142944
-0.6459399461746216,4.4999589920043945,0.6600520610809326
-0.6760136485099792,4.487954139709473,0.6573396325111389
-0.7041927576065063,4.464283466339111,0.6529544591903687
-0.7352199554443359,4.459510803222656,0.6513687372207642
-0.7617908716201782,4.431798458099365,0.6460679173469543
-0.7907264232635498,4.419164657592773,0.6429463028907776
-0.815791130065918,4.383439540863037,0.6364851593971252
-0.8381037712097168,4.336202144622803,0.62840735912323
-0.7306411862373352,3.644190788269043,0.5271158218383789
-0.7575926780700684,3.646829605102539,0.5265137553215027
-0.9247486591339111,4.303650379180908,0.6198690533638
-0.9596181511878967,4.320143222808838,0.6206618547439575
-0.9890351295471191,4.313852787017822,0.6182305812835693
-1.0099940299987793,4.2696003913879395,0.6103759407997131
-1.0342297554016113,4.240253925323486,0.6046941876411438
-1.0674917697906494,4.248312950134277,0.6043809652328491
-1.1008390188217163,4.256186008453369,0.603691816329956
-1.1257580518722534,4.234050750732422,0.5987147688865662
-1.1503839492797852,4.2117815017700195,0.5937618613243103
-1.175392985343933,4.189199447631836,0.5887657999992371
