X,Y,Z
0.21804799139499664,1.8030377626419067,0.029005032032728195
0.2055058628320694,1.8045092821121216,0.0290721133351326
0.19376634061336517,1.8136626482009888,0.029264619573950768
1.000969648361206,10.034834861755371,0.16205070912837982
0.3929833769798279,4.24692964553833,0.06864175200462341
0.363849401473999,4.2573628425598145,0.0688716247677803
0.33182191848754883,4.228635787963867,0.06847038865089417
0.3046257793903351,4.2620062828063965,0.06907806545495987
0.2744327187538147,4.256228446960449,0.06903232634067535
0.24415166676044464,4.258071422576904,0.06908656656742096
0.217300146818161,4.3181867599487305,0.07008964568376541
0.18112221360206604,4.1791205406188965,0.06786240637302399
0.1503392606973648,4.1334404945373535,0.06715349853038788
0.1220780536532402,4.15000057220459,0.06745871156454086
0.09262360632419586,4.15076208114624,0.06745399534702301
0.06282519549131393,4.092728137969971,0.06649065762758255
0.01570572517812252,1.8746869564056396,0.03044845350086689
0.0028752386569976807,2.030980110168457,0.032980114221572876
-0.02157527208328247,3.890052318572998,0.06315866857767105
-0.049498144537210464,3.921046018600464,0.06364069133996964
-0.07550837099552155,3.8581290245056152,0.06257273256778717
-0.10140907764434814,3.8223719596862793,0.06194938346743584
-0.126946821808815,3.790346622467041,0.0613902322947979
-0.15197081863880157,3.758155345916748,0.06083210930228233
-0.17714546620845795,3.7375032901763916,0.060464125126600266
-0.19520799815654755,3.584064483642578,0.05791332945227623
-0.21639937162399292,3.5241544246673584,0.05686728656291962
-0.24183198809623718,3.5381617546081543,0.057017695158720016
-0.2713860273361206,3.6026086807250977,0.05798166245222092
-0.29351550340652466,3.565605401992798,0.05731496959924698
-0.3179977238178253,3.5556647777557373,0.05707940086722374
-0.34591370820999146,3.588376045227051,0.057496462017297745
-0.37148517370224,3.5936741828918457,0.0574757419526577
-0.3971462547779083,3.5987906455993652,0.057454392313957214
-0.4171147644519806,3.5532782077789307,0.056627918034791946
-0.44559967517852783,3.5773744583129883,0.05691223591566086
-0.4550163745880127,3.4580416679382324,0.054895494133234024
-0.47018328309059143,3.3929364681243896,0.053731780499219894
-0.48391491174697876,3.3239238262176514,0.052513573318719864
-0.5046012997627258,3.3050458431243896,0.05209178477525711
-0.5242853164672852,3.2782530784606934,0.05154673010110855
-0.545752227306366,3.2668309211730957,0.051244836300611496
-0.5607736110687256,3.2206881046295166,0.0503678098320961
-0.5758845210075378,3.178337574005127,0.04955627769231796
-0.5977277159690857,3.1743054389953613,0.049345940351486206
-0.6115372776985168,3.12791109085083,0.04847978055477142
-0.6406379342079163,3.1579604148864746,0.048798639327287674
-0.6952374577522278,3.310206413269043,0.05097658932209015
-0.7194696664810181,3.3130223751068115,0.050835464149713516
-0.7429482340812683,3.3118433952331543,0.05063452944159508
-0.7817324995994568,3.3751137256622314,0.05141488462686539
-0.8319262862205505,3.479667901992798,0.05281272158026695
-0.676498293876648,2.74570894241333,0.04151349142193794
-0.7037908434867859,2.7751240730285645,0.041778091341257095
-0.7177370190620422,2.751375436782837,0.041243039071559906
-0.7366493344306946,2.7463760375976562,0.04099031537771225
-0.7571105360984802,2.7448618412017822,0.040786225348711014
-0.7761579155921936,2.7395405769348145,0.04052812233567238
-0.7969098091125488,2.741716146469116,0.04036073759198189
-0.9315445423126221,3.1255300045013428,0.045784275978803635
-0.9551792740821838,3.1265621185302734,0.04557247832417488
-0.9818965196609497,3.134655475616455,0.04545685648918152
-1.058537244796753,3.298844575881958,0.047597263008356094
-1.0966088771820068,3.339876174926758,0.04790729656815529
-1.1240956783294678,3.3472161293029785,0.047729071229696274
-1.1633213758468628,3.3875253200531006,0.04801563918590546
-1.1868500709533691,3.379359245300293,0.04760676249861717
-1.2213175296783447,3.400282144546509,0.04760201647877693
-1.3061108589172363,3.5606508255004883,0.04951602220535278
-1.4013148546218872,3.7419793605804443,0.051689594984054565
-1.4323358535766602,3.7469534873962402,0.05140693858265877
-1.4199684858322144,3.6386842727661133,0.049574218690395355
-1.4397145509719849,3.6141109466552734,0.04888491332530975
-1.4638597965240479,3.604405164718628,0.04837633669376373
-1.4909560680389404,3.6017444133758545,0.04796326905488968
-1.5155636072158813,3.5914666652679443,0.047442082315683365
-1.5528501272201538,3.6095519065856934,0.04728841781616211
-1.5810327529907227,3.605835437774658,0.046829819679260254
-1.6050589084625244,3.59521222114563,0.04627598822116852
-1.646790623664856,3.623544692993164,0.046221110969781876
-2.5464136600494385,5.501349925994873,0.06951053440570831
-2.581252098083496,5.476466178894043,0.06853405386209488
-2.6030638217926025,5.427181243896484,0.06721887737512589
-2.5893607139587402,5.307991027832031,0.06506700068712234
-2.2921032905578613,4.61844539642334,0.05600886791944504
-2.563612937927246,5.076597213745117,0.060884855687618256
-2.0946173667907715,4.079345703125,0.04835895076394081
-2.0781357288360596,3.9823265075683594,0.04664419963955879
-2.0907325744628906,3.940396547317505,0.0455712266266346
-2.1329357624053955,3.9532644748687744,0.04512524604797363
-2.1333091259002686,3.890819787979126,0.04381675645709038
-2.162618398666382,3.8835582733154297,0.04313037171959877
-2.173252820968628,3.841764211654663,0.04205230250954628
-2.1906394958496094,3.8093724250793457,0.04105324298143387
-1.2291663885116577,2.1047704219818115,0.02232636697590351
-2.228797435760498,3.7599711418151855,0.039238929748535156
-2.246185064315796,3.7313930988311768,0.03827168047428131
-1.2715359926223755,2.0794625282287598,0.02094423398375511
-2.2759318351745605,3.6674492359161377,0.03622334077954292
-2.3080861568450928,3.6657841205596924,0.035494547337293625
-2.3334951400756836,3.6496713161468506,0.03457704558968544
-2.3832437992095947,3.6733920574188232,0.034032609313726425
-2.4067368507385254,3.6580512523651123,0.033121488988399506
-2.3908755779266357,3.5795321464538574,0.03158898651599884
-2.4521329402923584,3.618361234664917,0.031088797375559807
-2.439631223678589,3.551239013671875,0.02966936118900776
-2.439146041870117,3.499331474304199,0.028338393196463585
-2.4713590145111084,3.495816946029663,0.027387794107198715
-2.675607204437256,3.7340149879455566,0.02824733592569828
-2.6853482723236084,3.693270683288574,0.026847301051020622
-2.6414055824279785,3.5850627422332764,0.024990368634462357
-2.749077558517456,3.8496110439300537,-0.020136216655373573
-2.4502220153808594,3.4820988178253174,-0.019130215048789978
-2.445848226547241,3.5327820777893066,-0.020309438928961754
-2.6312947273254395,3.860332727432251,-0.023112429305911064
-2.540466547012329,3.785003662109375,-0.023516543209552765
-2.539562940597534,3.846601724624634,-0.024758225306868553
-2.475637912750244,3.809086799621582,-0.02531418763101101
-2.443873167037964,3.820267677307129,-0.026140693575143814
-2.427518367767334,3.8583929538726807,-0.027137432247400284
-2.422901153564453,3.911921739578247,-0.0282069630920887
-1.2726736068725586,2.0879695415496826,-0.015416429378092289
-2.354915142059326,3.9304585456848145,-0.029699569568037987
-1.2139921188354492,2.059382915496826,-0.015892906114459038
-1.2153445482254028,2.094789743423462,-0.016492348164319992
-2.3028838634490967,4.037777900695801,-0.03239689767360687
-2.277045488357544,4.0613579750061035,-0.0331883430480957
-2.2651872634887695,4.108168601989746,-0.03415669500827789
-2.232074022293091,4.117363929748535,-0.0347948893904686
-2.220057725906372,4.168158531188965,-0.035774365067481995
-2.1973202228546143,4.197827339172363,-0.03656700626015663
-2.1680428981781006,4.213016986846924,-0.03722081705927849
-2.1477203369140625,4.249683856964111,-0.03806270286440849
-2.1165666580200195,4.265280246734619,-0.038703322410583496
-2.091322422027588,4.290748596191406,-0.039422549307346344
-2.0681586265563965,4.3192853927612305,-0.04016437008976936
-2.0371429920196533,4.333994388580322,-0.0407591387629509
-2.0055384635925293,4.348703861236572,-0.0413442924618721
-1.9707379341125488,4.356006622314453,-0.04185864329338074
-1.602744460105896,3.6091983318328857,-0.035035114735364914
-1.569348931312561,3.602546453475952,-0.035310547798871994
-1.5370912551879883,3.599439859390259,-0.03560633212327957
-1.5021411180496216,3.5887675285339355,-0.03582342341542244
-1.4766820669174194,3.599313735961914,-0.03624765947461128
-1.448570728302002,3.6022961139678955,-0.03658929839730263
-1.4397010803222656,3.656269073486328,-0.03743119165301323
-1.4343711137771606,3.721221923828125,-0.0383949913084507
-1.4564348459243774,3.8591206073760986,-0.04012042656540871
-1.4237174987792969,3.854654312133789,-0.04037803038954735
-1.3990600109100342,3.871975898742676,-0.04083811119198799
-1.3712735176086426,3.88189959526062,-0.04120460897684097
-1.349854588508606,3.910062551498413,-0.04176745191216469
-1.316335916519165,3.9008634090423584,-0.04192651808261871
-1.557692289352417,4.72622013092041,-0.05111510679125786
-1.425887107849121,4.432289123535156,-0.04820019006729126
-0.9695601463317871,3.089543342590332,-0.03377977013587952
-0.9659109115600586,3.1561005115509033,-0.0346921868622303
-0.9182408452033997,3.0766537189483643,-0.033996373414993286
-0.799690306186676,2.749171257019043,-0.03053715080022812
-0.7754706740379333,2.7398643493652344,-0.03056412748992443
-0.7486768364906311,2.7189552783966064,-0.030458923429250717
-0.7355205416679382,2.7468106746673584,-0.030900249257683754
-0.710515022277832,2.7291722297668457,-0.03082921914756298
-0.7039470076560974,2.7832789421081543,-0.03157079592347145
-1.0838662385940552,4.41953706741333,-0.05031620338559151
-1.0578713417053223,4.449921131134033,-0.0508473739027977
-1.0265204906463623,4.457254409790039,-0.051117002964019775
-0.6988183856010437,3.133763074874878,-0.03606916218996048
-0.6827878355979919,3.165268898010254,-0.03656477481126785
-0.6552602648735046,3.1471455097198486,-0.036454420536756516
-0.6306928992271423,3.1402080059051514,-0.03647143021225929
-0.6182166337966919,3.1944217681884766,-0.03720131888985634
-0.5880744457244873,3.1564109325408936,-0.03685818985104561
-0.5681622624397278,3.171959400177002,-0.037141185253858566
-0.5606204271316528,3.2644898891448975,-0.03830936178565025
-0.5388317704200745,3.2760725021362305,-0.03852453455328941
-0.52054762840271,3.310661554336548,-0.03901311010122299
-0.5021727085113525,3.3450982570648193,-0.039502039551734924
-0.485003262758255,3.391037940979004,-0.040130555629730225
-0.4598623812198639,3.3866536617279053,-0.04014980047941208
-0.43805715441703796,3.4052956104278564,-0.040427953004837036
-0.420724093914032,3.462571620941162,-0.041167981922626495
-0.397887259721756,3.4770634174346924,-0.04140208661556244
-0.37618499994277954,3.503048896789551,-0.04177551716566086
-0.35488006472587585,3.5366764068603516,-0.04223523288965225
-0.33032485842704773,3.5468990802764893,-0.04238840565085411
-0.3091247081756592,3.591935396194458,-0.04295961558818817
-0.28522351384162903,3.609584331512451,-0.04320583865046501
-0.2570182681083679,3.5686259269714355,-0.042752161622047424
-0.22816254198551178,3.5079612731933594,-0.04206330329179764
-0.20547640323638916,3.5484886169433594,-0.04256138578057289
-0.19022567570209503,3.7370805740356445,-0.044832319021224976
-0.16666129231452942,3.7968523502349854,-0.04556066915392876
-0.14140714704990387,3.8291454315185547,-0.045961715281009674
-0.11536089330911636,3.8495569229125977,-0.046222563832998276
-0.08955956995487213,3.9127554893493652,-0.046983711421489716
-0.06298201531171799,3.956244945526123,-0.04748927429318428
-0.03590771555900574,4.0112690925598145,-0.04813521355390549
-0.008030408062040806,4.027045726776123,-0.048312295228242874
0.020200509577989578,4.077781677246094,-0.0489109568297863
0.04944857954978943,4.1087822914123535,-0.04927455261349678
0.0793784037232399,4.182539939880371,-0.050116539001464844
0.10845091938972473,4.181888103485107,-0.05006851628422737
0.13619497418403625,4.141996383666992,-0.0495535209774971
0.07945992052555084,1.9943690299987793,-0.023843109607696533
0.2581802010536194,5.5170063972473145,-0.06591350585222244
0.22983941435813904,4.266948699951172,-0.050920650362968445
0.2598572075366974,4.273053169250488,-0.05091879516839981
0.2867615818977356,4.232184886932373,-0.05036025494337082
0.31614285707473755,4.2300920486450195,-0.05026591196656227
0.3449125289916992,4.220006942749023,-0.05007905140519142
0.3795342743396759,4.271937370300293,-0.05062290281057358
0.5088604688644409,5.311246871948242,-0.06281129270792007
0.188497856259346,1.8339613676071167,-0.02164553292095661
0.1981915682554245,1.8054360151290894,-0.021267371252179146
0.21164534986019135,1.8117743730545044,-0.021301135420799255
0.22253446280956268,1.7947273254394531,-0.02106047049164772
0.23390182852745056,1.7854036092758179,-0.020899683237075806
0.24619035422801971,1.7837514877319336,-0.02082572504878044
0.2562245726585388,1.7665526866912842,-0.02057170495390892
0.2696395814418793,1.7724580764770508,-0.020587600767612457
0.2833962142467499,1.7782225608825684,-0.02060135453939438
0.29310429096221924,1.7608120441436768,-0.020341962575912476
0.3051809072494507,1.7587600946426392,-0.02025126852095127
0.3172270655632019,1.756628394126892,-0.020160691812634468
0.33225375413894653,1.7697488069534302,-0.020244931802153587
0.3460475206375122,1.7750641107559204,-0.02023964747786522
0.3748360276222229,1.8529751300811768,-0.02105722576379776
0.9927935600280762,4.740611553192139,-0.05366647616028786
1.0252169370651245,4.733708381652832,-0.0533846840262413
1.054350733757019,4.71129846572876,-0.05293011665344238
1.0818040370941162,4.681023597717285,-0.0523892343044281
1.1130582094192505,4.6656622886657715,-0.052015796303749084
1.1411876678466797,4.642777919769287,-0.05152397230267525
1.1747429370880127,4.642463684082031,-0.051280681043863297
1.1995724439620972,4.607865810394287,-0.05066143348813057
1.2315821647644043,4.599416732788086,-0.05032949522137642
1.2599527835845947,4.575526237487793,-0.04982759803533554
1.286939024925232,4.551778793334961,-0.04931112006306648
1.3200303316116333,4.550431251525879,-0.049032896757125854
1.3487471342086792,4.533856391906738,-0.048592519015073776
1.3848021030426025,4.539315700531006,-0.048384517431259155
1.4075546264648438,4.499585151672363,-0.04769348353147507
1.435780644416809,4.482460021972656,-0.04723731428384781
1.4661132097244263,4.472634315490723,-0.04685576260089874
1.4890024662017822,4.4403581619262695,-0.04624186083674431
1.5135319232940674,4.411418914794922,-0.04566061124205589
1.2687249183654785,3.615718126296997,-0.037195995450019836
1.2910104990005493,3.5995261669158936,-0.03677629679441452
1.3072021007537842,3.568732261657715,-0.03621160611510277
1.62295401096344,4.339016437530518,-0.04372112452983856
1.6474965810775757,4.313039779663086,-0.04314899444580078
1.6801940202713013,4.308798313140869,-0.04279486462473869
1.7096428871154785,4.297203063964844,-0.04233855754137039
1.7267231941223145,4.256669521331787,-0.041607633233070374
1.7588675022125244,4.25194787979126,-0.041223347187042236
1.782321810722351,4.225221633911133,-0.04062359780073166
1.8095715045928955,4.209376811981201,-0.040123533457517624
1.8350740671157837,4.189798831939697,-0.03957374393939972
1.863100528717041,4.1774163246154785,-0.03910043090581894
1.8953197002410889,4.171483516693115,-0.038675326853990555
1.9078422784805298,4.122774600982666,-0.037857621908187866
1.9285905361175537,4.095850944519043,-0.03722178190946579
1.9630426168441772,4.09678840637207,-0.0368339829146862
1.9911054372787476,4.083227157592773,-0.03631105646491051
2.012484550476074,4.055302143096924,-0.035658396780490875
2.0396342277526855,4.041719913482666,-0.035122960805892944
2.0627870559692383,4.02117919921875,-0.034525178372859955
2.086423873901367,4.000161170959473,-0.03391576185822487
2.114691972732544,3.985294818878174,-0.03334241732954979
2.1376850605010986,3.964139461517334,-0.032724529504776
2.158120632171631,3.939699411392212,-0.032081764191389084
2.1847987174987793,3.9249725341796875,-0.031507447361946106
2.213968515396118,3.913086414337158,-0.030945545062422752
2.2384021282196045,3.8946611881256104,-0.030316218733787537
2.255959987640381,3.8664426803588867,-0.029619967564940453
2.286381959915161,3.8576204776763916,-0.029051830992102623
2.304853916168213,3.828390121459961,-0.028325168415904045
2.3336989879608154,3.820037841796875,-0.027748538181185722
2.3551135063171387,3.7976882457733154,-0.027054423466324806
2.3772940635681152,3.774618148803711,-0.02633807435631752
2.410628318786621,3.7719781398773193,-0.025756772607564926
2.4306423664093018,3.749810218811035,-0.025038352236151695
2.452129602432251,3.7264509201049805,-0.02427586354315281
2.486081123352051,3.7226946353912354,-0.02362980507314205
2.492223024368286,3.6809117794036865,-0.022760940715670586
2.5262348651885986,3.676630735397339,-0.02208106219768524
2.5461266040802,3.653369665145874,-0.021276701241731644
2.5646424293518066,3.6308391094207764,-0.020479939877986908
2.590202569961548,3.612653970718384,-0.01963134855031967
2.6130943298339844,3.596135139465332,-0.01881398633122444
2.177773952484131,2.956306219100952,-0.014834724366664886
2.5810585021972656,3.638399362564087,0.012229743413627148
2.5485010147094727,3.651752471923828,0.012911279685795307
2.5175981521606445,3.6636483669281006,0.013543440960347652
2.499281406402588,3.6950442790985107,0.014234577305614948
2.4839284420013428,3.733563184738159,0.014944602735340595
2.457807779312134,3.750807523727417,0.01552430447191
2.4217886924743652,3.7555840015411377,0.01604277826845646
2.4059090614318848,3.7935564517974854,0.016698652878403664
2.3790230751037598,3.8104727268218994,0.017233995720744133
2.3431851863861084,3.814286470413208,0.017694570124149323
2.3226447105407715,3.845092296600342,0.01827518455684185
2.2954680919647217,3.8613758087158203,0.018764007836580276
2.264190912246704,3.8707478046417236,0.019211046397686005
2.238712787628174,3.894550323486328,0.019726019352674484
2.210418939590454,3.9106767177581787,0.02018708549439907
2.1718037128448486,3.905454635620117,0.020521309226751328
2.139742136001587,3.9142088890075684,0.02090889774262905
2.1256144046783447,3.957404375076294,0.021473323926329613
2.089738130569458,3.9588043689727783,0.021805886179208755
2.0711464881896973,3.9905781745910645,0.02229573391377926
2.0366976261138916,3.9951186180114746,0.022622672840952873
2.0073814392089844,4.0099263191223145,0.023006130009889603
1.9842580556869507,4.034480094909668,0.02343599498271942
1.962441086769104,4.06249475479126,0.023890364915132523
1.9295436143875122,4.069575786590576,0.024204514920711517
1.9030632972717285,4.090641975402832,0.02460109256207943
1.8773698806762695,4.111084938049316,0.024987168610095978
1.8487848043441772,4.124016761779785,0.025324776768684387
1.8224215507507324,4.14426851272583,0.02569265104830265
1.794897437095642,4.164769649505615,0.026059210300445557
1.7681241035461426,4.184686660766602,0.026416903361678123
1.747931957244873,4.218539714813232,0.026859302073717117
1.724106788635254,4.245200157165527,0.027253611013293266
1.6948322057724,4.261174201965332,0.027563128620386124
1.6747764348983765,4.302645683288574,0.028044402599334717
1.6501961946487427,4.328855991363525,0.028419367969036102
1.6404987573623657,4.395134925842285,0.029061084613204002
1.3117475509643555,3.5921294689178467,0.02390550822019577
1.2937618494033813,3.6235411167144775,0.024262534454464912
1.2596431970596313,3.6107280254364014,0.02432643249630928
1.558571457862854,4.5695390701293945,0.030967915430665016
1.534163475036621,4.602500915527344,0.031374964863061905
1.5072535276412964,4.631925582885742,0.03173711150884628
1.4834985733032227,4.672383785247803,0.032175518572330475
1.4450926780700684,4.668049335479736,0.03230900317430496
1.4148584604263306,4.685461521148682,0.03258825093507767
1.3932304382324219,4.732669830322266,0.03307786583900452
1.355099081993103,4.727475166320801,0.03317530080676079
1.3307992219924927,4.770879745483398,0.033615842461586
1.2970002889633179,4.780177116394043,0.033817701041698456
1.2690706253051758,4.811908721923828,0.03418079391121864
1.2355843782424927,4.820614814758301,0.03438003361225128
1.2088279724121094,4.859600067138672,0.03477529063820839
1.177891731262207,4.88326358795166,0.0350630097091198
1.1468586921691895,4.906691074371338,0.03535092622041702
1.114735722541809,4.926102638244629,0.03561218082904816
1.0854425430297852,4.956633567810059,0.03595452383160591
1.0504542589187622,4.964165210723877,0.036101292818784714
0.38141822814941406,1.8676519393920898,0.013614767231047153
0.35081973671913147,1.7821581363677979,0.01302314456552267
0.3352876603603363,1.7692447900772095,0.012960677966475487
0.3201841711997986,1.7561601400375366,0.01289645116776228
0.3092077076435089,1.7660573720932007,0.012996724806725979
0.29802456498146057,1.7759007215499878,0.013093404471874237
0.2842573821544647,1.7702440023422241,0.013076423667371273
0.27520325779914856,1.7953879833221436,0.01328807882964611
0.26157712936401367,1.7895286083221436,0.013270558789372444
0.2501538395881653,1.7990487813949585,0.013364811427891254
0.23748841881752014,1.8007640838623047,0.013389147818088531
0.22481127083301544,1.8023905754089355,0.013413483276963234
0.21215733885765076,1.8039236068725586,0.013437752611935139
0.2002473920583725,1.8131442070007324,0.013520121574401855
0.1884431391954422,1.8222631216049194,0.013602269813418388
0.9578723907470703,9.941967964172363,0.07425936311483383
0.38069164752960205,4.264171600341797,0.03186788037419319
0.34823381900787354,4.23559045791626,0.031673286110162735
0.3176271617412567,4.230161190032959,0.031653422862291336
0.2898060083389282,4.255649566650391,0.03186614811420441
0.2620388865470886,4.28875732421875,0.03212891146540642
0.2295387089252472,4.243677616119385,0.03178517147898674
0.199110209941864,4.229572772979736,0.031675055623054504
0.16703923046588898,4.180140018463135,0.03130194917321205
0.13602076470851898,4.122641086578369,0.03087007813155651
0.10713192075490952,4.115677833557129,0.030818132683634758
0.07785893231630325,4.085081100463867,0.030573232099413872
0.04891079291701317,4.04646635055542,0.030264809727668762
0.01998160220682621,4.003744125366211,0.029927218332886696
-0.007733807899057865,3.945194721221924,0.029473572969436646
-0.034947577863931656,3.921609878540039,0.029282890260219574
-0.06182502955198288,3.897838830947876,0.029087312519550323
-0.0875428318977356,3.8387391567230225,0.028613053262233734
-0.11453414708375931,3.849752187728882,0.028663186356425285
-0.14173580706119537,3.8488473892211914,0.02862532250583172
-0.1695099025964737,3.8711838722229004,0.02876204624772072
-0.19423535466194153,3.827000141143799,0.028406057506799698
-0.2029755562543869,3.5174896717071533,0.02607111446559429
-0.22882720828056335,3.5393893718719482,0.02619071677327156
-0.25543665885925293,3.561066150665283,0.026308627799153328
-0.28719452023506165,3.6487722396850586,0.026914969086647034
-0.3071744441986084,3.584421396255493,0.02640063315629959
-0.3295243978500366,3.5549769401550293,0.026141276583075523
-0.35400211811065674,3.5526235103607178,0.0260599534958601
-0.3706122040748596,3.4723732471466064,0.02540873922407627
-0.3932620882987976,3.458087921142578,0.025243978947401047
-0.41261816024780273,3.416489839553833,0.02488151378929615
-0.4363679885864258,3.4135384559631348,0.024802368134260178
-0.45366668701171875,3.3639907836914062,0.0243766400963068
-0.46785005927085876,3.2949910163879395,0.023807181045413017
-0.4951184093952179,3.3226020336151123,0.023938778787851334
-0.5121022462844849,3.280498504638672,0.023568926379084587
-0.5317342877388,3.257586717605591,0.023339079692959785
-0.5451017022132874,3.1999166011810303,0.022858964279294014
-0.5608994960784912,3.1614878177642822,0.022505419328808784
-0.5829272270202637,3.157501220703125,0.022397717460989952
-0.6068398356437683,3.164926052093506,0.022372810170054436
-0.6189227104187012,3.1108272075653076,0.02191416174173355
-0.7825291752815247,3.7950706481933594,0.02664235420525074
-0.8028524518013,3.7628705501556396,0.02631322480738163
-0.8315246105194092,3.7686405181884766,0.02624710090458393
-0.8511901497840881,3.7362101078033447,0.025918398052453995
-0.8735403418540955,3.7150001525878906,0.025668272748589516
-0.8883067965507507,3.663282871246338,0.025210143998265266
-0.6938379406929016,2.7778778076171875,0.019033635035157204
-0.706254780292511,2.7465240955352783,0.018729034811258316
-0.7269414067268372,2.749204158782959,0.018659532070159912
-0.7356972694396973,2.706416130065918,0.018281899392604828
-0.7608052492141724,2.7238080501556396,0.018311703577637672
-0.7914170026779175,2.759800434112549,0.018461065366864204
-0.8280882835388184,2.814229965209961,0.018721163272857666
-0.9486977458000183,3.1451215744018555,0.02080855891108513
-0.9634320139884949,3.116117477416992,0.020502667874097824
-1.8580323457717896,5.864944934844971,0.03837347403168678
-1.89601469039917,5.844565391540527,0.038020066916942596
-1.9300270080566406,5.812848091125488,0.03757317736744881
-1.8649959564208984,5.492686748504639,0.0352812334895134
-1.230025291442871,3.5424604415893555,0.02260870300233364
-1.2546393871307373,3.5338194370269775,0.022406864911317825
-1.2736228704452515,3.510406255722046,0.02211044169962406
-1.4274842739105225,3.8533971309661865,0.024102577939629555
-1.460802674293518,3.8617804050445557,0.02398340031504631
-1.4395196437835693,3.727736473083496,0.022984908893704414
-1.4381554126739502,3.648604393005371,0.022333335131406784
-1.4513434171676636,3.6097209453582764,0.021927034482359886
-1.4725505113601685,3.592681407928467,0.0216495580971241
-1.5030282735824585,3.5969793796539307,0.021498406305909157
-1.5310571193695068,3.5936334133148193,0.021298008039593697
-1.5653643608093262,3.6043903827667236,0.02118057571351528
-1.5974173545837402,3.6116676330566406,0.021028881892561913
-1.6070746183395386,3.568861484527588,0.02058502659201622
-1.910157322883606,4.164822101593018,0.023787297308444977
-1.9440051317214966,4.162070274353027,0.023534875363111496
-1.9673372507095337,4.13812255859375,0.023164864629507065
-1.9879662990570068,4.110904693603516,0.022780757397413254
-2.0084104537963867,4.08355188369751,0.022397732362151146
-2.026736259460449,4.048295497894287,0.02196028269827366
-2.0511012077331543,4.027242183685303,0.021605724468827248
-2.066887140274048,3.9927918910980225,0.021172456443309784
-2.091373920440674,3.975609302520752,0.020833447575569153
-2.111457109451294,3.947270154953003,0.020426064729690552
-2.131382703781128,3.918771266937256,0.020018821582198143
-2.153773784637451,3.8975882530212402,0.019632071256637573
-2.164050579071045,3.8560988903045654,0.019151225686073303
-2.198395252227783,3.8546218872070312,0.018856795504689217
-1.2025189399719238,2.0751748085021973,0.009995488449931145
-1.2021520137786865,2.0437276363372803,0.009688170626759529
-2.2834150791168213,3.8230905532836914,0.01782183349132538
-1.2602956295013428,2.077244758605957,0.009513015858829021
-1.2659820318222046,2.0554566383361816,0.009244997054338455
-2.411498546600342,3.859273672103882,0.017043311148881912
-2.4375417232513428,3.8428795337677,0.016640720888972282
-2.451720714569092,3.8060011863708496,0.016136299818754196
-2.4717793464660645,3.7836785316467285,0.015695760026574135
-2.4815967082977295,3.7444887161254883,0.015178097411990166
-2.4312801361083984,3.6136937141418457,0.0142840426415205
-2.4499423503875732,3.591616153717041,0.013842065818607807
-2.4493801593780518,3.539872169494629,0.013274066150188446
-2.4468510150909424,3.4844982624053955,0.01268604677170515
-2.568284273147583,3.6091392040252686,0.01274531427770853
-2.7727928161621094,3.842233657836914,0.013119534589350224
-2.706038236618042,3.697596549987793,0.012174480594694614
-2.6568593978881836,3.5834248065948486,0.011362791061401367
-2.5100157260894775,3.540344715118408,-0.004951085429638624
-2.441608190536499,3.497725248336792,-0.005198164377361536
-2.4879186153411865,3.622448444366455,-0.0056882379576563835
-2.427126169204712,3.588247060775757,-0.00591373210772872
-2.495195150375366,3.7495505809783936,-0.00644577806815505
-2.4932730197906494,3.8069872856140137,-0.0068001835606992245
-2.470923662185669,3.8308308124542236,-0.007084585726261139
-2.450376033782959,3.862522602081299,-0.007385996636003256
-2.4092729091644287,3.8606936931610107,-0.007619510404765606
-1.2678823471069336,2.0634765625,-0.004190392792224884
-1.244463562965393,2.0594491958618164,-0.004290591925382614
-2.342761516571045,3.9423623085021973,-0.008415375836193562
-1.230581283569336,2.1040565967559814,-0.0045926207676529884
-2.2860679626464844,3.9755048751831055,-0.008869528770446777
-2.2545530796051025,3.9889745712280273,-0.0090866070240736
-2.2281322479248047,4.008261680603027,-0.009308800101280212
-2.1796088218688965,3.985948085784912,-0.009429942816495895
-2.1392080783843994,3.9811882972717285,-0.009572955779731274
-2.109367609024048,3.9970784187316895,-0.009767506271600723
-2.0886647701263428,4.025546073913574,-0.009983100928366184
-2.0602924823760986,4.040140628814697,-0.010163885541260242
-2.0376107692718506,4.069108486175537,-0.01037406362593174
-2.00439190864563,4.076869964599609,-0.010530426166951656
-1.9857286214828491,4.112034797668457,-0.01075412705540657
-1.9636555910110474,4.139921188354492,-0.01095446664839983
-1.9384841918945312,4.164696216583252,-0.011128277517855167
-1.917923927307129,4.1999831199646,-0.011331591755151749
-1.6041463613510132,3.5787878036499023,-0.009744836017489433
-1.590206503868103,3.614896059036255,-0.00993291661143303
-1.5496245622634888,3.594224452972412,-0.009966769255697727
-1.520470142364502,3.5981743335723877,-0.010066789574921131
-1.4890573024749756,3.5943801403045654,-0.01014272402971983
-1.4669880867004395,3.611876964569092,-0.01027771271765232
-1.441410779953003,3.622159957885742,-0.010387974791228771
-1.4318591356277466,3.6762967109680176,-0.010622451081871986
-1.4639145135879517,3.8397645950317383,-0.011175895109772682
-1.442536473274231,3.8645291328430176,-0.011327603831887245
-1.4101601839065552,3.8598294258117676,-0.011393497698009014
-1.3850102424621582,3.8772213459014893,-0.011513340286910534
-1.365549921989441,3.9130899906158447,-0.011689890176057816
-1.340328335762024,3.930055856704712,-0.011808754876255989
-1.9058805704116821,5.7180585861206055,-0.01727890782058239
-1.8634448051452637,5.723812103271484,-0.017389988526701927
-1.8568089008331299,5.844940662384033,-0.017838073894381523
-0.9672154188156128,3.1231775283813477,-0.009575435891747475
-0.9475458860397339,3.1373627185821533,-0.009661714546382427
-0.8241763710975647,2.799142599105835,-0.008658293634653091
-0.78729647397995,2.7447757720947266,-0.008525107987225056
-0.7582670450210571,2.716453790664673,-0.008467020466923714
-0.7388923764228821,2.721787691116333,-0.008513893000781536
-0.726455807685852,2.753422260284424,-0.00864376500248909
-0.7063121795654297,2.7546255588531494,-0.008678054437041283
-0.6870220303535461,2.7594995498657227,-0.008721654303371906
-0.8920124173164368,3.694606065750122,-0.011708485893905163
-0.8728668093681335,3.731276750564575,-0.011856837198138237
-0.8505547642707825,3.7564539909362793,-0.01196981966495514
-0.8277410864830017,3.7775440216064453,-0.012069870717823505
-0.8061615824699402,3.8061683177948,-0.012191835790872574
-0.6336826086044312,3.0999419689178467,-0.00994543544948101
-0.6207537055015564,3.150346517562866,-0.010123652406036854
-0.6018705368041992,3.173889636993408,-0.010216538794338703
-0.5783923268318176,3.1703109741210938,-0.010222218930721283
-0.5408315062522888,3.0857601165771484,-0.009966776706278324
-0.5455719828605652,3.2474427223205566,-0.010500489734113216
-0.5319640636444092,3.309058666229248,-0.01071185152977705
-0.505912721157074,3.297334671020508,-0.01068667508661747
-0.4886172115802765,3.3394250869750977,-0.010836178436875343
-0.469175785779953,3.369821786880493,-0.010948501527309418
-0.44759076833724976,3.388517379760742,-0.011012439616024494
-0.42858952283859253,3.43034291267395,-0.011146951466798782
-0.4017418920993805,3.409992218017578,-0.01107996515929699
-0.38571590185165405,3.486523151397705,-0.011328318156301975
-0.36466723680496216,3.5202059745788574,-0.011438004672527313
-0.34085652232170105,3.530440092086792,-0.011470003984868526
-0.3213486969470978,3.5911006927490234,-0.011661743745207787
-0.2955183684825897,3.585479497909546,-0.011638729833066463
-0.2706153392791748,3.5952796936035156,-0.011666293255984783
-0.24054796993732452,3.52302885055542,-0.011428337544202805
-0.215561643242836,3.5168187618255615,-0.01140524446964264
-0.19755904376506805,3.6391537189483643,-0.011792671866714954
-0.18101650476455688,3.827733278274536,-0.012393664568662643
-0.15410318970680237,3.8367300033569336,-0.01241310779005289
-0.13339923322200775,4.017295837402344,-0.012988027185201645
-0.10599002242088318,4.0376505851745605,-0.01304514892399311
-0.07930033653974533,4.108588218688965,-0.013262228108942509
-0.05093194171786308,4.128570556640625,-0.013309778645634651
-0.02165031246840954,4.124921798706055,-0.013281441293656826
0.0034160565119236708,2.0038928985595703,-0.006444559432566166
0.03591076284646988,4.152167320251465,-0.013338401913642883
0.06435441970825195,4.124476909637451,-0.013235119171440601
0.09246720373630524,4.100499153137207,-0.013127067126333714
0.12159061431884766,4.1231865882873535,-0.013167951256036758
0.15344305336475372,4.19639253616333,-0.013369463384151459
0.1855071634054184,4.26156759262085,-0.013545498251914978
0.21316568553447723,4.22116231918335,-0.013386390171945095
0.2442493438720703,4.250779628753662,-0.013447512872517109
0.2746826410293579,4.2645792961120605,-0.013455857522785664
0.3036193251609802,4.246952533721924,-0.01336507499217987
0.3331010937690735,4.244741439819336,-0.01332410890609026
0.3632320761680603,4.250110626220703,-0.013307515531778336
0.49487414956092834,5.352144241333008,-0.01671672984957695
0.5294873714447021,5.3252787590026855,-0.016577962785959244
0.19239231944084167,1.8061798810958862,-0.00560404546558857
0.20397306978702545,1.7970463037490845,-0.00555762555450201
0.2183263897895813,1.8110980987548828,-0.005582976154983044
0.22795715928077698,1.7862862348556519,-0.005488844588398933
0.2434224784374237,1.8078962564468384,-0.005537250079214573
0.2527810037136078,1.782942771911621,-0.005442668683826923
0.26505494117736816,1.7811596393585205,-0.005419604945927858
0.2773827910423279,1.779281497001648,-0.005396416410803795
0.28847363591194153,1.7696020603179932,-0.005349854007363319
0.2981228232383728,1.7521545886993408,-0.00527980038896203
0.3128601312637329,1.7654539346694946,-0.005300203803926706
0.32657375931739807,1.7709134817123413,-0.005296750925481319
0.3402312994003296,1.77629554271698,-0.005293385125696659
0.3609467148780823,1.8160320520401,-0.005391922313719988
1.0268999338150024,4.985154628753662,-0.014747262932360172
1.0578364133834839,4.96270751953125,-0.01461026817560196
1.0847517251968384,4.920899868011475,-0.01441310066729784
1.1149412393569946,4.898124694824219,-0.014274261891841888
1.1435693502426147,4.867447853088379,-0.014112589880824089
1.1681898832321167,4.821414470672607,-0.01390787959098816
1.1927409172058105,4.779173851013184,-0.013714547269046307
1.2093112468719482,4.706475257873535,-0.013433670625090599
1.231381893157959,4.66035795211792,-0.013232056982815266
1.2513651847839355,4.606475830078125,-0.013009095564484596
1.2812445163726807,4.590144634246826,-0.012893429026007652
1.305290699005127,4.554927349090576,-0.012724300846457481
1.3257027864456177,4.508327007293701,-0.01252192072570324
1.3585598468780518,4.50669527053833,-0.012446691282093525
1.3850444555282593,4.482275485992432,-0.01230805553495884
1.4079127311706543,4.446471691131592,-0.01213895808905363
1.4384920597076416,4.436674118041992,-0.012038271874189377
1.46407151222229,4.411839008331299,-0.011891096830368042
1.493917465209961,4.401822566986084,-0.011785954236984253
1.254015326499939,3.612755298614502,-0.0096079520881176
1.2817065715789795,3.6113157272338867,-0.009538635611534119
1.303731918334961,3.595113754272461,-0.009432182647287846
1.5829179286956787,4.274929523468018,-0.011141953058540821
1.6204850673675537,4.285897254943848,-0.011095339432358742
1.650187611579895,4.2745490074157715,-0.010990199632942677
1.677016258239746,4.255699157714844,-0.010866252705454826
1.710213303565979,4.255100250244141,-0.010779187083244324
1.7313427925109863,4.225447177886963,-0.01061518955975771
1.7633888721466064,4.220643043518066,-0.010512137785553932
1.7865650653839111,4.193906784057617,-0.010354181751608849
1.8155272006988525,4.181451320648193,-0.010233080014586449
1.8465425968170166,4.1763916015625,-0.010136308148503304
1.8711893558502197,4.156841278076172,-0.010004723444581032
1.896944522857666,4.136558532714844,-0.009868217632174492
1.925688624382019,4.123255729675293,-0.009749375283718109
1.9468047618865967,4.096035003662109,-0.009594662114977837
1.980820894241333,4.097055912017822,-0.009504610672593117
1.9980833530426025,4.062562942504883,-0.009331450797617435
2.0302467346191406,4.055324077606201,-0.009217241778969765
2.054267406463623,4.034444808959961,-0.009072763845324516
2.0772788524627686,4.013850212097168,-0.008927558548748493
2.1076302528381348,4.006826400756836,-0.008811998181045055
2.1280570030212402,3.978304147720337,-0.008645504713058472
2.1514461040496826,3.9568140506744385,-0.008496115915477276
2.1740612983703613,3.9355106353759766,-0.008348039351403713
2.198272228240967,3.917560577392578,-0.008208213374018669
2.2215499877929688,3.895416498184204,-0.008055752143263817
2.2517287731170654,3.8870813846588135,-0.007934486493468285
2.2730722427368164,3.865579128265381,-0.007789531257003546
2.291449546813965,3.8365256786346436,-0.007625304162502289
2.326166868209839,3.8338637351989746,-0.007512181531637907
2.351248264312744,3.818533182144165,-0.007378187496215105
2.375944137573242,3.8032164573669434,-0.007245246320962906
2.3938369750976562,3.773489236831665,-0.00707852840423584
2.419604539871216,3.757019281387329,-0.006936744321137667
2.4436652660369873,3.7414143085479736,-0.006801160518079996
2.464646816253662,3.718256950378418,-0.006646349560469389
2.4854979515075684,3.6949398517608643,-0.006490305531769991
2.4913244247436523,3.6532506942749023,-0.006306689698249102
2.525176525115967,3.648952007293701,-0.006179670337587595
2.5541017055511475,3.6383144855499268,-0.006042026448994875
2.572355031967163,3.6158485412597656,-0.005889093037694693
2.597087860107422,3.598125696182251,-0.005733596161007881
2.6339704990386963,3.6002957820892334,-0.005610767286270857
2.1801517009735107,2.9400103092193604,-0.004474571906030178
2.5837650299072266,3.617313861846924,-0.0016338268760591745
2.5539984703063965,3.6288418769836426,-0.001563762896694243
2.5394787788391113,3.6675615310668945,-0.0015239100903272629
2.5039122104644775,3.6730401515960693,-0.0014754532603546977
2.4906294345855713,3.7103219032287598,-0.001441036001779139
2.4666197299957275,3.735692024230957,-0.0013994970358908176
2.4354231357574463,3.7467904090881348,-0.0013554864563047886
2.408221960067749,3.764331340789795,-0.001311153289861977
2.38387131690979,3.789032220840454,-0.0012643138179555535
2.3489489555358887,3.7924132347106934,-0.0012143488274887204
2.3300111293792725,3.8223888874053955,-0.0011764408554881811
2.3008952140808105,3.8399858474731445,-0.0011393030872568488
2.281362295150757,3.8697714805603027,-0.0011082763085141778
2.250493288040161,3.8787753582000732,-0.0010723283048719168
2.227492094039917,3.905526638031006,-0.001032143016345799
2.2025508880615234,3.928605556488037,-0.000991196371614933
2.169034242630005,3.9338324069976807,-0.0009475659462623298
2.1465234756469727,3.959496021270752,-0.0009127786033786833
2.1246330738067627,3.988996982574463,-0.0008832042221911252
2.0886480808258057,3.990328550338745,-0.0008483121055178344
2.0715856552124023,4.025589942932129,-0.0008217899594455957
2.0386087894439697,4.033638000488281,-0.0007882692152634263
2.0125086307525635,4.055447101593018,-0.0007576317293569446
1.9869341850280762,4.076731204986572,-0.0007276740507222712
1.965271234512329,4.104548454284668,-0.0006996013689786196
1.9392666816711426,4.125533103942871,-0.0006694356561638415
1.912441372871399,4.146641254425049,-0.0006385328597389162
1.8789396286010742,4.153355598449707,-0.0006054119439795613
1.8594430685043335,4.187777519226074,-0.0005777326878160238
1.81732976436615,4.172160625457764,-0.000545408227480948
1.7992793321609497,4.213977336883545,-0.0005247541121207178
1.7656723260879517,4.219701290130615,-0.0004995279014110565
1.7431845664978027,4.250158309936523,-0.00047780919703654945
1.7092020511627197,4.251310348510742,-0.00045319643686525524
1.679990530014038,4.267136573791504,-0.0004327672650106251
1.6491625308990479,4.27914571762085,-0.0004121342208236456
1.6188088655471802,4.290720462799072,-0.0003918745496775955
1.3245469331741333,3.5875096321105957,-0.00030989013612270355
1.2992866039276123,3.5967350006103516,-0.00029226369224488735
1.270801305770874,3.598613739013672,-0.0002721176715567708
1.5138002634048462,4.386776447296143,-0.0003071431419812143
1.485581636428833,4.404658794403076,-0.0002844913105946034
1.4568144083023071,4.422482967376709,-0.0002614819968584925
1.4314818382263184,4.451268196105957,-0.00024033934460021555
1.4042514562606812,4.476312160491943,-0.00021941201703157276
1.3722046613693237,4.486239910125732,-0.00019770786457229406
1.3409838676452637,4.495670795440674,-0.00017660878074821085
1.3206032514572144,4.542393684387207,-0.00015680452634114772
1.292141318321228,4.566812515258789,-0.00013360328739508986
1.2647610902786255,4.59473180770874,-0.0001098874636227265
1.2360795736312866,4.618707656860352,-8.593291568104178e-05
1.2078218460083008,4.642324447631836,-6.233718886505812e-05
1.1907814741134644,4.711216926574707,-3.896173802786507e-05
1.1671139001846313,4.761388301849365,-1.2542494914669078e-05
1.1449687480926514,4.818972110748291,1.4818332601862494e-05
1.1281945705413818,4.9031267166137695,4.2976418626494706e-05
1.0957599878311157,4.918481349945068,7.040442869765684e-05
1.0689265727996826,4.960351943969727,9.844779560808092e-05
1.0318853855133057,4.96021032333374,0.0001310488732997328
0.3619643747806549,1.8038866519927979,6.0747628594981506e-05
0.34622037410736084,1.7910627126693726,7.327777711907402e-05
0.3279820382595062,1.7627151012420654,8.467786392429844e-05
0.31572386622428894,1.7649519443511963,9.726637654239312e-05
0.30184778571128845,1.7594517469406128,0.00010854766878765076
0.2894231379032135,1.7615382671356201,0.00011763290240196511
0.2781962752342224,1.7712548971176147,0.0001272726949537173
0.26463037729263306,1.7654329538345337,0.00013573106843978167
0.2567470371723175,1.7981692552566528,0.0001472287840442732
0.24191752076148987,1.7844576835632324,0.0001551513560116291
0.23135733604431152,1.8016119003295898,0.0001660443958826363
0.2196076661348343,1.810951828956604,0.00017636720440350473
0.20600028336048126,1.8046870231628418,0.00018515365081839263
0.1942920833826065,1.8138424158096313,0.00019542950030881912
0.5345104932785034,5.340505599975586,0.0006029179785400629
0.4943561553955078,5.320834159851074,0.0006273262551985681
0.3655450940132141,4.257774829864502,0.0005221801111474633
0.3332365155220032,4.229078769683838,0.0005387419951148331
0.3048648238182068,4.246884346008301,0.0005610703956335783
0.27684757113456726,4.272289752960205,0.0005845589912496507
0.24384871125221252,4.2273478507995605,0.0005980783025734127
0.21510696411132812,4.244553089141846,0.0006160440971143544
0.18545490503311157,4.2459516525268555,0.0006318030646070838
0.15450508892536163,4.212010860443115,0.0006422052974812686
0.12210928648710251,4.107560157775879,0.0006412891088984907
0.09364169836044312,4.1356587409973145,0.0006611055578105152
0.06408295035362244,4.085434913635254,0.0006701226811856031
0.016615891829133034,1.9061776399612427,0.0003211320727132261
0.007301729172468185,4.152337551116943,0.0007179909734986722
-0.02132689207792282,4.101507186889648,0.0007274601375684142
-0.05076898634433746,4.136406898498535,0.0007524065440520644
-0.07912757992744446,4.116426944732666,0.0007663773722015321
-0.10496732592582703,4.010345458984375,0.0007599806995131075
-0.130592480301857,3.943150520324707,0.0007603990961797535
-0.15376323461532593,3.836763858795166,0.0007527399575337768
-0.17784816026687622,3.780975818634033,0.0007545072585344315
-0.19575245678424835,3.6157987117767334,0.0007339814910665154
-0.2148420810699463,3.516881227493286,0.0007217981037683785
-0.23919765651226044,3.5153088569641113,0.0007273811497725546
-0.2685087323188782,3.5797879695892334,0.0007467783871106803
-0.295886367559433,3.6089847087860107,0.0007590248715132475
-0.3179612159729004,3.5678913593292236,0.000756637891754508
-0.3415805697441101,3.5539350509643555,0.000760583090595901
-0.3620963990688324,3.512636184692383,0.0007620268734171987
-0.38288038969039917,3.478994369506836,0.0007649488979950547
-0.40282905101776123,3.441347360610962,0.0007668600883334875
-0.4262271523475647,3.4306552410125732,0.0007749401847831905
-0.44293826818466187,3.3733882904052734,0.0007721545989625156
-0.46458300948143005,3.3586456775665283,0.0007744859321974218
-0.4831683337688446,3.3244471549987793,0.0007706300239078701
-0.5001596212387085,3.2824251651763916,0.0007649176404811442
-0.5208356976509094,3.2633862495422363,0.0007646303856745362
-0.5428612232208252,3.2558345794677734,0.0007669866899959743
-0.5486201643943787,3.155792474746704,0.0007474457961507142
-0.5820617079734802,3.2173030376434326,0.0007661441923119128
-0.59974205493927,3.190209150314331,0.0007638274691998959
-0.6120169758796692,3.136153221130371,0.0007550292648375034
-0.631064772605896,3.1164355278015137,0.0007545482949353755
-0.7922206521034241,3.7771894931793213,0.0009196712635457516
-0.822969913482666,3.794595241546631,0.0009224130189977586
-0.8454790711402893,3.773632764816284,0.0009157294989563525
-0.8651340007781982,3.7411153316497803,0.0009063001489266753
-0.8770624399185181,3.6741104125976562,0.0008885458810254931
-0.6804469227790833,2.765165090560913,0.000667629181407392
-0.6993826627731323,2.760436534881592,0.000668287044391036
-0.7132291197776794,2.7367124557495117,0.0006654433673247695
-0.7359071373939514,2.7468807697296143,0.0006708716391585767
-0.7490686178207397,2.71901798248291,0.0006671433802694082
-0.7721984386444092,2.7287819385528564,0.0006726206047460437
-0.8006850481033325,2.757187604904175,0.0006787617458030581
-0.9074268341064453,3.0474560260772705,0.0007458859472535551
-0.9565701484680176,3.1346380710601807,0.0007627836312167346
-0.9716432094573975,3.1054491996765137,0.0007511244621127844
-1.8648079633712769,5.817813396453857,0.0013987836427986622
-1.8839918375015259,5.741780757904053,0.0013717005494982004
-1.886748194694519,5.621510028839111,0.0013338983990252018
-1.3427503108978271,3.9127309322357178,0.0009221323416568339
-1.3659030199050903,3.892291784286499,0.0009109217789955437
-1.3854347467422485,3.860490560531616,0.0008970192284323275
-1.4170384407043457,3.8656482696533203,0.0008893224294297397
-1.4402282238006592,3.8487279415130615,0.0008749081753194332
-1.468860387802124,3.8462555408477783,0.0008638049475848675
-1.4331632852554321,3.6758038997650146,0.0008150796638801694
-1.4418284893035889,3.6220085620880127,0.0007926602847874165
