X,Y,Z
-0.03032815083861351,5.037497520446777,0.754310667514801
-0.06559745967388153,5.052639961242676,0.7564656138420105
-0.10092497617006302,5.059809684753418,0.757463276386261
-0.13671575486660004,5.082180500030518,0.7607730031013489
-0.1720934510231018,5.081129550933838,0.7606131434440613
-0.2085689753293991,5.095305442810059,0.7624141573905945
-0.24514998495578766,5.120856285095215,0.7657555341720581
-0.2854783535003662,5.207866668701172,0.7783138751983643
-0.2713368535041809,4.392209529876709,0.65606290102005
-0.2963320314884186,4.309360027313232,0.6433728933334351
-0.3250780999660492,4.284128665924072,0.6393190026283264
-0.35857680439949036,4.32809591293335,0.6454436182975769
-0.38500192761421204,4.287187576293945,0.638664186000824
-0.409018337726593,4.226889610290527,0.6290414929389954
-0.4322204291820526,4.166461944580078,0.6194466948509216
-0.45740169286727905,4.125047206878662,0.6127089262008667
-0.481578528881073,4.083534240722656,0.6060056090354919
-0.5036554336547852,4.030403137207031,0.5975421667098999
-0.5273127555847168,3.9963982105255127,0.5916103720664978
-0.5478668808937073,3.943114757537842,0.5828703045845032
-0.5709627866744995,3.908794641494751,0.5769643783569336
-0.5904318690299988,3.855273723602295,0.5682764053344727
-0.6123672723770142,3.8207337856292725,0.5624263286590576
-0.633797287940979,3.7860829830169678,0.5565887689590454
-0.6484181880950928,3.7171590328216553,0.5453804731369019
-0.6724814772605896,3.705268621444702,0.5425866842269897
-0.6903862357139587,3.658949613571167,0.5347735285758972
-0.7097185254096985,3.623975992202759,0.5286720991134644
-0.7302900552749634,3.596457004547119,0.5236920714378357
-0.7465337514877319,3.5499019622802734,0.515982449054718
-0.7625061869621277,3.5072216987609863,0.5085331797599792
-0.7825785875320435,3.4832677841186523,0.5038067102432251
-0.8010550737380981,3.45552659034729,0.4985930323600769
-0.8212706446647644,3.435152530670166,0.4944644272327423
-0.8340831398963928,3.384552240371704,0.486017107963562
-0.85098797082901,3.3526852130889893,0.4803069829940796
-0.8741132020950317,3.347057580947876,0.4780227839946747
-0.8827882409095764,3.289036750793457,0.4683242440223694
-0.9030250906944275,3.275824546813965,0.4650552570819855
-0.9162005186080933,3.2362942695617676,0.4580608308315277
-0.9344331622123718,3.215272903442383,0.45371901988983154
-0.9549105167388916,3.2015013694763184,0.4503401815891266
-0.9720637798309326,3.180499792098999,0.44573915004730225
-0.9808483719825745,3.1335506439208984,0.43755295872688293
-0.9926168322563171,3.0976734161376953,0.43096649646759033
-1.0093390941619873,3.0763168334960938,0.42640048265457153
-1.023730993270874,3.047405958175659,0.42079874873161316
-1.0433050394058228,3.0370285511016846,0.41765815019607544
-1.0560411214828491,3.0083765983581543,0.4119090735912323
-1.0814871788024902,3.0161643028259277,0.41117510199546814
-1.0887688398361206,2.972688913345337,0.4034547507762909
-1.101351022720337,2.9436168670654297,0.3977069854736328
-1.1152615547180176,2.918022394180298,0.3924218714237213
-1.1207646131515503,2.874750852584839,0.38458722829818726
-1.1343032121658325,2.8531503677368164,0.3797072768211365
-1.1389144659042358,2.809912919998169,0.3719947040081024
-1.1422629356384277,2.7628533840179443,0.3637685477733612
-1.1272424459457397,2.6728641986846924,0.34996357560157776
-1.1222940683364868,2.6121394634246826,0.3399452567100525
-1.1568487882614136,2.644059419631958,0.3419632613658905
-1.1713565587997437,2.629570722579956,0.3379684388637543
-1.1928790807724,2.6288132667541504,0.3356637954711914
-1.20836341381073,2.613602876663208,0.33147865533828735
-1.2392064332962036,2.633902072906494,0.3316563367843628
-1.2500300407409668,2.612010955810547,0.32647228240966797
-1.2929171323776245,2.656397581100464,0.3295481204986572
-1.2718477249145508,2.56770920753479,0.3160379230976105
-1.2849088907241821,2.548602819442749,0.3111465573310852
-1.2911567687988281,2.51973557472229,0.3049453794956207
-1.304218053817749,2.5046868324279785,0.30045169591903687
-1.313847303390503,2.482527256011963,0.2950844168663025
-1.3202382326126099,2.4531493186950684,0.2887996435165405
-1.327716588973999,2.427441120147705,0.28292879462242126
-1.3402175903320312,2.412137269973755,0.27814868092536926
-1.352291464805603,2.396916627883911,0.2734592854976654
-1.365172266960144,2.3811159133911133,0.2685554325580597
-1.381710171699524,2.3720242977142334,0.26439759135246277
-1.3971904516220093,2.363410234451294,0.260153204202652
-1.4088979959487915,2.347856044769287,0.2551043629646301
-1.3968424797058105,2.2919883728027344,0.24561980366706848
-1.4373549222946167,2.3223729133605957,0.24533043801784515
-1.4400200843811035,2.2936856746673584,0.23864354193210602
-1.4590917825698853,2.291309356689453,0.23472537100315094
-1.4627937078475952,2.2616991996765137,0.22767779231071472
-1.4716964960098267,2.2424561977386475,0.22173546254634857
-1.481824517250061,2.2269184589385986,0.21611471474170685
-1.5120224952697754,2.2399933338165283,0.21307455003261566
-1.4727344512939453,2.1494789123535156,0.20008188486099243
-1.4822288751602173,2.1339645385742188,0.19406305253505707
-1.484957218170166,2.108776330947876,0.18718470633029938
-1.495283603668213,2.0924081802368164,0.18078528344631195
-1.5130501985549927,2.0897278785705566,0.17546862363815308
-1.526672124862671,2.0803020000457764,0.1693754494190216
-1.5223647356033325,2.0452308654785156,0.16082704067230225
-1.4931998252868652,2.108206272125244,-0.11355077475309372
-1.5026975870132446,2.1536192893981934,-0.12236028164625168
-1.4949873685836792,2.1775293350219727,-0.13009485602378845
-1.4789682626724243,2.1880319118499756,-0.13680294156074524
-1.4758152961730957,2.217912197113037,-0.14453847706317902
-1.4632415771484375,2.2351226806640625,-0.15151497721672058
-1.4558961391448975,2.2580747604370117,-0.1585317999124527
-1.4391307830810547,2.268357753753662,-0.16469262540340424
-1.428040623664856,2.2886931896209717,-0.17166413366794586
-1.4200559854507446,2.3115336894989014,-0.17848050594329834
-1.407073736190796,2.3281142711639404,-0.1848524659872055
-1.3936697244644165,2.3447623252868652,-0.19126376509666443
-1.388895869255066,2.374255418777466,-0.1985183209180832
-1.355845332145691,2.3569180965423584,-0.20189951360225677
-1.349875569343567,2.3867483139038086,-0.2092098444700241
-1.3403096199035645,2.4094958305358887,-0.21582752466201782
-1.3231711387634277,2.4184677600860596,-0.22116248309612274
-1.3127070665359497,2.441368579864502,-0.22774970531463623
-1.3036483526229858,2.4677443504333496,-0.23476551473140717
-1.2898582220077515,2.483262538909912,-0.2405649870634079
-1.286109209060669,2.5197081565856934,-0.24840791523456573
-1.2380454540252686,2.469388961791992,-0.24762308597564697
-1.2237931489944458,2.48466157913208,-0.2532568573951721
-1.1890558004379272,2.457831382751465,-0.2545659840106964
-1.177850604057312,2.479959487915039,-0.26076576113700867
-1.1745730638504028,2.5196728706359863,-0.26888954639434814
-1.1858468055725098,2.5910420417785645,-0.280443400144577
-1.1723524332046509,2.609447717666626,-0.28635159134864807
-1.1566104888916016,2.624445676803589,-0.2917979061603546
-1.137291431427002,2.6323442459106445,-0.2965475916862488
-1.108052134513855,2.6147589683532715,-0.2982575595378876
-1.1029506921768188,2.6542959213256836,-0.30647265911102295
-1.0866856575012207,2.6688716411590576,-0.31173402070999146
-1.0759997367858887,2.69777512550354,-0.31872743368148804
-1.0623220205307007,2.719343662261963,-0.3248825967311859
-1.0557018518447876,2.7588372230529785,-0.3331611752510071
-1.0359265804290771,2.765810251235962,-0.3373948335647583
-1.0294761657714844,2.809062957763672,-0.34611254930496216
-1.0174939632415771,2.837644338607788,-0.35306471586227417
-0.9972023367881775,2.8443000316619873,-0.3573763072490692
-0.9856681227684021,2.8765225410461426,-0.3646683394908905
-0.979877769947052,2.927097797393799,-0.3743666112422943
-1.035068392753601,3.1655991077423096,-0.4083957076072693
-1.0399951934814453,3.2571427822113037,-0.42380398511886597
-1.0856188535690308,3.4860312938690186,-0.4572939872741699
-1.073195457458496,3.5338616371154785,-0.46716615557670593
-1.0800237655639648,3.648524761199951,-0.4860365390777588
-1.0523347854614258,3.647930145263672,-0.48963072896003723
-1.0371843576431274,3.6919195652008057,-0.49911683797836304
-1.016125202178955,3.717271566390991,-0.505929172039032
-0.9952888488769531,3.746354103088379,-0.5133721828460693
-0.9748146533966064,3.775144577026367,-0.5207485556602478
-0.9587223529815674,3.822587490081787,-0.5307773351669312
-0.9353562593460083,3.8437612056732178,-0.5368143916130066
-0.9241481423377991,3.9175288677215576,-0.5502939820289612
-0.8969818353652954,3.927234649658203,-0.5548958778381348
-0.8553338050842285,3.868614912033081,-0.5497479438781738
-0.8111826181411743,3.79455304145813,-0.5420603156089783
-0.7758392691612244,3.7580127716064453,-0.5394810438156128
-0.7403243780136108,3.717373847961426,-0.5362758040428162
-0.7182711362838745,3.744842290878296,-0.5429335236549377
-0.685120165348053,3.7112605571746826,-0.5406584739685059
-0.6394545435905457,3.6051688194274902,-0.5273288488388062
-0.6134997606277466,3.6053545475006104,-0.5295007228851318
-0.5845215320587158,3.586268424987793,-0.5288473963737488
-0.5602306723594666,3.5975613594055176,-0.5327230095863342
-0.525963544845581,3.5398683547973633,-0.5260607004165649
-0.4995132088661194,3.531662702560425,-0.5265461802482605
-0.47371795773506165,3.5270907878875732,-0.5275901556015015
-0.4452255964279175,3.499319076538086,-0.5251608490943909
-0.41898417472839355,3.4866726398468018,-0.5249889492988586
-0.39023685455322266,3.454766035079956,-0.5214661359786987
-0.36362335085868835,3.434114694595337,-0.5196236371994019
-0.3350657522678375,3.3901987075805664,-0.514258861541748
-0.3142823278903961,3.422973871231079,-0.5205422639846802
-0.2890874147415161,3.4094784259796143,-0.5195905566215515
-0.26545020937919617,3.418971300125122,-0.5219190120697021
-0.24049971997737885,3.4051589965820312,-0.5206975936889648
-0.21580924093723297,3.3911635875701904,-0.519463300704956
-0.1922260820865631,3.3924102783203125,-0.5205837488174438
-0.16819152235984802,3.385850191116333,-0.5200843214988708
-0.1448594629764557,3.4022879600524902,-0.5230970978736877
-0.12061528116464615,3.387683391571045,-0.5213542580604553
-0.09752019494771957,3.4037792682647705,-0.5243603587150574
-0.07369934022426605,3.396580696105957,-0.5236543416976929
-0.050425395369529724,3.420151710510254,-0.5273613333702087
-0.026175709441304207,3.412680149078369,-0.5263095498085022
-0.002455340698361397,3.4204797744750977,-0.5276370048522949
0.02127593755722046,3.4126720428466797,-0.5265823006629944
0.04530085250735283,3.4356367588043213,-0.5299388766288757
0.0687386617064476,3.4121365547180176,-0.5259954333305359
0.09391612559556961,3.4656639099121094,-0.5339493751525879
0.11884188652038574,3.4765467643737793,-0.535348653793335
0.14366285502910614,3.4911322593688965,-0.5372963547706604
0.17015431821346283,3.5364644527435303,-0.5435208082199097
0.19622108340263367,3.562321662902832,-0.5467630624771118
0.22193804383277893,3.5764262676239014,-0.5482192039489746
0.24882514774799347,3.598022699356079,-0.550831139087677
0.27559077739715576,3.6194887161254883,-0.5531868934631348
0.2981278598308563,3.586921453475952,-0.5470519661903381
0.3309994041919708,3.673452854156494,-0.5590883493423462
0.3587997257709503,3.6943490505218506,-0.561124324798584
0.3901865780353546,3.741884231567383,-0.5671908259391785
0.42597484588623047,3.827686309814453,-0.5785642266273499
0.46072664856910706,3.89400315284729,-0.5869041681289673
0.49113374948501587,3.9178597927093506,-0.5888315439224243
0.5117814540863037,3.864872455596924,-0.5792457461357117
0.5593802332878113,4.006933212280273,-0.5986672043800354
0.5927304625511169,4.041602611541748,-0.6016521453857422
0.629490852355957,4.09511137008667,-0.607421338558197
0.6758107542991638,4.2017107009887695,-0.6209897398948669
0.7185226678848267,4.277379989624023,-0.6299156546592712
0.7622174024581909,4.352747917175293,-0.6383073925971985
0.8026185631752014,4.401041507720947,-0.6424940228462219
0.8396453857421875,4.430076599121094,-0.6438887715339661
0.8750146627426147,4.447403907775879,-0.6435636281967163
0.9091002941131592,4.4568986892700195,-0.6419756412506104
0.9367917776107788,4.435949802398682,-0.6356099843978882
0.9664073586463928,4.4222798347473145,-0.6302791237831116
0.9989045262336731,4.423584461212158,-0.6271544694900513
1.0227487087249756,4.386943817138672,-0.6186903119087219
1.0513455867767334,4.372857570648193,-0.6130886673927307
1.0778605937957764,4.351099491119385,-0.606330394744873
1.101824164390564,4.3177876472473145,-0.5979564785957336
1.1320216655731201,4.310615062713623,-0.5932835340499878
0.9601229429244995,3.5555317401885986,-0.4862325191497803
0.9847152233123779,3.549375534057617,-0.4820086658000946
1.0113623142242432,3.5505032539367676,-0.478793740272522
1.0365511178970337,3.5438153743743896,-0.47445154190063477
1.063567876815796,3.5444650650024414,-0.47115662693977356
1.083482265472412,3.5228185653686523,-0.4646294116973877
1.1031063795089722,3.5010740756988525,-0.45810073614120483
1.1262104511260986,3.4902379512786865,-0.45301657915115356
1.1510659456253052,3.4827306270599365,-0.4482946991920471
1.1702690124511719,3.4605677127838135,-0.44163426756858826
1.1966623067855835,3.460362195968628,-0.43766188621520996
1.2231061458587646,3.4599533081054688,-0.43366795778274536
1.247323989868164,3.451920986175537,-0.4286714196205139
1.2660328149795532,3.429187536239624,-0.4218215048313141
1.287240982055664,3.413639545440674,-0.4156215786933899
1.3106807470321655,3.405341625213623,-0.41040530800819397
1.3373022079467773,3.403956413269043,-0.40596118569374084
1.358253002166748,3.3879191875457764,-0.39977288246154785
1.459324836730957,3.569709539413452,-0.41648218035697937
1.671045184135437,4.008277416229248,-0.4622195363044739
1.7080496549606323,4.01875638961792,-0.4579870402812958
1.4875186681747437,3.4334185123443604,-0.3865918517112732
1.9440900087356567,4.405082702636719,-0.4897436499595642
1.9343575239181519,4.30389404296875,-0.4723373353481293
1.9614893198013306,4.2838945388793945,-0.4638005495071411
1.569239616394043,3.3652238845825195,-0.3593752384185791
1.5988969802856445,3.3691186904907227,-0.3546624779701233
1.6184380054473877,3.351792097091675,-0.3477001190185547
1.6314023733139038,3.320169448852539,-0.339212566614151
1.6655538082122803,3.329951047897339,-0.33481869101524353
2.2896835803985596,4.501904487609863,-0.44528278708457947
2.318385601043701,4.483678340911865,-0.43611016869544983
1.737310528755188,3.3038277626037598,-0.31574079394340515
1.729121208190918,3.233903646469116,-0.3034907579421997
1.7397758960723877,3.2022461891174316,-0.2948944568634033
1.7222803831100464,3.1192104816436768,-0.28163018822669983
1.7403753995895386,3.1008286476135254,-0.27424100041389465
1.7731959819793701,3.1097066402435303,-0.26921603083610535
1.32943856716156,2.295914649963379,-0.19442154467105865
1.2918753623962402,2.1964662075042725,-0.181722491979599
0.9576462507247925,1.6022446155548096,-0.12929722666740417
0.9662829637527466,1.5927917957305908,-0.12530195713043213
0.976948082447052,1.5865644216537476,-0.12155067920684814
0.9839473962783813,1.573341727256775,-0.11712538450956345
1.0008047819137573,1.576832890510559,-0.11392907053232193
1.01563560962677,1.5768917798995972,-0.11038616299629211
1.0202078819274902,1.5602632761001587,-0.1055639237165451
1.0328731536865234,1.5568673610687256,-0.10163021087646484
1.043054223060608,1.5503313541412354,-0.09748011827468872
1.0516139268875122,1.5400879383087158,-0.09287858754396439
2.5574827194213867,3.691728353500366,-0.21280111372470856
2.585947036743164,3.6819887161254883,-0.2025035321712494
2.607231855392456,3.657984972000122,-0.19064809381961823
2.6217968463897705,3.6288962364196777,-0.17859022319316864
2.6158547401428223,3.571027994155884,-0.16490955650806427
2.679539680480957,3.607065439224243,-0.1549271196126938
2.637850522994995,3.706422805786133,0.347245991230011
2.6106910705566406,3.7245166301727295,0.35871413350105286
2.567868232727051,3.724717140197754,0.36826756596565247
1.0516172647476196,1.5491291284561157,0.1568075269460678
1.061806321144104,1.5887587070465088,0.16436897218227386
1.0493664741516113,1.5965566635131836,0.1686450093984604
1.0458735227584839,1.6169753074645996,0.17413710057735443
1.0216877460479736,1.6043440103530884,0.17587262392044067
1.0092964172363281,1.6117485761642456,0.17967788875102997
0.9971225261688232,1.6188911199569702,0.18339861929416656
0.9856376647949219,1.6255110502243042,0.186893031001091
0.9693166017532349,1.625847339630127,0.18962320685386658
0.9568706750869751,1.632803201675415,0.1930389255285263
1.34270441532135,2.3294262886047363,0.2789309620857239
1.8264796733856201,3.2202186584472656,0.3902986943721771
1.7550556659698486,3.1482479572296143,0.3859269917011261
1.760654330253601,3.2154085636138916,0.3986242413520813
1.7723010778427124,3.292318344116211,0.4124540090560913
1.7599953413009644,3.324580430984497,0.42070111632347107
2.369473457336426,4.555747985839844,0.5819407105445862
2.3424417972564697,4.586185932159424,0.5911908149719238
2.3011674880981445,4.588711261749268,0.5968755483627319
2.2756149768829346,4.617822647094727,0.6057500839233398
2.235583782196045,4.619189739227295,0.6108631491661072
2.204449415206909,4.6418232917785645,0.6185397505760193
2.17637300491333,4.671268463134766,0.6271795034408569
2.14634370803833,4.692800045013428,0.6345962882041931
2.106430768966675,4.692979335784912,0.6391724348068237
2.0816335678100586,4.7286152839660645,0.648210346698761
2.0344326496124268,4.71453857421875,0.6503229737281799
1.7596689462661743,4.161149024963379,0.5775660276412964
1.7214925289154053,4.1512346267700195,0.5796006321907043
1.6947296857833862,4.16988468170166,0.5856970548629761
1.6586860418319702,4.16701602935791,0.5884085893630981
1.6337478160858154,4.192826747894287,0.5951143503189087
1.6002413034439087,4.196778297424316,0.5987547039985657
1.576095461845398,4.221799373626709,0.6053155064582825
1.5486246347427368,4.239542484283447,0.6109182238578796
1.5181527137756348,4.249937534332275,0.6151601076126099
1.4922945499420166,4.274890422821045,0.6213882565498352
1.4636129140853882,4.292372226715088,0.6265802383422852
1.433139443397522,4.302055358886719,0.6306003332138062
1.4024763107299805,4.311557292938232,0.6346363425254822
1.3790017366409302,4.342910289764404,0.6417662501335144
1.3407195806503296,4.3300652503967285,0.6420568227767944
1.3161017894744873,4.361324787139893,0.6489208936691284
1.2868698835372925,4.377570152282715,0.6535906791687012
1.2562602758407593,4.385935306549072,0.657054603099823
1.2261093854904175,4.397944450378418,0.6611372232437134
1.1987950801849365,4.421013355255127,0.6665592193603516
1.167001724243164,4.429051876068115,0.6696122288703918
1.1389402151107788,4.451846599578857,0.6749400496482849
1.1073886156082153,4.459342002868652,0.6779590249061584
1.0775057077407837,4.474145889282227,0.6821321249008179
1.0480188131332397,4.4886250495910645,0.6862624883651733
1.0193827152252197,4.510668754577637,0.6911265254020691
0.9887927174568176,4.524993419647217,0.6948220729827881
0.9564541578292847,4.531548023223877,0.6973627805709839
0.7775588631629944,3.818790912628174,0.5889990329742432
0.7538903951644897,3.838956594467163,0.5934298038482666
0.7227421998977661,3.8210411071777344,0.5919867753982544
0.8371331095695496,4.604668617248535,0.7145231366157532
0.804353654384613,4.610193252563477,0.7165457010269165
0.772268533706665,4.623186111450195,0.7197872996330261
0.7446825504302979,4.6586785316467285,0.726542055606842
0.7145551443099976,4.678704738616943,0.7309228777885437
0.6808471083641052,4.675614356994629,0.7317297458648682
0.6493898630142212,4.691542625427246,0.7350313663482666
0.6176320314407349,4.711160182952881,0.738968551158905
0.587188720703125,4.738149642944336,0.744090735912323
0.5549126267433167,4.749573230743408,0.7468026280403137
0.5226598381996155,4.760758876800537,0.749512255191803
0.49190741777420044,4.787075519561768,0.7546449899673462
0.4583215117454529,4.7902398109436035,0.755710244178772
0.4264177083969116,4.820144176483154,0.7609647512435913
0.39317983388900757,4.8305559158325195,0.7631736993789673
0.3593502342700958,4.833032608032227,0.7641659379005432
0.32675376534461975,4.850658893585205,0.7675886750221252
0.2939293384552002,4.868063449859619,0.7710176706314087
0.26057761907577515,4.893040180206299,0.7753422260284424
0.22705015540122986,4.910088539123535,0.7782382369041443
0.19405312836170197,4.946180820465088,0.7841930985450745
0.15949800610542297,4.947343826293945,0.7846495509147644
0.12568415701389313,4.971401691436768,0.7887755036354065
0.09074478596448898,4.987522602081299,0.7916896939277649
0.05622686445713043,5.00342321395874,0.7943981885910034
0.02151338756084442,5.030713081359863,0.7985941767692566
-0.013546220026910305,5.046187400817871,0.8009522557258606
-0.048745788633823395,5.053700923919678,0.802085280418396
-0.08512303978204727,5.091818809509277,0.8081140518188477
-0.1205642893910408,5.0911173820495605,0.8080215454101562
-0.15570180118083954,5.082464694976807,0.8066724538803101
-0.19193507730960846,5.108353614807129,0.8103052973747253
-0.22801992297172546,5.122421741485596,0.81209796667099
-0.26470550894737244,5.143940448760986,0.8151078820228577
-0.30395838618278503,5.1921210289001465,0.8223699331283569
-0.28203028440475464,4.304455757141113,0.6815030574798584
-0.3094407916069031,4.267842769622803,0.6754698157310486
-0.3398582637310028,4.277284145355225,0.6763890385627747
-0.3726921081542969,4.313442707061768,0.6814383268356323
-0.3975830674171448,4.25325345993042,0.6712908148765564
-0.42153090238571167,4.196812629699707,0.6617943644523621
-0.4470512568950653,4.15939998626709,0.6553369760513306
-0.4707086682319641,4.110336780548096,0.647087037563324
-0.49401411414146423,4.065027236938477,0.6392519474029541
-0.5155496001243591,4.008103370666504,0.629393458366394
-0.5384812951087952,3.970252275466919,0.6225935816764832
-0.5603288412094116,3.928457498550415,0.615221381187439
-0.580204963684082,3.875051975250244,0.6060696244239807
-0.6011600494384766,3.832998037338257,0.5987401604652405
-0.6243848204612732,3.806044816970825,0.5936774611473083
-0.6419567465782166,3.752479076385498,0.5842294096946716
-0.6595020294189453,3.7026474475860596,0.5754174590110779
-0.6799110174179077,3.671731472015381,0.5695924162864685
-0.7024632692337036,3.65201997756958,0.5655301809310913
-0.7203546762466431,3.6094236373901367,0.5579613447189331
-0.7356703281402588,3.5553486347198486,0.548588752746582
-0.7429619431495667,3.4712343215942383,0.534338653087616
-0.7707929611206055,3.4852519035339355,0.5352434515953064
-0.7885663509368896,3.4538471698760986,0.5291982293128967
-0.8089244961738586,3.4335687160491943,0.5248808264732361
-0.835082471370697,3.4355688095092773,0.5239688158035278
-0.8448325395584106,3.3737757205963135,0.5133367776870728
-0.8658146858215332,3.3608238697052,0.5098804831504822
-0.8767635226249695,3.3103761672973633,0.5007821917533875
-0.8951863646507263,3.2897658348083496,0.49624666571617126
-0.9121147394180298,3.2613887786865234,0.4905272126197815
-0.9316266775131226,3.2441513538360596,0.4865383803844452
-0.9474837779998779,3.2157351970672607,0.48081865906715393
-0.9602800011634827,3.1800217628479004,0.4738089144229889
-0.9749218225479126,3.1516644954681396,0.46794402599334717
-0.9907604455947876,3.1268253326416016,0.4626159965991974
-1.0030258893966675,3.090780019760132,0.45565417408943176
-1.019744873046875,3.0693843364715576,0.4508952498435974
-1.0382667779922485,3.05539870262146,0.447081983089447
-1.0474317073822021,3.0158419609069824,0.4394288957118988
-1.0703752040863037,3.01640248298645,0.4376544654369354
-1.0886965990066528,3.002028226852417,0.4336792528629303
-1.098912239074707,2.965721607208252,0.4265691637992859
-1.108652114868164,2.929417848587036,0.4195094406604767
-1.128299355506897,2.9223523139953613,0.416395902633667
-1.1238048076629639,2.853884696960449,0.40459322929382324
-1.1404249668121338,2.8393771648406982,0.40047240257263184
-1.1484991312026978,2.8031041622161865,0.39328327775001526
-1.1322218179702759,2.709650993347168,0.37817519903182983
-1.1293283700942993,2.6524407863616943,0.3680553436279297
-1.1501110792160034,2.652388572692871,0.3658404052257538
-1.1587395668029785,2.6236767768859863,0.3596607744693756
-1.1769345998764038,2.6160173416137695,0.356356680393219
-1.1952600479125977,2.608149528503418,0.35301879048347473
-1.2326664924621582,2.6425821781158447,0.3552436828613281
-1.2436447143554688,2.6207525730133057,0.34979620575904846
-1.2900792360305786,2.672109842300415,0.354047954082489
-1.2829774618148804,2.611344575881958,0.34339091181755066
-1.27699613571167,2.5541763305664062,0.3332999646663666
-1.2853690385818481,2.528721570968628,0.3272549510002136
-1.3020883798599243,2.5206458568573,0.3234351873397827
-1.304419994354248,2.4849112033843994,0.31609460711479187
-1.3185919523239136,2.4691407680511475,0.31113001704216003
-1.328424334526062,2.4467127323150635,0.3053862452507019
-1.3408539295196533,2.4315710067749023,0.30041274428367615
-1.343666911125183,2.399409294128418,0.2933851182460785
-1.3639920949935913,2.397374391555786,0.2899605333805084
-1.3655320405960083,2.36118745803833,0.28232526779174805
-1.3850796222686768,2.35931396484375,0.27873292565345764
-1.388556957244873,2.3306820392608643,0.2719804644584656
-1.3962916135787964,2.3084285259246826,0.2659098207950592
-1.43696129322052,2.3388149738311768,0.26573601365089417
-1.4444688558578491,2.3164303302764893,0.2593303620815277
-1.451184868812561,2.2943782806396484,0.25304877758026123
-1.4626643657684326,2.2783918380737305,0.2472764402627945
-1.4595437049865723,2.239266872406006,0.23893727362155914
-1.4568171501159668,2.2043683528900146,0.23102109134197235
-1.495167851448059,2.230816602706909,0.22943371534347534
-1.495578646659851,2.1982405185699463,0.2214500606060028
-1.4792014360427856,2.1439530849456787,0.21134652197360992
-1.4839293956756592,2.122248411178589,0.20453357696533203
-1.4918383359909058,2.1029603481292725,0.19761089980602264
-1.513000726699829,2.102783679962158,0.19221754372119904
-1.5101951360702515,2.071697950363159,0.18407674133777618
-1.5245577096939087,2.061741590499878,0.17734545469284058
-1.4959584474563599,2.096616268157959,-0.1141771525144577
-1.5101168155670166,2.14833927154541,-0.12382804602384567
-1.4739751815795898,2.130302667617798,-0.12940768897533417
-1.4822138547897339,2.1762542724609375,-0.13872648775577545
-1.470964789390564,2.1928300857543945,-0.14596101641654968
-1.475730061531067,2.2360334396362305,-0.15508469939231873
-1.454954981803894,2.239837408065796,-0.16136695444583893
-1.4471557140350342,2.262944459915161,-0.16879257559776306
-1.4322072267532349,2.2765491008758545,-0.17554326355457306
-1.4157836437225342,2.2863118648529053,-0.18178033828735352
-1.411437749862671,2.315927028656006,-0.1895425021648407
-1.40180242061615,2.3394358158111572,-0.1969679296016693
-1.3888503313064575,2.355684995651245,-0.20355717837810516
-1.3799391984939575,2.3784313201904297,-0.21062563359737396
-1.3546119928359985,2.374501943588257,-0.21531040966510773
-1.344869613647461,2.3973746299743652,-0.22237429022789001
-1.3313950300216675,2.4132423400878906,-0.22875848412513733
-1.3174827098846436,2.4291865825653076,-0.23504804074764252
-1.3087188005447388,2.4554388523101807,-0.24238264560699463
-1.2948352098464966,2.4710309505462646,-0.24856191873550415
-1.27719247341156,2.4796435832977295,-0.2540115714073181
-1.2463749647140503,2.4642367362976074,-0.2569849491119385
-1.218056082725525,2.4517745971679688,-0.26007983088493347
-1.1905791759490967,2.438758611679077,-0.2629074156284332
-1.1865431070327759,2.474714994430542,-0.2709811329841614
-1.180163860321045,2.507312297821045,-0.2787376344203949
-1.1849708557128906,2.5645368099212646,-0.2893252968788147
-1.1873902082443237,2.6183948516845703,-0.29970893263816833
-1.1574149131774902,2.6014697551727295,-0.30186927318573
-1.1711233854293823,2.683974504470825,-0.31562355160713196
-1.122929573059082,2.623836040496826,-0.31255945563316345
-1.1044728755950928,2.631082057952881,-0.3173753023147583
-1.0867432355880737,2.642073154449463,-0.3225913941860199
-1.0764249563217163,2.6708414554595947,-0.3299305737018585
-1.077360987663269,2.728374481201172,-0.3409000039100647
-1.05531644821167,2.72806978225708,-0.34468579292297363
-1.0426350831985474,2.7531120777130127,-0.3515438437461853
-1.0305577516555786,2.781890869140625,-0.3589687943458557
-1.0543872117996216,2.9088423252105713,-0.3791576623916626
-1.0663644075393677,3.0068936347961426,-0.3958260416984558
-1.1669204235076904,3.365309238433838,-0.4471786618232727
-1.1615493297576904,3.42791748046875,-0.4596525728702545
-1.148942232131958,3.4722917079925537,-0.46986931562423706
-1.1305328607559204,3.4979915618896484,-0.477525919675827
-1.1174627542495728,3.5421321392059326,-0.4876425862312317
-1.0922337770462036,3.549315929412842,-0.49254536628723145
-1.0881236791610718,3.626765012741089,-0.5072975158691406
-1.064831018447876,3.641047477722168,-0.5132738947868347
-1.04092276096344,3.655302047729492,-0.519292414188385
-1.0232435464859009,3.6917712688446045,-0.5281447768211365
-1.0020763874053955,3.716949224472046,-0.5354564189910889
-0.9710517525672913,3.704519271850586,-0.5373409390449524
-0.929861843585968,3.6505844593048096,-0.5331375002861023
-0.882337212562561,3.5701911449432373,-0.5246708989143372
-0.8454106450080872,3.526862621307373,-0.5214167237281799
-0.8100677132606506,3.486959218978882,-0.5186048150062561
-0.7839187383651733,3.4844350814819336,-0.5213175415992737
-0.75697261095047,3.477975845336914,-0.5232661962509155
-0.7153047323226929,3.403386116027832,-0.5147050619125366
-0.6835849285125732,3.369982957839966,-0.512263834476471
-0.6555989384651184,3.351430892944336,-0.5120294690132141
-0.6228988170623779,3.306087017059326,-0.5076709985733032
-0.5914099812507629,3.264353036880493,-0.5033925175666809
-0.5621137022972107,3.233830451965332,-0.5008440613746643
-0.5382044315338135,3.2296531200408936,-0.5023277997970581
-0.5120242834091187,3.2100396156311035,-0.5014077425003052
-0.4849294424057007,3.182633638381958,-0.4990285634994507
-0.45766332745552063,3.151230812072754,-0.49578508734703064
-0.4330795705318451,3.1387765407562256,-0.4955531656742096
-0.40718603134155273,3.1107726097106934,-0.4928274154663086
-0.3864445686340332,3.1208608150482178,-0.4961426258087158
-0.36100345849990845,3.0925679206848145,-0.4929206669330597
-0.33558130264282227,3.0602405071258545,-0.4890512526035309
-0.3118581771850586,3.0392231941223145,-0.4869859218597412
-0.2903338372707367,3.04109263420105,-0.4886212944984436
-0.26777634024620056,3.027452230453491,-0.48752692341804504
-0.24604852497577667,3.0213725566864014,-0.487428218126297
-0.22556346654891968,3.0305213928222656,-0.48980993032455444
-0.2039249688386917,3.024139881134033,-0.48970529437065125
-0.1824919730424881,3.0253214836120605,-0.490863174200058
-0.16055919229984283,3.011007785797119,-0.4890492856502533
-0.13903608918190002,3.0003905296325684,-0.48783642053604126
-0.11888185888528824,3.020441770553589,-0.49163514375686646
-0.09815263748168945,3.0287930965423584,-0.4935562312602997
-0.07623696327209473,3.0100626945495605,-0.4908938407897949
-0.05500795692205429,2.995069980621338,-0.4885718822479248
-0.034587010741233826,3.0300440788269043,-0.4944252073764801
-0.013503605499863625,3.030179500579834,-0.4946196675300598
0.007637873291969299,3.05329966545105,-0.4985913634300232
0.02902144007384777,3.030073881149292,-0.49460145831108093
0.0505862720310688,3.0606822967529297,-0.4993557035923004
0.07278348505496979,3.0988447666168213,-0.5053611397743225
0.09492740780115128,3.1175777912139893,-0.5082184076309204
0.11632040143013,3.1092069149017334,-0.5065298676490784
0.13929718732833862,3.139263868331909,-0.5107718110084534
0.1623070389032364,3.153731346130371,-0.5124810338020325
0.18467651307582855,3.1603527069091797,-0.5129473209381104
0.2071709781885147,3.166814088821411,-0.5134087800979614
0.23165877163410187,3.2001028060913086,-0.5178565979003906
0.25571927428245544,3.221691370010376,-0.5202938914299011
0.2818056046962738,3.25844144821167,-0.5251674056053162
0.3059041500091553,3.27197527885437,-0.5263239741325378
0.33212071657180786,3.3045403957366943,-0.5304434299468994
0.35919684171676636,3.3408029079437256,-0.5347498059272766
0.3832537829875946,3.34619140625,-0.534121036529541
0.41577714681625366,3.4164700508117676,-0.543811559677124
0.4425216317176819,3.4367563724517822,-0.5455527901649475
0.47314420342445374,3.4836678504943848,-0.5511647462844849
0.5038654804229736,3.5265345573425293,-0.5559476613998413
0.530080258846283,3.534789800643921,-0.555266261100769
0.5647299289703369,3.5923564434051514,-0.5622771978378296
0.5966671109199524,3.630646228790283,-0.5661858916282654
0.6270723938941956,3.6573407649993896,-0.5678461790084839
0.6667022705078125,3.7332139015197754,-0.577094316482544
0.6708240509033203,3.6112515926361084,-0.5558048486709595
0.7187111377716064,3.724529981613159,-0.5707433223724365
0.8277578353881836,4.132794380187988,-0.6301382184028625
0.8564187288284302,4.12756872177124,-0.6260742545127869
0.9004592895507812,4.193928241729736,-0.6328420639038086
0.9381217360496521,4.225891590118408,-0.634341835975647
0.990912914276123,4.3216166496276855,-0.645229160785675
1.0347106456756592,4.371687412261963,-0.6487009525299072
1.0704995393753052,4.387669563293457,-0.6471400260925293
1.0916454792022705,4.34331750869751,-0.6367031335830688
1.1210441589355469,4.332545757293701,-0.6312441229820251
1.1511362791061401,4.325414657592773,-0.6259683966636658
1.1795635223388672,4.310516834259033,-0.6194196343421936
1.2115638256072998,4.310444355010986,-0.6150984764099121
1.2310035228729248,4.26543664932251,-0.6043868660926819
1.2519010305404663,4.227845191955566,-0.5946568250656128
1.0618078708648682,3.4974310398101807,-0.48805320262908936
1.092151165008545,3.509037971496582,-0.48573610186576843
1.1143375635147095,3.494598388671875,-0.47984611988067627
1.1411694288253784,3.494748592376709,-0.4759698212146759
1.1652836799621582,3.4874863624572754,-0.4707791805267334
1.1855636835098267,3.4690582752227783,-0.46412137150764465
1.20462167263031,3.446763515472412,-0.4569545388221741
1.2292319536209106,3.4387683868408203,-0.45162108540534973
1.2503621578216553,3.423597812652588,-0.44523993134498596
1.2766577005386353,3.4228694438934326,-0.44069206714630127
1.3004146814346313,3.4146249294281006,-0.4351549446582794
1.324365258216858,3.4061174392700195,-0.42955833673477173
1.3484058380126953,3.397402763366699,-0.42373934388160706
1.3659213781356812,3.3743791580200195,-0.416147917509079
1.3921869993209839,3.3727431297302246,-0.4111993610858917
1.4157943725585938,3.363619804382324,-0.4052835702896118
1.4498430490493774,3.3794023990631104,-0.40226075053215027
1.4920213222503662,3.412662982940674,-0.4010254740715027
1.5122665166854858,3.3959672451019287,-0.39395782351493835
1.542524814605713,3.4001405239105225,-0.389198899269104
1.5759179592132568,3.411229372024536,-0.3851262331008911
1.572737455368042,3.3448433876037598,-0.3722681999206543
1.5994205474853516,3.341521978378296,-0.3664078116416931
1.6228820085525513,3.3309197425842285,-0.3597179353237152
1.6304038763046265,3.288950204849243,-0.3496367931365967
1.642247200012207,3.25765061378479,-0.3407193124294281
2.3070085048675537,4.500093460083008,-0.4628415107727051
1.7180063724517822,3.2945399284362793,-0.33295348286628723
1.7410160303115845,3.283163070678711,-0.3257327675819397
1.7318660020828247,3.213730573654175,-0.3129385709762573
1.7577980756759644,3.2091894149780273,-0.3064559996128082
1.736800193786621,3.1191816329956055,-0.29185354709625244
1.7654881477355957,3.1216039657592773,-0.28595542907714844
1.812088966369629,3.153977632522583,-0.2825852930545807
1.3334015607833862,2.284074544906616,-0.19992952048778534
0.9497258067131042,1.6017738580703735,-0.13685868680477142
0.9564000964164734,1.5890377759933472,-0.13241319358348846
0.9713443517684937,1.5894161462783813,-0.12897889316082
0.9826743006706238,1.5827709436416626,-0.12480682134628296
0.993194043636322,1.5765094757080078,-0.12071661651134491
1.0058976411819458,1.5733768939971924,-0.116819366812706
1.0148156881332397,1.5633097887039185,-0.11225253343582153
1.0316188335418701,1.5666049718856812,-0.10862662643194199
1.0356930494308472,1.5501645803451538,-0.10353133082389832
1.0487595796585083,1.5463716983795166,-0.09914293140172958
1.067773461341858,1.5525709390640259,-0.0953490361571312
2.5735056400299072,3.6899075508117676,-0.21638581156730652
2.5992631912231445,3.672489643096924,-0.20450365543365479
2.623286008834839,3.656020164489746,-0.19250790774822235
2.5997626781463623,3.572526454925537,-0.1768246740102768
2.644613027572632,3.5838191509246826,-0.1654984951019287
2.632024049758911,3.7267236709594727,0.3784296214580536
2.597926378250122,3.7398288249969482,0.39014846086502075
2.566816806793213,3.750654697418213,0.4005591869354248
1.0536881685256958,1.5651689767837524,0.17098508775234222
1.0413811206817627,1.5728824138641357,0.17554129660129547
1.0387126207351685,1.5927846431732178,0.18113574385643005
1.0142009258270264,1.5803871154785156,0.1829770803451538
1.0102405548095703,1.6008648872375488,0.18856625258922577
1.0065628290176392,1.6210435628890991,0.19404339790344238
0.9908894300460815,1.6211204528808594,0.19698511064052582
0.9744265675544739,1.6215640306472778,0.19983680546283722
0.969943642616272,1.6418681144714355,0.2051413506269455
1.3467141389846802,2.3162875175476074,0.29305827617645264
1.348831057548523,2.359266519546509,0.3021976053714752
1.7986161708831787,3.20129132270813,0.41478878259658813
1.7594972848892212,3.1867170333862305,0.4175597131252289
1.7869318723678589,3.2903568744659424,0.43565088510513306
1.7559170722961426,3.288635492324829,0.4398237466812134
2.3934245109558105,4.565326690673828,0.616450309753418
2.351923704147339,4.568315029144287,0.6226266622543335
2.3194804191589355,4.583838939666748,0.6301965713500977
2.290602445602417,4.605961322784424,0.6386765837669373
2.259716510772705,4.62881326675415,0.646891176700592
2.224585771560669,4.644770622253418,0.6542349457740784
2.19063663482666,4.6598801612854,0.6613072156906128
2.164260149002075,4.688289642333984,0.670143723487854
2.1242427825927734,4.688589096069336,0.6748540997505188
2.0989067554473877,4.724489688873291,0.684386670589447
2.060741662979126,4.731873989105225,0.6898441314697266
2.006406307220459,4.699566841125488,0.6894350051879883
1.7371251583099365,4.148567199707031,0.6122701168060303
1.7044357061386108,4.1529693603515625,0.6164156198501587
1.6767982244491577,4.171806335449219,0.6224686503410339
1.651768445968628,4.197667598724365,0.6296244859695435
1.6211984157562256,4.2088236808776855,0.6345860958099365
1.5889171361923218,4.212127685546875,0.6382730603218079
1.5617414712905884,4.2298173904418945,0.6440403461456299
1.5308585166931152,4.24042272567749,0.648433268070221
1.5050890445709229,4.265367031097412,0.6550594568252563
1.4763096570968628,4.2829108238220215,0.6606168746948242
1.4512300491333008,4.307135581970215,0.6671246290206909
1.4210070371627808,4.316540718078613,0.6713829636573792
1.3898158073425293,4.326079845428467,0.675266444683075
1.3607686758041382,4.342801094055176,0.6802650094032288
1.3309426307678223,4.359498023986816,0.6853506565093994
1.2980186939239502,4.360764980316162,0.6879321932792664
1.2696635723114014,4.376561164855957,0.6928226947784424
1.2418560981750488,4.3960041999816895,0.6981726884841919
1.2142887115478516,4.419195652008057,0.7038255333900452
1.1824212074279785,4.427303314208984,0.7071220874786377
1.1500896215438843,4.435279369354248,0.7104605436325073
1.1247737407684326,4.465140342712402,0.717260479927063
1.0935964584350586,4.472362518310547,0.7204687595367432
1.067273497581482,4.5020432472229,0.7270405292510986
1.0332896709442139,4.501603603363037,0.7285639047622681
1.0055328607559204,4.531149864196777,0.7350099086761475
0.9733129143714905,4.5377373695373535,0.7377391457557678
0.9307117462158203,4.491093158721924,0.7317988872528076
0.7677385807037354,3.838941812515259,0.62696772813797
0.7405878305435181,3.8439459800720215,0.6289628744125366
0.8468796014785767,4.573172092437744,0.7495485544204712
0.8210620880126953,4.616690635681152,0.7579744458198547
0.7896807789802551,4.629624366760254,0.7614219188690186
0.7598984837532043,4.649877071380615,0.7660970091819763
0.7286314964294434,4.66232442855835,0.7695320248603821
0.6980849504470825,4.6861701011657715,0.7745895981788635
0.6649320125579834,4.690714359283447,0.7762504816055298
0.6347823739051819,4.71795129776001,0.7817115783691406
0.6014611721038818,4.722039222717285,0.7833778262138367
0.5722079277038574,4.756457328796387,0.7901086211204529
0.5408210754394531,4.775367736816406,0.7943101525306702
0.5076044201850891,4.786520481109619,0.7970467805862427
0.4750479459762573,4.801292896270752,0.800080418586731
0.4411984980106354,4.804335117340088,0.801201343536377
0.40998563170433044,4.837850093841553,0.807447075843811
0.37690576910972595,4.84808349609375,0.8098443746566772
0.34311583638191223,4.858127593994141,0.8122645616531372
0.3103001117706299,4.87560510635376,0.8158647418022156
0.2777288258075714,4.904489517211914,0.8209254741668701
0.2431870847940445,4.90237283706665,0.8208388686180115
0.2100546509027481,4.930804252624512,0.825908362865448
0.17530472576618195,4.93977689743042,0.827767014503479
0.1415889412164688,4.9638895988464355,0.8321982622146606
0.1073799580335617,4.980066299438477,0.8353425860404968
0.07306089997291565,5.007644176483154,0.8399485945701599
0.03820386901497841,5.015738010406494,0.8412302136421204
0.0026330407708883286,5.039000034332275,0.8450958728790283
-0.03254929929971695,5.046602249145508,0.8463773131370544
-0.06772547215223312,5.053959846496582,0.8476588129997253
-0.10331906378269196,5.076478958129883,0.8515244722366333
-0.13908419013023376,5.094944000244141,0.8544593453407288
-0.17493726313114166,5.109358310699463,0.8564450740814209
-0.2116202414035797,5.123496055603027,0.8584166169166565
-0.2475149780511856,5.129702091217041,0.8591060042381287
-0.2857441008090973,5.1741204261779785,0.8662320971488953
-0.2724560499191284,4.379949569702148,0.7330454587936401
-0.2967761754989624,4.2896409034729,0.7176733613014221
-0.3275114595890045,4.29530143737793,0.7179475426673889
-0.35973814129829407,4.323822021484375,0.7220832109451294
-0.3875303864479065,4.298373699188232,0.7172390818595886
-0.41172853112220764,4.238217830657959,0.7066469192504883
-0.4395953118801117,4.220085620880127,0.7031030654907227
-0.4604892432689667,4.136602878570557,0.688708484172821
-0.4817824065685272,4.072314739227295,0.6771631836891174
-0.5045084953308105,4.027073383331299,0.6687556505203247
-0.5301730632781982,4.008456707000732,0.664813756942749
-0.5498427748680115,3.9476680755615234,0.6539214253425598
-0.5721687078475952,3.9057726860046387,0.6461901068687439
-0.5928822755813599,3.8600125312805176,0.6378800272941589
-0.6145904064178467,3.8256452083587646,0.6312493085861206
-0.6312065124511719,3.764601945877075,0.6200732588768005
-0.6476792693138123,3.7073020935058594,0.6095747351646423
-0.6716722846031189,3.6954758167266846,0.6065992116928101
-0.6913856863975525,3.656813383102417,0.5992248058319092
-0.7123876810073853,3.6294848918914795,0.5937698483467102
-0.7282079458236694,3.5794270038604736,0.5844965577125549
-0.7375378608703613,3.5029892921447754,0.5707265734672546
-0.7614113092422485,3.4982099533081055,0.5686864852905273
-0.7840000987052917,3.4856457710266113,0.5653874278068542
-0.8003776669502258,3.4466161727905273,0.5578358173370361
-0.8189827799797058,3.418771505355835,0.5521394610404968
-0.840767502784729,3.405876398086548,0.5487825274467468
-0.8534422516822815,3.3593194484710693,0.5397749543190002
-0.8727295398712158,3.338789939880371,0.5349752306938171
-0.8873936533927917,3.303330659866333,0.527852475643158
-0.9021511077880859,3.2676804065704346,0.5207158923149109
-0.9196816682815552,3.2431046962738037,0.5153864622116089
-0.933478832244873,3.207390308380127,0.5082038640975952
-0.9555956721305847,3.2012999057769775,0.5054926872253418
-0.968252420425415,3.1656134128570557,0.4981776475906372
-0.9839644432067871,3.140944480895996,0.49264246225357056
-1.001155138015747,3.119703769683838,0.4876401424407959
-1.0180658102035522,3.0983800888061523,0.48266664147377014
-1.027268886566162,3.0550456047058105,0.4740855097770691
-1.0428051948547363,3.033888578414917,0.46888843178749084
-1.0619744062423706,3.023587226867676,0.46539923548698425
-1.0747820138931274,2.9948790073394775,0.45909005403518677
-1.0984108448028564,2.9949941635131836,0.45718276500701904
-1.1030973196029663,2.9442248344421387,0.447553426027298
-1.1149629354476929,2.9154176712036133,0.44098567962646484
-1.119121789932251,2.868680238723755,0.43180209398269653
-1.1298514604568481,2.8399791717529297,0.4253981411457062
-1.1438045501708984,2.818178176879883,0.4200030267238617
-1.147222876548767,2.771251916885376,0.41091611981391907
-1.1317869424819946,2.681717872619629,0.39541560411453247
-1.1283072233200073,2.6247808933258057,0.38477855920791626
-1.1489578485488892,2.6247427463531494,0.3825363516807556
-1.1702138185501099,2.6243112087249756,0.38017138838768005
-1.1822298765182495,2.6024134159088135,0.3746803402900696
-1.2166510820388794,2.6297614574432373,0.3761219382286072
-1.2408074140548706,2.636115550994873,0.37442970275878906
-1.251691460609436,2.614314317703247,0.3687582314014435
-1.2595099210739136,2.5852484703063965,0.3620297908782959
-1.2742383480072021,2.5699081420898438,0.3572150468826294
-1.285064458847046,2.547708749771118,0.351304292678833
-1.2966495752334595,2.5293147563934326,0.34589818120002747
-1.3062527179718018,2.5074310302734375,0.34005746245384216
-1.309244990348816,2.4713683128356934,0.33220478892326355
-1.3303296566009521,2.4694571495056152,0.3289603888988495
-1.331877589225769,2.4338643550872803,0.32106149196624756
-1.3444758653640747,2.4186220169067383,0.31582754850387573
-1.3512896299362183,2.3931241035461426,0.30928269028663635
-1.3565192222595215,2.363921642303467,0.3021973967552185
-1.3764328956604004,2.3619515895843506,0.29852554202079773
-1.380034327507019,2.3333916664123535,0.29142770171165466
-1.3917475938796997,2.3179492950439453,0.28592154383659363
-1.4080921411514282,2.3086581230163574,0.2810284197330475
-1.4401719570159912,2.3260293006896973,0.27927085757255554
-1.4387767314910889,2.2908565998077393,0.2711070775985718
-1.4539666175842285,2.2818443775177,0.2660226821899414
-1.4386723041534424,2.222989320755005,0.25489622354507446
-1.4705758094787598,2.2399396896362305,0.25247567892074585
-1.4807355403900146,2.2245047092437744,0.24632464349269867
-1.4959471225738525,2.2149345874786377,0.24058665335178375
-1.4717273712158203,2.147334337234497,0.2285003811120987
-1.485688328742981,2.138324022293091,0.22257542610168457
-1.4953503608703613,2.122683048248291,0.21589604020118713
-1.5058131217956543,2.1063568592071533,0.2088201642036438
-1.5077069997787476,2.0816354751586914,0.20085090398788452
-1.521407961845398,2.0722787380218506,0.19418354332447052
-1.5171104669570923,2.037355422973633,0.18474414944648743
-1.4883835315704346,2.1015520095825195,-0.12215651571750641
-1.502066969871521,2.1534738540649414,-0.13226447999477386
