X,Y,Z
-0.08457829058170319,5.061637878417969,0.7989327311515808
-0.12011037766933441,5.0764288902282715,0.8009189963340759
-0.15556015074253082,5.08325719833374,0.8016867637634277
-0.1916007548570633,5.101404666900635,0.8042760491371155
-0.22778558731079102,5.115438461303711,0.8062537908554077
-0.265365868806839,5.152337551116943,0.811872124671936
-0.3037779927253723,5.18511962890625,0.8166056871414185
-0.28212252259254456,4.305092811584473,0.6774283051490784
-0.31247058510780334,4.310869216918945,0.6777865886688232
-0.3416895568370819,4.3010430335998535,0.67572420835495
-0.37292221188545227,4.314077377319336,0.6772826313972473
-0.3987596929073334,4.2615132331848145,0.668571412563324
-0.42369887232780457,4.212707042694092,0.6604121327400208
-0.4481596052646637,4.167678356170654,0.6525079607963562
-0.4707031548023224,4.1110053062438965,0.6428309082984924
-0.4929530918598175,4.058048248291016,0.6337851881980896
-0.5166230797767639,4.016384124755859,0.6265328526496887
-0.5388244986534119,3.9708104133605957,0.6187259554862976
-0.5609630346298218,3.9289417266845703,0.6115400195121765
-0.5816503763198853,3.8832449913024902,0.6033973097801208
-0.603471040725708,3.8489015102386475,0.5970467329025269
-0.6228374242782593,3.7991199493408203,0.5883315205574036
-0.6431713104248047,3.7607223987579346,0.5814400315284729
-0.6639207005500793,3.7259836196899414,0.5751495361328125
-0.6828098893165588,3.683539867401123,0.567714273929596
-0.7029178738594055,3.652513265609741,0.5617660284042358
-0.7187928557395935,3.602464437484741,0.5528559684753418
-0.7367721796035767,3.5636327266693115,0.5457001328468323
-0.7515638470649719,3.5134384632110596,0.5368692278862
-0.7743344306945801,3.5008673667907715,0.5338162779808044
-0.7892564535140991,3.454237461090088,0.5256099700927734
-0.8093410730361938,3.434030771255493,0.5212032794952393
-0.8276335000991821,3.4061503410339355,0.5155473947525024
-0.8442254662513733,3.374525308609009,0.5093941688537598
-0.8615943789482117,3.346519708633423,0.503818690776825
-0.8809375762939453,3.3258190155029297,0.49936214089393616
-0.8939388990402222,3.2826263904571533,0.4915735423564911
-0.9125266671180725,3.26181960105896,0.48688599467277527
-0.929287314414978,3.237342119216919,0.48164886236190796
-0.9446334838867188,3.209080934524536,0.4758930802345276
-0.9667250514030457,3.2028629779815674,0.4734119176864624
-0.9776274561882019,3.159454584121704,0.4654543399810791
-1.0000495910644531,3.1528029441833496,0.4629147946834564
-1.0058321952819824,3.0985307693481445,0.45314452052116394
-1.0194324254989624,3.0700275897979736,0.44720661640167236
-1.0289896726608276,3.030472755432129,0.439708411693573
-1.0500329732894897,3.0236456394195557,0.4369516670703888
-1.0633749961853027,2.9947447776794434,0.4310292899608612
-1.0843327045440674,2.9876389503479004,0.4281178116798401
-1.1044268608093262,2.9807000160217285,0.42510876059532166
-1.1135189533233643,2.9446475505828857,0.41798636317253113
-1.125206708908081,2.9157354831695557,0.411906361579895
-1.1413193941116333,2.897414445877075,0.40731343626976013
-1.1387759447097778,2.83215594291687,0.39615094661712646
-1.1518335342407227,2.8105785846710205,0.3909403383731842
-1.148252010345459,2.749605178833008,0.3803175389766693
-1.143904209136963,2.688788652420044,0.36981695890426636
-1.134961724281311,2.61714243888855,0.3578435480594635
-1.1661405563354492,2.6377804279327393,0.35849708318710327
-1.1807101964950562,2.623241424560547,0.3542126417160034
-1.2014415264129639,2.6227962970733643,0.3518045246601105
-1.2385787963867188,2.6573495864868164,0.35406553745269775
-1.2405353784561157,2.6140434741973877,0.34584641456604004
-1.2726761102676392,2.6335349082946777,0.34591177105903625
-1.297145128250122,2.639362335205078,0.3439946174621582
-1.2799639701843262,2.5617527961730957,0.33124539256095886
-1.2970995903015137,2.5535969734191895,0.32754087448120117
-1.3026084899902344,2.5207436084747314,0.32057031989097595
-1.305743932723999,2.48457932472229,0.3132246434688568
-1.3261327743530273,2.483070135116577,0.31005504727363586
-1.3277761936187744,2.4473977088928223,0.3027043342590332
-1.340801477432251,2.4319205284118652,0.29780682921409607
-1.3483790159225464,2.405992269515991,0.29160118103027344
-1.3567975759506226,2.383896589279175,0.28577491641044617
-1.3688130378723145,2.3685574531555176,0.2806864380836487
-1.384681224822998,2.359823703765869,0.2763887047767639
-1.4092333316802979,2.3638916015625,0.27342215180397034
-1.4171547889709473,2.341520071029663,0.2673110067844391
-1.4242920875549316,2.3194756507873535,0.26120978593826294
-1.435914397239685,2.3036723136901855,0.25571003556251526
-1.4396315813064575,2.274319887161255,0.24862585961818695
-1.454732060432434,2.265226125717163,0.24370215833187103
-1.4736136198043823,2.262810468673706,0.2394433319568634
-1.4889906644821167,2.2532708644866943,0.23422075808048248
-1.494152545928955,2.2270209789276123,0.22705429792404175
-1.5040422677993774,2.211491584777832,0.22099198400974274
-1.4875288009643555,2.1572771072387695,0.2110951840877533
-1.5116853713989258,2.160027503967285,0.2064785361289978
-1.4918296337127686,2.1031031608581543,0.19614878296852112
-1.505548357963562,2.093851089477539,0.1902211755514145
-1.5157445669174194,2.077418804168701,0.1832428276538849
-1.5288881063461304,2.068321704864502,0.1768462359905243
-1.521599531173706,2.131363868713379,-0.1102520152926445
-1.4849246740341187,2.113908052444458,-0.11603234708309174
-1.50295889377594,2.172300100326538,-0.12558932602405548
-1.4955415725708008,2.195915699005127,-0.1331942081451416
-1.4746066331863403,2.200223922729492,-0.1395643651485443
-1.4762567281723022,2.236192226409912,-0.14760184288024902
-1.4591009616851807,2.24698543548584,-0.15412989258766174
-1.4467215538024902,2.2638001441955566,-0.16085341572761536
-1.4369219541549683,2.283430814743042,-0.16758175194263458
-1.4157156944274902,2.2870264053344727,-0.17311492562294006
-1.411073088645935,2.316865921020508,-0.1805742233991623
-1.3824052810668945,2.306408166885376,-0.18478703498840332
-1.4009041786193848,2.3765435218811035,-0.1954239159822464
-1.3833377361297607,2.386331081390381,-0.2012021243572235
-1.3549469709396362,2.3752269744873047,-0.20495617389678955
-1.362453579902649,2.4286766052246094,-0.21429982781410217
-1.3348171710968018,2.4212646484375,-0.2183949500322342
-1.317548394203186,2.4302213191986084,-0.22370745241641998
-1.3057458400726318,2.449338674545288,-0.22992125153541565
-1.2985841035842896,2.479041576385498,-0.23713244497776031
-1.2876371145248413,2.501760482788086,-0.2437140941619873
-1.2591743469238281,2.489565134048462,-0.2468206137418747
-1.2412774562835693,2.4980382919311523,-0.2518143355846405
-1.1906375885009766,2.440088987350464,-0.2499801069498062
-1.179868221282959,2.4620862007141113,-0.25619247555732727
-1.1691431999206543,2.4839067459106445,-0.2623768746852875
-1.1854547262191772,2.5658936500549316,-0.2749518156051636
-1.1969854831695557,2.641317367553711,-0.28710266947746277
-1.1576437950134277,2.603072166442871,-0.2868022620677948
-1.1626027822494507,2.6640660762786865,-0.29742249846458435
-1.1173417568206787,2.611151695251465,-0.29518669843673706
-1.1119519472122192,2.6508920192718506,-0.3033944368362427
-1.092866063117981,2.658294439315796,-0.30793994665145874
-1.0829150676727295,2.686985492706299,-0.3149043917655945
-1.0750601291656494,2.723053216934204,-0.3226335942745209
-1.0555058717727661,2.7301747798919678,-0.3269834816455841
-1.0430338382720947,2.755208969116211,-0.33347171545028687
-1.031402587890625,2.783898115158081,-0.34050625562667847
-1.0246905088424683,2.82717227935791,-0.34916678071022034
-1.007007122039795,2.8412344455718994,-0.354255348443985
-0.9982762336730957,2.880767345428467,-0.3625498414039612
-0.9855398535728455,2.909205436706543,-0.36949098110198975
-0.9998573064804077,3.0224764347076416,-0.38726115226745605
-1.018800973892212,3.1544413566589355,-0.4075552821159363
-1.0884780883789062,3.453108310699463,-0.4498368203639984
-1.0790473222732544,3.508218765258789,-0.4607357978820801
-1.06767737865448,3.5596790313720703,-0.47113466262817383
-1.0586841106414795,3.622377634048462,-0.4829252362251282
-1.0451908111572266,3.674048900604248,-0.49343252182006836
-1.0215229988098145,3.6881446838378906,-0.498853862285614
-1.006791353225708,3.735736608505249,-0.5088541507720947
-0.9862255454063416,3.764683246612549,-0.5160210728645325
-0.9691184163093567,3.808523178100586,-0.5253067016601562
-0.9465296268463135,3.8335607051849365,-0.5321065187454224
-0.9360136985778809,3.907249927520752,-0.5456799268722534
-0.9033340215682983,3.8905534744262695,-0.5464062690734863
-0.8792970776557922,3.911397933959961,-0.5522680878639221
-0.8608272075653076,3.958542585372925,-0.5619066953659058
-0.8087553977966309,3.8504467010498047,-0.5495214462280273
-0.7871091365814209,3.882051944732666,-0.5568938851356506
-0.7411772608757019,3.7921435832977295,-0.5464321970939636
-0.7022439241409302,3.732215642929077,-0.5402177572250366
-0.6829856038093567,3.7746474742889404,-0.5488097667694092
-0.650868833065033,3.7484707832336426,-0.5474943518638611
-0.6207858920097351,3.72965931892395,-0.5468578338623047
-0.5909518003463745,3.710642099380493,-0.5460498929023743
-0.5597007274627686,3.6799259185791016,-0.5435141921043396
-0.5201810002326965,3.5877439975738525,-0.5318450331687927
-0.5026340484619141,3.6484129428863525,-0.5427831411361694
-0.4716099500656128,3.609394073486328,-0.538479208946228
-0.44633951783180237,3.6123127937316895,-0.5404424667358398
-0.41756129264831543,3.584343433380127,-0.537792444229126
-0.22152872383594513,2.023855686187744,-0.30453577637672424
-0.36602362990379333,3.5739030838012695,-0.5390462279319763
-0.33840876817703247,3.553121566772461,-0.5370232462882996
-0.31325727701187134,3.5513336658477783,-0.5378689765930176
-0.2866976261138916,3.53011155128479,-0.535783588886261
-0.2615615725517273,3.5241055488586426,-0.5360093712806702
-0.23752517998218536,3.5334107875823975,-0.538087010383606
-0.21245361864566803,3.5348663330078125,-0.5390096306800842
-0.1882369965314865,3.543834686279297,-0.541093111038208
-0.16251027584075928,3.521775722503662,-0.5384613871574402
-0.13829678297042847,3.5304343700408936,-0.5403206944465637
-0.11470036953687668,3.5621259212493896,-0.5454423427581787
-0.08923842757940292,3.555067777633667,-0.5446643829345703
-0.0652773454785347,3.598007917404175,-0.551570475101471
-0.03996032103896141,3.575148344039917,-0.5484182834625244
-0.015207936055958271,3.606234312057495,-0.5531186461448669
0.009935518726706505,3.6217153072357178,-0.5553667545318604
0.03542877361178398,3.6061294078826904,-0.5528762340545654
0.06088782474398613,3.6289780139923096,-0.5563070178031921
0.08571679890155792,3.613065242767334,-0.5536943078041077
0.11232653260231018,3.662655830383301,-0.5607272982597351
0.13832229375839233,3.677323579788208,-0.562430739402771
0.16561824083328247,3.7149503231048584,-0.567663848400116
0.19273069500923157,3.7292137145996094,-0.5693380832672119
0.22070589661598206,3.7626333236694336,-0.5736170411109924
0.24936194717884064,3.799731731414795,-0.5782643556594849
0.27633705735206604,3.805797576904297,-0.5782034993171692
0.30432793498039246,3.8232219219207764,-0.5798894166946411
0.33403530716896057,3.851952314376831,-0.5832709074020386
0.36900821328163147,3.93827223777771,-0.5948492288589478
0.40367716550827026,4.008922100067139,-0.6040269732475281
0.43317052721977234,4.021665573120117,-0.6044744253158569
0.46641606092453003,4.0648980140686035,-0.6095098257064819
0.518528401851654,4.253599643707275,-0.6360129117965698
0.5608379244804382,4.34993314743042,-0.6483043432235718
0.595134437084198,4.37696647644043,-0.6502354741096497
0.6234394907951355,4.357802391052246,-0.6453155279159546
0.6738927364349365,4.4875264167785645,-0.6624192595481873
0.7055633664131165,4.4831390380859375,-0.6591383218765259
0.7404142618179321,4.501511573791504,-0.6591793894767761
0.7736631035804749,4.508173942565918,-0.6575112342834473
0.8030285239219666,4.4917402267456055,-0.6525002717971802
0.8342597484588623,4.486553192138672,-0.6489909887313843
0.8609118461608887,4.458443641662598,-0.6418206691741943
0.8938188552856445,4.460419654846191,-0.6389702558517456
0.9233328700065613,4.4470601081848145,-0.633985698223114
0.9494865536689758,4.418362140655518,-0.6268627643585205
0.9734107255935669,4.382051467895508,-0.6183236241340637
1.012397289276123,4.413538932800293,-0.6192611455917358
0.8669676184654236,3.661116361618042,-0.5107388496398926
0.8787418007850647,3.5990729331970215,-0.49923455715179443
0.9000055193901062,3.5783636569976807,-0.4934307038784027
0.9305479526519775,3.59509539604187,-0.49253320693969727
0.9533936381340027,3.581636667251587,-0.4875096380710602
0.9788058996200562,3.5753328800201416,-0.4834051728248596
1.0038156509399414,3.5689375400543213,-0.47935837507247925
1.024219274520874,3.547588348388672,-0.47303447127342224
1.0443012714385986,3.526146173477173,-0.46670082211494446
1.0687733888626099,3.519382953643799,-0.4623277485370636
1.0938464403152466,3.512259006500244,-0.45783835649490356
1.11588716506958,3.4977715015411377,-0.4523385465145111
1.140015721321106,3.4905877113342285,-0.4476397931575775
1.162840723991394,3.4795615673065186,-0.4424777328968048
1.1846774816513062,3.4645938873291016,-0.436790406703949
1.2063093185424805,3.4495036602020264,-0.4310930669307709
1.2356752157211304,3.456214189529419,-0.4278150200843811
1.2567672729492188,3.440957546234131,-0.42190366983413696
1.2807490825653076,3.4327239990234375,-0.4168258309364319
1.3545348644256592,3.5548675060272217,-0.4274269640445709
1.5759745836257935,4.052703380584717,-0.4822080731391907
1.6042588949203491,4.042352676391602,-0.4757761061191559
1.6293519735336304,4.0246734619140625,-0.46855172514915466
1.6456689834594727,3.985175848007202,-0.4588025212287903
1.6972229480743408,4.031773567199707,-0.45879295468330383
1.9713762998580933,4.595740795135498,-0.5167511105537415
1.9320316314697266,4.418849468231201,-0.490705281496048
1.9203193187713623,4.310143947601318,-0.4726242125034332
1.943618893623352,4.283437728881836,-0.46357274055480957
1.553804874420166,3.3637583255767822,-0.3591498136520386
1.5902103185653687,3.381751298904419,-0.3560914099216461
1.614314317703247,3.370969772338867,-0.3498048186302185
1.640854001045227,3.367432117462158,-0.34427785873413086
1.6706163883209229,3.370784282684326,-0.3393826186656952
2.271833658218384,4.5064167976379395,-0.4465991258621216
2.3052358627319336,4.4946608543396,-0.4381587505340576
2.3466875553131104,4.500370979309082,-0.4312842786312103
1.7175959348678589,3.239898920059204,-0.30499377846717834
1.7252719402313232,3.20109486579895,-0.29584696888923645
1.7196272611618042,3.138293504714966,-0.28455832600593567
1.7331674098968506,3.113609790802002,-0.27677345275878906
1.775183916091919,3.1397414207458496,-0.2734808623790741
1.366636872291565,2.377765655517578,-0.20257019996643066
1.2807693481445312,2.1938114166259766,-0.18274152278900146
0.9457345008850098,1.5956188440322876,-0.12985356152057648
0.9606762528419495,1.5960667133331299,-0.12673407793045044
0.9718273282051086,1.5895962715148926,-0.12298137694597244
0.9846082925796509,1.5865932703018188,-0.11941682547330856
0.9952407479286194,1.5802277326583862,-0.11561953276395798
1.0105258226394653,1.580049753189087,-0.11210957914590836
1.0167969465255737,1.5670099258422852,-0.10768386721611023
1.0206925868988037,1.5507543087005615,-0.10306863486766815
1.0361100435256958,1.5501686334609985,-0.09920834749937057
1.0463896989822388,1.543512225151062,-0.09501754492521286
2.552938222885132,3.7134859561920166,-0.21939332783222198
2.570019245147705,3.6832973957061768,-0.20780014991760254
2.598393678665161,3.6734936237335205,-0.1974019557237625
2.595975637435913,3.618304967880249,-0.18413829803466797
2.595360279083252,3.5663487911224365,-0.1709023267030716
2.6666839122772217,3.6162502765655518,-0.16245539486408234
2.6305148601531982,3.7230260372161865,0.3274511992931366
2.5932400226593018,3.7291336059570312,0.33741340041160583
2.557584762573242,3.7338666915893555,0.34653905034065247
1.068089485168457,1.5858876705169678,0.1508280485868454
1.0562442541122437,1.5934072732925415,0.1549379527568817
1.049087405204773,1.6070517301559448,0.15947918593883514
1.02399742603302,1.5950875282287598,0.16135932505130768
1.0119545459747314,1.6023763418197632,0.16507543623447418
1.0045452117919922,1.6158345937728882,0.16930539906024933
0.984273374080658,1.609688401222229,0.17134033143520355
0.9759611487388611,1.6234601736068726,0.1754682958126068
0.9642608165740967,1.6300866603851318,0.1786898821592331
1.3536155223846436,2.325477361679077,0.25838953256607056
1.3356149196624756,2.3353652954101562,0.262842059135437
1.7939443588256836,3.1921067237854004,0.36375731229782104
1.7563766241073608,3.176818370819092,0.3661460876464844
1.776394248008728,3.267141103744507,0.38073715567588806
1.7591570615768433,3.293447494506836,0.387790709733963
2.3871378898620605,4.55150842666626,0.5415182113647461
2.351240396499634,4.560570240020752,0.5477959513664246
2.3190526962280273,4.576172351837158,0.5548449158668518
2.288346767425537,4.599457740783691,0.5624560117721558
2.253993511199951,4.615562438964844,0.5692102313041687
2.219940423965454,4.63121223449707,0.5758820176124573
2.190678596496582,4.652914047241211,0.583121657371521
2.16038179397583,4.674829483032227,0.5902251601219177
2.125770330429077,4.689903259277344,0.5962811708450317
2.0973541736602783,4.71889591217041,0.6041520237922668
2.0670342445373535,4.739975929260254,0.6108794212341309
1.9980186223983765,4.671846389770508,0.6061201095581055
1.7361680269241333,4.1418561935424805,0.5405874848365784
1.7012778520584106,4.143120288848877,0.5438880920410156
1.6679075956344604,4.14769172668457,0.5476386547088623
1.644434928894043,4.17313289642334,0.5540386438369751
1.6146113872528076,4.1841535568237305,0.5586132407188416
1.5857206583023071,4.198764324188232,0.5633440613746643
1.563137412071228,4.231462478637695,0.5704380869865417
1.5295894145965576,4.2349019050598145,0.5736307501792908
1.502308964729309,4.252328872680664,0.5786526799201965
1.4770663976669312,4.277004718780518,0.5847321152687073
1.4465593099594116,4.286895275115967,0.5885598659515381
1.4178861379623413,4.30411958694458,0.5932208299636841
1.3843392133712769,4.306387901306152,0.5958482623100281
1.3559709787368774,4.323025703430176,0.6004571318626404
1.3320075273513794,4.354271411895752,0.6071380972862244
1.299288034439087,4.3555779457092285,0.6096031665802002
1.2721853256225586,4.379260063171387,0.6148218512535095
1.2427456378936768,4.395309925079346,0.6190081238746643
1.2110875844955444,4.403695583343506,0.6221502423286438
1.1832119226455688,4.422854423522949,0.6267984509468079
1.1537089347839355,4.438198089599609,0.6309735178947449
1.1223118305206299,4.445833683013916,0.6338379979133606
1.0922763347625732,4.460899353027344,0.6375505924224854
1.063868522644043,4.483288288116455,0.6423504948616028
1.0301820039749146,4.482831954956055,0.6439035534858704
1.005043864250183,4.519864559173584,0.6508775353431702
0.9702329635620117,4.511266708374023,0.6512893438339233
0.9335578083992004,4.494970798492432,0.6502818465232849
0.7662827372550964,3.826216697692871,0.5545796155929565
0.7390068173408508,3.8313159942626953,0.5563896894454956
0.8482470512390137,4.573858737945557,0.6655433177947998
0.8184024691581726,4.590769290924072,0.6693183183670044
0.789063572883606,4.611286163330078,0.6736573576927185
0.7615154385566711,4.64700174331665,0.6798902153968811
0.729784369468689,4.659672260284424,0.6826788783073425
0.696223258972168,4.664555549621582,0.6843786239624023
0.6656002402305603,4.684398651123047,0.6882873177528381
0.6345159411430359,4.700169086456299,0.6916280388832092
0.6017727851867676,4.704229831695557,0.6932815909385681
0.5733943581581116,4.746513843536377,0.700249195098877
0.5399195551872253,4.750263690948486,0.7014341950416565
0.5074926018714905,4.769205570220947,0.7049110531806946
0.47549253702163696,4.7878618240356445,0.7083720564842224
0.4436178207397461,4.806270122528076,0.71182781457901
0.41080138087272644,4.81676721572876,0.7141510844230652
0.37800097465515137,4.830948829650879,0.7167544364929199
0.34460341930389404,4.848838806152344,0.7197368144989014
0.3115512430667877,4.866461277008057,0.722711980342865
0.27832165360450745,4.883853912353516,0.7256904244422913
0.24507655203342438,4.901008129119873,0.7286689281463623
0.21132715046405792,4.91021203994751,0.7305020689964294
0.17690972983837128,4.923098564147949,0.7327146530151367
0.14294879138469696,4.939637660980225,0.7351837158203125
0.10910442471504211,4.97139310836792,0.7399535775184631
0.07464643567800522,4.987461090087891,0.7424249649047852
0.04002407565712929,5.003288269042969,0.7448971271514893
0.004648376256227493,5.030466556549072,0.7490991353988647
-0.030391717329621315,5.030364036560059,0.749182403087616
-0.06566041707992554,5.053264141082764,0.7522817254066467
-0.10078662633895874,5.052737712860107,0.7519285678863525
-0.13632431626319885,5.067417144775391,0.7538738250732422
-0.17272469401359558,5.10115385055542,0.7586886286735535
-0.20863553881645203,5.095998287200928,0.7577517628669739
-0.24572086334228516,5.129212379455566,0.7625594139099121
-0.2833326458930969,5.166096210479736,0.7674487233161926
-0.27088773250579834,4.385089874267578,0.6509162187576294
-0.2932744324207306,4.267571449279785,0.633004367351532
-0.32485806941986084,4.28477144241333,0.635107696056366
-0.35368120670318604,4.270966529846191,0.6326521635055542
-0.3857850134372711,4.295457363128662,0.6358985900878906
-0.4106159210205078,4.242837429046631,0.6274600028991699
-0.43350210785865784,4.17857027053833,0.6172032356262207
-0.4563889801502228,4.117981910705566,0.60752934217453
-0.4829867482185364,4.099547863006592,0.6041277050971985
-0.5043464303016663,4.038722038269043,0.5945134162902832
-0.5263566374778748,3.989295482635498,0.5866235494613647
-0.5480599999427795,3.943638563156128,0.5791324973106384
-0.5700271129608154,3.9016823768615723,0.5720027089118958
-0.5903581380844116,3.85585880279541,0.5643702149391174
-0.614406943321228,3.836653232574463,0.5606724619865417
-0.6328026056289673,3.782925605773926,0.5519606471061707
-0.6538024544715881,3.748169183731079,0.5460616946220398
-0.6700382828712463,3.690523147583008,0.5367331504821777
-0.6920880079269409,3.667041778564453,0.532149612903595
-0.706737756729126,3.609349489212036,0.5226681232452393
-0.7298601269721985,3.597107172012329,0.5198113322257996
-0.7413646578788757,3.5278477668762207,0.5087418556213379
-0.7585147619247437,3.4888346195220947,0.502088189125061
-0.7796504497528076,3.46858549118042,0.4980350434780121
-0.7997633218765259,3.4484148025512695,0.49381545186042786
-0.8196374773979187,3.4281280040740967,0.4896136224269867
-0.8392722606658936,3.4077274799346924,0.4854296147823334
-0.8486847281455994,3.345838785171509,0.475358784198761
-0.8684366941452026,3.3250646591186523,0.47115767002105713
-0.8832570910453796,3.289415121078491,0.46477147936820984
-0.9034590721130371,3.2762200832366943,0.4614105522632599
-0.9182514548301697,3.2442760467529297,0.4554453194141388
-0.9403049349784851,3.2382750511169434,0.4531485438346863
-0.9500107169151306,3.187324047088623,0.4445408284664154
-0.9676894545555115,3.1661319732666016,0.44015979766845703
-0.9812341332435608,3.133913040161133,0.43407920002937317
-0.9976993203163147,3.1128017902374268,0.42947134375572205
-1.0066810846328735,3.069523572921753,0.42185255885124207
-1.0280907154083252,3.0627777576446533,0.41924285888671875
-1.0444210767745972,3.0412237644195557,0.414634644985199
-1.061740517616272,3.023259401321411,0.4105340242385864
-1.0794364213943481,3.009136199951172,0.40672919154167175
-1.0863540172576904,2.9657864570617676,0.3990170359611511
-1.1090253591537476,2.9660348892211914,0.39720699191093445
-1.114869236946106,2.9186365604400635,0.3889552354812622
-1.1211830377578735,2.8750247955322266,0.38130635023117065
-1.1321467161178589,2.8460967540740967,0.37548354268074036
-1.1395668983459473,2.810084581375122,0.3686829209327698
-1.1584047079086304,2.802764654159546,0.36568427085876465
-1.1419110298156738,2.7091870307922363,0.3514191210269928
-1.1394047737121582,2.651624917984009,0.3419536352157593
-1.151361346244812,2.6299164295196533,0.3370738625526428
-1.1657521724700928,2.615476131439209,0.3330371379852295
-1.1864352226257324,2.615082263946533,0.3308010995388031
-1.2014087438583374,2.600101947784424,0.32664111256599426
-1.2393866777420044,2.6341967582702637,0.3286288380622864
-1.2506459951400757,2.6120872497558594,0.3234899938106537
-1.2611442804336548,2.590200185775757,0.31830593943595886
-1.2714059352874756,2.5682809352874756,0.3131586015224457
-1.2842472791671753,2.549288034439087,0.30825120210647583
-1.295069694519043,2.5267980098724365,0.302966833114624
-1.3084805011749268,2.5115649700164795,0.2984403073787689
-1.3142077922821045,2.482668161392212,0.2922810912132263
-1.3234195709228516,2.4605729579925537,0.28695148229599
-1.33320951461792,2.4380314350128174,0.2814776599407196
-1.340859293937683,2.4120774269104004,0.27556371688842773
-1.3528814315795898,2.3968803882598877,0.27084535360336304
-1.36089289188385,2.374876022338867,0.2653946876525879
-1.3695436716079712,2.352376937866211,0.25976815819740295
-1.3859820365905762,2.3431878089904785,0.2555970251560211
-1.4135431051254272,2.3544023036956787,0.2534097731113434
-1.396501898765564,2.292426109313965,0.24346405267715454
-1.4103449583053589,2.2798337936401367,0.2386455535888672
-1.4448610544204712,2.300060749053955,0.23715099692344666
-1.4472492933273315,2.2713940143585205,0.23048552870750427
-1.4665418863296509,2.2687385082244873,0.22641055285930634
-1.471763014793396,2.242602825164795,0.21980364620685577
-1.4889103174209595,2.2364211082458496,0.2151203602552414
-1.487971544265747,2.204710006713867,0.20796959102153778
-1.4764915704727173,2.1564888954162598,0.19914962351322174
-1.513841986656189,2.178549289703369,0.19656221568584442
-1.4850205183029175,2.108858346939087,0.185752272605896
-1.4990694522857666,2.0993833541870117,0.1801479458808899
-1.5135993957519531,2.089437246322632,0.1741902083158493
-1.5221503973007202,2.0740432739257812,0.167722687125206
-1.5221294164657593,2.0454776287078857,0.15991085767745972
-1.488558053970337,2.102236032485962,-0.10736372321844101
-1.4735722541809082,2.112429618835449,-0.11382008343935013
-1.468682050704956,2.1391849517822266,-0.12115892022848129
-1.487423300743103,2.2015764713287354,-0.1306324154138565
-1.4759933948516846,2.2182629108428955,-0.13715249300003052
-1.4548817873001099,2.222461223602295,-0.14288736879825592
-1.451406717300415,2.25223708152771,-0.15007124841213226
-1.449763536453247,2.285297393798828,-0.15742993354797363
-1.4239957332611084,2.282665967941284,-0.1624264121055603
-1.4116530418395996,2.299074411392212,-0.16845522820949554
-1.4073281288146973,2.3286921977996826,-0.17539465427398682
-1.4019598960876465,2.358754873275757,-0.18243731558322906
-1.392747402191162,2.38185977935791,-0.18889369070529938
-1.3601130247116089,2.364320993423462,-0.1920551210641861
-1.3541432619094849,2.394212007522583,-0.19893594086170197
-1.3290040493011475,2.3900089263916016,-0.20297376811504364
-1.330782175064087,2.4330811500549316,-0.21091699600219727
-1.314959168434143,2.445652961730957,-0.21623772382736206
-1.3002206087112427,2.461876392364502,-0.2219567447900772
-1.2969515323638916,2.498303174972534,-0.22936426103115082
-1.2864174842834473,2.5207905769348145,-0.2354952096939087
-1.2610118389129639,2.515740394592285,-0.23898039758205414
-1.2323077917099,2.5034687519073486,-0.2417377084493637
-1.2059247493743896,2.4942409992218018,-0.24465925991535187
-1.1898541450500488,2.5058107376098633,-0.24950820207595825
-1.1667344570159912,2.503345251083374,-0.2528809607028961
-1.193967342376709,2.6102747917175293,-0.26742368936538696
-1.170804500579834,2.607503652572632,-0.27077797055244446
-1.160054087638855,2.6331045627593994,-0.2770327925682068
-1.1375738382339478,2.6339595317840576,-0.280698299407959
-1.114094853401184,2.6308557987213135,-0.2838464081287384
-1.1030914783477783,2.6560885906219482,-0.28999215364456177
-1.0900909900665283,2.677786111831665,-0.2957257628440857
-1.0708458423614502,2.685086965560913,-0.2998100817203522
-1.0682305097579956,2.7357704639434814,-0.30885452032089233
-1.0462579727172852,2.735473871231079,-0.3120785355567932
-1.0391473770141602,2.7750816345214844,-0.3198254406452179
-1.0272849798202515,2.8038694858551025,-0.3262738883495331
-1.0124419927597046,2.8253064155578613,-0.33192434906959534
-1.002498745918274,2.861311674118042,-0.33934900164604187
-0.9822992086410522,2.867846965789795,-0.34322959184646606
-0.9728361964225769,2.907480239868164,-0.3509381115436554
-0.9616717100143433,2.943413257598877,-0.35827863216400146
-0.9457091689109802,2.964420795440674,-0.3638109266757965
-0.9303784370422363,2.989121913909912,-0.3698870837688446
-0.9204722046852112,3.0323116779327393,-0.3780086040496826
-0.9330574870109558,3.153607130050659,-0.3960060477256775
-0.9269322156906128,3.215534210205078,-0.4067051410675049
-0.965194046497345,3.4379830360412598,-0.4379548728466034
-0.9971007108688354,3.6499106884002686,-0.4680790305137634
-0.9806857109069824,3.6939752101898193,-0.4767969250679016
-0.9709581136703491,3.7641284465789795,-0.488933265209198
-0.9559939503669739,3.815413236618042,-0.4986838698387146
-0.9394078254699707,3.8629045486450195,-0.5079782605171204
-0.9192858338356018,3.899127721786499,-0.5155026316642761
-0.9025437235832214,3.9542291164398193,-0.525652289390564
-0.8798102736473083,3.982675075531006,-0.5322766304016113
-0.8551665544509888,4.00339937210083,-0.5379156470298767
-0.8340228199958801,4.043002128601074,-0.5458532571792603
-0.805506706237793,4.048347473144531,-0.5490531921386719
-0.7837564945220947,4.091599941253662,-0.5574882626533508
-0.7741811871528625,4.199319362640381,-0.5747501850128174
-0.7489643096923828,4.227040767669678,-0.5810961723327637
-0.7102401852607727,4.178380489349365,-0.5765126347541809
-0.682151198387146,4.1905198097229,-0.5803257822990417
-0.6523333787918091,4.194876670837402,-0.5831236243247986
-0.6208209991455078,4.183627605438232,-0.5837281346321106
-0.5823690891265869,4.122392654418945,-0.5770474672317505
-0.5483368039131165,4.087718963623047,-0.5738449692726135
-0.5182314515113831,4.079641819000244,-0.5743841528892517
-0.4939262866973877,4.1174211502075195,-0.5814095139503479
-0.2310740351676941,2.0487215518951416,-0.2901700437068939
-0.4359329342842102,4.123422145843506,-0.5852416753768921
-0.3975696563720703,4.029915809631348,-0.5731818675994873
-0.36874833703041077,4.024662971496582,-0.5736669301986694
-0.3407367467880249,4.0269060134887695,-0.5752429962158203
-0.31458258628845215,4.05986213684082,-0.5810680985450745
-0.28162363171577454,3.996232271194458,-0.5727247595787048
-0.25495633482933044,4.017246246337891,-0.5765315890312195
-0.22876180708408356,4.049656867980957,-0.5820091962814331
-0.19941897690296173,4.027829647064209,-0.5797223448753357
-0.17186897993087769,4.052223205566406,-0.5837240815162659
-0.14186428487300873,4.003018856048584,-0.5769848227500916
-0.11373110115528107,3.9961094856262207,-0.5763651728630066
-0.08651388436555862,4.02379035949707,-0.5807635188102722
-0.05908438563346863,4.062885761260986,-0.5868076086044312
-0.0302497036755085,4.05547571182251,-0.5856507420539856
-0.00201611639931798,4.047861576080322,-0.5844946503639221
0.026159977540373802,4.047783374786377,-0.584455132484436
0.05426913499832153,4.047509670257568,-0.5844157934188843
0.081693634390831,4.0122857093811035,-0.5791209936141968
0.11073336005210876,4.054221153259277,-0.5846513509750366
0.1401941329240799,4.076610088348389,-0.5873746275901794
0.16887208819389343,4.083350658416748,-0.58787602186203
0.1983971744775772,4.105337142944336,-0.5905975699424744
0.22756333649158478,4.115588665008545,-0.5912373065948486
0.25711169838905334,4.12951135635376,-0.5922957062721252
0.28522780537605286,4.112329006195068,-0.5889053344726562
0.32648563385009766,4.27621603012085,-0.6114564538002014
0.37388134002685547,4.485990047454834,-0.640449583530426
0.4116032123565674,4.556739330291748,-0.6490092277526855
0.44695255160331726,4.592540264129639,-0.6525847911834717
0.48341697454452515,4.6280131340026855,-0.6560922861099243
0.5178090929985046,4.644027233123779,-0.6568753123283386
0.5477917790412903,4.62142276763916,-0.6519481539726257
0.580307126045227,4.621705055236816,-0.6499775052070618
0.6087836623191833,4.591074466705322,-0.643700361251831
0.6391686201095581,4.5716729164123535,-0.6390043497085571
0.6687222123146057,4.552148342132568,-0.6343713402748108
0.7002796530723572,4.547813415527344,-0.6314055919647217
0.7305169105529785,4.535635948181152,-0.6273073554039001
0.7632589936256409,4.538511276245117,-0.6253155469894409
0.7875304222106934,4.4915595054626465,-0.6164957284927368
0.8123212456703186,4.448234558105469,-0.6080715656280518
0.8524845242500305,4.492435455322266,-0.6112759113311768
0.8663293123245239,4.399532318115234,-0.5958808064460754
0.7513023614883423,3.6805331707000732,-0.49619925022125244
0.7713724374771118,3.6490707397460938,-0.4896884560585022
0.8004200458526611,3.659106969833374,-0.4884570837020874
0.8239859938621521,3.6463735103607178,-0.4841209352016449
0.8457108736038208,3.6259262561798096,-0.4787941575050354
0.8728001117706299,3.627912998199463,-0.47644054889678955
0.8980811834335327,3.6221840381622314,-0.47303351759910583
0.9177649021148682,3.593742847442627,-0.46633267402648926
0.9425561428070068,3.5877978801727295,-0.46264541149139404
0.96750408411026,3.5816290378570557,-0.4589284360408783
0.9904202818870544,3.5677897930145264,-0.45424723625183105
1.012997031211853,3.5538816452026367,-0.44936853647232056
1.037904143333435,3.5472044944763184,-0.4452674388885498
1.0624110698699951,3.5404481887817383,-0.4412243664264679
1.0848912000656128,3.5260164737701416,-0.43621379137039185
1.1047965288162231,3.5040740966796875,-0.4302409887313843
1.1289317607879639,3.4969072341918945,-0.4258793294429779
1.1534429788589478,3.4894378185272217,-0.4214402437210083
1.1765007972717285,3.4781653881073,-0.4165889322757721
1.2008039951324463,3.4703776836395264,-0.41216766834259033
1.2790327072143555,3.616309881210327,-0.4256231188774109
1.467476725578308,4.060840129852295,-0.4735538959503174
1.5036427974700928,4.0730791091918945,-0.4705432057380676
1.5381571054458618,4.0774407386779785,-0.466471791267395
1.5579941272735596,4.045597076416016,-0.458205908536911
1.58858060836792,4.042696475982666,-0.453146368265152
1.6192859411239624,4.039528846740723,-0.44804614782333374
1.6446070671081543,4.021553993225098,-0.441244900226593
1.6819419860839844,4.032040119171143,-0.4373939335346222
1.7535496950149536,4.1248779296875,-0.4422857165336609
1.9625459909439087,4.530872821807861,-0.4801086485385895
1.912601113319397,4.332788467407227,-0.4535190463066101
1.9299263954162598,4.2917351722717285,-0.4436050355434418
1.956369400024414,4.27193021774292,-0.43569856882095337
1.9574730396270752,4.199285507202148,-0.4226137697696686
1.593159556388855,3.3566746711730957,-0.33313125371932983
1.6367453336715698,3.388143539428711,-0.3314734697341919
1.6528156995773315,3.363572359085083,-0.32420504093170166
2.2294883728027344,4.459743499755859,-0.42326292395591736
2.285482883453369,4.493308067321777,-0.41966676712036133
2.3218486309051514,4.488545894622803,-0.4123659133911133
2.3666443824768066,4.501075267791748,-0.40651935338974
1.7254996299743652,3.228504180908203,-0.2864929437637329
1.7444185018539429,3.2100107669830322,-0.2796221375465393
1.7308753728866577,3.1335911750793457,-0.2676856815814972
1.7519131898880005,3.122401714324951,-0.2615053057670593
1.7946563959121704,3.1479930877685547,-0.25821417570114136
1.3419376611709595,2.3165299892425537,-0.18592466413974762
0.9404828548431396,1.599069595336914,-0.1254749447107315
0.9573871493339539,1.602908968925476,-0.1228182390332222
0.9686281681060791,1.5964101552963257,-0.11927281320095062
0.979414165019989,1.59007728099823,-0.11573074012994766
0.9878799915313721,1.5804895162582397,-0.11196020990610123
0.994646430015564,1.5672681331634521,-0.10781610012054443
1.0055004358291626,1.5605828762054443,-0.10404487699270248
1.0157350301742554,1.554184079170227,-0.1003471091389656
1.0371627807617188,1.563673973083496,-0.09749617427587509
1.0412826538085938,1.547088623046875,-0.09293258935213089
1.0513333082199097,1.54050874710083,-0.08899737894535065
2.5530149936676025,3.685819625854492,-0.20375534892082214
2.577723264694214,3.6691324710845947,-0.1935899257659912
2.6013412475585938,3.652949094772339,-0.18345597386360168
2.588047981262207,3.5813586711883545,-0.16987505555152893
2.64565372467041,3.612358570098877,-0.16119255125522614
2.692948341369629,3.6264822483062744,-0.151053786277771
2.6373746395111084,3.701474189758301,0.2975274324417114
2.594371795654297,3.7023231983184814,0.3070247769355774
2.5723328590393066,3.726315498352051,0.3174341320991516
1.0530967712402344,1.550140142440796,0.13543179631233215
1.0626546144485474,1.590317726135254,0.14233465492725372
1.0471199750900269,1.5909372568130493,0.1454489827156067
1.043392539024353,1.6116276979446411,0.15040412545204163
1.0225390195846558,1.6061605215072632,0.15283828973770142
0.9945417642593384,1.5866845846176147,0.153646320104599
0.9952601790428162,1.6134229898452759,0.1588572859764099
0.9829150438308716,1.6206505298614502,0.16211619973182678
0.9706883430480957,1.6276800632476807,0.16532914340496063
0.9631207585334778,1.6408910751342773,0.16903112828731537
1.3494623899459839,2.3384909629821777,0.24411943554878235
1.8286898136138916,3.2245595455169678,0.340994268655777
1.761741280555725,3.158996105194092,0.338139146566391
1.7540488243103027,3.1982288360595703,0.3464089632034302
1.7762975692749023,3.2962160110473633,0.36090734601020813
1.7515459060668945,3.308859348297119,0.3661477863788605
2.373450517654419,4.5622992515563965,0.5099601149559021
2.337858200073242,4.571155548095703,0.5159147381782532
2.3020882606506348,4.584171772003174,0.5221795439720154
2.26796555519104,4.600411415100098,0.5286415219306946
2.2359023094177246,4.619662284851074,0.5354166626930237
2.210141897201538,4.6485443115234375,0.5431559085845947
2.173804759979248,4.656368255615234,0.5483677983283997
2.142606735229492,4.6786675453186035,0.5549953579902649
2.1105544567108154,4.70102596282959,0.5617468357086182
2.076963186264038,4.7152910232543945,0.5673585534095764
2.0345959663391113,4.707696437835693,0.5702856183052063
1.7568532228469849,4.146108627319336,0.5054477453231812
1.7159503698349,4.133247375488281,0.5069038271903992
1.679200291633606,4.130998611450195,0.5097116231918335
1.655683994293213,4.156658172607422,0.5158271789550781
1.6264677047729492,4.1676411628723145,0.5201351046562195
1.6019823551177979,4.193216323852539,0.5260713696479797
1.572690725326538,4.207929611206055,0.5305311679840088
1.5440510511398315,4.2262678146362305,0.5355303883552551
1.519370198249817,4.251189231872559,0.5412740707397461
1.4844919443130493,4.246573448181152,0.5432565808296204
1.4618134498596191,4.2785539627075195,0.5497764945030212
1.4283711910247803,4.281208515167236,0.5523411631584167
1.4015898704528809,4.305901527404785,0.5578241348266602
1.3732138872146606,4.322720527648926,0.562252938747406
1.345293402671814,4.339165210723877,0.5666229128837585
1.3171017169952393,4.355461597442627,0.5709821581840515
1.2879117727279663,4.371865272521973,0.574992835521698
1.2563730478286743,4.380632400512695,0.5780346989631653
1.2242531776428223,4.389309406280518,0.5811264514923096
1.1935527324676514,4.397366046905518,0.5840758681297302
1.1677427291870117,4.423935890197754,0.5895209908485413
1.1383565664291382,4.439218997955322,0.5932855010032654
1.1084158420562744,4.454428195953369,0.5968741178512573
1.0777254104614258,4.469568729400635,0.600519061088562
1.0477375984191895,4.4843034744262695,0.6041027903556824
1.0198981761932373,4.506260871887207,0.6086674928665161
0.9868319034576416,4.505346775054932,0.6101749539375305
0.9580940008163452,4.5270819664001465,0.6144216060638428
0.7827779054641724,3.8355555534362793,0.5216332674026489
0.7539699673652649,3.833188056945801,0.5223810076713562
0.7269941568374634,3.838155746459961,0.5241398811340332
0.8348567485809326,4.581762790679932,0.6269944310188293
0.8049535155296326,4.598617076873779,0.6306383609771729
0.7743498682975769,4.619335174560547,0.6344408392906189
0.744083046913147,4.6397624015808105,0.6381890177726746
0.7146880626678467,4.667649269104004,0.6430045962333679
0.6819278597831726,4.672321319580078,0.6446486711502075
0.6503989100456238,4.684403419494629,0.6473421454429626
0.6191501617431641,4.704019546508789,0.6511329412460327
0.5874258279800415,4.719621181488037,0.6539190411567688
0.5549951195716858,4.731173992156982,0.6561620235443115
0.522430419921875,4.7425031661987305,0.6584087610244751
0.491574227809906,4.768978118896484,0.6627901196479797
0.45983755588531494,4.787528991699219,0.6661038398742676
0.42661646008491516,4.798205852508545,0.6683712601661682
0.39420104026794434,4.816399574279785,0.6712861061096191
0.36036449670791626,4.818949222564697,0.6720024347305298
0.3283414840698242,4.848282814025879,0.676488995552063
0.2953784167766571,4.865806579589844,0.6793627738952637
0.2614039480686188,4.875396728515625,0.681169331073761
0.22927679121494293,4.915642738342285,0.6872896552085876
0.19501835107803345,4.917070388793945,0.6876515746116638
0.1612938791513443,4.937612056732178,0.6905941367149353
0.12744484841823578,4.961787223815918,0.6940792798995972
0.09224191308021545,4.9625325202941895,0.694323718547821
0.058038514107465744,4.993967533111572,0.6988945603370667
0.023293646052479744,5.001953601837158,0.7002191543579102
-0.011621266603469849,5.036816120147705,0.7050557732582092
-0.04684080928564072,5.052123546600342,0.7069609761238098
-0.08275032788515091,5.059438228607178,0.707777738571167
-0.11852393299341202,5.081981182098389,0.7107618451118469
-0.1533346176147461,5.065605163574219,0.7083373665809631
-0.19008205831050873,5.106980800628662,0.7140219807624817
-0.22536587715148926,5.1017351150512695,0.7130398750305176
-0.2635970413684845,5.158117771148682,0.7203710675239563
-0.29722657799720764,5.109894752502441,0.7131170034408569
-0.2825310528278351,4.339527130126953,0.6052033305168152
-0.308498352766037,4.279664993286133,0.5964827537536621
-0.33761245012283325,4.26979398727417,0.5947642922401428
-0.37025973200798035,4.302138328552246,0.598883330821991
-0.39572855830192566,4.249505519866943,0.590831458568573
-0.4219116270542145,4.2160234451293945,0.5854962468147278
-0.44399023056030273,4.1477484703063965,0.5753710269927979
-0.46659326553344727,4.090887546539307,0.5668720006942749
-0.49084198474884033,4.053110599517822,0.5610558986663818
-0.5146034359931946,4.011292934417725,0.5547001361846924
-0.5385160446166992,3.981008529663086,0.5496032238006592
-0.5582209825515747,3.923760175704956,0.5408278703689575
-0.5800221562385559,3.8855669498443604,0.5347238183021545
-0.6033220291137695,3.8586997985839844,0.5302097797393799
-0.6230940818786621,3.808685302734375,0.5225383639335632
-0.6424042582511902,3.762468099594116,0.5154446959495544
-0.6627246737480164,3.7277166843414307,0.5096195936203003
-0.6804556846618652,3.6814486980438232,0.5022371411323547
-0.6968554854393005,3.6313059329986572,0.49437451362609863
-0.7203837633132935,3.619040012359619,0.49169766902923584
-0.7358754873275757,3.564765214920044,0.4833247661590576
-0.755861222743988,3.5370466709136963,0.4786137342453003
-0.769173800945282,3.482893466949463,0.47005972266197205
-0.7912136316299438,3.470266819000244,0.46712687611579895
-0.8095698356628418,3.442418336868286,0.4621773064136505
-0.8245546817779541,3.399275064468384,0.45518574118614197
-0.8453446626663208,3.3824427127838135,0.4517670273780823
-0.8610938787460327,3.3467299938201904,0.44585245847702026
-0.8797922134399414,3.3261234760284424,0.4416958689689636
-0.8921864628791809,3.282970428466797,0.4345855116844177
-0.909598171710968,3.258364200592041,0.4299522638320923
-0.9257092475891113,3.2299273014068604,0.42484742403030396
-0.9438480138778687,3.2088019847869873,0.42072877287864685
-0.9592831134796143,3.180230140686035,0.41559016704559326
-0.9750643968582153,3.155460834503174,0.4107699990272522
-0.9873754382133484,3.119431257247925,0.4045027196407318
-1.003749966621399,3.0982115268707275,0.4002167582511902
-1.015590786933899,3.062000274658203,0.393992155790329
-1.039467215538025,3.0624794960021973,0.3925169110298157
-1.0463693141937256,3.015338897705078,0.38479113578796387
-1.0666818618774414,3.0085465908050537,0.382173091173172
-1.0767428874969482,2.9723145961761475,0.3758189082145691
-1.0972083806991577,2.965155601501465,0.3731686472892761
-1.1000417470932007,2.910585403442383,0.3645763695240021
-1.125694990158081,2.9177396297454834,0.3636836111545563
-1.1225024461746216,2.8527045249938965,0.35365772247314453
-1.1506128311157227,2.866943597793579,0.3534667491912842
-1.1494923830032349,2.8091189861297607,0.3444344401359558
-1.1526890993118286,2.7619504928588867,0.3367292881011963
-1.1430888175964355,2.686302661895752,0.32562586665153503
-1.1425100564956665,2.6362040042877197,0.3175096809864044
-1.1604384183883667,2.628718614578247,0.3145371675491333
-1.1781824827194214,2.621166229248047,0.3115867078304291
-1.1965229511260986,2.613208055496216,0.3085278272628784
-1.2278653383255005,2.633319139480591,0.3087575435638428
-1.2487057447433472,2.632483720779419,0.3063198924064636
-1.2529997825622559,2.5963568687438965,0.2997686564922333
-1.2877042293548584,2.623059034347534,0.30047619342803955
-1.3060173988342285,2.614381790161133,0.297039657831192
-1.2940298318862915,2.5468297004699707,0.2869197726249695
-1.3001530170440674,2.51788067817688,0.28111594915390015
-1.3095413446426392,2.49584698677063,0.2761344611644745
-1.3197176456451416,2.473269462585449,0.270976185798645
-1.3296208381652832,2.450673818588257,0.26586174964904785
-1.3327699899673462,2.418322801589966,0.25960415601730347
-1.3524616956710815,2.416677951812744,0.256644606590271
-1.3572074174880981,2.387603998184204,0.25072962045669556
-1.3626043796539307,2.3580210208892822,0.24464787542819977
-1.3785029649734497,2.3491687774658203,0.24071240425109863
-1.4098142385482788,2.3672285079956055,0.23944716155529022
-1.4095202684402466,2.331505060195923,0.2326890379190445
-1.4299627542495728,2.328587532043457,0.22908174991607666
-1.4293034076690674,2.292800188064575,0.2221299707889557
-1.4441523551940918,2.2838895320892334,0.21784034371376038
-1.4511487483978271,2.261387586593628,0.21214042603969574
-1.4563723802566528,2.2352499961853027,0.20601683855056763
-1.47506582736969,2.2327258586883545,0.20196911692619324
-1.5091511011123657,2.2525839805603027,0.19982372224330902
-1.500838279724121,2.2069389820098877,0.1915985494852066
-1.5065853595733643,2.184546947479248,0.18543273210525513
-1.5070407390594482,2.1561882495880127,0.17878970503807068
-1.497050166130066,2.1112313270568848,0.1705351620912552
-1.506759762763977,2.0951592922210693,0.1644817590713501
-1.515321135520935,2.079756736755371,0.1585589200258255
-1.5251461267471313,2.063324213027954,0.15208283066749573
-1.525777816772461,2.1384310722351074,-0.10130494832992554
-1.5106679201126099,2.1488254070281982,-0.1076083704829216
-1.4764070510864258,2.134329319000244,-0.11259789019823074
-1.4827202558517456,2.1770036220550537,-0.12034182250499725
-1.4843453168869019,2.2132513523101807,-0.12764957547187805
