X,Y,Z
1.6103068590164185,4.7300519943237305,0.1830897331237793
1.5663964748382568,4.71182107925415,0.18335789442062378
1.5373733043670654,4.737733840942383,0.18534789979457855
1.518547773361206,4.792908191680908,0.18847355246543884
1.4822893142700195,4.796019554138184,0.18958595395088196
1.448246717453003,4.806357383728027,0.19087772071361542
1.4324826002120972,4.880226135253906,0.19467176496982574
1.4082711935043335,4.927825927734375,0.19744470715522766
1.381266474723816,4.963780403137207,0.19974856078624725
1.3038386106491089,4.81498384475708,0.1946043223142624
1.2732552289962769,4.839260578155518,0.1963842511177063
1.2387181520462036,4.848171234130859,0.19747819006443024
1.2163289785385132,4.906085968017578,0.2005857229232788
1.1819612979888916,4.914434432983398,0.20167042315006256
1.1512656211853027,4.937704563140869,0.20337557792663574
1.1212434768676758,4.968574523925781,0.20538291335105896
1.0909051895141602,4.999256610870361,0.20726226270198822
1.0569671392440796,5.0144805908203125,0.2085149735212326
1.0216000080108643,5.0217671394348145,0.20944388210773468
0.9821538329124451,5.005730152130127,0.20939895510673523
2.1903915405273438,11.59743595123291,0.4866335093975067
2.0771071910858154,11.439726829528809,0.4811561107635498
1.9593480825424194,11.242578506469727,0.4739387035369873
1.861088514328003,11.144455909729004,0.47088995575904846
1.7574881315231323,10.995223999023438,0.46566158533096313
1.66255521774292,10.895432472229004,0.4625394642353058
1.5533170700073242,10.678842544555664,0.4543211758136749
1.4603177309036255,10.56190299987793,0.4501054286956787
1.3818306922912598,10.540918350219727,0.4499887228012085
1.2833768129348755,10.352771759033203,0.4427376687526703
1.192763090133667,10.202468872070312,0.4370928108692169
1.1124829053878784,10.136890411376953,0.4350946843624115
1.0308154821395874,10.039562225341797,0.43149229884147644
0.16042204201221466,1.6783044338226318,0.0722162052989006
0.3816082775592804,4.311192035675049,0.18573175370693207
0.3467479646205902,4.25538969039917,0.18355692923069
0.31776729226112366,4.273290634155273,0.18457144498825073
0.2884857654571533,4.283176422119141,0.18523913621902466
0.26153862476348877,4.335724830627441,0.18762488663196564
0.23116938769817352,4.337441444396973,0.18782146275043488
0.1984436959028244,4.288266181945801,0.18582195043563843
0.17009525001049042,4.3402485847473145,0.18821655213832855
0.13727372884750366,4.259406089782715,0.18485677242279053
0.108617402613163,4.299264907836914,0.18669405579566956
0.07836805284023285,4.284307956695557,0.18606682121753693
0.04868697375059128,4.304259777069092,0.18696483969688416
0.007117456290870905,1.68589448928833,0.07324665784835815
-0.011973431333899498,4.390371322631836,0.19079801440238953
-0.04071084409952164,4.202864646911621,0.18270668387413025
-0.06775207817554474,4.073715686798096,0.17706508934497833
-0.09588083624839783,4.065348148345947,0.17662382125854492
-0.1275896281003952,4.177709579467773,0.18143455684185028
-0.1548832803964615,4.11821174621582,0.17878839373588562
-0.1840246617794037,4.128736972808838,0.17919258773326874
-0.18318986892700195,3.5544424057006836,0.154229536652565
-0.20639005303382874,3.529723882675171,0.15302635729312897
-0.2318248599767685,3.543797492980957,0.15349702537059784
-0.25506770610809326,3.5187323093414307,0.15227781236171722
-0.30544549226760864,3.843677043914795,0.16620436310768127
-0.33113744854927063,3.8298072814941406,0.16547687351703644
-0.34790587425231934,3.722512722015381,0.16070646047592163
-0.3661462962627411,3.6462619304656982,0.1571812480688095
-0.3850269317626953,3.5815348625183105,0.1541650891304016
-0.4079281687736511,3.563300848007202,0.15316623449325562
-0.7669767737388611,6.311078071594238,0.2709079682826996
-0.807783305644989,6.282402038574219,0.26932185888290405
-0.8422963619232178,6.210948944091797,0.26582881808280945
-0.87961345911026,6.162445545196533,0.2632174789905548
-0.919624388217926,6.14085054397583,0.2617819905281067
-0.5199878811836243,3.315887212753296,0.14108285307884216
-0.5430186986923218,3.312211513519287,0.14065894484519958
-0.563390851020813,3.2929880619049072,0.1395827829837799
-0.5791431665420532,3.2506399154663086,0.13745495676994324
-0.5953601598739624,3.212013006210327,0.1354736089706421
-0.6158642172813416,3.2002174854278564,0.1346406489610672
-0.6303977370262146,3.1576178073883057,0.1325186938047409
-0.6420583128929138,3.1034934520721436,0.1299276351928711
-0.6536851525306702,3.053206205368042,0.1274890899658203
-0.6706514954566956,3.02956485748291,0.12609434127807617
-0.6913005113601685,3.024944305419922,0.1255069524049759
-0.7102403044700623,3.0125584602355957,0.12460204213857651
-0.6933935284614563,2.8520667552948,0.11759267747402191
-0.6990078091621399,2.790400505065918,0.11469122022390366
-0.7125652432441711,2.7628164291381836,0.11312789469957352
-0.7263790965080261,2.7390570640563965,0.11172080039978027
-0.7450081706047058,2.734074592590332,0.11108832061290741
-0.7734004855155945,2.7627029418945312,0.11181387305259705
-0.8109028339385986,2.8210651874542236,0.11373160034418106
-0.9200478792190552,3.11861252784729,0.1251906156539917
-0.9456079602241516,3.1273062229156494,0.12496387958526611
-0.9794405698776245,3.1618878841400146,0.12576629221439362
-1.0106432437896729,3.1848649978637695,0.1260891854763031
-1.074985384941101,3.3077304363250732,0.13033758103847504
-1.0883808135986328,3.2704885005950928,0.1282312273979187
-1.134325385093689,3.333320140838623,0.12998121976852417
-1.1695947647094727,3.36250638961792,0.13040314614772797
-1.1925864219665527,3.3544607162475586,0.12936824560165405
-1.466512680053711,4.0359039306640625,0.1547689437866211
-1.5148130655288696,4.080593585968018,0.15557964146137238
-1.5371003150939941,4.055609703063965,0.1536155492067337
-1.5586429834365845,4.030694007873535,0.1516856998205185
-1.5832574367523193,4.012749195098877,0.15001323819160461
-2.2526981830596924,5.595114231109619,0.2077532261610031
-2.307528018951416,5.619251728057861,0.20720337331295013
-2.354764461517334,5.625102519989014,0.2058442085981369
-2.3739359378814697,5.566219806671143,0.20215940475463867
-2.4074106216430664,5.539133548736572,0.19961291551589966
-2.5154242515563965,5.679409980773926,0.2030450701713562
-2.5475800037384033,5.648013114929199,0.20023676753044128
-2.52217698097229,5.492365837097168,0.19297532737255096
-1.5107409954071045,3.232973575592041,0.11258027702569962
-1.5231791734695435,3.2012581825256348,0.11042586714029312
-1.5420571565628052,3.183581590652466,0.10877037793397903
-1.549372673034668,3.1452951431274414,0.10635264962911606
-1.5705589056015015,3.134819984436035,0.10486685484647751
-1.606085181236267,3.15191650390625,0.10428570210933685
-1.6315548419952393,3.147657632827759,0.10296770930290222
-1.6726720333099365,3.1746835708618164,0.10262256860733032
-1.7395840883255005,3.2497284412384033,0.10376331210136414
-1.794954538345337,3.2997684478759766,0.10402381420135498
-1.1907390356063843,2.1526432037353516,0.06693918257951736
-1.1822258234024048,2.1037771701812744,0.06450966000556946
-1.923564076423645,3.3713135719299316,0.1018807664513588
-1.961769938468933,3.3854382038116455,0.10075889527797699
-1.96549654006958,3.338097095489502,0.09775400906801224
-1.2345227003097534,2.064573049545288,0.059425611048936844
-1.2560145854949951,2.0698983669281006,0.058540601283311844
-2.5073535442352295,4.069493293762207,0.11294390261173248
-2.5354862213134766,4.052098274230957,0.11026263236999512
-2.5468320846557617,4.012709140777588,0.10694359242916107
-2.569176435470581,3.9892261028289795,0.10399673134088516
-2.5754733085632324,3.9386584758758545,0.10026179254055023
-2.573214530944824,3.879426956176758,0.09632168710231781
-2.5935330390930176,3.8565337657928467,0.09329875558614731
-2.6069726943969727,3.819196939468384,0.089734748005867
-2.603644609451294,3.759944438934326,0.08562136441469193
-2.651995897293091,3.7786762714385986,0.08332274109125137
-2.664614677429199,3.741129159927368,0.07949698716402054
-2.7068605422973633,3.749354839324951,0.07661609351634979
-2.749398946762085,3.757134199142456,0.07357201725244522
-2.8819594383239746,3.882699728012085,0.0724172294139862
-2.96964168548584,4.185643196105957,-0.08595232665538788
-2.4412341117858887,3.4971816539764404,-0.07518225908279419
-2.43890643119812,3.546234130859375,-0.07932282239198685
-2.8556902408599854,4.221551895141602,-0.09812667965888977
-2.8659839630126953,4.303917407989502,-0.10354258865118027
-2.8524441719055176,4.350218296051025,-0.10801734030246735
-2.802487850189209,4.345340728759766,-0.11121319234371185
-2.1141185760498047,3.3299129009246826,-0.0876041129231453
-2.0858426094055176,3.3384180068969727,-0.0901700034737587
-1.2552987337112427,2.042921543121338,-0.05656351149082184
-1.252782940864563,2.0718514919281006,-0.05869799479842186
-2.001155376434326,3.362407684326172,-0.0973535031080246
-1.9840525388717651,3.3905651569366455,-0.10023703426122665
-1.9355485439300537,3.3644587993621826,-0.10150031745433807
-1.1964670419692993,2.1136763095855713,-0.06496470421552658
-1.2001136541366577,2.156363010406494,-0.06746970862150192
-1.9018239974975586,3.477182626724243,-0.11069415509700775
-1.8606141805648804,3.459484100341797,-0.11192865669727325
-1.6607199907302856,3.1412017345428467,-0.1032627746462822
-1.6088529825210571,3.0977866649627686,-0.1033669114112854
-1.5933029651641846,3.1232919692993164,-0.10574870556592941
-1.5645414590835571,3.120274543762207,-0.10709886997938156
-1.5425249338150024,3.1311545372009277,-0.10891202092170715
-1.5227042436599731,3.1494534015655518,-0.11097422242164612
-1.5099817514419556,3.181459426879883,-0.11350209265947342
-2.39335560798645,5.13452672958374,-0.1853533536195755
-2.3685619831085205,5.175980567932129,-0.18900685012340546
-2.3406035900115967,5.214271068572998,-0.19249022006988525
-2.293455123901367,5.209497451782227,-0.19438748061656952
-2.217789649963379,5.135919094085693,-0.1936454176902771
-2.1773102283477783,5.140397548675537,-0.19577106833457947
-1.6118720769882202,3.883129358291626,-0.14928404986858368
-1.5749735832214355,3.872896671295166,-0.1502837836742401
-1.5535626411437988,3.8982796669006348,-0.15263022482395172
-1.5358282327651978,3.934577465057373,-0.15544064342975616
-1.5077232122421265,3.9453647136688232,-0.15715914964675903
-1.4902650117874146,3.985281467437744,-0.1600308120250702
-1.4672974348068237,4.010356903076172,-0.1623130887746811
-1.4419634342193604,4.027760982513428,-0.16427554190158844
-1.4105647802352905,4.0305256843566895,-0.16564157605171204
-1.3892502784729004,4.062616348266602,-0.16812346875667572
-1.3601291179656982,4.072393417358398,-0.16969692707061768
-1.3340281248092651,4.089166164398193,-0.17154572904109955
-0.9821044206619263,3.083015203475952,-0.13020169734954834
-0.9691274166107178,3.119783401489258,-0.1325826495885849
-0.9468575119972229,3.126568555831909,-0.13365426659584045
-0.8163599967956543,2.766324758529663,-0.11894818395376205
-0.7906075716018677,2.749396800994873,-0.11889880895614624
-0.7662061452865601,2.735997438430786,-0.11899679899215698
-0.7447182536125183,2.7337987422943115,-0.11950241029262543
-0.7249347567558289,2.739074468612671,-0.12034159898757935
-0.7124102115631104,2.7705392837524414,-0.12232811748981476
-0.6827206611633301,2.733741521835327,-0.12129529565572739
-1.3687483072280884,5.647451877593994,-0.251792311668396
-1.3456881046295166,5.729118347167969,-0.25649064779281616
-1.2966609001159668,5.7043328285217285,-0.2564600110054016
-1.2582207918167114,5.720860481262207,-0.2582697570323944
-1.213468074798584,5.706518650054932,-0.258686363697052
-1.1736655235290527,5.714772701263428,-0.26010817289352417
-1.1241426467895508,5.676934242248535,-0.2592501938343048
-1.0862540006637573,5.700139045715332,-0.2612026631832123
-1.069454550743103,5.834228038787842,-0.268250435590744
-1.0180280208587646,5.779977321624756,-0.26665371656417847
-0.9614582061767578,5.6906867027282715,-0.2634086012840271
-0.9456760287284851,5.847498893737793,-0.27137991786003113
-0.9365067481994629,6.066179275512695,-0.28229406476020813
-0.6882638335227966,4.675044536590576,-0.21814265847206116
-0.6714210510253906,4.791747570037842,-0.22419464588165283
-0.6416639089584351,4.82334041595459,-0.22629161179065704
-0.5883256196975708,4.672833442687988,-0.21966169774532318
-0.552737832069397,4.653571128845215,-0.21919627487659454
-0.5230463743209839,4.688382625579834,-0.22129598259925842
-0.4850941002368927,4.6414337158203125,-0.21953554451465607
-0.4599778354167938,4.718453884124756,-0.22365126013755798
-0.4301117956638336,4.756509304046631,-0.22577416896820068
-0.48393765091896057,5.805364608764648,-0.2759294807910919
-0.26620054244995117,3.493741750717163,-0.16629205644130707
-0.24299302697181702,3.5110626220703125,-0.1673540472984314
-0.21907290816307068,3.520439624786377,-0.16804710030555725
-0.3171457350254059,5.742520332336426,-0.27438029646873474
-0.2751908302307129,5.705606460571289,-0.27281731367111206
-0.23368386924266815,5.684011936187744,-0.27200189232826233
-0.19377519190311432,5.673786163330078,-0.271737664937973
-0.1530652642250061,5.628177642822266,-0.26978957653045654
-0.11257825046777725,5.562780380249023,-0.2667958736419678
-0.021183762699365616,1.5956813097000122,-0.07653819024562836
-0.010129507631063461,1.6348072290420532,-0.07842704653739929
0.0012164546642452478,1.611426830291748,-0.07732091099023819
0.012357162311673164,1.603575348854065,-0.07696333527565002
0.023858845233917236,1.6268584728240967,-0.07808952778577805
0.0351560153067112,1.6266558170318604,-0.07804058492183685
0.04667431116104126,1.634175181388855,-0.07836569845676422
0.05823051184415817,1.6338067054748535,-0.0783156231045723
0.06575599312782288,1.5437055826187134,-0.07397019863128662
0.07610253244638443,1.535419225692749,-0.07355030626058578
0.08804874867200851,1.558234453201294,-0.07456052303314209
0.1025521531701088,1.616001844406128,-0.07724129408597946
0.11613626778125763,1.6463816165924072,-0.07861080020666122
0.1269848644733429,1.6377590894699097,-0.07812174409627914
0.13837653398513794,1.6368416547775269,-0.0780043751001358
0.4672194719314575,5.105727672576904,-0.24293647706508636
0.4967825412750244,5.044155120849609,-0.23959174752235413
0.48430898785591125,4.586563587188721,-0.2174830287694931
0.5153103470802307,4.575355529785156,-0.2165931910276413
0.5508574843406677,4.602676868438721,-0.21753555536270142
0.5910263061523438,4.664592266082764,-0.2200167030096054
0.655224084854126,4.900232315063477,-0.23059090971946716
0.6901401877403259,4.899413108825684,-0.23001252114772797
0.721255362033844,4.875243186950684,-0.22835688292980194
0.752753496170044,4.854719161987305,-0.22688545286655426
0.7838523983955383,4.834022045135498,-0.22534088790416718
0.8131313920021057,4.805482864379883,-0.22332724928855896
0.8542923927307129,4.845935821533203,-0.22452636063098907
0.892643392086029,4.8628692626953125,-0.22462035715579987
0.9220251441001892,4.833594799041748,-0.2226003259420395
0.9539431929588318,4.819487571716309,-0.2212446630001068
0.9806744456291199,4.782306671142578,-0.21872232854366302
1.0101817846298218,4.760256290435791,-0.21691001951694489
1.0452824831008911,4.760715007781982,-0.21611474454402924
1.0740628242492676,4.734349727630615,-0.21412231028079987
1.1032496690750122,4.711655139923096,-0.21227094531059265
1.1318012475967407,4.688879489898682,-0.21029192209243774
1.1600528955459595,4.6659440994262695,-0.2083229124546051
1.1889617443084717,4.642608165740967,-0.20632506906986237
1.2192316055297852,4.626737594604492,-0.20468422770500183
1.2471323013305664,4.603182315826416,-0.2026807814836502
1.2784899473190308,4.594634532928467,-0.2012464702129364
1.3065731525421143,4.574615001678467,-0.19932158291339874
1.3321080207824707,4.542911052703857,-0.19687271118164062
1.3614546060562134,4.526114463806152,-0.19509676098823547
1.3903580904006958,4.50921630859375,-0.19327156245708466
1.4162647724151611,4.484845161437988,-0.19104911386966705
1.439539909362793,4.452890872955322,-0.18852077424526215
1.4672186374664307,4.431583404541016,-0.186418816447258
1.4955215454101562,4.413938522338867,-0.18450042605400085
1.520607829093933,4.388909339904785,-0.18220515549182892
1.2727967500686646,3.594856023788452,-0.14817634224891663
1.2971903085708618,3.58618426322937,-0.1467556655406952
1.3166857957839966,3.562490463256836,-0.14470651745796204
1.6218122243881226,4.294449329376221,-0.17311632633209229
1.6564304828643799,4.298027992248535,-0.17184698581695557
1.6754124164581299,4.261390686035156,-0.16897456347942352
1.7118407487869263,4.267999649047852,-0.16780602931976318
1.7355983257293701,4.241601943969727,-0.165323868393898
1.7651684284210205,4.229458808898926,-0.16334238648414612
1.785909652709961,4.1996169090271,-0.16065572202205658
1.8141200542449951,4.187583923339844,-0.15866243839263916
1.8369784355163574,4.16062068939209,-0.15605974197387695
1.8659425973892212,4.1477885246276855,-0.15399891138076782
1.8909646272659302,4.12793493270874,-0.15156009793281555
1.9152965545654297,4.108166217803955,-0.14916782081127167
1.9401880502700806,4.087906837463379,-0.14672543108463287
1.9651561975479126,4.067371845245361,-0.1442699134349823
1.992426872253418,4.05416202545166,-0.1420196294784546
2.0198566913604736,4.040646076202393,-0.139712855219841
2.0473897457122803,4.0268449783325195,-0.13738949596881866
2.0681545734405518,3.998725414276123,-0.1345568150281906
2.094965696334839,3.9848239421844482,-0.13216768205165863
2.115790605545044,3.9606094360351562,-0.12942825257778168
2.1390299797058105,3.939302921295166,-0.12674014270305634
2.1404874324798584,3.876260995864868,-0.12266485393047333
2.1414241790771484,3.8177242279052734,-0.11877008527517319
2.1549954414367676,3.783216714859009,-0.11565025895833969
2.1888210773468018,3.78188419342041,-0.11346571892499924
2.2188315391540527,3.7734968662261963,-0.11103511601686478
2.247924327850342,3.765416383743286,-0.1085248664021492
2.264774799346924,3.7371294498443604,-0.1054491251707077
2.28659987449646,3.714725971221924,-0.10244999080896378
2.319550037384033,3.7127492427825928,-0.0999913290143013
2.339425802230835,3.691088914871216,-0.09698977321386337
2.3652024269104004,3.6747045516967773,-0.09394644945859909
2.394246816635132,3.6652565002441406,-0.09108588844537735
2.4048449993133545,3.6303110122680664,-0.087583988904953
2.4381814002990723,3.6269211769104004,-0.08470290899276733
2.467094898223877,3.6168503761291504,-0.08157654106616974
2.468301296234131,3.568713903427124,-0.07754334807395935
2.4971091747283936,3.5582377910614014,-0.07419753074645996
2.5432379245758057,3.573535919189453,-0.0712934210896492
2.556771755218506,3.5446903705596924,-0.06746011227369308
2.602092981338501,3.5552845001220703,-0.0640612319111824
2.1914589405059814,2.9555177688598633,-0.05022114887833595
2.6111984252929688,3.658876895904541,0.09551414102315903
2.625523805618286,3.7347636222839355,0.10113827884197235
2.635427236557007,3.808685541152954,0.1067219227552414
2.619781732559204,3.847728967666626,0.11130501329898834
2.5885300636291504,3.8593127727508545,0.11484676599502563
2.5592005252838135,3.878711462020874,0.11857730895280838
2.534236431121826,3.904269218444824,0.12244918942451477
2.5069596767425537,3.9217312335968018,0.12585613131523132
2.477410316467285,3.940354824066162,0.12925200164318085
2.4522275924682617,3.965151071548462,0.13280245661735535
2.4285943508148193,3.9887096881866455,0.13616284728050232
2.398867130279541,4.00654935836792,0.13933192193508148
2.368767023086548,4.024310111999512,0.1424357146024704
2.336407423019409,4.0340576171875,0.14511333405971527
2.3176658153533936,4.067234039306641,0.1486089527606964
2.294963836669922,4.097890377044678,0.1519622504711151
2.256678342819214,4.101174831390381,0.1543232947587967
2.235499382019043,4.130422592163086,0.15751171112060547
2.2097532749176025,4.152998447418213,0.16043320298194885
2.182648181915283,4.1760172843933105,0.1633284091949463
2.159346103668213,4.205573558807373,0.16646836698055267
2.129462480545044,4.220682621002197,0.16900227963924408
2.099513053894043,4.235561370849609,0.1714627742767334
2.0717601776123047,4.257791996002197,0.17415665090084076
2.0372273921966553,4.2656731605529785,0.17626366019248962
2.017454147338867,4.300849914550781,0.17942717671394348
1.9841160774230957,4.307641506195068,0.18141692876815796
1.9488513469696045,4.315051555633545,0.1833590865135193
1.9836877584457397,4.478961944580078,0.19198620319366455
1.9489456415176392,4.485583305358887,0.1938774734735489
1.9360308647155762,4.5420379638671875,0.19792477786540985
1.90654456615448,4.562861442565918,0.20037122070789337
1.8727917671203613,4.576725482940674,0.20249256491661072
1.825184941291809,4.553805828094482,0.2029513120651245
1.8091042041778564,4.606283664703369,0.20673023164272308
1.7671540975570679,4.5931901931762695,0.20758074522018433
1.7422597408294678,4.627635478973389,0.21044844388961792
1.3293070793151855,3.611117124557495,0.16525353491306305
1.3061798810958862,3.6277778148651123,0.16702371835708618
1.2834827899932861,3.6440811157226562,0.16876645386219025
1.6341911554336548,4.7450480461120605,0.2210451364517212
1.6062818765640259,4.775080680847168,0.22359462082386017
1.5761620998382568,4.801458358764648,0.2260143905878067
1.5539240837097168,4.849615573883057,0.2294488400220871
1.5248372554779053,4.875118255615234,0.23181013762950897
1.4954266548156738,4.900462627410889,0.234183669090271
1.4324901103973389,4.81746768951416,0.23120611906051636
1.4185712337493896,4.898746013641357,0.23611919581890106
1.3767379522323608,4.886274337768555,0.23654617369174957
1.3509559631347656,4.9257707595825195,0.23946280777454376
1.2875187397003174,4.825639247894287,0.23558545112609863
1.2552069425582886,4.8421430587768555,0.23725827038288116
1.2263623476028442,4.873610973358154,0.23964625597000122
1.1956056356430054,4.901266574859619,0.24188114702701569
1.1686030626296997,4.939793586730957,0.244639053940773
1.1393775939941406,4.970573425292969,0.2470344454050064
1.1061205863952637,4.9860148429870605,0.24859748780727386
1.0738991498947144,5.0089616775512695,0.2504481375217438
1.0384057760238647,5.020368576049805,0.2517499327659607
1.0062090158462524,5.042780876159668,0.25359657406806946
0.9711430668830872,5.04959774017334,0.25466641783714294
2.1283295154571533,11.497243881225586,0.5815221667289734
2.0189313888549805,11.354425430297852,0.5755606889724731
1.9096790552139282,11.207022666931152,0.5693783760070801
1.8103432655334473,11.096922874450684,0.5650642514228821
1.7043298482894897,10.924113273620605,0.5575276613235474
1.6150645017623901,10.846860885620117,0.5548648238182068
1.5117621421813965,10.664678573608398,0.5466400384902954
1.4150131940841675,10.52437686920166,0.5403168797492981
1.331546664237976,10.460474967956543,0.5379089713096619
1.243308186531067,10.345536231994629,0.5328824520111084
1.1515541076660156,10.17943000793457,0.5252143740653992
1.0712265968322754,10.097904205322266,0.5219124555587769
0.9954386949539185,10.054643630981445,0.5202985405921936
0.3968968391418457,4.323704242706299,0.22398288547992706
0.36026719212532043,4.252509593963623,0.22054114937782288
0.331860214471817,4.270452499389648,0.22172749042510986
0.3027133643627167,4.28041934967041,0.22251150012016296
0.2766597867012024,4.340798377990723,0.2259214222431183
0.24797290563583374,4.381592750549316,0.22816258668899536
0.2150043547153473,4.33645486831665,0.22593790292739868
0.1828453540802002,4.29496955871582,0.22391192615032196
0.15130989253520966,4.249344825744629,0.22167722880840302
0.12086464464664459,4.219088554382324,0.22025232017040253
0.0927228033542633,4.297830581665039,0.2244783341884613
0.06112907454371452,4.185255527496338,0.21860018372535706
0.012365865521132946,1.6188397407531738,0.08455842733383179
0.0011287922970950603,1.6539943218231201,0.0864037349820137
-0.027184102684259415,4.326045513153076,0.22602485120296478
-0.05451621115207672,4.080006122589111,0.2132137268781662
-0.08275877684354782,4.071730613708496,0.21275097131729126
-0.111681267619133,4.094461441040039,0.21384283900260925
-0.14243341982364655,4.159869194030762,0.21717187762260437
-0.2461545467376709,5.975088596343994,0.3118281662464142
-0.18966804444789886,3.9393038749694824,0.20552211999893188
-0.1972832977771759,3.5717391967773438,0.1862969547510147
-0.22127144038677216,3.558619499206543,0.1854638010263443
-0.2477084994316101,3.584263324737549,0.1866200715303421
-0.29821398854255676,3.9208896160125732,0.2039591670036316
-0.31957438588142395,3.8487656116485596,0.20003186166286469
-0.3454223871231079,3.8308804035186768,0.1989334672689438
-0.3520468473434448,3.622615098953247,0.18797075748443604
-0.3722018599510193,3.5735580921173096,0.1851467490196228
-0.4019949734210968,3.6174557209014893,0.18714290857315063
-0.44159936904907227,3.7385904788970947,0.1931304782629013
-0.45780566334724426,3.6541125774383545,0.18849624693393707
-0.82403963804245,6.22658634185791,0.3207586109638214
-0.8591049909591675,6.162806987762451,0.31699731945991516
-0.8979489207267761,6.133660316467285,0.3148566484451294
-0.9400433897972107,6.127398490905762,0.31390708684921265
-0.525799572467804,3.274139404296875,0.16739946603775024
-0.549816370010376,3.278130054473877,0.16727836430072784
-0.5793226957321167,3.31268310546875,0.16871996223926544
-1.1512023210525513,6.325568675994873,0.32143568992614746
-0.605212926864624,3.2009694576263428,0.16223940253257751
-0.6346229314804077,3.235067367553711,0.1635509580373764
-0.654206395149231,3.2152726650238037,0.16213232278823853
-0.674905002117157,3.203050136566162,0.16111095249652863
-0.6954653859138489,3.190694570541382,0.1600925773382187
-0.7266146540641785,3.2277896404266357,0.16143542528152466
-1.2332080602645874,5.309267997741699,0.2646887004375458
-0.6999911069869995,2.921621322631836,0.14518380165100098
-0.6894406080245972,2.7917110919952393,0.13828158378601074
-0.7069331407546997,2.7793149948120117,0.1372281014919281
-0.7240736484527588,2.766869068145752,0.1361342966556549
-0.7408105731010437,2.754392385482788,0.13499566912651062
-0.7598457336425781,2.7492401599884033,0.13421384990215302
-0.793683648109436,2.796530246734619,0.1359906643629074
-0.8949983716011047,3.0719451904296875,0.1487981081008911
-0.9520721435546875,3.1853349208831787,0.1536775529384613
-0.9736295342445374,3.178860902786255,0.15265657007694244
-1.0118434429168701,3.2242586612701416,0.15411065518856049
-1.0589076280593872,3.295342206954956,0.1567763090133667
-1.0903083086013794,3.3139069080352783,0.1569151133298874
-1.1282442808151245,3.3506853580474854,0.15790815651416779
-1.1343556642532349,3.295070171356201,0.1544574648141861
-1.1565006971359253,3.287419080734253,0.15325763821601868
-1.3375235795974731,3.7201321125030518,0.17246109247207642
-1.4185811281204224,3.8609824180603027,0.17797549068927765
-1.5345399379730225,4.088584899902344,0.18739697337150574
-1.5538188219070435,4.056307315826416,0.18474829196929932
-1.572494626045227,4.024049282073975,0.18208812177181244
-1.602941632270813,4.020499229431152,0.18071429431438446
-2.2794055938720703,5.603657245635986,0.2501613199710846
-2.3422727584838867,5.645448207855225,0.2503036856651306
-2.3679885864257812,5.60093879699707,0.246476948261261
-2.3852624893188477,5.538513660430908,0.2418728470802307
-2.43742036819458,5.554256916046143,0.2406420111656189
-2.5221314430236816,5.640648365020752,0.24241836369037628
-2.5335640907287598,5.562806129455566,0.23711131513118744
-1.493654727935791,3.2227723598480225,0.1361517310142517
-1.5150190591812134,3.212853193283081,0.13451655209064484
-1.5305969715118408,3.1882212162017822,0.13221783936023712
-1.5493084192276,3.1705539226531982,0.13022415339946747
-1.5671964883804321,3.153104782104492,0.12820392847061157
-1.5915131568908691,3.1497228145599365,0.12672863900661469
-1.6196738481521606,3.1529715061187744,0.12550042569637299
-1.645210862159729,3.1486077308654785,0.12390930950641632
-1.698312759399414,3.1957175731658936,0.12427090853452682
-1.7842179536819458,3.30478572845459,0.12693224847316742
-1.1639310121536255,2.1223249435424805,0.08049514144659042
-1.1824764013290405,2.1210451126098633,0.07936593890190125
-1.9129753112792969,3.3765711784362793,0.1246013194322586
-1.9198086261749268,3.3367881774902344,0.12130503356456757
-1.9495505094528198,3.337679862976074,0.11952351778745651
-1.2354364395141602,2.0817768573760986,0.07334485650062561
-1.2575948238372803,2.0867762565612793,0.07229121029376984
-2.5054738521575928,4.097337245941162,0.1394549459218979
-2.520803451538086,4.060481548309326,0.13560624420642853
-2.540689468383789,4.02972412109375,0.13191495835781097
-2.5565218925476074,3.9966468811035156,0.12812092900276184
-2.56089448928833,3.947483777999878,0.1238340362906456
-2.5838303565979004,3.923269033432007,0.12015553563833237
-2.6408722400665283,3.9511399269104004,0.11795371770858765
-2.6812527179718018,3.9570186138153076,0.11506778001785278
-2.7213921546936035,3.958099126815796,0.11179487407207489
-2.808201789855957,4.02634859085083,0.1102350652217865
-2.8379533290863037,4.015111446380615,0.10638420283794403
-2.8339850902557373,3.9509334564208984,0.100786954164505
-2.8435733318328857,3.910395860671997,0.09584103524684906
-2.884592056274414,3.9143571853637695,0.09188546240329742
-2.981649398803711,4.172048568725586,-0.09724416583776474
-2.4456441402435303,3.4747819900512695,-0.08494004607200623
-2.4278509616851807,3.5061466693878174,-0.08961491286754608
-2.896343231201172,4.245527267456055,-0.11278236657381058
-2.873098134994507,4.279988765716553,-0.11797000467777252
-2.886787176132202,4.369270324707031,-0.12460173666477203
-2.827939510345459,4.347016334533691,-0.1279287338256836
-2.8394150733947754,4.437070369720459,-0.1344907134771347
-2.0976171493530273,3.330636978149414,-0.10376260429620743
-2.061793565750122,3.325296401977539,-0.10628621280193329
-1.2643719911575317,2.0736756324768066,-0.06792854517698288
-2.0080251693725586,3.3487329483032227,-0.11230651289224625
-1.9965697526931763,3.382708787918091,-0.1159110963344574
-1.9814749956130981,3.4140625,-0.11942297220230103
-1.9562488794326782,3.428476333618164,-0.12234445661306381
-1.207943320274353,2.1516237258911133,-0.07820519804954529
-1.130048394203186,2.0474660396575928,-0.07577641308307648
-1.9116121530532837,3.524488687515259,-0.132688969373703
-1.7375891208648682,3.2589213848114014,-0.1247011348605156
-1.6278363466262817,3.104889154434204,-0.12066511064767838
-1.596427321434021,3.099125862121582,-0.12224733829498291
-1.5662997961044312,3.096881628036499,-0.12397713214159012
-1.5531203746795654,3.1252360343933105,-0.12684591114521027
-1.5381654500961304,3.1499218940734863,-0.12956906855106354
-1.5152745246887207,3.160910129547119,-0.13167902827262878
-2.4078266620635986,5.117922782897949,-0.2158784121274948
-2.3816866874694824,5.1558098793029785,-0.2200646698474884
-2.3499248027801514,5.183081150054932,-0.22385123372077942
-2.3219821453094482,5.221161842346191,-0.2279680371284485
-2.284144163131714,5.237685680389404,-0.23115606606006622
-2.185807466506958,5.109963893890381,-0.22785808145999908
-2.1757850646972656,5.186132907867432,-0.23360291123390198
-1.594969630241394,3.880510091781616,-0.17649860680103302
-1.561094045639038,3.8773388862609863,-0.17800116539001465
-1.5464097261428833,3.9209022521972656,-0.1816394329071045
-1.5190763473510742,3.9314754009246826,-0.18373993039131165
-1.5023874044418335,3.9711833000183105,-0.18717622756958008
-1.4760658740997314,3.9892680644989014,-0.1895727515220642
-1.4527573585510254,4.014322757720947,-0.19229020178318024
-1.4273313283920288,4.031619071960449,-0.1946132481098175
-1.3991808891296387,4.041379451751709,-0.19658470153808594
-1.3777778148651123,4.07335901260376,-0.1995188146829605
-1.3480859994888306,4.083189487457275,-0.20139750838279724
-1.3228168487548828,4.10365629196167,-0.20377251505851746
-0.9803245663642883,3.115212917327881,-0.1557152420282364
-0.9607697129249573,3.129396438598633,-0.1574217826128006
-0.9060147404670715,3.027698278427124,-0.15320400893688202
-0.8025323152542114,2.753086566925049,-0.14012864232063293
-0.7733365297317505,2.724890947341919,-0.13950808346271515
-0.7543622255325317,2.730149507522583,-0.14057892560958862
-0.7381663918495178,2.7466421127319336,-0.14217418432235718
-0.7177000045776367,2.747978448867798,-0.14294900000095367
-0.704900860786438,2.779420852661133,-0.14530381560325623
-1.4934332370758057,6.0686259269714355,-0.31883710622787476
-1.4792022705078125,6.1964006423950195,-0.32714560627937317
-1.4574164152145386,6.301599502563477,-0.3341299295425415
-1.4204081296920776,6.3459248542785645,-0.3378700613975525
-1.3681570291519165,6.321375846862793,-0.33795487880706787
-1.323343276977539,6.330806255340576,-0.3398708403110504
-1.270028829574585,6.293869495391846,-0.33927810192108154
-1.2189568281173706,6.268111228942871,-0.33905228972435
-1.1646872758865356,6.222785949707031,-0.33772599697113037
-1.1118627786636353,6.180840015411377,-0.33657968044281006
-1.0196149349212646,5.907881736755371,-0.32281601428985596
-0.9428579211235046,5.699247360229492,-0.31247031688690186
-0.9521597027778625,6.017724990844727,-0.3308136761188507
-0.9156078100204468,6.062777996063232,-0.33415302634239197
-0.6703175902366638,4.659841537475586,-0.25750207901000977
-0.6394106149673462,4.679877281188965,-0.2593023180961609
-0.6068744659423828,4.6841559410095215,-0.2602313756942749
-0.5750250816345215,4.695988655090332,-0.26142624020576477
-0.5438339710235596,4.715367794036865,-0.2630161643028259
-0.5120217204093933,4.730656147003174,-0.2643932104110718
-0.47486281394958496,4.691371440887451,-0.2627241015434265
-0.44385966658592224,4.717870235443115,-0.2647601366043091
-0.412665992975235,4.740243434906006,-0.2664158046245575
-0.38512131571769714,4.812962532043457,-0.2708514928817749
-0.2555426061153412,3.5007717609405518,-0.19726994633674622
-0.23215673863887787,3.5180139541625977,-0.19851446151733398
-0.2072436660528183,3.5195484161376953,-0.1988879293203354
-0.29706335067749023,5.725346088409424,-0.3238561153411865
-0.2556465268135071,5.696095943450928,-0.32240569591522217
-0.21480068564414978,5.670445442199707,-0.3211725652217865
-0.17411749064922333,5.632803916931152,-0.3192724287509918
-0.13405448198318481,5.626079559326172,-0.31914249062538147
-0.0263778455555439,1.5636677742004395,-0.08874452114105225
-0.016111714765429497,1.6262096166610718,-0.09229574352502823
-0.00472337706014514,1.602881908416748,-0.09097789973020554
0.006402053404599428,1.5950756072998047,-0.09054528176784515
0.017864881083369255,1.6105886697769165,-0.09144117683172226
0.02919788844883442,1.6182245016098022,-0.09187943488359451
0.04043027386069298,1.617986798286438,-0.09181129932403564
0.05192442610859871,1.6254663467407227,-0.09218521416187286
0.05850778520107269,1.504262089729309,-0.08526874333620071
0.07199922949075699,1.5700533390045166,-0.08895784616470337
0.08310900628566742,1.5695081949234009,-0.0888901874423027
0.09326538443565369,1.5572247505187988,-0.08808588236570358
0.11081336438655853,1.6577249765396118,-0.0936594009399414
0.11915062367916107,1.6141406297683716,-0.09109263867139816
0.1291016936302185,1.5977329015731812,-0.0900675430893898
0.4430062472820282,5.039018154144287,-0.28375571966171265
0.4770849943161011,5.028107643127441,-0.2826567590236664
0.5058600306510925,4.966531753540039,-0.278687059879303
0.4916500151157379,4.517065048217773,-0.25301477313041687
0.5307002067565918,4.579433441162109,-0.2560594081878662
0.5668946504592896,4.606569766998291,-0.2571297585964203
0.6123343706130981,4.707010269165039,-0.26215285062789917
0.6728717684745789,4.907525539398193,-0.27264970541000366
0.7050413489341736,4.891236305236816,-0.27108797430992126
0.7366946339607239,4.870841979980469,-0.26931026577949524
0.7699226140975952,4.85785436630249,-0.2679469585418701
0.797097384929657,4.813994407653809,-0.26478347182273865
0.83553147315979,4.839204788208008,-0.2653310298919678
0.8729273080825806,4.856441974639893,-0.2654457986354828
0.9051655530929565,4.842663764953613,-0.26386794447898865
0.934323787689209,4.813347339630127,-0.26146024465560913
0.9650238156318665,4.791440010070801,-0.25935181975364685
0.9978762269020081,4.784780502319336,-0.25798654556274414
1.027350902557373,4.762650489807129,-0.25580376386642456
1.0569801330566406,4.740250587463379,-0.25361254811286926
1.0855541229248047,4.713849067687988,-0.2512240707874298
1.1168241500854492,4.698598384857178,-0.24933364987373352
1.1414874792099,4.660624980926514,-0.2461767941713333
1.173354983329773,4.652785778045654,-0.24462918937206268
1.1977626085281372,4.614407539367676,-0.24147950112819672
1.2298240661621094,4.606048107147217,-0.23991701006889343
1.2589730024337769,4.586117744445801,-0.23764368891716003
1.2902336120605469,4.577511310577393,-0.2359137088060379
1.314931035041809,4.546203136444092,-0.2330310046672821
1.346526026725769,4.5370354652404785,-0.23127570748329163
1.36896812915802,4.497786045074463,-0.22800664603710175
1.4002797603607178,4.488232612609863,-0.22611238062381744
1.4260227680206299,4.463834285736084,-0.2234605848789215
1.4564580917358398,4.454092025756836,-0.22155247628688812
1.4787750244140625,4.418035507202148,-0.21832554042339325
1.5044889450073242,4.392945766448975,-0.21566268801689148
1.5317124128341675,4.37536096572876,-0.2132399082183838
1.2871177196502686,3.5969018936157227,-0.17399458587169647
1.309136152267456,3.580721378326416,-0.17191970348358154
1.6056901216506958,4.299108982086182,-0.2048458606004715
1.6380314826965332,4.295346260070801,-0.20305167138576508
1.6698336601257324,4.29156494140625,-0.20116518437862396
1.6906688213348389,4.258321762084961,-0.19788172841072083
1.7201786041259766,4.2465925216674805,-0.1956007480621338
1.7497050762176514,4.234617710113525,-0.19331209361553192
1.7768112421035767,4.219189167022705,-0.1907728910446167
1.7990251779556274,4.192890167236328,-0.18774013221263885
1.825058937072754,4.173215389251709,-0.1849588006734848
1.8540831804275513,4.160510540008545,-0.18249861896038055
1.876015543937683,4.133636474609375,-0.17937998473644257
1.9037072658538818,4.121067047119141,-0.17683815956115723
1.9215564727783203,4.087018966674805,-0.1733780801296234
1.953803539276123,4.080471992492676,-0.17100581526756287
1.9783828258514404,4.0600385665893555,-0.16807004809379578
2.0054256916046143,4.046860218048096,-0.16537664830684662
2.032435417175293,4.033473014831543,-0.162677600979805
2.0533697605133057,4.005429267883301,-0.15931150317192078
2.0773122310638428,3.984372615814209,-0.15622566640377045
2.111531972885132,3.9841396808624268,-0.15384772419929504
2.125138759613037,3.9459969997406006,-0.15004882216453552
2.152510166168213,3.9312453269958496,-0.1470663696527481
2.1451306343078613,3.855158805847168,-0.14181093871593475
2.149350166320801,3.8036627769470215,-0.13749250769615173
2.1831045150756836,3.8025190830230713,-0.1349208652973175
2.201653003692627,3.77384877204895,-0.13133510947227478
2.230844736099243,3.7658543586730957,-0.12843412160873413
2.2554895877838135,3.751251697540283,-0.1252906173467636
2.2771103382110596,3.729128360748291,-0.12178278714418411
2.303072929382324,3.713259696960449,-0.11839676648378372
2.3271615505218506,3.6983163356781006,-0.1150546446442604
2.34761643409729,3.6762077808380127,-0.11141964048147202
2.368903398513794,3.653329372406006,-0.1076531633734703
2.388259172439575,3.631464719772339,-0.10390643775463104
2.4255309104919434,3.634983777999878,-0.10075569897890091
2.44203519821167,3.6051700115203857,-0.09654869884252548
2.4608333110809326,3.5829946994781494,-0.09253953397274017
2.4620273113250732,3.534783363342285,-0.08779577910900116
2.486386775970459,3.517792224884033,-0.08365947008132935
2.522550582885742,3.5209157466888428,-0.07990245521068573
2.559974193572998,3.5229082107543945,-0.07588987052440643
2.6015777587890625,3.5312793254852295,-0.07182727009057999
2.6722795963287354,3.7729837894439697,0.11891176551580429
2.6542351245880127,3.8046059608459473,0.12413816154003143
2.6335089206695557,3.8377790451049805,0.129399374127388
2.605684518814087,3.8565704822540283,0.13391897082328796
2.5774643421173096,3.875335216522217,0.13827238976955414
2.5477452278137207,3.894780397415161,0.1426292359828949
2.5203590393066406,3.9124104976654053,0.14662471413612366
2.496032238006592,3.9370737075805664,0.15084204077720642
2.4696974754333496,3.962693929672241,0.15513160824775696
2.443580150604248,3.9832868576049805,0.15897241234779358
2.431427001953125,4.027096748352051,0.16370399296283722
2.421053409576416,4.07865571975708,0.1687365472316742
2.4010519981384277,4.1129302978515625,0.173018679022789
2.391279697418213,4.163548469543457,0.17794854938983917
2.3685567378997803,4.194311141967773,0.18194988369941711
2.2899158000946045,4.126352787017822,0.18159787356853485
2.2455742359161377,4.114972114562988,0.1835581213235855
2.2168986797332764,4.13035249710083,0.1866525113582611
2.193364381790161,4.160414695739746,0.19037674367427826
2.1733455657958984,4.1971564292907715,0.19438113272190094
2.136500120162964,4.198385715484619,0.19665880501270294
2.1176023483276367,4.234011650085449,0.20053119957447052
2.0901246070861816,4.25620698928833,0.2036823034286499
2.0615854263305664,4.278632164001465,0.20687006413936615
2.03104567527771,4.293081760406494,0.2095845490694046
2.001101016998291,4.3069915771484375,0.21223732829093933
1.9670594930648804,4.313940048217773,0.21447955071926117
1.986484408378601,4.442051887512207,0.22273372113704681
1.9511150121688843,4.449050426483154,0.2249573916196823
1.9148900508880615,4.451893329620361,0.22693544626235962
1.894407868385315,4.490180492401123,0.2307032197713852
1.8826146125793457,4.554182052612305,0.23566870391368866
1.855307936668396,4.582092761993408,0.23880484700202942
1.835663914680481,4.6276726722717285,0.2428520917892456
1.8056535720825195,4.647713661193848,0.2455817013978958
1.7811734676361084,4.682084083557129,0.2490110993385315
1.7282443046569824,4.643527507781982,0.24844412505626678
1.323660969734192,3.6366515159606934,0.19574016332626343
1.29281747341156,3.631082057952881,0.19657742977142334
1.2670572996139526,3.640062093734741,0.19821608066558838
1.6031548976898193,4.712463855743408,0.2580147683620453
1.5815023183822632,4.7607927322387695,0.2619713246822357
1.5472052097320557,4.771942138671875,0.2639058232307434
1.5359703302383423,4.853261470794678,0.26972347497940063
1.501537799835205,4.863916873931885,0.27165690064430237
1.4560986757278442,4.836888313293457,0.27140486240386963
1.432347297668457,4.884540557861328,0.27522361278533936
1.4069159030914307,4.928345203399658,0.278856486082077
1.3721321821212769,4.938046455383301,0.28056198358535767
1.3051635026931763,4.8268938064575195,0.2753714323043823
1.2728482484817505,4.843486785888672,0.27746349573135376
1.2421437501907349,4.867471694946289,0.27977702021598816
1.2120991945266724,4.895049095153809,0.2823178768157959
1.1809543371200562,4.918617248535156,0.2846446633338928
1.152010440826416,4.949422836303711,0.28739210963249207
1.118648886680603,4.9649810791015625,0.2892916202545166
1.0885287523269653,4.995546817779541,0.29192402958869934
1.0554341077804565,5.014527797698975,0.29382839798927307
1.0213485956192017,5.029467582702637,0.2955138087272644
0.9861450791358948,5.036416530609131,0.2967333197593689
2.1862986087799072,11.60010814666748,0.6853679418563843
2.0789167881011963,11.469103813171387,0.6794366240501404
1.9670121669769287,11.306659698486328,0.6711867451667786
1.8523812294006348,11.112445831298828,0.6610373258590698
1.7518659830093384,10.986473083496094,0.6549330949783325
1.6523113250732422,10.855838775634766,0.6485534906387329
1.557754635810852,10.735735893249512,0.6427736282348633
1.4616641998291016,10.595636367797852,0.6355381011962891
1.3686996698379517,10.46639633178711,0.6287392377853394
1.2767788171768188,10.328629493713379,0.6214314699172974
1.1949467658996582,10.255890846252441,0.6180397272109985
1.1057515144348145,10.112835884094238,0.6104297637939453
1.0326411724090576,10.093037605285645,0.610253095626831
0.1589626669883728,1.6690939664840698,0.10102562606334686
0.3759975731372833,4.2647294998168945,0.25838688015937805
0.3466547727584839,4.275013446807861,0.25927799940109253
0.31635093688964844,4.277337074279785,0.2597021162509918
0.28607285022735596,4.271627902984619,0.25964540243148804
0.2638164460659027,4.398036479949951,0.267626017332077
0.23264385759830475,4.39197301864624,0.26737385988235474
0.1988837569952011,4.327264785766602,0.26356247067451477
0.06657123565673828,1.7142800092697144,0.10446909815073013
0.13489152491092682,4.232182025909424,0.2580607533454895
0.10546677559614182,4.233004570007324,0.25827279686927795
0.07735377550125122,4.307694911956787,0.26295414566993713
0.0064683519303798676,1.6609587669372559,0.10138088464736938
-0.01319047249853611,4.296670436859131,0.26226621866226196
-0.04150281101465225,4.144421577453613,0.2529928386211395
-0.06880059838294983,4.054368495941162,0.24752697348594666
-0.09786181896924973,4.092776298522949,0.24983671307563782
-0.12783131003379822,4.142672538757324,0.25274908542633057
-0.15457600355148315,4.075441837310791,0.24852591753005981
-0.2660744786262512,5.928352355957031,0.36136287450790405
-0.18331702053546906,3.5355775356292725,0.2154284119606018
-0.209263414144516,3.5575809478759766,0.21669621765613556
-0.23237575590610504,3.532716989517212,0.21502433717250824
-0.2815874218940735,3.8654491901397705,0.23503747582435608
-0.31327036023139954,3.925619125366211,0.23846866190433502
-0.33306884765625,3.837914228439331,0.23292884230613708
-0.34664443135261536,3.695770025253296,0.22410772740840912
-0.36256179213523865,3.5963022708892822,0.2178974747657776
-0.3852706253528595,3.5704383850097656,0.21602460741996765
-0.4285520017147064,3.730426788330078,0.2253594994544983
-0.45424404740333557,3.727416753768921,0.2248430848121643
-0.4746174216270447,3.6816658973693848,0.221760556101799
-0.49493974447250366,3.6396713256835938,0.21892157196998596
-0.5157175660133362,3.6013681888580322,0.21631331741809845
-0.53809654712677,3.58236026763916,0.21472559869289398
-0.5590630769729614,3.5555055141448975,0.21268177032470703
-0.5809503793716431,3.5362279415130615,0.21110589802265167
-0.592960000038147,3.4591245651245117,0.20609426498413086
-0.6142104864120483,3.4396092891693115,0.20453405380249023
-1.1813030242919922,6.356738567352295,0.37717995047569275
-1.2327854633331299,6.390734672546387,0.37820112705230713
-1.2886728048324585,6.4434309005737305,0.3803292214870453
-1.3415089845657349,6.476541519165039,0.3813004493713379
-1.393039345741272,6.497654914855957,0.38155871629714966
-0.7988792061805725,3.601752758026123,0.21095708012580872
-1.2179210186004639,5.318339824676514,0.3105616271495819
-1.2541112899780273,5.310009002685547,0.3090754449367523
-0.6741734147071838,2.77008318901062,0.16072030365467072
-0.7008735537528992,2.7956714630126953,0.16168312728405
-0.7128136157989502,2.7604849338531494,0.1591269075870514
-0.7289186716079712,2.744218111038208,0.1576678603887558
-0.7454726099967957,2.731734037399292,0.15633822977542877
-0.7776756286621094,2.7754874229431152,0.1582251340150833
-0.7858183979988098,2.732682943344116,0.15517890453338623
-0.9818429350852966,3.3256499767303467,0.1880929321050644
-0.9981648921966553,3.296405553817749,0.18570613861083984
-1.0159521102905273,3.274702787399292,0.1836574822664261
-1.0404130220413208,3.2752695083618164,0.18283316493034363
-1.0697518587112427,3.2904932498931885,0.1828276515007019
