X,Y,Z
1.947466492652893,4.578307628631592,0.4103778898715973
1.8859431743621826,4.523608684539795,0.40817153453826904
4.2591352462768555,10.432942390441895,0.9475088715553284
4.1862382888793945,10.469996452331543,0.9568889737129211
1.8088120222091675,4.616727828979492,0.42449522018432617
1.8030316829681396,4.697937488555908,0.4345741868019104
1.7663886547088623,4.703197479248047,0.4374237358570099
1.3305883407592773,3.6235833168029785,0.3388254642486572
1.3096758127212524,3.6474874019622803,0.34285253286361694
1.2816197872161865,3.6489510536193848,0.34473222494125366
1.6339854001998901,4.757771015167236,0.4517698585987091
1.6098215579986572,4.798542499542236,0.45771992206573486
1.572079062461853,4.802555084228516,0.4601403772830963
1.5349981784820557,4.806074142456055,0.46249502897262573
1.5129724740982056,4.853526592254639,0.46904677152633667
1.4813963174819946,4.871100425720215,0.47274667024612427
1.4680027961730957,4.95200252532959,0.4824930429458618
1.4302270412445068,4.954686164855957,0.4844587445259094
1.4076801538467407,5.013402462005615,0.4919710159301758
1.35068941116333,4.944186687469482,0.48688772320747375
1.28623366355896,4.840481758117676,0.47834232449531555
1.2631118297576904,4.890504360198975,0.4849897027015686
1.230055332183838,4.906719207763672,0.48796993494033813
1.2016661167144775,4.945538520812988,0.49324360489845276
1.1662936210632324,4.953777313232422,0.49547627568244934
1.1377557516098022,4.988108158111572,0.5003171563148499
1.1063309907913208,5.01087760925293,0.5040326118469238
1.0710952281951904,5.0183186531066895,0.5061089992523193
1.039412021636963,5.04860258102417,0.5102910995483398
1.0064518451690674,5.070941925048828,0.5136858820915222
2.2331490516662598,11.682611465454102,1.1860960721969604
2.1152191162109375,11.498666763305664,1.170040488243103
2.0121376514434814,11.382562637329102,1.1608692407608032
1.9027568101882935,11.23151969909668,1.1476467847824097
1.7934818267822266,11.060216903686523,1.1319608688354492
1.6937507390975952,10.934053421020508,1.120900273323059
1.5930465459823608,10.783899307250977,1.1073709726333618
1.4953052997589111,10.632780075073242,1.0937210321426392
1.40707266330719,10.546504974365234,1.0867855548858643
1.309569239616394,10.370835304260254,1.0700154304504395
1.2240256071090698,10.275411605834961,1.0613319873809814
1.1381632089614868,10.163860321044922,1.0510095357894897
1.0601356029510498,10.105669021606445,1.0462254285812378
0.9852914810180664,10.06618595123291,1.0434075593948364
0.39146989583969116,4.314663887023926,0.4478117525577545
0.357372909784317,4.270773887634277,0.44357264041900635
0.32915496826171875,4.296369552612305,0.446498304605484
0.2995167076587677,4.306273937225342,0.4478171765804291
0.2733330726623535,4.370250701904297,0.4547843039035797
0.3121575713157654,5.628924369812012,0.5862046480178833
0.2737334966659546,5.646413803100586,0.5884872078895569
0.23404349386692047,5.64038610458374,0.5880115628242493
0.19642086327075958,5.692336082458496,0.5935068726539612
0.15648123621940613,5.685776233673096,0.5929311513900757
0.1176472008228302,5.760520935058594,0.6008672714233398
0.07763081789016724,5.76117467880249,0.6011031866073608
0.037661757320165634,5.769320487976074,0.6021500825881958
-0.0023923534899950027,5.695632457733154,0.5943760275840759
-0.030962802469730377,4.195865154266357,0.4377298355102539
-0.061167456209659576,4.234405040740967,0.4416331648826599
-0.08938685804605484,4.175627708435059,0.4354102313518524
-0.04592805728316307,1.619480848312378,0.1688423454761505
-0.14288190007209778,4.04587984085083,0.4217626750469208
-0.17031748592853546,4.029298305511475,0.4198075234889984
-0.1758728325366974,3.574038505554199,0.37208661437034607
-0.20107053220272064,3.572751998901367,0.3716777265071869
-0.2248632311820984,3.555802583694458,0.3696630299091339
-0.26810264587402344,3.8177549839019775,0.39664390683174133
-0.30358779430389404,3.9320640563964844,0.40828052163124084
-0.3190799057483673,3.790543556213379,0.39321112632751465
-0.33966654539108276,3.7225046157836914,0.3856689929962158
-0.36003273725509644,3.6660051345825195,0.37936413288116455
-0.3793044984340668,3.60552978515625,0.3726781904697418
-0.41607096791267395,3.707139492034912,0.3827567994594574
-0.43631863594055176,3.657926321029663,0.37727484107017517
-0.45769840478897095,3.6201515197753906,0.37284156680107117
-0.47949203848838806,3.5939059257507324,0.3695053458213806
-0.5020273923873901,3.5752289295196533,0.3669714033603668
-0.5210373401641846,3.5333266258239746,0.36207735538482666
-0.5467612743377686,3.537400245666504,0.3619137704372406
-0.5704870223999023,3.525876522064209,0.36016273498535156
-0.594750165939331,3.5219767093658447,0.3590681552886963
-1.1136747598648071,6.3315558433532715,0.6440802216529846
-1.1639389991760254,6.362247467041016,0.645793616771698
-1.2157262563705444,6.39630651473999,0.6478511095046997
-1.2707531452178955,6.441307067871094,0.6510127782821655
-1.3249200582504272,6.474267959594727,0.6529448628425598
-1.3846598863601685,6.537533760070801,0.6576401591300964
-1.4308983087539673,6.535805702209473,0.6556500196456909
-1.4686686992645264,6.495815753936768,0.6498556137084961
-1.5054630041122437,6.451737403869629,0.6436850428581238
-1.545602560043335,6.4185285568237305,0.63860023021698
-0.6995479464530945,2.8190300464630127,0.27972179651260376
-0.7052567005157471,2.7615933418273926,0.2731208801269531
-0.7239931225776672,2.7568767070770264,0.2717413008213043
-0.7426978349685669,2.75203275680542,0.27036163210868835
-0.7662523984909058,2.761855363845825,0.2703959047794342
-0.7876072525978088,2.7640695571899414,0.26970261335372925
-0.9638899564743042,3.296255588531494,0.3205071687698364
-0.9928833842277527,3.312195301055908,0.3207576274871826
-1.0209941864013672,3.3241758346557617,0.32062333822250366
-1.0428742170333862,3.313490152359009,0.3182796239852905
-1.058811902999878,3.2841076850891113,0.31415849924087524
-1.0646339654922485,3.225107431411743,0.3072485327720642
-1.0915677547454834,3.232720136642456,0.306557297706604
-1.1336759328842163,3.2843282222747803,0.3099563419818878
-1.3487074375152588,3.8235418796539307,0.35911014676094055
-1.3808876276016235,3.828839063644409,0.3578069806098938
-1.4048534631729126,3.8120648860931396,0.3544740378856659
-1.4337294101715088,3.809868812561035,0.3524264693260193
-1.4592692852020264,3.8004236221313477,0.3495701849460602
-1.4875518083572388,3.7980659008026123,0.34738045930862427
-2.2363533973693848,5.595053672790527,0.5087209343910217
-2.2958693504333496,5.630193710327148,0.5088929533958435
-2.349635601043701,5.650557518005371,0.5076292157173157
-2.3781843185424805,5.6136674880981445,0.5009592175483704
-2.406344413757324,5.5766425132751465,0.4943251311779022
-2.4654407501220703,5.60654354095459,0.49349144101142883
-2.547548770904541,5.685559272766113,0.4968990683555603
-2.5413978099823,5.569122314453125,0.4831685721874237
-2.5800678730010986,5.556058406829834,0.47825387120246887
-2.6020374298095703,5.507509231567383,0.47032496333122253
-2.6202569007873535,5.447510242462158,0.4613012373447418
-2.622260808944702,5.356071472167969,0.4497295618057251
-2.675874948501587,5.373497009277344,0.4471905827522278
-2.4174814224243164,4.775712966918945,0.39376911520957947
-2.3974626064300537,4.659492015838623,0.3805754482746124
-2.4553258419036865,4.6913371086120605,0.37933650612831116
-2.4702467918395996,4.63982629776001,0.3712817430496216
-2.4895944595336914,4.603333473205566,0.36433273553848267
-1.1708049774169922,2.131383180618286,0.1668161004781723
-1.1930410861968994,2.137089967727661,0.16529424488544464
-2.558230400085449,4.508664608001709,0.34449175000190735
-2.580724000930786,4.478278636932373,0.33770498633384705
-2.6099226474761963,4.4617509841918945,0.33203232288360596
-2.620353937149048,4.410784721374512,0.32365497946739197
-1.2570359706878662,2.0829262733459473,0.15061461925506592
-2.6491785049438477,4.325970649719238,0.3080179989337921
-2.661118507385254,4.282384872436523,0.3000355660915375
-2.9590818881988525,4.689786434173584,0.3229374289512634
-2.9999091625213623,4.682802200317383,0.31667637825012207
-3.0215225219726562,4.650777339935303,0.30858856439590454
-3.0520882606506348,4.631260395050049,0.3012288212776184
-3.0676698684692383,4.583963871002197,0.2916117310523987
-3.0821845531463623,4.541744232177734,0.2823919355869293
-3.0933828353881836,4.496771335601807,0.27303943037986755
-3.1292600631713867,4.481910705566406,0.2649060785770416
-2.92856502532959,4.136990547180176,0.23772138357162476
-2.8413619995117188,3.960005044937134,0.22079020738601685
-2.901124954223633,3.9846854209899902,0.21471194922924042
-2.9123711585998535,3.9478633403778076,0.20519375801086426
-3.0320663452148438,4.244627475738525,-0.15832465887069702
-2.4490058422088623,3.4803144931793213,-0.13693109154701233
-2.9599921703338623,4.2754740715026855,-0.17685985565185547
-2.9428744316101074,4.31528377532959,-0.1864718496799469
-2.3539559841156006,3.506821393966675,-0.15787477791309357
-2.3040406703948975,3.4881556034088135,-0.1631680279970169
-2.2621161937713623,3.4779884815216064,-0.16847795248031616
-2.1477890014648438,3.35636305809021,-0.16797786951065063
-2.0877344608306885,3.315598726272583,-0.1710977852344513
-1.2666620016098022,2.0429999828338623,-0.10843322426080704
-1.259651780128479,2.0654470920562744,-0.11262208223342896
-2.0227630138397217,3.3729352951049805,-0.188790425658226
-1.9991430044174194,3.386688470840454,-0.19410188496112823
-1.9804046154022217,3.4109134674072266,-0.19998815655708313
-1.181592583656311,2.069993495941162,-0.12406548857688904
-1.1879609823226929,2.1155099868774414,-0.12941180169582367
-1.9211164712905884,3.4794092178344727,-0.21715134382247925
-1.9344861507415771,3.5651443004608154,-0.22674988210201263
-1.9270243644714355,3.6131198406219482,-0.23400235176086426
-1.9017090797424316,3.626188039779663,-0.23891043663024902
-2.4775054454803467,4.807562828063965,-0.3220170736312866
-2.4451792240142822,4.832386493682861,-0.3289966881275177
-2.421302318572998,4.870108127593994,-0.33664530515670776
-2.4009313583374023,4.914490222930908,-0.3447487950325012
-2.372119665145874,4.945333957672119,-0.35180380940437317
-2.347759485244751,4.986686706542969,-0.3596450388431549
-1.5570008754730225,3.36812686920166,-0.24611060321331024
-1.5233575105667114,3.357520341873169,-0.2485470324754715
-1.502225399017334,3.375277519226074,-0.25289687514305115
-1.4746572971343994,3.3786237239837646,-0.2561691105365753
-1.4692792892456055,3.431607723236084,-0.2631637156009674
-1.4558360576629639,3.4666459560394287,-0.2688353359699249
-1.4112476110458374,3.430043935775757,-0.26885396242141724
-1.3865532875061035,3.4398207664489746,-0.2724056839942932
-1.3593683242797852,3.4420018196105957,-0.2753145396709442
-1.3352900743484497,3.4511375427246094,-0.2787584066390991
-1.3217747211456299,3.4894065856933594,-0.28446653485298157
-1.316577434539795,3.553464412689209,-0.29232609272003174
-1.3138649463653564,3.62469482421875,-0.30080682039260864
-1.3184980154037476,3.7179059982299805,-0.31118303537368774
-1.3191298246383667,3.80405855178833,-0.3210321068763733
-1.5681078433990479,4.628077983856201,-0.3935873508453369
-1.9074054956436157,5.766397476196289,-0.4942239820957184
-1.8646682500839233,5.771764278411865,-0.4983837306499481
-0.9730811715126038,3.0851597785949707,-0.26837676763534546
-0.9580118060112,3.114107608795166,-0.27273011207580566
-0.8754302859306335,2.919311285018921,-0.2573690712451935
-0.7980775833129883,2.7309422492980957,-0.24233928322792053
-0.7733892798423767,2.717625379562378,-0.24274155497550964
-0.7522734999656677,2.7152938842773438,-0.2440379410982132
-0.7330259680747986,2.7203872203826904,-0.24588045477867126
-0.7117722630500793,2.7178142070770264,-0.2470385581254959
-0.7013674974441528,2.7565019130706787,-0.25195661187171936
-1.4922343492507935,6.043764114379883,-0.5555635094642639
-1.477672815322876,6.171084403991699,-0.5701138973236084
-1.459370493888855,6.290974140167236,-0.5839582681655884
-1.4277199506759644,6.357708930969238,-0.5929582715034485
-1.3660001754760742,6.2873406410217285,-0.5891574621200562
-1.3213871717453003,6.296521186828613,-0.592850923538208
-1.2669450044631958,6.255821704864502,-0.5913112759590149
-1.2153643369674683,6.226129055023193,-0.5907960534095764
-1.162369966506958,6.184510231018066,-0.5891321301460266
-1.1095845699310303,6.138588905334473,-0.5870351195335388
-1.0281171798706055,5.927618503570557,-0.5690227746963501
-0.945639967918396,5.688951015472412,-0.5478054881095886
-0.9538971781730652,5.998616695404053,-0.5794343948364258
-0.9084871411323547,5.9818291664123535,-0.5796315670013428
-0.7075207233428955,4.887190341949463,-0.47506290674209595
-0.6780868768692017,4.930431365966797,-0.4806688129901886
-0.6349679827690125,4.869368553161621,-0.47582927346229553
-0.598922848701477,4.858112812042236,-0.47586166858673096
-0.6933814883232117,5.9664998054504395,-0.5858403444290161
-0.6493254899978638,5.9478068351745605,-0.5854331254959106
-0.6011030077934265,5.886285781860352,-0.5805641412734985
-0.5569409728050232,5.867064952850342,-0.5796273350715637
-0.5138363838195801,5.847452163696289,-0.5786553621292114
-0.47065699100494385,5.819756031036377,-0.5768967270851135
-0.2551860511302948,3.454113006591797,-0.34299567341804504
-0.23347193002700806,3.490652561187744,-0.347064733505249
-0.2096051722764969,3.507695198059082,-0.34909382462501526
-0.2989676296710968,5.66723108291626,-0.5645745396614075
-0.25990229845046997,5.676862716674805,-0.566118597984314
-0.21905900537967682,5.643499374389648,-0.5633994936943054
-0.17876766622066498,5.613765716552734,-0.5607238411903381
-0.13819997012615204,5.583780765533447,-0.5578675270080566
-0.09880681335926056,5.557380199432373,-0.5553926229476929
-0.05987807363271713,5.534588813781738,-0.5533036589622498
-0.01735609583556652,4.497063636779785,-0.4497552812099457
0.013863406144082546,4.473763465881348,-0.44732844829559326
0.05518384650349617,5.421926975250244,-0.5418930649757385
0.09277458488941193,5.413665294647217,-0.5408567190170288
0.12978538870811462,5.389601707458496,-0.5382694005966187
0.1266029328107834,4.0793256759643555,-0.407290518283844
0.1611143946647644,4.241531848907471,-0.42309457063674927
0.235737606883049,5.246097564697266,-0.5227282047271729
0.22431378066539764,4.312731742858887,-0.4292687773704529
0.2508046329021454,4.252923965454102,-0.42289239168167114
0.27779147028923035,4.212348461151123,-0.41845786571502686
0.30580613017082214,4.19490385055542,-0.41604360938072205
0.3338829278945923,4.18115758895874,-0.4139482080936432
0.3663620948791504,4.213651657104492,-0.41643357276916504
0.47172874212265015,5.020023345947266,-0.49528801441192627
0.5066543221473694,5.016731262207031,-0.49414879083633423
0.5384681224822998,4.986194133758545,-0.4899720549583435
0.5711914896965027,4.9670515060424805,-0.4868922829627991
0.6043098568916321,4.947619438171387,-0.4837934076786041
0.6347684860229492,4.912595272064209,-0.47921890020370483
0.664202094078064,4.873538494110107,-0.4742908179759979
0.6978517770767212,4.869022369384766,-0.4723542630672455
0.7291488647460938,4.848895072937012,-0.46891507506370544
0.7620671391487122,4.836148738861084,-0.4661906659603119
0.7919047474861145,4.807895660400391,-0.4620213508605957
0.82790607213974,4.817801475524902,-0.4615141451358795
0.8652017712593079,4.835173606872559,-0.46137723326683044
0.8985074758529663,4.829318523406982,-0.4590373635292053
0.9304192066192627,4.815572261810303,-0.4559655785560608
0.9599313735961914,4.786202907562256,-0.45140552520751953
0.9867980480194092,4.749186992645264,-0.44610729813575745
1.017853021621704,4.734923362731934,-0.44269856810569763
1.049562692642212,4.72426176071167,-0.4396549463272095
1.0805774927139282,4.709533214569092,-0.43624165654182434
1.106720209121704,4.6717329025268555,-0.4306877851486206
1.1371735334396362,4.656666278839111,-0.4271451234817505
1.1653263568878174,4.633930683135986,-0.42274507880210876
1.1951698064804077,4.618558883666992,-0.41904813051223755
1.2232695817947388,4.595365524291992,-0.4146427512168884
1.2527689933776855,4.575587272644043,-0.41053327918052673
1.2821224927902222,4.559654712677002,-0.4066144526004791
1.3090189695358276,4.536099433898926,-0.40196534991264343
1.3291687965393066,4.4899516105651855,-0.3953505754470825
1.360447645187378,4.4808669090271,-0.39200690388679504
1.3898382186889648,4.463983058929443,-0.38793784379959106
1.4202865362167358,4.454699516296387,-0.3843531906604767
1.4446675777435303,4.426689147949219,-0.3791790008544922
1.4728143215179443,4.409503936767578,-0.3749312162399292
1.495997667312622,4.377318859100342,-0.36942264437675476
1.24483060836792,3.5621395111083984,-0.2982736825942993
1.2747890949249268,3.5683412551879883,-0.29629555344581604
1.3045059442520142,3.574434995651245,-0.2943410277366638
1.596053957939148,4.280825138092041,-0.3495118319988251
1.6299580335617065,4.280853271484375,-0.3465108275413513
1.6561429500579834,4.262763977050781,-0.341842383146286
1.6883785724639893,4.25881290435791,-0.3382703959941864
1.7149220705032349,4.240120887756348,-0.33352941274642944
1.7429946660995483,4.224772930145264,-0.3290512263774872
1.7658582925796509,4.198699474334717,-0.3236282765865326
1.7912029027938843,4.179806709289551,-0.31872835755348206
1.8172228336334229,4.160396575927734,-0.3137120008468628
1.836718201637268,4.126579761505127,-0.3076488971710205
1.8682866096496582,4.121277809143066,-0.303672194480896
1.8960542678833008,4.108912467956543,-0.299096018075943
1.9173122644424438,4.082150459289551,-0.29347142577171326
1.9496748447418213,4.075781345367432,-0.28916099667549133
1.9743424654006958,4.055555820465088,-0.2839052677154541
1.9981074333190918,4.035536289215088,-0.2785990238189697
2.0130865573883057,3.997882604598999,-0.27209481596946716
2.0462586879730225,3.994490385055542,-0.2678268253803253
2.073681354522705,3.9806571006774902,-0.26281654834747314
2.095212936401367,3.9564695358276367,-0.25700315833091736
2.1256484985351562,3.9493916034698486,-0.2523329257965088
2.1456940174102783,3.9210963249206543,-0.24619290232658386
2.124913454055786,3.8215219974517822,-0.23565316200256348
2.157944917678833,3.8212149143218994,-0.2312890738248825
2.1728756427764893,3.7861082553863525,-0.22462710738182068
2.2071659564971924,3.7846181392669678,-0.21996252238750458
2.2401838302612305,3.783632278442383,-0.2152554839849472
2.2531707286834717,3.7489356994628906,-0.20862795412540436
2.279276132583618,3.7334392070770264,-0.20286032557487488
2.30497407913208,3.717944622039795,-0.1969863325357437
2.3251290321350098,3.696457862854004,-0.1908779740333557
2.3504302501678467,3.680729389190674,-0.18484999239444733
2.3671836853027344,3.6516897678375244,-0.17807823419570923
2.3908944129943848,3.636503219604492,-0.1719839870929718
2.4202260971069336,3.6267383098602295,-0.165826678276062
2.423233985900879,3.577972412109375,-0.15784873068332672
2.4418041706085205,3.556138038635254,-0.1511261761188507
2.46140456199646,3.5333704948425293,-0.1440829187631607
2.4941768646240234,3.5297317504882812,-0.13763928413391113
2.5078439712524414,3.5011093616485596,-0.13011576235294342
2.5367119312286377,3.490183115005493,-0.12277921289205551
2.181539297103882,2.961644411087036,-0.09822777658700943
2.7606360912323,3.898487091064453,0.2025734782218933
2.727691173553467,3.9116861820220947,0.2100379914045334
2.701493740081787,3.938868522644043,0.2181704044342041
2.6731550693511963,3.957753896713257,0.22533133625984192
2.6566812992095947,3.996569871902466,0.23344650864601135
2.6301376819610596,4.023001194000244,0.240821972489357
2.584927797317505,4.014745235443115,0.2456037998199463
2.5679399967193604,4.052977561950684,0.25314363837242126
2.5363564491271973,4.072413444519043,0.2595573365688324
2.5032453536987305,4.0833258628845215,0.26499444246292114
2.4823429584503174,4.113922119140625,0.271619975566864
2.447246789932251,4.125452041625977,0.2768649458885193
2.4363527297973633,4.176724433898926,0.2847262918949127
2.4104580879211426,4.200345993041992,0.2905970811843872
2.360786199569702,4.183386325836182,0.293466180562973
2.3010411262512207,4.149436950683594,0.29497507214546204
2.244798183441162,4.117724895477295,0.2964423596858978
2.2269933223724365,4.153600215911865,0.3026373088359833
2.1999523639678955,4.176453590393066,0.30786195397377014
2.1760265827178955,4.20619010925293,0.3134898841381073
2.1420159339904785,4.214534282684326,0.31745514273643494
2.1229188442230225,4.250012397766113,0.32338258624076843
2.097621440887451,4.275253772735596,0.3284691572189331
2.0603795051574707,4.280027389526367,0.3319110870361328
2.0256006717681885,4.287656784057617,0.3355083167552948
2.0038421154022217,4.319045066833496,0.3408414423465729
1.9688559770584106,4.321951866149902,0.3439449369907379
2.0102906227111816,4.499558448791504,0.3608287274837494
1.9491549730300903,4.449615478515625,0.359539270401001
4.379246234893799,10.197333335876465,0.8301465511322021
1.9006391763687134,4.512242317199707,0.36996889114379883
1.902787208557129,4.608108997344971,0.380437970161438
1.8720093965530396,4.628807544708252,0.3845832943916321
1.8382028341293335,4.6420416831970215,0.3881297707557678
1.8019750118255615,4.647579193115234,0.3910139799118042
1.79024076461792,4.714360237121582,0.3990234136581421
1.3592838048934937,3.657228469848633,0.3113088607788086
1.3220763206481934,3.637507915496826,0.31126031279563904
1.2930805683135986,3.6394450664520264,0.3130629062652588
1.2695322036743164,3.6557629108428955,0.31610026955604553
1.6470485925674438,4.851341247558594,0.4215955436229706
1.6091195344924927,4.851490020751953,0.4236288368701935
1.5753008127212524,4.866422653198242,0.42675384879112244
1.5425220727920532,4.884830474853516,0.4302098751068115
1.5016337633132935,4.87694787979126,0.4313637614250183
1.4821869134902954,4.935508728027344,0.4383687973022461
1.426951289176941,4.874515533447266,0.434750497341156
1.394119143486023,4.891887187957764,0.43781614303588867
1.3652698993682861,4.924037456512451,0.4422363340854645
1.3078572750091553,4.850764274597168,0.4371834695339203
1.2733975648880005,4.859712600708008,0.43953078985214233
1.243281602859497,4.883358478546143,0.44320860505104065
1.2143025398254395,4.914503574371338,0.44739556312561035
1.1827473640441895,4.938015460968018,0.45078933238983154
1.1527255773544312,4.968893527984619,0.4548864960670471
1.121420979499817,4.995805740356445,0.4586564898490906
1.0915608406066895,5.026122570037842,0.46273815631866455
1.0533841848373413,5.018179893493652,0.46331676840782166
1.022336721420288,5.048261642456055,0.4670902192592621
0.9894247651100159,5.070516586303711,0.47017061710357666
2.174560785293579,11.58849811553955,1.0769824981689453
2.06756854057312,11.45754337310791,1.0671671628952026
1.9571936130523682,11.295012474060059,1.0543957948684692
1.8476753234863281,11.123903274536133,1.0405710935592651
1.7488123178482056,11.009663581848145,1.031491756439209
1.6450735330581665,10.86018180847168,1.0191482305526733
1.547338604927063,10.72497272491455,1.0081151723861694
1.4509859085083008,10.577249526977539,0.9958856701850891
1.3591668605804443,10.448016166687012,0.985400915145874
1.2722642421722412,10.345113754272461,0.9770746827125549
1.189085602760315,10.264788627624512,0.9705020189285278
1.1065664291381836,10.191691398620605,0.9646643400192261
1.0217348337173462,10.067479133605957,0.9539890885353088
0.40711167454719543,4.309204578399658,0.40881600975990295
0.37372663617134094,4.273120880126953,0.4058865010738373
0.3445228934288025,4.283322334289551,0.40720272064208984
0.31312283873558044,4.273992538452148,0.40654104948043823
0.2869892716407776,4.3342461585998535,0.4125174283981323
0.33118003606796265,5.593844413757324,0.5327417850494385
0.2918221056461334,5.588193893432617,0.5325683355331421
0.25666067004203796,5.6716108322143555,0.5409137606620789
0.2160782814025879,5.665484428405762,0.5405306220054626
0.17751602828502655,5.697931289672852,0.5436761975288391
0.138699471950531,5.737888813018799,0.5475656986236572
0.09913341701030731,5.765915393829346,0.5503444075584412
0.05918538570404053,5.782001972198486,0.5520105361938477
0.018189245834946632,5.766704082489014,0.5507102608680725
-0.016407189890742302,4.304606914520264,0.4110437333583832
-0.045214585959911346,4.199419975280762,0.4008467495441437
-0.07262860238552094,4.097932815551758,0.39102932810783386
-0.03962599113583565,1.6055060625076294,0.15315558016300201
-0.12736642360687256,4.026598930358887,0.38402259349823
-0.15854117274284363,4.09555721282959,0.39052459597587585
-0.18319101631641388,4.012814044952393,0.38242703676223755
-0.18663708865642548,3.5493762493133545,0.3379737436771393
-0.21187125146389008,3.5596842765808105,0.33868348598480225
-0.23806796967983246,3.581451177597046,0.3404967188835144
-0.28650644421577454,3.8938629627227783,0.36993032693862915
-0.30917811393737793,3.837552070617676,0.36433860659599304
-0.32792678475379944,3.746269941329956,0.3553183376789093
-0.34610310196876526,3.6626744270324707,0.34693440794944763
-0.3662441372871399,3.609964609146118,0.3415094017982483
-0.39080968499183655,3.5996274948120117,0.3401074707508087
-0.4242914915084839,3.6702940464019775,0.346373975276947
-0.44788414239883423,3.6518805027008057,0.3442439138889313
-0.4645811915397644,3.583207130432129,0.3372719883918762
-0.4870608150959015,3.564603328704834,0.33492639660835266
-0.5086367130279541,3.5380985736846924,0.3318503201007843
-0.5312817096710205,3.523052453994751,0.3298783004283905
-0.554602324962616,3.511665105819702,0.32826194167137146
-0.5777900218963623,3.5001235008239746,0.32664954662323
-0.6091843247413635,3.5383195877075195,0.32953450083732605
-1.1378350257873535,6.348482608795166,0.5898807048797607
-1.1898776292800903,6.382663249969482,0.5916792154312134
-1.244280457496643,6.4279584884643555,0.5945281982421875
-1.2989259958267212,6.468928337097168,0.5969743132591248
-1.3501735925674438,6.490417957305908,0.5976369976997375
-1.408524513244629,6.545902252197266,0.6011060476303101
-1.4572951793670654,6.551403522491455,0.5998663902282715
-1.483663558959961,6.461912155151367,0.5900035500526428
-1.5318050384521484,6.4669013023376465,0.5887923836708069
-0.6785038709640503,2.77834153175354,0.2522485852241516
-0.7053768038749695,2.8038547039031982,0.25385087728500366
-0.7188528776168823,2.7764384746551514,0.2504830062389374
-0.7296637296676636,2.7415294647216797,0.2464822679758072
-0.7544037699699402,2.7591552734375,0.2472185492515564
-0.7799259424209595,2.7764317989349365,0.2478984147310257
-0.7949389219284058,2.7560906410217285,0.24522915482521057
-0.9733203053474426,3.2880067825317383,0.2914363145828247
-1.0102506875991821,3.3299217224121094,0.2939207851886749
-1.0200977325439453,3.282266616821289,0.2885081470012665
-1.0544146299362183,3.312439203262329,0.28993624448776245
-1.0557235479354858,3.2385623455047607,0.28226515650749207
-1.0934242010116577,3.275479555130005,0.28425168991088867
-1.1230388879776,3.2903122901916504,0.28413915634155273
-1.3195691108703613,3.7828164100646973,0.3250666558742523
-1.3594896793365479,3.8143560886383057,0.3261611759662628
-1.3886703252792358,3.8123281002044678,0.32433274388313293
-1.4124900102615356,3.7954671382904053,0.3212559223175049
-1.4441888332366943,3.8004097938537598,0.3198556900024414
-1.46963632106781,3.790864944458008,0.31720060110092163
-1.5007816553115845,3.7956221103668213,0.31574705243110657
-1.5300062894821167,3.7925665378570557,0.3135848343372345
-2.324216842651367,5.647850036621094,0.4641421139240265
-2.363297462463379,5.631968021392822,0.45976898074150085
-2.385519027709961,5.580610752105713,0.4524593949317932
-2.4227566719055176,5.564899921417236,0.4480762183666229
-2.519831895828247,5.680055141448975,0.45404958724975586
-2.5530710220336914,5.648468971252441,0.44822660088539124
-4.0760393142700195,8.855504989624023,0.6971554756164551
-2.5913302898406982,5.532986640930176,0.43207865953445435
-2.594796657562256,5.445533752441406,0.42177239060401917
-2.632720470428467,5.4276862144470215,0.4167768061161041
-2.637700080871582,5.343194961547852,0.4067324101924896
-2.677067995071411,5.33269739151001,0.4020574688911438
-2.3933417797088623,4.690371990203857,0.35026633739471436
-2.4216580390930176,4.667381286621094,0.34508800506591797
-2.4469051361083984,4.636923789978027,0.33930498361587524
-2.485630989074707,4.634335517883301,0.3354634940624237
-2.4973819255828857,4.584019184112549,0.3281027674674988
-1.185850739479065,2.142106771469116,0.1515219509601593
-2.5354154109954834,4.505743980407715,0.3148024082183838
-2.5700647830963135,4.495415687561035,0.3100971281528473
-2.6032729148864746,4.485647678375244,0.30530640482902527
-2.5991766452789307,4.411604404449463,0.29615485668182373
-1.2421098947525024,2.074566125869751,0.1371757537126541
-1.264265775680542,2.079591989517212,0.13540993630886078
-2.66394305229187,4.3190107345581055,0.2767527997493744
-2.680215835571289,4.281708717346191,0.26978015899658203
-2.9883546829223633,4.701126575469971,0.290902316570282
-3.01556658744812,4.674849987030029,0.2837534546852112
-3.041205883026123,4.649290084838867,0.2767282724380493
-3.0602874755859375,4.609097957611084,0.268453985452652
-3.0697715282440186,4.556228160858154,0.25940045714378357
-3.0921247005462646,4.527322292327881,0.251695454120636
-3.100829839706421,4.474388122558594,0.24226655066013336
-3.1222801208496094,4.440792083740234,0.23381665349006653
-2.860177516937256,4.014673709869385,0.20524926483631134
-2.8917181491851807,4.002032279968262,0.19798311591148376
-2.909118175506592,3.970445394515991,0.1895189881324768
-2.9243435859680176,3.94018292427063,0.18113070726394653
-2.4756760597229004,3.4906671047210693,-0.12399738281965256
-2.4404306411743164,3.496107816696167,-0.130716010928154
-2.918663501739502,4.247428894042969,-0.1663411408662796
-2.905367374420166,4.293975353240967,-0.17541933059692383
-2.9051408767700195,4.364316940307617,-0.1854443997144699
-2.8781933784484863,4.391146659851074,-0.19329561293125153
-2.213630437850952,3.430795431137085,-0.15610945224761963
-2.108261823654175,3.321866273880005,-0.15602131187915802
-2.0802245140075684,3.3300421237945557,-0.1610245257616043
-1.27135169506073,2.067967176437378,-0.1027529165148735
-2.0312576293945312,3.3596248626708984,-0.17134404182434082
-2.0113558769226074,3.380409002304077,-0.17660336196422577
-1.991375207901001,3.4010095596313477,-0.18179717659950256
-1.967674732208252,3.419013500213623,-0.1868990808725357
-1.2145850658416748,2.1459639072418213,-0.11978546530008316
-1.1805791854858398,2.120152235031128,-0.12070181220769882
-1.891932725906372,3.45628023147583,-0.20051789283752441
-1.8830945491790771,3.50075626373291,-0.2068602740764618
-1.9109057188034058,3.613863706588745,-0.21730004251003265
-1.90159273147583,3.658113956451416,-0.223638653755188
-2.4636807441711426,4.824891090393066,-0.2996816635131836
-2.4322142601013184,4.849198341369629,-0.3058607876300812
-2.4086756706237793,4.886682033538818,-0.3127463757991791
-2.383521318435669,4.92464542388916,-0.3197343051433563
-2.356074810028076,4.959072113037109,-0.3263643980026245
-2.330393075942993,4.996660232543945,-0.3331938087940216
-1.5454922914505005,3.3747029304504395,-0.2278924435377121
-1.5183398723602295,3.378220796585083,-0.23092548549175262
-1.4844800233840942,3.367452383041382,-0.23289303481578827
-1.4692161083221436,3.39939546585083,-0.23784880340099335
-1.454542636871338,3.430882453918457,-0.24271121621131897
-1.452699065208435,3.4948296546936035,-0.2498864084482193
-1.4054070711135864,3.450834274291992,-0.24925631284713745
-1.3661489486694336,3.424405813217163,-0.24983178079128265
-1.3446451425552368,3.4410457611083984,-0.253512442111969
-1.3149288892745972,3.4355974197387695,-0.25551483035087585
-1.3093944787979126,3.4958057403564453,-0.26228711009025574
-1.3070839643478394,3.567075729370117,-0.2699771523475647
-1.2793701887130737,3.568606376647949,-0.2723903954029083
-1.2539995908737183,3.577371120452881,-0.27538999915122986
-1.23863685131073,3.615462064743042,-0.28049400448799133
-1.2152283191680908,3.6313962936401367,-0.28386735916137695
-1.1931251287460327,3.650797128677368,-0.2875155210494995
-0.9840559363365173,3.0836527347564697,-0.24463067948818207
-0.9735581874847412,3.1276161670684814,-0.24990572035312653
-0.9467439651489258,3.119387626647949,-0.25086140632629395
-0.809618353843689,2.7374813556671143,-0.2215709537267685
-0.7829181551933289,2.716728925704956,-0.22128090262413025
-0.7618746161460876,2.714468479156494,-0.22248575091362
-0.7427203059196472,2.7196319103240967,-0.22418710589408875
-0.7250851988792419,2.7323060035705566,-0.2264895886182785
-0.7125734686851501,2.7636139392852783,-0.23033778369426727
-1.535119891166687,6.129698276519775,-0.5136447548866272
-1.4712387323379517,6.052926063537598,-0.5099413394927979
-1.4730205535888672,6.25238037109375,-0.5291491150856018
-1.4410048723220825,6.319461822509766,-0.5373159646987915
-1.399993896484375,6.344340801239014,-0.5418890118598938
-1.341964840888977,6.288941860198975,-0.5395947098731995
-1.2933207750320435,6.275015830993652,-0.5407271981239319
-1.2376410961151123,6.226479530334473,-0.53854900598526
-1.1885086297988892,6.212027072906494,-0.5393564701080322
-1.1359741687774658,6.1701741218566895,-0.5377295017242432
-1.0849676132202148,6.1316914558410645,-0.5363814234733582
-0.9626562595367432,5.670812606811523,-0.49775299429893494
-0.7942280769348145,4.885965347290039,-0.430134654045105
-0.7593079209327698,4.891356945037842,-0.43192407488822937
-0.7331282496452332,4.950274467468262,-0.4384458065032959
-0.6953406929969788,4.931989669799805,-0.4381575584411621
-0.6546350121498108,4.89031457901001,-0.43556976318359375
-0.6046101450920105,4.771146774291992,-0.4259037673473358
-0.5683056116104126,4.751977443695068,-0.4251561462879181
-0.5389692187309265,4.794430732727051,-0.4299546480178833
-0.6234464645385742,5.9161763191223145,-0.531786322593689
-0.5793987512588501,5.8931684494018555,-0.5306646823883057
-0.5353168249130249,5.865978717803955,-0.5290254950523376
-0.4909403622150421,5.830712795257568,-0.5266751050949097
-0.4488259553909302,5.822296142578125,-0.5267760753631592
-0.24595120549201965,3.5082972049713135,-0.31794047355651855
-0.2205372303724289,3.4943504333496094,-0.317012757062912
-0.31993553042411804,5.701986789703369,-0.5177319645881653
-0.27904003858566284,5.680705547332764,-0.5162612795829773
-0.23732657730579376,5.647499084472656,-0.5137349963188171
-0.19751191139221191,5.633403301239014,-0.512958824634552
-0.1573697030544281,5.6035075187683105,-0.5104203820228577
-0.11747150868177414,5.565560340881348,-0.5070443749427795
-0.07832340151071548,5.539000034332275,-0.504729151725769
-0.03916015475988388,5.531619548797607,-0.5041874051094055
-0.0005909369792789221,4.465851783752441,-0.4071701467037201
0.030084986239671707,4.419079303741455,-0.40278416872024536
0.0748228058218956,5.441795825958252,-0.4957593083381653
0.11210940033197403,5.417834281921387,-0.493359237909317
0.11105605959892273,4.017019748687744,-0.36565452814102173
0.18374280631542206,5.2913689613342285,-0.48148518800735474
0.21753977239131927,5.220056056976318,-0.4745422303676605
0.20835547149181366,4.285920143127441,-0.3891741633415222
0.2898767292499542,5.2166643142700195,-0.4731648862361908
0.2647739350795746,4.232235431671143,-0.383465975522995
0.2926190495491028,4.199254989624023,-0.3800837993621826
0.32086530327796936,4.185558795928955,-0.37822166085243225
0.35283246636390686,4.218204498291016,-0.3804706931114197
0.4523044526576996,4.990690231323242,-0.44933927059173584
0.490386426448822,5.022372722625732,-0.45139801502227783
0.5230562686920166,4.991791248321533,-0.4478677213191986
0.554129958152771,4.957240104675293,-0.4437295198440552
0.5864968299865723,4.937972068786621,-0.44090044498443604
0.6186665296554565,4.918486595153809,-0.4380786418914795
0.6508060693740845,4.898765563964844,-0.4352568984031677
0.6854487061500549,4.894169330596924,-0.43378543853759766
0.7141099572181702,4.854826927185059,-0.4289834201335907
0.7464001178741455,4.842251300811768,-0.4265052080154419
0.7760732769966125,4.814092636108398,-0.42268332839012146
0.8070129156112671,4.793375492095947,-0.4195326566696167
0.8531357049942017,4.860633373260498,-0.42408809065818787
0.8837089538574219,4.835574150085449,-0.42027243971824646
0.9126303195953369,4.806617259979248,-0.4161361753940582
0.9428210258483887,4.785104751586914,-0.4126710593700409
0.9729593396186829,4.763362884521484,-0.4092065095901489
1.0060628652572632,4.756665229797363,-0.4070592522621155
1.035155177116394,4.730712413787842,-0.40291595458984375
1.0659558773040771,4.716095447540283,-0.399798721075058
1.094953179359436,4.693667888641357,-0.39604049921035767
1.1239259243011475,4.671008586883545,-0.39228031039237976
1.1506757736206055,4.6406378746032715,-0.38785520195961
1.1829677820205688,4.632744789123535,-0.38506054878234863
1.2107157707214355,4.609696865081787,-0.3810667395591736
1.2375653982162476,4.582625389099121,-0.3767487704753876
1.2694926261901855,4.5741119384765625,-0.3739709258079529
1.2926170825958252,4.535480499267578,-0.36863774061203003
1.326426386833191,4.534074783325195,-0.3661523163318634
1.3507391214370728,4.502744197845459,-0.3613191843032837
1.3774447441101074,4.478594779968262,-0.3570633828639984
1.4039515256881714,4.454266548156738,-0.3528207242488861
1.436848521232605,4.452205657958984,-0.35017743706703186
1.4628267288208008,4.427592754364014,-0.3456777334213257
1.4844406843185425,4.391873359680176,-0.3403799533843994
1.509935736656189,4.366944313049316,-0.335917592048645
1.2687993049621582,3.588879108428955,-0.2739580571651459
1.2905234098434448,3.5730607509613037,-0.2705053687095642
1.5791265964508057,4.28095006942749,-0.3214065134525299
1.6161924600601196,4.288193225860596,-0.3191554844379425
1.6460740566253662,4.277077674865723,-0.3155755400657654
1.6710646152496338,4.255089282989502,-0.31107595562934875
1.6999038457870483,4.243923187255859,-0.3073342740535736
1.7333754301071167,4.2432684898376465,-0.3043314814567566
1.7499438524246216,4.198761940002441,-0.2981102466583252
1.7788515090942383,4.18687105178833,-0.29423630237579346
1.8040199279785156,4.167872428894043,-0.28976014256477356
1.8353323936462402,4.16297721862793,-0.28627434372901917
1.8515033721923828,4.121922016143799,-0.28024065494537354
1.8838497400283813,4.116098880767822,-0.2765585780143738
1.9147887229919434,4.110682010650635,-0.27284491062164307
1.9390573501586914,4.090937614440918,-0.2681925594806671
1.960673213005066,4.063591480255127,-0.2629600465297699
1.9786763191223145,4.02908182144165,-0.25729262828826904
2.0061440467834473,4.0157599449157715,-0.2528187334537506
2.031282663345337,3.9990041255950928,-0.24820320308208466
2.0518014430999756,3.9712421894073486,-0.24281345307826996
2.0793888568878174,3.957143783569336,-0.23825739324092865
2.1130616664886475,3.957239866256714,-0.23446105420589447
2.1356379985809326,3.9364991188049316,-0.22943758964538574
2.1484665870666504,3.89418888092041,-0.22294816374778748
2.138970136642456,3.814920425415039,-0.21449755132198334
2.160351514816284,3.7941412925720215,-0.20936545729637146
2.1975696086883545,3.8000402450561523,-0.2056378275156021
2.216125965118408,3.771425247192383,-0.19989736378192902
2.2338526248931885,3.743053913116455,-0.19408991932868958
2.266541004180908,3.7418718338012695,-0.1897532343864441
2.2800486087799072,3.706456184387207,-0.18349067866802216
2.3013033866882324,3.684356212615967,-0.17787222564220428
2.3503730297088623,3.7090718746185303,-0.1744641810655594
2.3716070652008057,3.6865122318267822,-0.16855059564113617
2.3715686798095703,3.630970001220703,-0.1611233353614807
2.412304162979126,3.641801595687866,-0.15662603080272675
2.4191513061523438,3.599935531616211,-0.1497189998626709
2.435272693634033,3.570408821105957,-0.14316426217556
2.4495937824249268,3.541865825653076,-0.13659651577472687
2.486762285232544,3.5447607040405273,-0.13107050955295563
2.501736879348755,3.515291452407837,-0.12410615384578705
2.5240085124969482,3.4995577335357666,-0.11764016002416611
2.5572824478149414,3.4949212074279785,-0.11102373152971268
2.1841166019439697,2.945484161376953,-0.0880451574921608
2.764204263687134,3.873225450515747,0.1768178939819336
2.755385637283325,3.9221696853637695,0.18559111654758453
2.727207899093628,3.941479206085205,0.19258342683315277
2.6920998096466064,3.9557580947875977,0.19923393428325653
2.6680479049682617,3.981092929840088,0.20598526298999786
2.6305179595947266,3.98697566986084,0.21154849231243134
2.588693618774414,3.990683078765869,0.21697722375392914
2.5916988849639893,4.058038711547852,0.22546017169952393
2.5625858306884766,4.076167106628418,0.23114758729934692
2.5192549228668213,4.0752716064453125,0.2356368899345398
2.497598171234131,4.106542110443115,0.24180924892425537
2.4722795486450195,4.130616664886475,0.24749477207660675
2.4453115463256836,4.155383586883545,0.25303566455841064
2.4139137268066406,4.173386573791504,0.2581705152988434
2.3846840858459473,4.18986177444458,0.26293084025382996
2.370190143585205,4.233574390411377,0.2694006860256195
2.2759382724761963,4.138382911682129,0.26688194274902344
2.2379086017608643,4.14105749130249,0.27048224210739136
2.205312967300415,4.149399757385254,0.27426084876060486
2.186685562133789,4.18538236618042,0.2798481285572052
2.1592342853546143,4.20810079574585,0.2844434380531311
2.127638339996338,4.223878860473633,0.28863149881362915
2.1049368381500244,4.252377986907959,0.29350823163986206
2.071655511856079,4.259751319885254,0.2969319224357605
2.0519540309906006,4.2992706298828125,0.302424818277359
2.0152480602264404,4.303421974182129,0.3054550588130951
1.9814605712890625,4.310246467590332,0.3085729777812958
1.962069034576416,4.3487982749938965,0.3139916956424713
1.9923726320266724,4.501499176025391,0.3275752067565918
1.959431767463684,4.515678882598877,0.33108583092689514
1.9327187538146973,4.543865203857422,0.33563169836997986
1.8980000019073486,4.549784183502197,0.33845630288124084
1.87300443649292,4.580933094024658,0.3432264029979706
1.845546007156372,4.608621597290039,0.34748050570487976
1.790628433227539,4.5672736167907715,0.3465143144130707
1.7760201692581177,4.62703800201416,0.35320013761520386
1.7546935081481934,4.668249607086182,0.35846471786499023
1.3287729024887085,3.612652063369751,0.27907273173332214
1.3078844547271729,3.6366629600524902,0.282392680644989
1.2789663076400757,3.6385059356689453,0.2840088903903961
1.6516172885894775,4.807906627655029,0.3772200644016266
1.61555016040802,4.811709403991699,0.3794172704219818
1.5740875005722046,4.8006205558776855,0.38047921657562256
1.537131667137146,4.804202556610107,0.38240256905555725
1.5094854831695557,4.8372483253479,0.3866814374923706
1.4895603656768799,4.896169185638428,0.3930642306804657
1.4409985542297363,4.857696056365967,0.39160409569740295
1.417921781539917,4.904839038848877,0.397061288356781
1.3961001634597778,4.963520050048828,0.4033178687095642
1.3471403121948242,4.924388408660889,0.4015201926231384
1.2908082008361816,4.854707717895508,0.39721620082855225
1.2548855543136597,4.855903625488281,0.39867329597473145
1.229530692100525,4.898355007171631,0.40354064106941223
1.1983038187026978,4.921950817108154,0.4068295955657959
1.1667678356170654,4.945376396179199,0.4098799228668213
1.133224368095398,4.961009502410889,0.41231030225753784
1.1039631366729736,4.995368957519531,0.4163178503513336
1.0740036964416504,5.025637149810791,0.4199985861778259
1.0415539741516113,5.048213005065918,0.42308419942855835
1.0119619369506836,5.085855007171631,0.42722639441490173
0.9729317426681519,5.077486515045166,0.42742523550987244
2.1191818714141846,11.500578880310059,0.9702129364013672
2.0114543437957764,11.361529350280762,0.9605589509010315
1.9087858200073242,11.24472713470459,0.9528048038482666
1.7967203855514526,11.049995422363281,0.9383941888809204
1.6910960674285889,10.885272979736328,0.9258168935775757
1.59871244430542,10.79278564453125,0.9193838834762573
1.5088081359863281,10.707255363464355,0.9135623574256897
1.4040939807891846,10.50141716003418,0.8974801898002625
1.314388394355774,10.379446029663086,0.8885346055030823
1.2277871370315552,10.268355369567871,0.8804007768630981
1.1489924192428589,10.218586921691895,0.8770053386688232
1.0644363164901733,10.106292724609375,0.8682713508605957
0.9903717041015625,10.08240032196045,0.8671603202819824
0.3943619132041931,4.329403400421143,0.3727857172489166
0.36029523611068726,4.2854485511779785,0.3694327771663666
0.3259407579898834,4.22960090637207,0.3649766445159912
0.29953157901763916,4.278338432312012,0.36937034130096436
0.2737225890159607,4.3463287353515625,0.3754492700099945
0.24317164719104767,4.355907440185547,0.3765086531639099
0.21208450198173523,4.341913223266602,0.37554311752319336
0.1808784306049347,4.319921970367432,0.37390172481536865
0.14900101721286774,4.2704925537109375,0.3697950541973114
0.0429956316947937,1.540511965751648,0.13340382277965546
0.033094242215156555,1.591356635093689,0.13782019913196564
0.06050088629126549,4.377723217010498,0.37918955087661743
0.03040819615125656,4.428620338439941,0.3836718499660492
-0.00037920571048744023,4.362557411193848,0.3780394494533539
-0.029500432312488556,4.191221714019775,0.36318066716194153
-0.05744757130742073,4.0702948570251465,0.3525417745113373
-0.08556842058897018,4.062031269073486,0.351686030626297
-0.043692443519830704,1.5599650144577026,0.13501282036304474
-0.14024828374385834,4.0099196434021,0.3469480276107788
-0.24784670770168304,5.910254955291748,0.5112399458885193
-0.17178232967853546,3.5139613151550293,0.3037985563278198
-0.20022602379322052,3.5787551403045654,0.3091137707233429
-0.22327451407909393,3.550128698348999,0.306376576423645
-0.26658380031585693,3.8164165019989014,0.3290879726409912
-0.2993660271167755,3.8959972858428955,0.3356904089450836
-0.31766045093536377,3.7891440391540527,0.3262464106082916
-0.33832940459251404,3.72096848487854,0.3200410306453705
-0.35601481795310974,3.637258291244507,0.31241050362586975
-0.3770265281200409,3.596062183380127,0.3084605038166046
-0.41183632612228394,3.682387590408325,0.31545698642730713
-0.4374442398548126,3.67948842048645,0.31481289863586426
-0.45857980847358704,3.637742519378662,0.3108583092689514
-0.47908374667167664,3.599827527999878,0.30713173747062683
-0.4973292648792267,3.5502660274505615,0.302334189414978
-0.5188459157943726,3.5275866985321045,0.2998513877391815
-0.5473333597183228,3.5509231090545654,0.3012898564338684
-0.5712392330169678,3.539344310760498,0.2997633218765259
-0.5913075804710388,3.508488893508911,0.29663410782814026
-0.6255210638046265,3.561936378479004,0.30048874020576477
-1.1640406847000122,6.37239408493042,0.5362891554832458
-1.2127562761306763,6.391205310821533,0.5365957617759705
-1.2688738107681274,6.443963527679443,0.5397513508796692
-1.321362853050232,6.46934175491333,0.5405916571617126
-1.3775213956832886,6.51350736618042,0.5430328249931335
-1.4327976703643799,6.553586483001709,0.5447968244552612
-1.4722355604171753,6.521091938018799,0.540509045124054
-1.4980483055114746,6.431480884552002,0.5315367579460144
-0.6552065014839172,2.725877523422241,0.2246137410402298
-0.6938133239746094,2.8007113933563232,0.23011085391044617
-0.7093292474746704,2.780839204788208,0.22778651118278503
-0.720280110836029,2.745926856994629,0.22411596775054932
-0.738898515701294,2.7410733699798584,0.22291797399520874
-0.7682998180389404,2.7735092639923096,0.22473393380641937
-0.7833720445632935,2.7531981468200684,0.2222754955291748
