X,Y,Z
2.3900983333587646,3.6337263584136963,-0.2314525693655014
2.4189305305480957,3.624566078186035,-0.22252881526947021
2.4208974838256836,3.5767934322357178,-0.21135437488555908
2.4504001140594482,3.566688060760498,-0.2019207626581192
2.4917190074920654,3.5766048431396484,-0.19353505969047546
2.501849412918091,3.541424512863159,-0.18250243365764618
2.517840623855591,3.5114195346832275,-0.1711081713438034
2.5585744380950928,3.521026372909546,-0.16179628670215607
2.59171986579895,3.51662015914917,-0.15109989047050476
2.7835190296173096,3.939108371734619,0.3489093780517578
2.7423064708709717,3.9384677410125732,0.35830458998680115
2.698742151260376,3.9391376972198486,0.36756908893585205
2.681177854537964,3.978292465209961,0.38030561804771423
2.665794849395752,4.015718936920166,0.3922151029109955
2.6477062702178955,4.05460786819458,0.4041445851325989
2.6185431480407715,4.077136516571045,0.41436076164245605
2.5627124309539795,4.051802158355713,0.4189963936805725
2.548736333847046,4.096368312835693,0.43083927035331726
2.5213499069213867,4.121463298797607,0.44044387340545654
2.5053904056549072,4.162086486816406,0.4514218866825104
2.4760189056396484,4.1787285804748535,0.45965731143951416
2.440638303756714,4.189601898193359,0.4669891595840454
2.415937900543213,4.220902442932129,0.47670236229896545
2.3743398189544678,4.216838359832764,0.4819634258747101
2.3012685775756836,4.154407978057861,0.48037654161453247
2.257016181945801,4.146846294403076,0.4847157895565033
2.229372262954712,4.169755935668945,0.4926034212112427
2.2079946994781494,4.202256202697754,0.5015044212341309
2.181954860687256,4.223785877227783,0.5089788436889648
2.1508758068084717,4.23891544342041,0.5154446959495544
2.122645378112793,4.261019706726074,0.5226913094520569
2.0983495712280273,4.289561748504639,0.5306728482246399
2.0676236152648926,4.303692817687988,0.5368282794952393
2.0435845851898193,4.331582546234131,0.5445798635482788
2.008211851119995,4.338815689086914,0.5494683980941772
1.9792195558547974,4.3599090576171875,0.5561468601226807
2.0270867347717285,4.5503644943237305,0.5844627618789673
1.9686824083328247,4.503323078155518,0.5823526382446289
1.961756706237793,4.5774455070495605,0.5958138108253479
1.9340776205062866,4.605340003967285,0.603045642375946
1.9030992984771729,4.625908374786377,0.6093720197677612
1.8863149881362915,4.678110599517822,0.6197894811630249
1.820745587348938,4.607594966888428,0.6139147877693176
1.7956851720809937,4.641695976257324,0.6218253970146179
1.7672404050827026,4.668545246124268,0.6285093426704407
1.3590418100357056,3.670409917831421,0.4965745210647583
1.3224207162857056,3.6503212451934814,0.4962281286716461
1.307202696800232,3.6882166862487793,0.5037570595741272
1.2782044410705566,3.6896796226501465,0.5063225626945496
1.6300530433654785,4.817473888397217,0.6637400984764099
1.5926350355148315,4.821235179901123,0.6669368743896484
1.5663203001022339,4.857762336730957,0.6746821999549866
1.5265194177627563,4.849555969238281,0.6761828064918518
1.5237435102462769,4.963366508483887,0.6948298215866089
1.473750352859497,4.925393581390381,0.6918938755989075
1.4587218761444092,5.006001949310303,0.7055217623710632
1.410972237586975,4.974903106689453,0.7034532427787781
1.3696935176849365,4.961829662322998,0.7038876414299011
1.3099459409713745,4.877325057983398,0.6941472291946411
1.2791025638580322,4.901000022888184,0.6998143792152405
1.2363604307174683,4.879598617553711,0.6985514163970947
1.2188717126846313,4.959292888641357,0.7118151783943176
1.186907172203064,4.982509136199951,0.7170388698577881
1.162566065788269,5.035465717315674,0.726551353931427
1.123416781425476,5.028049945831299,0.727433979511261
1.092995524406433,5.058074474334717,0.7336205244064331
1.0592786073684692,5.076729774475098,0.737790584564209
1.0177217721939087,5.057247161865234,0.7364510297775269
0.9846449494361877,5.079182147979736,0.7411745190620422
1.9114454984664917,10.247349739074707,1.4984732866287231
1.8488627672195435,10.309165954589844,1.5106850862503052
1.7807238101959229,10.344000816345215,1.518762230873108
1.6972901821136475,10.294757843017578,1.5137227773666382
1.6231801509857178,10.298301696777344,1.5165029764175415
1.5351406335830688,10.217408180236816,1.506945252418518
1.4645514488220215,10.231107711791992,1.5113126039505005
1.389567255973816,10.213695526123047,1.5111554861068726
1.3203169107437134,10.23792552947998,1.5170742273330688
1.2434529066085815,10.208209991455078,1.51411771774292
1.172244906425476,10.224006652832031,1.5179851055145264
1.0996488332748413,10.23943042755127,1.5219029188156128
1.026038408279419,10.223365783691406,1.5211637020111084
0.40260350704193115,4.312772750854492,0.6424340605735779
0.3705841600894928,4.2922043800354,0.6401222944259644
0.3398952782154083,4.286886215209961,0.639683723449707
0.31154412031173706,4.3199262619018555,0.6449795961380005
0.28221380710601807,4.337325572967529,0.6479706764221191
0.3278708755970001,5.6465983390808105,0.8441176414489746
0.2878091037273407,5.633174896240234,0.8426978588104248
0.25135570764541626,5.696660041809082,0.8528291583061218
0.21165771782398224,5.717527866363525,0.8562152981758118
0.17197096347808838,5.7265472412109375,0.8576563596725464
0.13299496471881866,5.773911952972412,0.8648836612701416
0.09318318217992783,5.801694393157959,0.8692212700843811
0.0532306432723999,5.848515033721924,0.8764554858207703
0.011790929362177849,5.833248615264893,0.8744339346885681
-0.02978888899087906,6.034058570861816,0.9046096205711365
-0.07236502319574356,6.083972930908203,0.911794900894165
-0.1126515120267868,5.975224494934082,0.8952478766441345
-0.15820732712745667,6.128823280334473,0.9180497527122498
-0.2015349268913269,6.150794506072998,0.9211737513542175
-0.24054105579853058,6.03732442855835,0.9040576219558716
-0.28174206614494324,6.020126819610596,0.9013786911964417
-0.19252698123455048,3.5839054584503174,0.5362057089805603
-0.2163686603307724,3.5671494007110596,0.5333216190338135
-0.5263576507568359,7.786617279052734,1.163402795791626
-0.5819621086120605,7.790599822998047,1.1632691621780396
-0.5373008847236633,6.577367782592773,0.9815555810928345
-0.592205822467804,6.67755126953125,0.9959876537322998
-0.6299076676368713,6.585065841674805,0.9812144637107849
-0.6515867114067078,6.350195407867432,0.9451321959495544
-0.7024639844894409,6.403340816497803,0.9519719481468201
-0.7475935220718384,6.4062652587890625,0.951397180557251
-0.7859566807746887,6.351308822631836,0.9422722458839417
-0.8230904936790466,6.292294025421143,0.9326061606407166
-0.8597676753997803,6.236968517303467,0.9232361316680908
-0.8999433517456055,6.208219051361084,0.9174649119377136
-0.5336847305297852,3.5119292736053467,0.5181812644004822
-0.5565909743309021,3.5007386207580566,0.5157344937324524
-0.5923768877983093,3.565614938735962,0.5244940519332886
-1.1056311130523682,6.3804192543029785,0.937161922454834
-1.1567405462265015,6.4110236167907715,0.9401383996009827
-1.2092113494873047,6.445072650909424,0.943118155002594
-1.2621304988861084,6.4826507568359375,0.946668803691864
-1.316453218460083,6.523586750030518,0.950722873210907
-1.3736014366149902,6.571532726287842,0.955786406993866
-1.4274604320526123,6.600088119506836,0.9580454230308533
-1.4671833515167236,6.560163497924805,0.950261652469635
-1.5021964311599731,6.5091352462768555,0.9403927326202393
-1.5374118089675903,6.461706161499023,0.9311206936836243
-0.6916583180427551,2.8218929767608643,0.4055871069431305
-0.699937641620636,2.772235870361328,0.39741650223731995
-0.7215567231178284,2.7749314308166504,0.3967647850513458
-0.7428386807441711,2.7775721549987793,0.3960845172405243
-0.770924985408783,2.806324005126953,0.3989057242870331
-0.7826553583145142,2.775217056274414,0.39323121309280396
-1.7687432765960693,6.112817287445068,0.8634194731712341
-1.8021156787872314,6.067361831665039,0.8542096018791199
-1.8398454189300537,6.04046106338501,0.8477233648300171
-1.8663748502731323,5.980250358581543,0.836421012878418
-1.8996310234069824,5.946068286895752,0.8284399509429932
-1.9301031827926636,5.90433931350708,0.8194728493690491
-1.9574964046478271,5.851097106933594,0.8088979721069336
-1.9909111261367798,5.815944194793701,0.8008657693862915
-2.0213675498962402,5.773287773132324,0.791867733001709
-2.051604747772217,5.734543323516846,0.7830752730369568
-1.3775218725204468,3.770540475845337,0.5124979615211487
-1.4110716581344604,3.78342604637146,0.5118654370307922
-1.4087090492248535,3.6978445053100586,0.4978688955307007
-1.4134372472763062,3.634213924407959,0.4869564473628998
-1.418530821800232,3.574392318725586,0.47656556963920593
-1.4366291761398315,3.5509419441223145,0.47083228826522827
-1.4529976844787598,3.523818016052246,0.4646567106246948
-1.477399468421936,3.514173746109009,0.46073082089424133
-1.5019248723983765,3.5042800903320312,0.45677390694618225
-1.4627188444137573,3.348471164703369,0.4339299201965332
-1.4771443605422974,3.321434259414673,0.42762425541877747
-1.4928532838821411,3.297889232635498,0.421808660030365
-1.5187335014343262,3.2951245307922363,0.4185900092124939
-1.545096516609192,3.2919557094573975,0.41527050733566284
-1.5832024812698364,3.31309175491333,0.41500332951545715
-1.5899792909622192,3.271599531173706,0.40662869811058044
-1.601361870765686,3.2406270503997803,0.399623841047287
-1.6202131509780884,3.2231156826019287,0.3942009210586548
-1.6428509950637817,3.2122037410736084,0.38954973220825195
-1.6687251329421997,3.208165168762207,0.38568976521492004
-1.6935518980026245,3.2044992446899414,0.38167375326156616
-1.725775957107544,3.2143218517303467,0.37924617528915405
-1.172776699066162,2.1489057540893555,0.25102248787879944
-1.191879391670227,2.1476755142211914,0.2482738345861435
-2.5079290866851807,4.449405193328857,0.5087743401527405
-2.5158517360687256,4.396576404571533,0.4971059560775757
-5.989673614501953,10.307050704956055,1.151755452156067
-1.2298301458358765,2.0828018188476562,0.22986020147800446
-1.2561897039413452,2.094698905944824,0.22813419997692108
-2.9299542903900146,4.815090656280518,0.5173366665840149
-2.9458250999450684,4.769845008850098,0.5052481293678284
-2.9669179916381836,4.730237007141113,0.4934934377670288
-2.9902262687683105,4.698103904724121,0.48241060972213745
-3.025305986404419,4.68587589263916,0.47312676906585693
-3.0421993732452393,4.643413066864014,0.4605644941329956
-3.066236734390259,4.609927654266357,0.44868186116218567
-3.082773447036743,4.571762561798096,0.43614327907562256
-3.088191509246826,4.5173187255859375,0.422059029340744
-3.1271860599517822,4.505741119384766,0.41110244393348694
-2.9347896575927734,4.170704364776611,0.37132322788238525
-5.030970096588135,7.055988311767578,0.612395167350769
-2.9104061126708984,4.022536277770996,0.33898958563804626
-2.9227383136749268,3.9856021404266357,0.32561200857162476
-2.9039804935455322,3.908353567123413,0.3088637590408325
-2.4744315147399902,3.488741159439087,-0.18702027201652527
-2.4384191036224365,3.4943413734436035,-0.19810539484024048
-2.426440954208374,3.530475378036499,-0.21019917726516724
-2.3409857749938965,3.460592269897461,-0.21574123203754425
-2.269411325454712,3.4093117713928223,-0.22177039086818695
-2.211115837097168,3.372401237487793,-0.2278188318014145
-2.1627585887908936,3.3520331382751465,-0.234764963388443
-2.1377835273742676,3.367359161376953,-0.2440050095319748
-2.1136109828948975,3.3819305896759033,-0.25290513038635254
-1.265810489654541,2.058652400970459,-0.1585928201675415
-2.0633347034454346,3.411496162414551,-0.2703899145126343
-2.061185836791992,3.4621102809906006,-0.2816547453403473
-2.0359911918640137,3.4763004779815674,-0.2900004982948303
-1.2244815826416016,2.1269185543060303,-0.18186751008033752
-1.2016698122024536,2.1215829849243164,-0.1855505257844925
-1.1504888534545898,2.0650408267974854,-0.1845736801624298
-2.5584216117858887,4.672075271606445,-0.4264431595802307
-1.7346935272216797,3.2223377227783203,-0.30007264018058777
-1.6187641620635986,3.0585339069366455,-0.2903692126274109
-1.5930200815200806,3.062636137008667,-0.29612424969673157
-1.5599702596664429,3.052783489227295,-0.30046921968460083
-1.5487037897109985,3.0840468406677246,-0.3087313771247864
-1.5337934494018555,3.1082286834716797,-0.31631219387054443
-2.385554790496826,4.9251179695129395,-0.5093012452125549
-2.3512508869171143,4.944891452789307,-0.5193005204200745
-2.3229780197143555,4.974422931671143,-0.5301013588905334
-2.294220447540283,5.00386905670166,-0.5409039855003357
-2.2770090103149414,5.061917304992676,-0.5547101497650146
-2.243525505065918,5.084331035614014,-0.5646845698356628
-2.0697405338287354,4.78186559677124,-0.538078784942627
-2.019188404083252,4.756098747253418,-0.5419225096702576
-1.9385579824447632,4.658446311950684,-0.5371837019920349
-1.9020678997039795,4.66416597366333,-0.5442118048667908
-1.8562846183776855,4.6440629959106445,-0.5480532050132751
-1.8201193809509277,4.649106979370117,-0.5548831820487976
-1.3462711572647095,3.512194871902466,-0.42361417412757874
-1.7559077739715576,4.68026876449585,-0.5703931450843811
-1.7350361347198486,4.724391460418701,-0.5815911293029785
-2.001063823699951,5.568006992340088,-0.6922900676727295
-1.041334629058838,2.9645369052886963,-0.3720676302909851
-1.0075182914733887,2.9346837997436523,-0.3717031180858612
-0.9782117605209351,2.915435314178467,-0.3725752532482147
-0.9553511738777161,2.914320468902588,-0.37573134899139404
-0.9299818873405457,2.9057321548461914,-0.37772390246391296
-0.8407883048057556,2.693580389022827,-0.35300585627555847
-0.7844835519790649,2.576648712158203,-0.3403593897819519
-0.7686217427253723,2.58906888961792,-0.3446737825870514
-0.752509593963623,2.601430892944336,-0.3489209711551666
-0.7497509717941284,2.6622257232666016,-0.359580397605896
-0.7451620697975159,2.7193474769592285,-0.36986106634140015
-0.7178425192832947,2.6941978931427,-0.36899426579475403
-0.7116170525550842,2.747443914413452,-0.3788578510284424
-0.6856091618537903,2.725710153579712,-0.3781336843967438
-0.6690917015075684,2.741365671157837,-0.38259369134902954
-0.6551692485809326,2.7681918144226074,-0.3886472284793854
-0.6354284286499023,2.7723751068115234,-0.3915937840938568
-0.6226287484169006,2.806605577468872,-0.3986210227012634
-0.6060430407524109,2.8256924152374268,-0.40338149666786194
-0.5900254845619202,2.848461151123047,-0.40871021151542664
-0.5777124762535095,2.8900632858276367,-0.4167814254760742
-0.5586474537849426,2.9012985229492188,-0.42056336998939514
-0.5410635471343994,2.9200279712677,-0.4250726103782654
-0.5232410430908203,2.9386487007141113,-0.4295995533466339
-0.5072311162948608,2.9685750007629395,-0.43581798672676086
-0.49027517437934875,2.99458646774292,-0.4415074586868286
-0.4701559245586395,3.00531005859375,-0.4448440968990326
-0.45479485392570496,3.046466588973999,-0.4524633288383484
-0.4350728690624237,3.060763359069824,-0.4561404585838318
-0.41788217425346375,3.0940606594085693,-0.4626839756965637
-0.4012042284011841,3.1349265575408936,-0.47041910886764526
-0.3816048800945282,3.1565823554992676,-0.47495898604393005
-0.3617311418056488,3.1820068359375,-0.48005178570747375
-0.3411614000797272,3.199575901031494,-0.48397254943847656
-0.3211815357208252,3.224691390991211,-0.48907074332237244
-0.3033730089664459,3.2766129970550537,-0.49818509817123413
-0.28247156739234924,3.301560163497925,-0.5028736591339111
-0.26146334409713745,3.3340976238250732,-0.5087729096412659
-0.2396184206008911,3.354914903640747,-0.5129055380821228
-0.2167513519525528,3.364025831222534,-0.5152811408042908
-0.19640040397644043,3.419282913208008,-0.52447509765625
-0.1739087849855423,3.4474518299102783,-0.5293452143669128
-0.15044373273849487,3.4716289043426514,-0.5336465835571289
-0.12740685045719147,3.503345251083374,-0.5391308665275574
-0.10305649787187576,3.5040321350097656,-0.5398706197738647
-0.07996152341365814,3.5625224113464355,-0.5490425229072571
-0.05629540979862213,3.6363017559051514,-0.5605722665786743
-0.03725270554423332,4.431832313537598,-0.6834422945976257
-0.006381149869412184,4.393335819244385,-0.6777636408805847
0.024335280060768127,4.424145221710205,-0.6826107501983643
0.054422132670879364,4.3698835372924805,-0.6738951802253723
0.08278173208236694,4.265239238739014,-0.6574543714523315
0.11148608475923538,4.229883193969727,-0.6517353653907776
0.13979293406009674,4.182744979858398,-0.6442337036132812
0.1655493527650833,4.1007771492004395,-0.631013810634613
0.19691714644432068,4.161384105682373,-0.6395419836044312
0.23164482414722443,4.268020153045654,-0.6551432013511658
0.2568374574184418,4.193231582641602,-0.6429184675216675
0.28495901823043823,4.168344974517822,-0.6383801102638245
0.31242555379867554,4.147254943847656,-0.6338586807250977
0.3418639004230499,4.152923583984375,-0.6334545612335205
0.3751751780509949,4.20069694519043,-0.6394861936569214
0.4051274359226227,4.205918788909912,-0.6390522122383118
0.5211523771286011,5.036954879760742,-0.7636010646820068
0.5560793876647949,5.03361701965332,-0.7609705328941345
0.5864772200584412,4.991667747497559,-0.7525554895401001
0.6192644834518433,4.972527503967285,-0.7476328611373901
0.5283068418502808,4.014633655548096,-0.6019930243492126
0.5513002872467041,3.9729137420654297,-0.5937315821647644
0.582144558429718,3.992337465286255,-0.5945191383361816
0.6039704084396362,3.9503941535949707,-0.5862021446228027
0.6297062635421753,3.9350216388702393,-0.5818681716918945
0.655846118927002,3.923307418823242,-0.5780626535415649
0.6804104447364807,3.9038867950439453,-0.5726912021636963
0.7079335451126099,3.8994545936584473,-0.5695159435272217
0.7350852489471436,3.8948850631713867,-0.5663800239562988
0.7651814818382263,3.9053046703338623,-0.5654416680335999
0.777671754360199,3.828366279602051,-0.5516613125801086
0.8049595355987549,3.8271872997283936,-0.5486404299736023
0.8294615149497986,3.810593843460083,-0.5433902740478516
0.8526186943054199,3.7901265621185303,-0.5376663208007812
0.8737790584564209,3.7619760036468506,-0.5309063792228699
0.896160900592804,3.741346597671509,-0.5248358845710754
0.9257128238677979,3.7506484985351562,-0.5229777693748474
0.9484228491783142,3.7295589447021484,-0.5168324708938599
0.9724902510643005,3.7159039974212646,-0.5118047595024109
0.9942371845245361,3.6946768760681152,-0.5055991411209106
1.0176740884780884,3.680847644805908,-0.5002346634864807
1.0431103706359863,3.674309492111206,-0.49588802456855774
1.0659922361373901,3.656233072280884,-0.4899185001850128
1.0915741920471191,3.649264097213745,-0.48552942276000977
1.1099183559417725,3.620039224624634,-0.47786304354667664
1.1349070072174072,3.612902879714966,-0.4731542766094208
1.1529452800750732,3.5833804607391357,-0.4655263125896454
1.1784530878067017,3.575697898864746,-0.4606993496417999
1.200772762298584,3.560713291168213,-0.45483455061912537
1.2328665256500244,3.5749948024749756,-0.4525923728942871
1.2653473615646362,3.588958978652954,-0.4502592086791992
1.2720412015914917,3.5295541286468506,-0.4387323558330536
1.3100528717041016,3.5576443672180176,-0.43804532289505005
1.3294240236282349,3.5345444679260254,-0.4307725429534912
1.641701579093933,4.27609920501709,-0.5158764123916626
1.6631197929382324,4.243605136871338,-0.5066259503364563
1.692842721939087,4.232625484466553,-0.49999043345451355
1.7218317985534668,4.221726417541504,-0.49309489130973816
1.7467573881149292,4.199672698974609,-0.4848383069038391
1.7699687480926514,4.173873424530029,-0.4762011468410492
1.7992181777954102,4.162146091461182,-0.46918269991874695
1.8246206045150757,4.143387794494629,-0.46120089292526245
1.8497165441513062,4.124526023864746,-0.45320767164230347
1.8788806200027466,4.112138748168945,-0.4457446038722992
1.9077540636062622,4.09962272644043,-0.43833237886428833
1.9258577823638916,4.0661468505859375,-0.4285859167575836
1.946793794631958,4.0396904945373535,-0.4196011424064636
1.9714006185531616,4.0198655128479,-0.4112391173839569
2.003537893295288,4.013441562652588,-0.40409407019615173
2.025604486465454,3.990046262741089,-0.3952294588088989
2.049053907394409,3.9700684547424316,-0.3867197334766388
2.0802862644195557,3.9633641242980957,-0.3793424367904663
2.097113847732544,3.928800582885742,-0.3692770302295685
2.1236155033111572,3.9153010845184326,-0.3611130714416504
2.1504573822021484,3.9013826847076416,-0.35280898213386536
2.1302733421325684,3.8019704818725586,-0.3367724120616913
2.1720128059387207,3.8149139881134033,-0.3307868242263794
2.185889720916748,3.7807247638702393,-0.32066330313682556
2.1998744010925293,3.7462339401245117,-0.31047067046165466
2.2466013431549072,3.764582872390747,-0.3043079078197479
2.2557573318481445,3.723397970199585,-0.2934132218360901
2.280545949935913,3.7089478969573975,-0.28467288613319397
2.3106136322021484,3.700183868408203,-0.2759808301925659
2.31916880607605,3.658626079559326,-0.2648637294769287
2.3521406650543213,3.656740427017212,-0.2565019130706787
2.3816258907318115,3.647587537765503,-0.2473587840795517
2.3894643783569336,3.60573148727417,-0.23590904474258423
2.421754837036133,3.6035614013671875,-0.22707319259643555
2.450761079788208,3.593972682952881,-0.21734392642974854
2.4535112380981445,3.5453696250915527,-0.20494067668914795
2.4853591918945312,3.542780637741089,-0.19542013108730316
2.5233638286590576,3.54518723487854,-0.18544773757457733
2.537827730178833,3.5161795616149902,-0.17365899682044983
2.588275909423828,3.5379629135131836,-0.1641550362110138
2.187185525894165,2.9466471672058105,-0.12710025906562805
2.8013625144958496,3.934264898300171,0.3685656785964966
2.7591164112091064,3.934352397918701,0.3788926601409912
2.725454568862915,3.947148323059082,0.38996610045433044
2.711792230606079,3.9930810928344727,0.4042290449142456
2.678713083267212,4.004893779754639,0.41425877809524536
2.64057993888855,4.010422229766846,0.42339494824409485
2.617168664932251,4.043160438537598,0.43540143966674805
2.600208282470703,4.080728530883789,0.4473230242729187
2.5711374282836914,4.098057270050049,0.4568380117416382
2.549795389175415,4.133179664611816,0.4680755138397217
2.50834321975708,4.134695529937744,0.47543174028396606
2.470649003982544,4.138223171234131,0.48261672258377075
2.4502835273742676,4.1718668937683105,0.49309611320495605
2.434055805206299,4.216284275054932,0.5047371983528137
2.377824306488037,4.1892876625061035,0.5076744556427002
2.3727827072143555,4.249121189117432,0.5208731293678284
2.287071466445923,4.16687536239624,0.5165328979492188
2.2426390647888184,4.159177303314209,0.5209977626800537
2.2280759811401367,4.205658912658691,0.532192051410675
2.198392868041992,4.220366477966309,0.5391620993614197
2.168262481689453,4.235039234161377,0.5460790991783142
2.1429386138916016,4.264404773712158,0.5546934008598328
2.111027240753174,4.279417991638184,0.5613986253738403
2.0839531421661377,4.300450801849365,0.5686993598937988
2.060338020324707,4.3281636238098145,0.5768862366676331
2.0287821292877197,4.342223644256592,0.5830349922180176
1.9998106956481934,4.363360404968262,0.5900260210037231
1.9766459465026855,4.398586273193359,0.5990259051322937
2.011378526687622,4.560524940490723,0.6252123117446899
1.9608154296875,4.531048774719238,0.6252837181091309
1.9367111921310425,4.565893173217773,0.6338530778884888
1.922398328781128,4.625751972198486,0.6459051370620728
1.8748821020126343,4.606805324554443,0.6470323204994202
1.8612072467803955,4.665851593017578,0.6589477062225342
1.8312866687774658,4.6852335929870605,0.6653358340263367
1.786297082901001,4.668701171875,0.6662615537643433
1.7629987001419067,4.709928035736084,0.6753606200218201
1.3435261249542236,3.671586751937866,0.5290368795394897
1.3151493072509766,3.673090696334839,0.5316892862319946
1.2766177654266357,3.6451456546783447,0.5300726294517517
1.6540945768356323,4.832475185394287,0.705738365650177
1.6189881563186646,4.843705654144287,0.7101450562477112
1.5831815004348755,4.854869365692139,0.7146289944648743
1.543949007987976,4.8506178855896,0.7167660593986511
1.523692011833191,4.905012130737305,0.7275828719139099
1.4803657531738281,4.88530969619751,0.7274486422538757
1.44729745388031,4.902707576751709,0.7323461174964905
1.4407073259353638,5.012792110443115,0.7511548399925232
1.405907154083252,5.030104637145996,0.756196141242981
1.349442720413208,4.960906982421875,0.7481153011322021
1.2960402965545654,4.898646354675293,0.7410432696342468
1.253886342048645,4.8771586418151855,0.7400007843971252
1.2311019897460938,4.934281349182129,0.7505210638046265
1.2023444175720215,4.972689628601074,0.7582994103431702
1.1800981760025024,5.037078857421875,0.7700678110122681
1.144059658050537,5.040949821472168,0.772602379322052
1.1055381298065186,5.033241271972656,0.7733926773071289
1.0741279125213623,5.059335708618164,0.7792149782180786
1.0374313592910767,5.06658411026001,0.7818365693092346
1.004272699356079,5.08860969543457,0.7867588996887207
0.4137811064720154,2.1776998043060303,0.3373623192310333
1.82770574092865,9.997761726379395,1.551884412765503
1.7553235292434692,9.994274139404297,1.5544729232788086
1.667934536933899,9.91063404083252,1.5443215370178223
1.5988621711730957,9.92923355102539,1.5493569374084473
1.5296094417572021,9.947347640991211,1.5543979406356812
1.4562623500823975,9.938241004943848,1.5552606582641602
1.3828153610229492,9.91695785522461,1.5542405843734741
1.3075413703918457,9.887629508972168,1.5520598888397217
1.2385687828063965,9.89594841003418,1.555619716644287
1.1706252098083496,9.919339179992676,1.5607095956802368
1.0950745344161987,9.87706470489502,1.5555424690246582
1.0238710641860962,9.868760108947754,1.5557899475097656
0.9573124647140503,9.898284912109375,1.5620617866516113
0.3910653591156006,4.36608362197876,0.689776599407196
0.35460495948791504,4.295453071594238,0.6793844699859619
0.3250771760940552,4.305417537689209,0.6812987923622131
0.2969406247138977,4.338284969329834,0.6868339776992798
0.26859480142593384,4.374817371368408,0.6929886341094971
0.30610817670822144,5.640146732330322,0.8939495086669922
0.2679622173309326,5.665126800537109,0.8984715342521667
0.22917252779006958,5.682137489318848,0.9017770886421204
0.19045668840408325,5.710509777069092,0.9065514802932739
0.151804581284523,5.757941722869873,0.9141391515731812
0.11216090619564056,5.824408531188965,0.9247972369194031
0.07193983346223831,5.855871200561523,0.9299426078796387
0.031128251925110817,5.833044052124023,0.9265111684799194
-0.009623758494853973,5.971962928771973,0.948820948600769
-0.05219779536128044,6.09904146194458,0.9691449999809265
-0.09516321867704391,6.090875148773193,0.9674820899963379
-0.13779494166374207,6.105564117431641,0.9695024490356445
-0.18086282908916473,6.127666473388672,0.9727449417114258
-0.2243848294019699,6.153319358825684,0.9765962362289429
-0.26147696375846863,6.020628452301025,0.9553659558296204
-0.18157529830932617,3.602762222290039,0.5716192722320557
-0.20559142529964447,3.5783798694610596,0.5673551559448242
-0.23183834552764893,3.6000752449035645,0.5703715085983276
-0.5596276521682739,7.843547821044922,1.2418146133422852
-0.610369861125946,7.793542861938477,1.2330962419509888
-0.5631973743438721,6.601325035095215,1.0438320636749268
-0.609821617603302,6.597373008728027,1.0426174402236938
-0.6363745927810669,6.401243686676025,1.0107338428497314
-0.6792203783988953,6.38549280166626,1.0070457458496094
-0.7261554002761841,6.407808303833008,1.009407877922058
-0.7671157717704773,6.376120090484619,1.0033068656921387
-0.808366596698761,6.340198993682861,0.9965693950653076
-0.8452299237251282,6.281164646148682,0.9862818121910095
-0.8839696645736694,6.241058826446533,0.9788883924484253
-0.925686776638031,6.22760009765625,0.975159227848053
-0.979729950428009,6.293965816497803,0.9839593768119812
-1.0298998355865479,6.325477123260498,0.9873026609420776
-1.0782737731933594,6.345232009887695,0.9888549447059631
-1.1345148086547852,6.406421184539795,0.9968848824501038
-1.1866908073425293,6.440568447113037,1.0007318258285522
-1.239396572113037,6.478334426879883,1.004488468170166
-1.2948224544525146,6.527072906494141,1.0099323987960815
-1.349473476409912,6.563849925994873,1.0135012865066528
-1.408506989479065,6.6191182136535645,1.0199487209320068
-1.4512871503829956,6.594590187072754,1.0141180753707886
-1.4860846996307373,6.535880088806152,1.0030995607376099
-1.520238995552063,6.481026649475098,0.992156982421875
-0.6785388588905334,2.8054697513580322,0.42832931876182556
-0.693899929523468,2.7860560417175293,0.4242585301399231
-0.7131251692771912,2.7814712524414062,0.4224568009376526
-0.7285777926445007,2.761754035949707,0.41837143898010254
-0.743761420249939,2.741960287094116,0.41430824995040894
-0.7752093076705933,2.7817330360412598,0.41898971796035767
-1.756037950515747,6.14077615737915,0.9219666123390198
-1.7911512851715088,6.107149600982666,0.9139930009841919
-1.8210543394088745,6.054597854614258,0.9032083749771118
-1.856438159942627,6.020268440246582,0.8951864242553711
-1.8863862752914429,5.967057704925537,0.8843774795532227
-1.9171650409698486,5.925496578216553,0.8747979998588562
-1.94500732421875,5.876448631286621,0.8641771078109741
-1.9759939908981323,5.8382768630981445,0.8552311062812805
-2.0039446353912354,5.788586616516113,0.8445733189582825
-2.0365757942199707,5.75333309173584,0.8360875844955444
-2.0650811195373535,5.706932067871094,0.825824499130249
-1.4112211465835571,3.820038080215454,0.5502052903175354
-1.4054687023162842,3.727693796157837,0.5344043374061584
-1.3905029296875,3.613781452178955,0.5156313180923462
-1.3988109827041626,3.5612361431121826,0.505669355392456
-1.4169361591339111,3.5337512493133545,0.4992939829826355
-1.4378758668899536,3.517477512359619,0.4942939877510071
-1.455468773841858,3.494018316268921,0.48826679587364197
-1.4788962602615356,3.484727382659912,0.48424914479255676
-1.461721420288086,3.378836154937744,0.466791570186615
-1.4654748439788818,3.322786808013916,0.456306517124176
-1.484919548034668,3.3062174320220947,0.4511699676513672
-1.4973241090774536,3.2756404876708984,0.4440290033817291
-1.5322504043579102,3.294266700744629,0.44357529282569885
-1.5601576566696167,3.294619560241699,0.4405161738395691
-1.590391993522644,3.2979776859283447,0.43778079748153687
-1.6059648990631104,3.2737648487091064,0.43128547072410583
-1.6190273761749268,3.2462825775146484,0.42428264021873474
-1.6335477828979492,3.2222208976745605,0.41777825355529785
-1.666800856590271,3.2320103645324707,0.4154849946498871
-1.6931084394454956,3.227717399597168,0.4113631546497345
-1.720509648323059,3.227066993713379,0.40741482377052307
-1.728887915611267,3.1923646926879883,0.39921173453330994
-1.1832032203674316,2.1503167152404785,0.2662618160247803
-2.525555372238159,4.5152974128723145,0.5533281564712524
-2.537360191345215,4.465012073516846,0.5413075089454651
-5.986708641052246,10.375285148620605,1.2433297634124756
-6.039187908172607,10.311054229736328,1.22137451171875
-1.2442649602890015,2.0908265113830566,0.24454587697982788
-2.9279074668884277,4.84378719329834,0.55922931432724
-2.929070472717285,4.77591609954834,0.543839156627655
-2.9690916538238525,4.770582675933838,0.5355068445205688
-2.9942352771759033,4.737604141235352,0.5236842036247253
-3.018291711807251,4.7049784660339355,0.5118765234947205
-3.0443007946014404,4.680042266845703,0.500716507434845
-3.0473175048828125,4.618727684020996,0.4855538010597229
-3.076118230819702,4.591435432434082,0.4733259379863739
-3.084502696990967,4.539984703063965,0.4586698114871979
-3.1068925857543945,4.511654376983643,0.4463672637939453
-3.1406047344207764,4.4942169189453125,0.4343004524707794
-2.8646445274353027,4.0419206619262695,0.3810022175312042
-2.92244553565979,4.068751335144043,0.3734988272190094
-2.927652359008789,4.018035888671875,0.3580950200557709
-2.9196372032165527,3.9525413513183594,0.34125062823295593
-3.016153335571289,4.22393274307251,-0.22909368574619293
-2.4382834434509277,3.465735673904419,-0.19901584088802338
-2.433770179748535,3.5157504081726074,-0.21298453211784363
-2.3709938526153564,3.4777159690856934,-0.22088147699832916
-2.306427478790283,3.4359209537506104,-0.22798627614974976
-2.2265255451202393,3.3712613582611084,-0.23319566249847412
-2.183196544647217,3.3569982051849365,-0.2410496473312378
-2.1500558853149414,3.3591089248657227,-0.24982516467571259
-2.129019260406494,3.3809659481048584,-0.2600162625312805
-1.2651067972183228,2.040435314178467,-0.16176560521125793
-1.2501412630081177,2.0491957664489746,-0.16727980971336365
-2.1042582988739014,3.5082833766937256,-0.294717401266098
-2.117065191268921,3.5860352516174316,-0.309089720249176
-2.0990359783172607,3.613859176635742,-0.3193041682243347
-1.2012152671813965,2.1033859252929688,-0.1903461515903473
-1.1936997175216675,2.1250758171081543,-0.19669127464294434
-2.5751771926879883,4.661506175994873,-0.4410092532634735
-2.548190116882324,4.692992687225342,-0.4532637894153595
-1.6489628553390503,3.0899569988250732,-0.3044779896736145
-1.607240080833435,3.0629284381866455,-0.30755454301834106
-1.5816665887832642,3.066776752471924,-0.31361445784568787
-1.5552548170089722,3.0708348751068115,-0.3197205364704132
-1.5331733226776123,3.081231117248535,-0.3262815773487091
-1.5046204328536987,3.077286958694458,-0.3312091529369354
-2.369145631790161,4.93418025970459,-0.5394526720046997
-2.336510419845581,4.957204341888428,-0.5503091216087341
-2.307748556137085,4.986690998077393,-0.5617561936378479
-2.2848618030548096,5.030248641967773,-0.5749422311782837
-2.262744188308716,5.077425003051758,-0.588301956653595
-2.146634578704834,4.911032676696777,-0.5766740441322327
-2.061267375946045,4.807273864746094,-0.5718183517456055
-1.9611536264419556,4.663138389587402,-0.5617200136184692
-1.9432512521743774,4.715813159942627,-0.5750186443328857
-1.8452658653259277,4.570333480834961,-0.5638651251792908
-1.8243192434310913,4.611149311065674,-0.5754112005233765
-1.3488091230392456,3.4798059463500977,-0.43911346793174744
-1.3239246606826782,3.4886157512664795,-0.44490188360214233
-1.750566005706787,4.715364456176758,-0.6077226400375366
-2.015031337738037,5.546614170074463,-0.7221242189407349
-1.0373642444610596,2.918531894683838,-0.38376274704933167
-1.0115164518356323,2.910585403442383,-0.38634535670280457
-0.9570632576942444,2.8180723190307617,-0.3774891495704651
-0.9318070411682129,2.8096208572387695,-0.3798145055770874
-0.8917323350906372,2.7528882026672363,-0.37544840574264526
-0.8138821125030518,2.5739293098449707,-0.35403552651405334
-0.7886759638786316,2.55696702003479,-0.35453155636787415
-0.7726911306381226,2.5694375038146973,-0.35910719633102417
-0.7633987069129944,2.604011297225952,-0.3667844235897064
-0.7448010444641113,2.6088857650756836,-0.37036556005477905
-0.7501339316368103,2.699385166168213,-0.38588768243789673
-0.7360249757766724,2.722827434539795,-0.39194944500923157
-0.7169162034988403,2.727436065673828,-0.3953084647655487
-0.6997348666191101,2.7393922805786133,-0.399753212928772
-0.6773199439048767,2.7325994968414307,-0.4013109505176544
-0.6607353687286377,2.7481417655944824,-0.40601351857185364
-0.6449066400527954,2.7673301696777344,-0.4112900197505951
-0.6306512951850891,2.7939414978027344,-0.4177095293998718
-0.6127246022224426,2.805391550064087,-0.42183658480644226
-0.5973788499832153,2.831981658935547,-0.4280357360839844
-0.5797310471534729,2.8470613956451416,-0.43250417709350586
-0.5657573342323303,2.8809566497802734,-0.4398694932460785
-0.5484884977340698,2.899597406387329,-0.444959819316864
-0.532276451587677,2.9257891178131104,-0.4509727954864502
-0.5159755945205688,2.955772876739502,-0.45754772424697876
-0.4978106915950775,2.9741711616516113,-0.46233823895454407
-0.4831489622592926,3.015315532684326,-0.4707156717777252
-0.4667726755142212,3.0487685203552246,-0.47787103056907654
-0.44819968938827515,3.0707359313964844,-0.4829311966896057
-0.42735642194747925,3.081167221069336,-0.48624488711357117
-0.4078623354434967,3.0990512371063232,-0.49073565006256104
-0.38816413283348083,3.1168053150177,-0.49524426460266113
-0.37134313583374023,3.161306381225586,-0.5037457346916199
-0.3509056866168976,3.1789028644561768,-0.5078455209732056
-0.3326701819896698,3.2193822860717773,-0.5156448483467102
-0.5111303925514221,5.313942909240723,-0.8534000515937805
-0.4720904529094696,5.29388952255249,-0.8523694276809692
-0.4076843857765198,4.962331771850586,-0.8003670573234558
-0.35428449511528015,4.7147932052612305,-0.7617903351783752
-0.31911322474479675,4.6822404861450195,-0.7579020261764526
-0.28600549697875977,4.684098720550537,-0.7596333622932434
-0.25301316380500793,4.678055763244629,-0.759724497795105
-0.2200971096754074,4.671841144561768,-0.75944983959198
-0.1882076859474182,4.688510894775391,-0.7629333138465881
-0.1547810435295105,4.666428565979004,-0.7601473927497864
-0.12171527743339539,4.667245864868164,-0.7611395120620728
-0.08937236666679382,4.675639629364014,-0.7627027034759521
-0.056878697127103806,4.6838202476501465,-0.7641960978507996
-0.023573821410536766,4.549132347106934,-0.7424110174179077
0.007891003973782063,4.475900173187256,-0.7306815981864929
0.03978307917714119,4.506572246551514,-0.7357257604598999
0.06861084699630737,4.3482208251953125,-0.7094417810440063
0.0932788997888565,4.104893207550049,-0.6693658232688904
0.12398149818181992,4.177440643310547,-0.6808461546897888
0.153048574924469,4.176551818847656,-0.6803842186927795
0.18172180652618408,4.1678314208984375,-0.6782258749008179
0.21721388399600983,4.286003112792969,-0.6965004801750183
0.24745413661003113,4.292273044586182,-0.6966113448143005
0.2720383107662201,4.20982551574707,-0.6823733448982239
0.2979966700077057,4.161865234375,-0.673725962638855
0.3259410560131073,4.148447036743164,-0.6701169013977051
0.3581940531730652,4.180912971496582,-0.6739183664321899
0.4014829993247986,4.332230567932129,-0.6968702077865601
0.424386203289032,4.2566938400268555,-0.6833339929580688
0.46337172389030457,4.342206954956055,-0.6953467726707458
0.48175549507141113,4.235782623291016,-0.676326334476471
0.5209072828292847,4.309279918670654,-0.6860479116439819
0.5612248778343201,4.386316776275635,-0.6963192224502563
0.6557921767234802,4.856922626495361,-0.7688564658164978
0.700343132019043,4.929222106933594,-0.777457058429718
0.7311518788337708,4.901894569396973,-0.7702874541282654
0.7646207213401794,4.889538764953613,-0.7654743790626526
0.7949157953262329,4.861790657043457,-0.7583515644073486
0.826096773147583,4.841510772705078,-0.7522057294845581
0.853542149066925,4.802102565765381,-0.7427152395248413
0.8797784447669983,4.758737087249756,-0.7326987981796265
0.9143841862678528,4.760715484619141,-0.729701578617096
0.9466410279273987,4.747177600860596,-0.7243024706840515
0.9764453172683716,4.7260661125183105,-0.7173424959182739
0.8168892860412598,3.8205134868621826,-0.5767989158630371
0.8375855088233948,3.7889082431793213,-0.5689704418182373
0.8605812788009644,3.7684707641601562,-0.5628662109375
0.8801851272583008,3.7327733039855957,-0.5543496608734131
0.9096659421920776,3.742248058319092,-0.5523138642311096
0.9280758500099182,3.7064688205718994,-0.543635368347168
0.955888569355011,3.7080087661743164,-0.5404508709907532
0.9818123579025269,3.7018532752990723,-0.536160409450531
1.003833532333374,3.6805808544158936,-0.5293176770210266
1.0261744260787964,3.6630289554595947,-0.5230518579483032
1.049501895904541,3.6490256786346436,-0.5173202753067017
1.082685112953186,3.6682448387145996,-0.5162841081619263
1.1003528833389282,3.635359048843384,-0.507790744304657
1.1190052032470703,3.606055736541748,-0.499575138092041
1.1439002752304077,3.5989296436309814,-0.4945531189441681
1.169132113456726,3.5915112495422363,-0.489452600479126
1.1943053007125854,3.5839130878448486,-0.4843439757823944
1.2140507698059082,3.5616281032562256,-0.4769671857357025
1.2335429191589355,3.539228916168213,-0.4696338474750519
1.2534422874450684,3.5165016651153564,-0.46219849586486816
1.2807525396347046,3.515612840652466,-0.4577174186706543
1.3050518035888672,3.507394552230835,-0.4520919620990753
1.3250354528427124,3.4881813526153564,-0.4450029134750366
1.3562642335891724,3.4977006912231445,-0.4415464699268341
1.6726328134536743,4.224631309509277,-0.5275076627731323
1.6990598440170288,4.206596851348877,-0.5194273591041565
1.7279412746429443,4.19571590423584,-0.5121099352836609
1.7538942098617554,4.1774067878723145,-0.5038891434669495
1.786234736442566,4.173026084899902,-0.49727869033813477
1.8157835006713867,4.161165237426758,-0.4895920753479004
1.83475661277771,4.128242015838623,-0.4794262647628784
1.8631151914596558,4.116410732269287,-0.471732497215271
1.8855215311050415,4.089982509613037,-0.46226853132247925
1.9206254482269287,4.0916829109191895,-0.45595216751098633
1.9389351606369019,4.058107852935791,-0.4454795718193054
1.9667339324951172,4.045584678649902,-0.4374537765979767
1.9830920696258545,4.008127689361572,-0.426621675491333
2.0126588344573975,3.998586654663086,-0.418768972158432
2.0380351543426514,3.9822075366973877,-0.4101046025753021
2.0653061866760254,3.968989133834839,-0.4017300307750702
2.0827369689941406,3.9343485832214355,-0.39094051718711853
2.1208295822143555,3.941330909729004,-0.3843701481819153
2.1362173557281494,3.907252073287964,-0.373742014169693
2.159362554550171,3.8864386081695557,-0.36429348587989807
2.1503024101257324,3.807547092437744,-0.34940728545188904
2.1861937046051025,3.8103392124176025,-0.34192484617233276
2.1941282749176025,3.766047239303589,-0.3303765058517456
2.2086164951324463,3.7312307357788086,-0.31944313645362854
2.2384376525878906,3.7232918739318848,-0.3108072876930237
2.2673444747924805,3.715653896331787,-0.30214035511016846
2.280880928039551,3.6806485652923584,-0.2909463346004486
2.315000534057617,3.6784756183624268,-0.28230762481689453
2.339322805404663,3.663787364959717,-0.27265143394470215
2.3469204902648926,3.6225314140319824,-0.26095831394195557
2.3894903659820557,3.6327197551727295,-0.25256890058517456
2.4184188842773438,3.6236209869384766,-0.24257895350456238
2.4293344020843506,3.5887651443481445,-0.23096121847629547
2.4589719772338867,3.5786848068237305,-0.22042147815227509
2.4825217723846436,3.5630459785461426,-0.20953701436519623
2.4927000999450684,3.527941942214966,-0.19732360541820526
2.5313820838928223,3.529797315597534,-0.18641184270381927
2.558593511581421,3.5203793048858643,-0.1750248819589615
2.6056714057922363,3.534893274307251,-0.1640455722808838
2.789757013320923,3.948917865753174,0.4012010395526886
2.7526369094848633,3.9546563625335693,0.41227924823760986
2.7256197929382324,3.9814624786376953,0.4252854585647583
2.6907827854156494,3.994429588317871,0.43647298216819763
2.671015739440918,4.025145530700684,0.44892850518226624
2.635395050048828,4.038045883178711,0.45912104845046997
2.6193370819091797,4.079636573791504,0.47242972254753113
2.5799551010131836,4.080516815185547,0.4804927110671997
2.552936553955078,4.105441093444824,0.4913201332092285
2.527287244796753,4.13376522064209,0.5023490786552429
2.4932897090911865,4.144167900085449,0.5107691884040833
2.4717917442321777,4.1739726066589355,0.5214629769325256
2.451711416244507,4.211668491363525,0.5328567624092102
2.418930768966675,4.229433536529541,0.5418854355812073
2.3887956142425537,4.245463848114014,0.5501508712768555
2.3117802143096924,4.176270008087158,0.5472321510314941
2.261749505996704,4.158434867858887,0.5505345463752747
2.2376182079315186,4.188042163848877,0.5601047873497009
2.21779727935791,4.223865985870361,0.5703999400138855
2.1843745708465576,4.231532573699951,0.5767565965652466
2.1567342281341553,4.253413677215576,0.5847989916801453
2.128300905227661,4.275409698486328,0.592759370803833
2.0967886447906494,4.289994716644287,0.5996502041816711
2.076097249984741,4.324911594390869,0.6093051433563232
2.0421504974365234,4.331547737121582,0.6149041652679443
2.0067200660705566,4.338648796081543,0.6201726794242859
1.9744549989700317,4.352529525756836,0.626442551612854
2.028120994567871,4.556791305541992,0.6601970791816711
1.992953896522522,4.562933444976807,0.6653551459312439
1.9598758220672607,4.576332092285156,0.6715642213821411
1.9321064949035645,4.604067325592041,0.679472804069519
1.883432149887085,4.581518650054932,0.6799793839454651
1.862099528312683,4.6227827072143555,0.6898853182792664
1.8366957902908325,4.652909278869629,0.6981236934661865
1.8144030570983887,4.693996906280518,0.7080785036087036
1.7772560119628906,4.699138641357422,0.7121477127075195
1.7401745319366455,4.703969478607178,0.716193437576294
1.3259855508804321,3.66489315032959,0.5605583786964417
1.3041661977767944,3.6844332218170166,0.5660651326179504
1.2639429569244385,3.6528611183166504,0.563775360584259
1.626220941543579,4.810978412628174,0.7454243302345276
1.5960644483566284,4.836645126342773,0.7522323727607727
1.5798306465148926,4.906252384185791,0.7659574151039124
1.5510658025741577,4.93497896194458,0.7732927799224854
1.5204458236694336,4.959953308105469,0.7801308035850525
1.4754817485809326,4.936560153961182,0.779226541519165
1.441975712776184,4.953876495361328,0.784324586391449
1.409297227859497,4.974689483642578,0.7900296449661255
1.3776748180389404,4.998939037322998,0.7963167428970337
1.3137625455856323,4.899685859680176,0.7828586101531982
1.2779643535614014,4.904547691345215,0.7860627770423889
1.2414171695709229,4.905401229858398,0.7883663177490234
1.2200506925582886,4.9698710441589355,0.8006353378295898
1.1897839307785034,5.000483512878418,0.8075212836265564
1.157672643661499,5.023331642150879,0.8131948709487915
1.1236165761947632,5.03843879699707,0.8176652789115906
1.0924835205078125,5.064496040344238,0.8239277005195618
1.0582953691482544,5.0791544914245605,0.8280905485153198
1.0266036987304688,5.108829021453857,0.8344534635543823
0.9886788129806519,5.108010768890381,0.8358827829360962
1.804198980331421,9.694540977478027,1.5895013809204102
1.737955093383789,9.71366024017334,1.5956839323043823
1.6806695461273193,9.785526275634766,1.610630750656128
1.6082113981246948,9.773507118225098,1.6113828420639038
1.528716802597046,9.719283103942871,1.604537844657898
1.4517652988433838,9.683658599853516,1.6008574962615967
1.3706843852996826,9.6052885055542,1.5901210308074951
1.3016704320907593,9.598711967468262,1.5912891626358032
1.2329198122024536,9.591629981994629,1.5924395322799683
1.1668561697006226,9.607076644897461,1.5971919298171997
1.1017134189605713,9.637609481811523,1.603609323501587
1.0289721488952637,9.610325813293457,1.6005077362060547
0.9500753283500671,9.505709648132324,1.5845624208450317
0.4071275591850281,4.381742000579834,0.7311267852783203
0.3696425259113312,4.303657531738281,0.7188277244567871
0.33907049894332886,4.298253536224365,0.7186868190765381
0.31061938405036926,4.331186771392822,0.7245429158210754
0.2862025499343872,4.425427436828613,0.740632951259613
0.3244825601577759,5.6311445236206055,0.9428802132606506
0.28633975982666016,5.656219005584717,0.9475839138031006
0.2488296926021576,5.700272083282471,0.9555177688598633
0.21021972596645355,5.747944355010986,0.9641233682632446
0.16992950439453125,5.74148416519165,0.96333247423172
0.13191798329353333,5.831081390380859,0.978376567363739
0.09121385216712952,5.83182954788208,0.9785605669021606
0.05070463940501213,5.847701072692871,0.9813302159309387
0.009350410662591457,5.8401780128479,0.9802241325378418
-0.04734426364302635,8.875676155090332,1.4900121688842773
-0.10790086537599564,8.786506652832031,1.4753119945526123
-0.1685687005519867,8.770264625549316,1.471983551979065
-0.16100665926933289,6.15409517288208,1.0325188636779785
-0.2059996873140335,6.222224235534668,1.0436232089996338
-0.24359506368637085,6.062877178192139,1.0166232585906982
