X,Y,Z
-0.955387532711029,2.0990636348724365,-0.21657420694828033
-0.9195086359977722,2.059414863586426,-0.2153414785861969
-0.889192521572113,2.0299465656280518,-0.21502193808555603
-0.8611184358596802,2.003634214401245,-0.2149096131324768
-0.8287416100502014,1.9663748741149902,-0.2134748101234436
-0.80245041847229,1.9433106184005737,-0.21348337829113007
-0.7754880785942078,1.9162179231643677,-0.212910458445549
-0.7562775611877441,1.9068444967269897,-0.2142290472984314
-0.7188183665275574,1.8502823114395142,-0.21010933816432953
-0.7096437811851501,1.8659824132919312,-0.2140718251466751
-0.6866241693496704,1.8452813625335693,-0.21387018263339996
-0.6657178997993469,1.8278471231460571,-0.2139294296503067
-0.6450281739234924,1.8102409839630127,-0.2138955444097519
-0.6257060766220093,1.7961821556091309,-0.2141411453485489
-0.6128978729248047,1.8003058433532715,-0.2165418267250061
-0.5902647972106934,1.7748767137527466,-0.21536760032176971
-0.5634416937828064,1.734399676322937,-0.21226853132247925
-0.5475738644599915,1.7270073890686035,-0.2130315899848938
-0.5329906344413757,1.7231837511062622,-0.2142203450202942
-0.5141541361808777,1.704346776008606,-0.21350513398647308
-0.4978484809398651,1.6927623748779297,-0.2136663794517517
-0.47927436232566833,1.6736798286437988,-0.2127896398305893
-0.4694797098636627,1.6842693090438843,-0.2155884951353073
-0.4515077769756317,1.6648533344268799,-0.21453645825386047
-0.4349111020565033,1.6489988565444946,-0.2139074206352234
-0.43009597063064575,1.6780521869659424,-0.21909236907958984
-0.41146811842918396,1.654561161994934,-0.2173081487417221
-0.39430245757102966,1.634618878364563,-0.2159421592950821
-0.38110873103141785,1.6295806169509888,-0.21651718020439148
-0.36630550026893616,1.6168802976608276,-0.21606610715389252
-0.35328176617622375,1.6116541624069214,-0.21648703515529633
-0.3345046043395996,1.5798587799072266,-0.21328042447566986
-0.3234037458896637,1.5819872617721558,-0.21461990475654602
-0.3138633966445923,1.5916202068328857,-0.216985821723938
-0.30129075050354004,1.585988163948059,-0.21725814044475555
-0.28597140312194824,1.5650596618652344,-0.21526388823986053
-0.27343636751174927,1.5592808723449707,-0.21536318957805634
-0.262532114982605,1.5609986782073975,-0.21648408472537994
-0.2491687387228012,1.5473552942276,-0.2154754102230072
-0.23480665683746338,1.5259737968444824,-0.2132706344127655
-0.23082317411899567,1.573397159576416,-0.22061677277088165
-0.21319082379341125,1.52888822555542,-0.21509361267089844
-0.20256111025810242,1.530206561088562,-0.21598881483078003
-0.19096127152442932,1.523774266242981,-0.2157968133687973
-0.17986929416656494,1.5211284160614014,-0.21595771610736847
-0.1683930605649948,1.5145604610443115,-0.2155556082725525
-0.1586318463087082,1.523292899131775,-0.21734105050563812
-0.14708946645259857,1.5165798664093018,-0.21694229543209076
-0.1371975839138031,1.5251818895339966,-0.21867597103118896
-0.12654131650924683,1.5260326862335205,-0.21916665136814117
-0.10311250388622284,1.4966498613357544,-0.21569931507110596
-0.09395430982112885,1.5204252004623413,-0.21952925622463226
-0.08166403323411942,1.490108609199524,-0.21542012691497803
-0.07128194719552994,1.490601658821106,-0.21569471061229706
-0.061212483793497086,1.498747706413269,-0.21708828210830688
-0.05156882852315903,1.5222793817520142,-0.22072525322437286
-0.04016898572444916,1.4993788003921509,-0.21764445304870605
-0.029740706086158752,1.4996103048324585,-0.21772372722625732
-0.019398042932152748,1.5075013637542725,-0.21891802549362183
-0.008855633437633514,1.4998582601547241,-0.21786704659461975
0.0015590847469866276,1.4844105243682861,-0.21569184958934784
0.06365440040826797,1.4831596612930298,-0.21490898728370667
0.07451938092708588,1.4904454946517944,-0.2156791388988495
0.09719783067703247,1.5202330350875854,-0.2194482684135437
0.11710251867771149,1.503443956375122,-0.2163451761007309
0.128377303481102,1.5103651285171509,-0.21689383685588837
0.14784139394760132,1.4931986331939697,-0.21358832716941833
0.15984241664409637,1.507603645324707,-0.21519270539283752
0.1685602366924286,1.4911922216415405,-0.21225552260875702
0.17907170951366425,1.490073561668396,-0.21150201559066772
0.19333653151988983,1.5195964574813843,-0.2151043862104416
0.20185384154319763,1.5029842853546143,-0.21217985451221466
0.2122848927974701,1.5016676187515259,-0.21131950616836548
0.22551299631595612,1.5194308757781982,-0.21306434273719788
0.2362450659275055,1.517935037612915,-0.21209374070167542
0.24496714770793915,1.5049245357513428,-0.2095397561788559
0.2567611038684845,1.510941505432129,-0.2096472531557083
0.27060988545417786,1.5283373594284058,-0.21114885807037354
0.27979978919029236,1.5189694166183472,-0.20894642174243927
0.2947308421134949,1.5399580001831055,-0.21091768145561218
0.30566439032554626,1.537988543510437,-0.20972247421741486
0.32103100419044495,1.5587506294250488,-0.21157850325107574
0.3318108022212982,1.5566767454147339,-0.21021217107772827
0.3442440629005432,1.5620917081832886,-0.20986196398735046
0.3568676710128784,1.5673882961273193,-0.20948562026023865
0.3742033839225769,1.5913994312286377,-0.2115785777568817
0.3870488405227661,1.5965040922164917,-0.21102653443813324
0.3980799615383148,1.5939991474151611,-0.2094353288412094
0.4130171835422516,1.606414794921875,-0.20979559421539307
0.4281969368457794,1.618688941001892,-0.21011805534362793
0.4417012631893158,1.6233136653900146,-0.20937290787696838
0.4529104232788086,1.6204545497894287,-0.20756568014621735
0.46622660756111145,1.6249735355377197,-0.20670844614505768
0.4753844439983368,1.6144676208496094,-0.20393213629722595
0.4844176173210144,1.6039094924926758,-0.20117245614528656
0.504866898059845,1.6303504705429077,-0.2028990089893341
0.5207778811454773,1.6418730020523071,-0.20273083448410034
0.5477595329284668,1.686436653137207,-0.20657625794410706
0.562008798122406,1.6901800632476807,-0.20536422729492188
0.5837579369544983,1.7158839702606201,-0.20674274861812592
0.6019294857978821,1.7304307222366333,-0.20665109157562256
0.6218788027763367,1.7483851909637451,-0.20689454674720764
0.6340961456298828,1.7442712783813477,-0.20452097058296204
0.6598085165023804,1.7764724493026733,-0.20636843144893646
0.6747355461120605,1.7794612646102905,-0.2046574205160141
0.6939258575439453,1.7932006120681763,-0.2041652649641037
0.7209266424179077,1.8246593475341797,-0.20556025207042694
0.7424039244651794,1.841490387916565,-0.20528040826320648
0.7653699517250061,1.8618215322494507,-0.20525196194648743
0.784089982509613,1.8711984157562256,-0.2039487659931183
0.8123512268066406,1.901767611503601,-0.20486216247081757
0.8336595296859741,1.9140756130218506,-0.20368684828281403
0.8625946044921875,1.9441583156585693,-0.20431770384311676
0.8998478651046753,1.9917256832122803,-0.2066371589899063
0.9298874735832214,2.021120071411133,-0.20691661536693573
0.9572466611862183,2.0430774688720703,-0.2063232809305191
0.9966731071472168,2.0893499851226807,-0.20797203481197357
1.0142573118209839,2.0898866653442383,-0.20500104129314423
1.0459330081939697,2.1180732250213623,-0.2046356350183487
1.07999587059021,2.149306535720825,-0.20442216098308563
1.1247947216033936,2.2011661529541016,-0.20598343014717102
1.168369174003601,2.249168872833252,-0.20698508620262146
1.211527705192566,2.2928943634033203,-0.20727357268333435
1.2460192441940308,2.3190414905548096,-0.2058708518743515
1.267301082611084,2.3212037086486816,-0.20220787823200226
1.2810022830963135,2.30961275100708,-0.1973380595445633
1.2990623712539673,2.304380416870117,-0.1928616166114807
1.315291404724121,2.2955589294433594,-0.18800446391105652
1.3286359310150146,2.2837424278259277,-0.18294581770896912
1.3322899341583252,2.2548794746398926,-0.1764848530292511
1.3601475954055786,2.265895366668701,-0.17302477359771729
1.4220755100250244,2.3336057662963867,-0.1736931949853897
1.4768341779708862,2.387300491333008,-0.1729542315006256
1.501829743385315,2.3904998302459717,-0.16824977099895477
1.5453767776489258,2.423327684402466,-0.1655096560716629
1.582478642463684,2.4462387561798096,-0.16192440688610077
1.7171287536621094,2.6149580478668213,-0.16726188361644745
1.7353591918945312,2.6033222675323486,-0.16047966480255127
1.769802451133728,2.6181960105895996,-0.15537123382091522
1.4236478805541992,2.075409412384033,-0.11807079613208771
1.4555513858795166,2.091630458831787,-0.1137426495552063
1.4600216150283813,2.0697436332702637,-0.10731220990419388
1.4792568683624268,2.0659689903259277,-0.10129832476377487
1.4607205390930176,2.012259006500244,-0.09301762282848358
1.4693888425827026,1.9965351819992065,-0.08642388135194778
2.067938804626465,2.9230117797851562,0.25808706879615784
2.0984504222869873,3.0103273391723633,0.27301493287086487
2.3180124759674072,3.3786067962646484,0.3143227994441986
2.293653726577759,3.3990073204040527,0.32401156425476074
2.28251314163208,3.4337689876556396,0.3343724310398102
2.3099989891052246,3.531383752822876,0.35095083713531494
3.0870094299316406,4.798686504364014,0.486316442489624
1.630631685256958,2.574018716812134,0.26545071601867676
1.6116122007369995,2.5853703022003174,0.27122366428375244
3.043164014816284,4.9652886390686035,0.5292849540710449
2.994602680206299,4.966397285461426,0.5373817682266235
2.9932632446289062,5.043168067932129,0.5534365177154541
2.9519033432006836,5.057407855987549,0.5624706745147705
2.9282479286193848,5.105922698974609,0.5753693580627441
2.9163825511932373,5.169763565063477,0.5895949006080627
2.8761332035064697,5.1823320388793945,0.5979265570640564
2.856379270553589,5.236521244049072,0.6108070015907288
2.848104476928711,5.315036773681641,0.6265677809715271
2.809112310409546,5.334712505340576,0.6353231072425842
2.7929329872131348,5.3947343826293945,0.6487138867378235
2.766024589538574,5.438094615936279,0.6599648594856262
2.765247344970703,5.537498474121094,0.6779367923736572
2.724601984024048,5.5566086769104,0.6860908269882202
1.2211395502090454,2.5356597900390625,0.3156723380088806
1.2016191482543945,2.5402321815490723,0.318783164024353
1.1844191551208496,2.5521504878997803,0.32261478900909424
1.1654990911483765,2.5604164600372314,0.32600563764572144
1.1598416566848755,2.59659743309021,0.3329111337661743
2.5821876525878906,5.890669822692871,0.7603799104690552
2.5471856594085693,5.926051139831543,0.7700607776641846
2.518552780151367,5.979477405548096,0.7816701531410217
2.4937596321105957,6.043515682220459,0.7947676777839661
2.4654486179351807,6.096072196960449,0.8062857985496521
2.4399261474609375,6.155511379241943,0.8187549710273743
2.4053728580474854,6.19730806350708,0.8289064764976501
2.379380941390991,6.264565944671631,0.8420225977897644
2.015158176422119,5.4235663414001465,0.7325658202171326
2.311469078063965,6.358386516571045,0.8629580140113831
2.2811291217803955,6.413747787475586,0.8745954632759094
2.2581567764282227,6.4948811531066895,0.8899291753768921
2.2221052646636963,6.543347358703613,0.9001835584640503
2.196436882019043,6.6247053146362305,0.915065586566925
2.1595563888549805,6.672670841217041,0.9253933429718018
2.097675323486328,6.638830184936523,0.9243187308311462
2.0390217304229736,6.615785121917725,0.9248069524765015
1.9796313047409058,6.588618278503418,0.9242830872535706
1.9211817979812622,6.564884662628174,0.9239593148231506
1.8557541370391846,6.514598846435547,0.9199002385139465
1.8015635013580322,6.4970011711120605,0.9203886389732361
1.7429966926574707,6.460203170776367,0.9181451201438904
1.6911933422088623,6.449289321899414,0.9196404814720154
0.827731728553772,3.2509524822235107,0.46479344367980957
1.5772185325622559,6.385334491729736,0.9153075218200684
0.797242283821106,3.3296337127685547,0.47855034470558167
1.4666359424591064,6.319218158721924,0.9105998873710632
0.32556045055389404,1.4491950273513794,0.20939071476459503
0.33266493678092957,1.5306824445724487,0.22173959016799927
0.3185795843601227,1.517762303352356,0.22030258178710938
0.3092840313911438,1.5274662971496582,0.22215919196605682
0.29547154903411865,1.5143322944641113,0.22070106863975525
0.29186755418777466,1.55428147315979,0.22699691355228424
0.2796674966812134,1.5485562086105347,0.22663399577140808
0.2589304745197296,1.4932278394699097,0.2189803123474121
0.8607082962989807,5.960238456726074,0.8794170618057251
0.821294903755188,5.981072902679443,0.8839138746261597
0.778668999671936,5.978652000427246,0.8849772810935974
0.7355345487594604,5.976085662841797,0.8854534029960632
0.5848311185836792,5.044207572937012,0.7481379508972168
0.5590753555297852,5.144111156463623,0.7637795209884644
0.5271357893943787,5.186121940612793,0.7708609700202942
0.3891305923461914,4.112328052520752,0.6119498610496521
0.35917267203330994,4.099376201629639,0.6107455492019653
0.3363395035266876,4.174861907958984,0.6223615407943726
0.30594033002853394,4.1693501472473145,0.621891975402832
0.2749049663543701,4.144307613372803,0.6185305118560791
0.2485356330871582,4.188448905944824,0.6255241632461548
0.4071773886680603,7.7780842781066895,1.162427544593811
0.35182681679725647,7.753528594970703,1.1596183776855469
0.29561683535575867,7.724839687347412,1.1557152271270752
0.24011415243148804,7.680319786071777,1.149194359779358
0.18598905205726624,7.662437915802002,1.1467138528823853
0.1319592148065567,7.624859809875488,1.14133882522583
0.07870505005121231,7.602354526519775,1.138272762298584
0.02492501027882099,7.575617790222168,1.1346319913864136
-0.02763134054839611,7.544686794281006,1.130107045173645
-0.07984018325805664,7.528923511505127,1.1273826360702515
-0.13149258494377136,7.493485450744629,1.121768832206726
-0.18302267789840698,7.469278812408447,1.1178921461105347
-0.23462654650211334,7.460166931152344,1.1163297891616821
-0.2864997684955597,7.4352192878723145,1.1124502420425415
-0.3394990861415863,7.463994026184082,1.1166203022003174
-0.2839561402797699,5.416828632354736,0.8097584247589111
-0.3213796317577362,5.414865016937256,0.8089004158973694
-0.3565484285354614,5.37794303894043,0.8028613924980164
-0.39458489418029785,5.375416278839111,0.8019886016845703
-0.43071863055229187,5.357264995574951,0.798833429813385
-0.46291837096214294,5.296529293060303,0.7893728613853455
-0.43814823031425476,4.643260478973389,0.6913090348243713
-0.4663048982620239,4.601861953735352,0.6843649744987488
-0.49773740768432617,4.590978145599365,0.6819879412651062
-0.5281997919082642,4.576084136962891,0.6790603995323181
-0.5590484738349915,4.564811706542969,0.676703929901123
-0.5887730717658997,4.545666217803955,0.6732161641120911
-0.6190385818481445,4.534056663513184,0.670630693435669
-0.6484553217887878,4.514575958251953,0.6666685342788696
-0.6771014928817749,4.494979381561279,0.6627463698387146
-0.7057007551193237,4.47517204284668,0.6588249206542969
-0.7349258661270142,4.458959102630615,0.6554627418518066
-0.7659252882003784,4.453985691070557,0.6537867784500122
-0.792619526386261,4.426015377044678,0.6486165523529053
-0.8177556991577148,4.390293598175049,0.642032265663147
-0.8382132053375244,4.335549831390381,0.632745087146759
-0.7334476709365845,3.6588809490203857,0.5329256057739258
-0.757339596748352,3.646369457244873,0.5300509333610535
-0.9314135313034058,4.333226203918457,0.6286737322807312
-0.9677639007568359,4.353321075439453,0.6302409768104553
-0.9921543598175049,4.324386119842529,0.6244319677352905
-1.0189120769500732,4.306600570678711,0.6202719807624817
-1.0410237312316895,4.269824028015137,0.6134138107299805
-1.0726277828216553,4.2703423500061035,0.6119228005409241
-1.1029223203659058,4.262993812561035,0.6093023419380188
-1.1323480606079102,4.25565767288208,0.6066024899482727
-1.1551117897033691,4.225892543792725,0.6004388928413391
-1.1837974786758423,4.218368053436279,0.5974734425544739
-1.208359718322754,4.195710182189941,0.5923850536346436
-1.2358239889144897,4.1800642013549805,0.5882625579833984
-1.262625813484192,4.16438102722168,0.5842027068138123
-1.291114091873169,4.15608549118042,0.5810054540634155
-1.315577507019043,4.13668966293335,0.5760852694511414
-1.3434725999832153,4.128183841705322,0.5727104544639587
-1.3723523616790771,4.119158744812012,0.569209098815918
-1.3910523653030396,4.080636978149414,0.5616846680641174
-1.41952383518219,4.0712971687316895,0.5582172274589539
-1.4548273086547852,4.084016799926758,0.5574471950531006
-1.474359154701233,4.052798271179199,0.5506426692008972
-1.4962716102600098,4.028746604919434,0.5448563098907471
-1.5276013612747192,4.025805473327637,0.5418227314949036
-1.5500715970993042,4.001114368438721,0.5359385013580322
-1.5803698301315308,3.998124361038208,0.5328465104103088
-1.6013669967651367,3.9736101627349854,0.5266966223716736
-1.622069239616394,3.949000597000122,0.5205824375152588
-1.6618000268936157,3.966686487197876,0.5199158787727356
-1.672768235206604,3.916301727294922,0.5103759169578552
-1.6999661922454834,3.9051501750946045,0.5059391260147095
-1.7307443618774414,3.9049463272094727,0.5026339292526245
-1.7535816431045532,3.886833906173706,0.49704721570014954
-1.7694116830825806,3.8504035472869873,0.4890099763870239
-1.8079450130462646,3.86309814453125,0.48722338676452637
-1.8264646530151367,3.833514451980591,0.4800648093223572
-1.870599389076233,3.860325813293457,0.4796934127807617
-1.8808473348617554,3.8170697689056396,0.4706296920776367
-1.9110963344573975,3.8113739490509033,0.46604403853416443
-1.9306734800338745,3.7847249507904053,0.45893973112106323
-1.9636322259902954,3.7859067916870117,0.45509853959083557
-1.9740698337554932,3.7460567951202393,0.4461769759654999
-1.9988768100738525,3.733548879623413,0.44053786993026733
-2.0287718772888184,3.726942539215088,0.4353627860546112
-1.7128241062164307,3.0941994190216064,0.3577228784561157
-1.7294232845306396,3.0766284465789795,0.351817786693573
-0.8362823128700256,1.4653526544570923,0.16570478677749634
-0.8463830947875977,1.459831714630127,0.16312912106513977
-0.8645181059837341,1.4675406217575073,0.16198687255382538
-0.8664809465408325,1.448583960533142,0.15779563784599304
-0.8799479007720947,1.4498424530029297,0.15583030879497528
-0.8858231902122498,1.437431812286377,0.1522870808839798
-0.8959521055221558,1.4314463138580322,0.1493842899799347
-0.8970586061477661,1.4126510620117188,0.14509648084640503
-0.8979519605636597,1.3939013481140137,0.1408015340566635
-0.9034179449081421,1.3813832998275757,0.1370401829481125
-0.9172735810279846,1.3818869590759277,0.13454341888427734
-2.406592607498169,3.5764000415802,0.3413843810558319
-2.412917137145996,3.5352888107299805,0.33037349581718445
-1.2313387393951416,1.77695894241333,0.16220469772815704
-1.2293322086334229,1.7502695322036743,0.15592750906944275
-1.3854763507843018,1.9832704067230225,-0.11212730407714844
-1.2232784032821655,1.7772835493087769,-0.10548988729715347
-1.3014041185379028,1.9822033643722534,-0.13357651233673096
-1.148846983909607,1.7786871194839478,-0.12434229254722595
-1.597588300704956,2.6365482807159424,-0.20847088098526
-1.5059648752212524,2.567652940750122,-0.21382839977741241
-0.7862834334373474,1.38550865650177,-0.12095383554697037
-1.3662782907485962,2.4486117362976074,-0.2184945046901703
-1.297621250152588,2.3659448623657227,-0.21564313769340515
-1.2551363706588745,2.3265411853790283,-0.21625599265098572
-1.2109463214874268,2.2834866046905518,-0.21642005443572998
-1.1708674430847168,2.2469329833984375,-0.2169141173362732
-1.1405137777328491,2.2271206378936768,-0.21884505450725555
-1.0985760688781738,2.1825144290924072,-0.2181379497051239
-1.0483624935150146,2.1201789379119873,-0.2154114991426468
-1.0207117795944214,2.1029698848724365,-0.21715374290943146
-0.9789779186248779,2.0535786151885986,-0.21530450880527496
-0.9645118117332458,2.060001850128174,-0.21919801831245422
-0.9220144748687744,2.006451368331909,-0.21654902398586273
-0.8898648619651794,1.973705768585205,-0.2159871906042099
-0.8633228540420532,1.9511206150054932,-0.21637053787708282
-0.8230426907539368,1.8962584733963013,-0.21309123933315277
-0.803264856338501,1.887473225593567,-0.2147470861673355
-0.7746627330780029,1.8570027351379395,-0.21386481821537018
-0.7542085647583008,1.8440815210342407,-0.21487843990325928
-0.7210090160369873,1.7985150814056396,-0.21199855208396912
-0.7078858613967896,1.8033726215362549,-0.21493858098983765
-0.6865581274032593,1.7863266468048096,-0.21519313752651215
-0.661618709564209,1.7581026554107666,-0.21400557458400726
-0.646565318107605,1.755092740058899,-0.21583609282970428
-0.6235193014144897,1.7301310300827026,-0.21483497321605682
-0.6018655896186829,1.7086964845657349,-0.21421580016613007
-0.5822132229804993,1.6905875205993652,-0.21390317380428314
-0.5678827166557312,1.6869661808013916,-0.21538572013378143
-0.5487015247344971,1.6685303449630737,-0.21488192677497864
-0.5320776700973511,1.6573370695114136,-0.2152080088853836
-0.5178186893463135,1.653432846069336,-0.2164888232946396
-0.5028254985809326,1.6456143856048584,-0.21720081567764282
-0.4846336543560028,1.6265361309051514,-0.21637268364429474
-0.47524794936180115,1.6371095180511475,-0.21934786438941956
-0.46361586451530457,1.6401742696762085,-0.22133693099021912
-0.44184091687202454,1.6057723760604858,-0.21822461485862732
-0.42439162731170654,1.5861661434173584,-0.2171020209789276
-0.41122180223464966,1.5813889503479004,-0.21783360838890076
-0.39338552951812744,1.5577468872070312,-0.21591123938560486
-0.3861253559589386,1.5752756595611572,-0.2196861058473587
-0.3715503215789795,1.5626331567764282,-0.2192550152540207
-0.35346683859825134,1.5348402261734009,-0.2166331559419632
-0.34602463245391846,1.5521889925003052,-0.22024087607860565
-0.33020222187042236,1.5316836833953857,-0.21848253905773163
-0.3179125189781189,1.5261729955673218,-0.21884334087371826
-0.30571576952934265,1.520566463470459,-0.21918967366218567
-0.2933674454689026,1.5149317979812622,-0.21938928961753845
-0.27915719151496887,1.4977713823318481,-0.21786606311798096
-0.2672956585884094,1.4919003248214722,-0.21797429025173187
-0.25688791275024414,1.4935508966445923,-0.21918275952339172
-0.2477070391178131,1.5027680397033691,-0.22145628929138184
-0.2345729023218155,1.4890711307525635,-0.22023707628250122
0.24328935146331787,1.4643299579620361,-0.21575042605400085
0.265174925327301,1.468715786933899,-0.21460354328155518
0.2885615825653076,1.4804096221923828,-0.21443232893943787
0.3018852174282074,1.4937297105789185,-0.21529151499271393
0.31224897503852844,1.4917908906936646,-0.21394968032836914
0.3252943754196167,1.501075029373169,-0.21419565379619598
0.33321505784988403,1.4876385927200317,-0.21121716499328613
0.34612521529197693,1.496821403503418,-0.21129374206066132
0.3618600368499756,1.517195224761963,-0.21293380856513977
0.3724323809146881,1.5148539543151855,-0.21136793494224548
0.38510510325431824,1.5198932886123657,-0.21081110835075378
0.40152034163475037,1.5398913621902466,-0.21224002540111542
0.41217634081840515,1.5373166799545288,-0.2104717195034027
0.42695459723472595,1.5495960712432861,-0.21073029935359955
0.4430745840072632,1.5654481649398804,-0.21144133806228638
0.4563610553741455,1.5699501037597656,-0.2105644792318344
0.4804908335208893,1.6115823984146118,-0.21451056003570557
0.4893580675125122,1.601080060005188,-0.21148960292339325
0.5098111629486084,1.6274802684783936,-0.21331268548965454
0.5188360214233398,1.616758942604065,-0.21025429666042328
0.5326406955718994,1.6207164525985718,-0.2089831531047821
0.5499963760375977,1.6356664896011353,-0.2090955674648285
0.5663961172103882,1.6467655897140503,-0.20867693424224854
0.5830633640289307,1.6576884984970093,-0.20819933712482452
0.5945698618888855,1.653894066810608,-0.20582111179828644
0.6192987561225891,1.6864991188049316,-0.20784923434257507
0.631126344203949,1.6824243068695068,-0.20527903735637665
0.6581878662109375,1.718139886856079,-0.20752717554569244
0.6786990761756897,1.735495686531067,-0.2074785977602005
0.7021267414093018,1.7599704265594482,-0.2081136554479599
0.7215301990509033,1.7734192609786987,-0.20739366114139557
0.7311678528785706,1.7614030838012695,-0.20360888540744781
0.7677220702171326,1.8138096332550049,-0.20725364983081818
0.7939572930335999,1.8409762382507324,-0.20780368149280548
0.8127673864364624,1.8500937223434448,-0.2062491923570633
0.8320533037185669,1.8589075803756714,-0.20456597208976746
0.8727635145187378,1.9133952856063843,-0.20775102078914642
0.8891699910163879,1.914777398109436,-0.2050437033176422
0.9321424961090088,1.9723103046417236,-0.20824016630649567
0.964430034160614,2.004695177078247,-0.2085738480091095
0.9887282848358154,2.019233465194702,-0.20695357024669647
1.0287226438522339,2.064965009689331,-0.20829418301582336
1.0497429370880127,2.0722203254699707,-0.205699160695076
1.0945221185684204,2.124039888381958,-0.20731283724308014
1.1274604797363281,2.151198148727417,-0.20636269450187683
1.1877214908599854,2.229843854904175,-0.2100744992494583
1.219496488571167,2.252981185913086,-0.20835037529468536
1.2580989599227905,2.285593032836914,-0.20717327296733856
1.2777087688446045,2.284059524536133,-0.2028740793466568
1.296875238418579,2.2826311588287354,-0.19852222502231598
1.3164105415344238,2.2808585166931152,-0.1940315216779709
1.3245278596878052,2.258542776107788,-0.18771126866340637
1.336058497428894,2.2431068420410156,-0.1819055676460266
1.3550431728363037,2.241217613220215,-0.17727535963058472
1.3932092189788818,2.2685959339141846,-0.17463913559913635
1.4479910135269165,2.3222198486328125,-0.17380855977535248
1.5154834985733032,2.395350933074951,-0.17411352694034576
1.5765453577041626,2.453981399536133,-0.17272676527500153
1.6766412258148193,2.5708117485046387,-0.174991637468338
1.751585602760315,2.648030996322632,-0.1740502566099167
1.7740085124969482,2.6429314613342285,-0.167221337556839
1.7660017013549805,2.5922932624816895,-0.15741395950317383
1.4305075407028198,2.0705578327178955,-0.12031891942024231
1.444663405418396,2.0610568523406982,-0.11414829641580582
1.4631624221801758,2.057891368865967,-0.10819211602210999
1.4580655097961426,2.0234618186950684,-0.10065439343452454
1.4676109552383423,2.007213592529297,-0.09357146173715591
1.4760026931762695,1.9916448593139648,-0.08655527979135513
2.078625440597534,2.91416072845459,0.27195873856544495
2.0657966136932373,2.941460132598877,0.28231513500213623
2.2882256507873535,3.3123207092285156,0.3264675736427307
2.315016508102417,3.4015910625457764,0.34313660860061646
2.3154118061065674,3.456721067428589,0.3565048277378082
2.2882938385009766,3.473752737045288,0.3659287691116333
3.120732069015503,4.811098098754883,0.5164939165115356
1.6390784978866577,2.5670406818389893,0.2805706560611725
1.6233943700790405,2.5854995250701904,0.28745442628860474
1.5799541473388672,2.556931972503662,0.28881317377090454
3.0246682167053223,4.972066402435303,0.5701095461845398
2.9864342212677,4.993879318237305,0.5809171795845032
2.973768472671509,5.058882236480713,0.5966355204582214
2.949615240097046,5.098784446716309,0.6089100241661072
2.930912494659424,5.1486430168151855,0.6224558353424072
2.8995394706726074,5.183009147644043,0.6338071227073669
2.863356590270996,5.210737228393555,0.6445273756980896
2.8578484058380127,5.287782192230225,0.6608771681785583
2.824136734008789,5.313507556915283,0.6709147691726685
2.809617519378662,5.38144588470459,0.6859703660011292
2.7779541015625,5.418529033660889,0.697141170501709
2.769803524017334,5.499889850616455,0.7139459848403931
2.7500417232513428,5.55634880065918,0.72743821144104
1.2243788242340088,2.5188353061676025,0.3324585556983948
1.2173404693603516,2.5518672466278076,0.33941420912742615
1.1837040185928345,2.528667688369751,0.33888429403305054
1.1723766326904297,2.550548553466797,0.3442773222923279
1.1588544845581055,2.568999767303467,0.3492964208126068
1.155722975730896,2.6123902797698975,0.35752302408218384
2.5611188411712646,5.90566873550415,0.8133525252342224
2.5363011360168457,5.9658966064453125,0.8267537355422974
2.5063350200653076,6.011134147644043,0.8379979729652405
2.4765641689300537,6.060103416442871,0.849943995475769
2.449798107147217,6.1200947761535645,0.8629327416419983
2.423283576965332,6.183775424957275,0.8764426708221436
2.378401517868042,6.200204372406006,0.8832898139953613
2.0420968532562256,5.436568260192871,0.7783598303794861
2.3237204551696777,6.322198867797852,0.9097442626953125
2.3004307746887207,6.399755001068115,0.9250844120979309
2.2741920948028564,6.4738898277282715,0.9398117065429688
2.2381985187530518,6.522336959838867,0.9509167671203613
2.2072174549102783,6.580987930297852,0.9634424448013306
2.1783628463745117,6.650773525238037,0.977773129940033
2.129091739654541,6.6577019691467285,0.9827107787132263
2.0705366134643555,6.63887357711792,0.9833152890205383
2.004490375518799,6.59365177154541,0.9800143241882324
1.9454189538955688,6.566172122955322,0.9792974591255188
1.888697624206543,6.5416951179504395,0.9789803624153137
1.8285578489303589,6.5057759284973145,0.9770081639289856
1.7741124629974365,6.488060474395752,0.9772966504096985
1.712541103363037,6.4439311027526855,0.9733395576477051
1.6526618003845215,6.403006076812744,0.9698712229728699
1.5953150987625122,6.365095615386963,0.9668111205101013
1.5446492433547974,6.353063583374023,0.9677194952964783
1.4940649271011353,6.336716175079346,0.9679534435272217
1.4335341453552246,6.278804779052734,0.9612868428230286
0.32987114787101746,1.493812084197998,0.22920018434524536
0.32807016372680664,1.5375540256500244,0.2364330291748047
0.30697864294052124,1.4905391931533813,0.22971832752227783
0.2988305687904358,1.5038824081420898,0.2322935163974762
0.29125335812568665,1.5209717750549316,0.2354670614004135
0.28186240792274475,1.5304858684539795,0.23734134435653687
0.2696296274662018,1.5247418880462646,0.23683476448059082
0.25860312581062317,1.5265446901321411,0.23751714825630188
0.24112465977668762,1.4862914085388184,0.23164363205432892
0.2295781672000885,1.480205774307251,0.23109234869480133
0.22377923130989075,1.512220025062561,0.236506849527359
0.845483660697937,6.0050153732299805,0.9403544664382935
0.7997380495071411,5.991500377655029,0.9393253922462463
0.7524638772010803,5.958415508270264,0.9352487921714783
0.6048046350479126,5.074113368988037,0.7974178194999695
0.568617582321167,5.070275783538818,0.797818124294281
0.5425986647605896,5.162132263183594,0.813331127166748
0.39805468916893005,4.059502601623535,0.6402004957199097
0.37036770582199097,4.077488422393799,0.6434717774391174
0.34979310631752014,4.175988674163818,0.6594849228858948
0.3199777901172638,4.170505046844482,0.6591173410415649
0.2893659174442291,4.14940071105957,0.6563060283660889
0.26095056533813477,4.158883571624756,0.6583634614944458
0.4305971562862396,7.739328384399414,1.2260053157806396
0.37686389684677124,7.749743461608887,1.2279411554336548
0.32140153646469116,7.721236705780029,1.223768711090088
0.2666231393814087,7.700046539306641,1.220813274383545
0.2122829407453537,7.670747756958008,1.216625690460205
0.15726910531520844,7.637230396270752,1.2118337154388428
0.10382316261529922,7.614881992340088,1.2088602781295776
0.05071883276104927,7.607724666595459,1.2075115442276
-0.00227432232350111,7.5731940269470215,1.201859951019287
-0.05467238277196884,7.5344390869140625,1.195597767829895
-0.10766582190990448,7.510739803314209,1.1917827129364014
-0.15941353142261505,7.4905476570129395,1.1885836124420166
-0.2103416472673416,7.450716972351074,1.1823252439498901
-0.26170891523361206,7.441473007202148,1.1804468631744385
-0.3151707649230957,7.485891819000244,1.1868185997009277
-0.2651340961456299,5.406595230102539,0.8567191362380981
-0.3044184148311615,5.4239606857299805,0.8590559959411621
-0.3399585485458374,5.387166500091553,0.8528643250465393
-0.37689003348350525,5.377084255218506,0.8509454727172852
-0.4130263030529022,5.359086036682129,0.8476480841636658
-0.44679322838783264,5.317856788635254,0.8402934670448303
-0.42638587951660156,4.680704593658447,0.7389039993286133
-0.4515959918498993,4.604849338531494,0.7262752056121826
-0.4835895001888275,4.601774215698242,0.7251675128936768
-0.512982189655304,4.575464248657227,0.7204363942146301
-0.544315755367279,4.568130016326904,0.718731164932251
-0.5733755230903625,4.541487216949463,0.7135022878646851
-0.6045494675636292,4.537693023681641,0.7119062542915344
-0.6335541009902954,4.5183939933776855,0.7079144716262817
-0.6637396812438965,4.506506443023682,0.7051135301589966
-0.6938881278038025,4.4944024085998535,0.7023129463195801
-0.7207866907119751,4.459138870239258,0.6959189176559448
-0.7513616681098938,4.454392910003662,0.6939734220504761
-0.7771407961845398,4.422850608825684,0.6877585649490356
-0.8032178282737732,4.394958972930908,0.6821579337120056
-0.830669641494751,4.374452114105225,0.677734911441803
-0.7221461534500122,3.6641132831573486,0.5666615962982178
-0.7480618357658386,3.659184694290161,0.5648869872093201
-0.7731755971908569,3.654262065887451,0.5629337430000305
-0.9465785622596741,4.328519344329834,0.6652145981788635
-0.9777234792709351,4.329896926879883,0.6638647317886353
-1.004818081855774,4.3121771812438965,0.6596049070358276
-1.0317082405090332,4.2903265953063965,0.6547082662582397
-1.0615226030349731,4.283435821533203,0.6521596312522888
-1.0947712659835815,4.291435718536377,0.6516658067703247
-1.11600661277771,4.25445556640625,0.6441615223884583
-1.1448384523391724,4.247234344482422,0.6412061452865601
-1.1724656820297241,4.232129096984863,0.6370356678962708
-1.1998512744903564,4.216864585876465,0.6328845620155334
-1.224912405014038,4.193997383117676,0.6276327967643738
-1.2491321563720703,4.171191215515137,0.6221601963043213
-1.2750667333602905,4.155755519866943,0.6176479458808899
-1.302499771118164,4.143699645996094,0.6136342883110046
-1.3323193788528442,4.138787746429443,0.6106981635093689
-1.3575741052627563,4.11887264251709,0.6055598258972168
-1.3838515281677246,4.102468013763428,0.6009769439697266
-1.411661148071289,4.093541622161865,0.5971508622169495
-1.4392530918121338,4.0844855308532715,0.593285858631134
-1.4594630002975464,4.0532050132751465,0.5861839056015015
-1.4984067678451538,4.072559356689453,0.5863928198814392
-1.513174057006836,4.026337623596191,0.5771927833557129
-1.5436453819274902,4.023634910583496,0.5741416811943054
-1.567762017250061,4.006598472595215,0.5687991976737976
-1.5921937227249146,3.9892351627349854,0.5633951425552368
-1.6167148351669312,3.97162127494812,0.557965099811554
-1.6474809646606445,3.9679791927337646,0.5544740557670593
-1.6662248373031616,3.935539722442627,0.5469930171966553
-1.6986697912216187,3.939195156097412,0.544179379940033
-1.7254468202590942,3.928213357925415,0.5392988920211792
-1.7490193843841553,3.909952402114868,0.5334458947181702
-1.7667746543884277,3.877096652984619,0.5255530476570129
-1.8037071228027344,3.8863933086395264,0.5234043002128601
-1.8081884384155273,3.8293380737304688,0.5120352506637573
-1.834089756011963,3.8177108764648438,0.5067099928855896
-1.871963620185852,3.830240249633789,0.5045716166496277
-1.8987948894500732,3.817739963531494,0.49901965260505676
-1.913209080696106,3.78084397315979,0.490313321352005
-1.9453015327453613,3.7826426029205322,0.48633259534835815
-1.9703068733215332,3.770419120788574,0.4805549383163452
-1.9967368841171265,3.757267951965332,0.4744267761707306
-2.008366584777832,3.7165658473968506,0.4648658037185669
-1.7047425508499146,3.1044223308563232,0.3844768702983856
-1.717613697052002,3.0801939964294434,0.37753039598464966
-1.7305282354354858,3.0557632446289062,0.3705534338951111
-0.8374266624450684,1.4546382427215576,0.17435725033283234
-0.8554021716117859,1.4624989032745361,0.17325937747955322
-0.8689292669296265,1.4638763666152954,0.17127393186092377
-0.8825386762619019,1.4651213884353638,0.1692538559436798
-0.8847361207008362,1.445939064025879,0.1647326648235321
-0.8662437796592712,1.393727421760559,0.15649846196174622
-0.8960294127464294,1.4212937355041504,0.1571994572877884
-0.9012026190757751,1.4091284275054932,0.15343113243579865
-0.8984098434448242,1.3835079669952393,0.148085355758667
-0.9078017473220825,1.3777060508728027,0.1448654979467392
-0.9514109492301941,1.4238457679748535,0.1469084471464157
-2.3853323459625244,3.5184085369110107,0.3557360768318176
-1.1896116733551025,1.7287453413009644,0.17106032371520996
-1.2830381393432617,1.8397432565689087,0.17792779207229614
-1.3852380514144897,1.8787274360656738,0.16238193213939667
-1.3925542831420898,1.9782363176345825,-0.11336470395326614
-1.234052062034607,1.779234528541565,-0.10737020522356033
-1.135873556137085,1.745071291923523,-0.1251133233308792
-1.5663890838623047,2.563831090927124,-0.20891718566417694
-1.5295822620391846,2.5445685386657715,-0.2132447063922882
-1.435447335243225,2.4678900241851807,-0.21769024431705475
-1.3347387313842773,2.3718998432159424,-0.21914105117321014
-1.277535319328308,2.3096585273742676,-0.21817754209041595
-1.2314554452896118,2.2633955478668213,-0.21824240684509277
-1.191226601600647,2.227108955383301,-0.21904852986335754
-1.1422450542449951,2.1733031272888184,-0.21790891885757446
-1.1106841564178467,2.149785280227661,-0.21950988471508026
-1.0705832242965698,2.108654499053955,-0.21920935809612274
-1.025688886642456,2.0567641258239746,-0.2174586057662964
-0.9987096190452576,2.0392725467681885,-0.21919837594032288
-0.960729718208313,1.9967596530914307,-0.2180141657590866
-0.9249638319015503,1.957389235496521,-0.21700972318649292
-0.8943751454353333,1.9283654689788818,-0.2169492393732071
-0.8560764789581299,1.8813856840133667,-0.21476547420024872
-0.8396580219268799,1.8798506259918213,-0.21755540370941162
-0.7935836911201477,1.8106324672698975,-0.2123606652021408
-0.7835544347763062,1.823054313659668,-0.21657752990722656
-0.7584121227264404,1.7995984554290771,-0.21648932993412018
-0.7144017219543457,1.7292360067367554,-0.21060869097709656
-0.7079751491546631,1.748260736465454,-0.21545477211475372
-0.6896652579307556,1.738503336906433,-0.21668221056461334
-0.665973961353302,1.714087963104248,-0.21602118015289307
-0.6456353068351746,1.6966089010238647,-0.2161339819431305
-0.6212587356567383,1.6681239604949951,-0.2147955596446991
-0.6066380739212036,1.6648999452590942,-0.21652120351791382
-0.5973244905471802,1.6761504411697388,-0.22013592720031738
-0.5727975964546204,1.6433532238006592,-0.21789948642253876
-0.5524973273277283,1.6213159561157227,-0.21702426671981812
-0.5382750630378723,1.617601990699768,-0.21846061944961548
-0.5219340920448303,1.6063416004180908,-0.21882900595664978
-0.5082919001579285,1.6022686958312988,-0.2201334685087204
-0.487884521484375,1.5758812427520752,-0.21833617985248566
-0.47671887278556824,1.5789958238601685,-0.2204890102148056
-0.45893436670303345,1.5597643852233887,-0.21946410834789276
-0.44453826546669006,1.5515570640563965,-0.21998201310634613
-0.4274354577064514,1.5319745540618896,-0.21882131695747375
-0.4125976264476776,1.5197277069091797,-0.21861810982227325
-0.39986371994018555,1.5148640871047974,-0.21936023235321045
-0.38530880212783813,1.5024011135101318,-0.21898990869522095
-0.37274858355522156,1.49733304977417,-0.21969641745090485
-0.36046475172042847,1.4921233654022217,-0.22035333514213562
-0.3517036437988281,1.5019195079803467,-0.22306235134601593
-0.333404541015625,1.4701982736587524,-0.21959200501441956
-0.31978023052215576,1.457166075706482,-0.21887442469596863
-0.3110058903694153,1.4667307138442993,-0.22157496213912964
0.33249911665916443,1.462466835975647,-0.21852800250053406
0.35130074620246887,1.4505733251571655,-0.2142973095178604
0.36136123538017273,1.448347806930542,-0.2126159518957138
0.3752429187297821,1.4610421657562256,-0.21309638023376465
0.3874094486236572,1.4661198854446411,-0.21244555711746216
0.4049561619758606,1.4897135496139526,-0.2144266664981842
0.41741612553596497,1.4945731163024902,-0.213643416762352
0.4362960159778595,1.521687388420105,-0.21591448783874512
0.44466888904571533,1.5114754438400269,-0.21287254989147186
0.45747509598731995,1.51602041721344,-0.21190693974494934
0.4636911451816559,1.4982095956802368,-0.20780128240585327
0.488084614276886,1.539566993713379,-0.21176035702228546
0.5070788860321045,1.5622519254684448,-0.21308225393295288
0.5228875875473022,1.5736794471740723,-0.21280844509601593
0.5389038920402527,1.5849568843841553,-0.21248655021190643
0.5422512292861938,1.5595344305038452,-0.20717108249664307
0.5713670253753662,1.607149600982666,-0.21145080029964447
0.5798940062522888,1.5961731672286987,-0.20799338817596436
0.6113311052322388,1.6469225883483887,-0.2125120759010315
0.6172823905944824,1.6284596920013428,-0.2080097496509552
0.642471194267273,1.6606974601745605,-0.20988568663597107
0.6541516184806824,1.6564862728118896,-0.20706382393836975
0.6715684533119202,1.6666009426116943,-0.2060302346944809
0.7023717761039734,1.7088940143585205,-0.20887970924377441
0.7260862588882446,1.7330454587936401,-0.2093212604522705
0.7547624111175537,1.7676610946655273,-0.2109326422214508
0.7797854542732239,1.7910938262939453,-0.21101787686347961
0.808089017868042,1.8214675188064575,-0.21186864376068115
0.8205358386039734,1.816290020942688,-0.2084508091211319
0.8410782814025879,1.8286681175231934,-0.20702721178531647
0.8736987113952637,1.8653417825698853,-0.20819371938705444
0.902051568031311,1.8910452127456665,-0.20796482264995575
0.9420832991600037,1.9412254095077515,-0.21026511490345
0.967385470867157,1.9595633745193481,-0.20898282527923584
1.0020815134048462,1.9948495626449585,-0.20931494235992432
1.030154824256897,2.015942096710205,-0.20802950859069824
1.0742896795272827,2.068037748336792,-0.20973938703536987
1.1050336360931396,2.0919182300567627,-0.20833416283130646
1.1565676927566528,2.1531119346618652,-0.21043157577514648
1.2068612575531006,2.210442543029785,-0.21188899874687195
1.2463160753250122,2.2469656467437744,-0.21111540496349335
1.2847586870193481,2.27948260307312,-0.20971190929412842
1.3010491132736206,2.270719289779663,-0.2042793482542038
1.316393256187439,2.2623353004455566,-0.1989297866821289
1.3394862413406372,2.267324447631836,-0.194724440574646
1.3393702507019043,2.231595039367676,-0.1868380606174469
1.3506914377212524,2.2161004543304443,-0.18071714043617249
1.3779966831207275,2.227229356765747,-0.17663243412971497
1.4555615186691284,2.3171305656433105,-0.17843469977378845
1.545157551765442,2.422373056411743,-0.18082542717456818
1.6056289672851562,2.48132061958313,-0.17931494116783142
1.7744601964950562,2.7022552490234375,-0.18860651552677155
1.761338710784912,2.641328811645508,-0.17742784321308136
1.8027187585830688,2.665724754333496,-0.17213232815265656
1.8118702173233032,2.6411118507385254,-0.163411945104599
1.4245269298553467,2.0461204051971436,-0.1208219826221466
1.4422136545181274,2.0436177253723145,-0.11485933512449265
1.4518035650253296,2.0275967121124268,-0.10771172493696213
1.4655197858810425,2.018059015274048,-0.10085901618003845
1.4691882133483887,1.996368408203125,-0.09340338408946991
2.06575870513916,2.920977830886841,0.29581671953201294
2.289361000061035,3.2861640453338623,0.3414440155029297
2.3220925331115723,3.3854753971099854,0.3603546619415283
2.3209524154663086,3.4415855407714844,0.37500709295272827
2.3007006645202637,3.4634714126586914,0.38508450984954834
2.9158880710601807,4.4588494300842285,0.5054491758346558
3.0956640243530273,4.813567161560059,0.5558183193206787
1.6279675960540771,2.571674108505249,0.3020096719264984
1.61759614944458,2.59580135345459,0.3098706007003784
3.0573248863220215,4.989455699920654,0.6046296954154968
3.0012199878692627,4.981227874755859,0.6124808192253113
2.9759185314178467,5.01766300201416,0.6251838803291321
2.9633607864379883,5.077784538269043,0.640882134437561
2.9278833866119385,5.105920314788818,0.652441143989563
2.9068503379821777,5.156736850738525,0.6667165756225586
2.877884864807129,5.1894378662109375,0.6783335208892822
2.863028049468994,5.249459266662598,0.6935439705848694
2.836130380630493,5.293592929840088,0.7063565850257874
2.8100621700286865,5.341254711151123,0.7198293209075928
2.793705940246582,5.401047706604004,0.7345180511474609
2.7713663578033447,5.450473785400391,0.7479221224784851
2.763803482055664,5.535539150238037,0.7659156918525696
2.7257633209228516,5.561765670776367,0.7758108377456665
1.2180826663970947,2.5317909717559814,0.35596421360969543
1.1985595226287842,2.536268711090088,0.35928845405578613
1.1918210983276367,2.5688302516937256,0.36657094955444336
1.1663044691085815,2.562981605529785,0.3682002127170563
1.1535403728485107,2.5851993560791016,0.37388482689857483
2.5778703689575195,5.887895584106445,0.8569628596305847
2.5464727878570557,5.929882526397705,0.8685902953147888
2.5220746994018555,5.98960018157959,0.8826013207435608
2.4941859245300293,6.046245098114014,0.8958715796470642
2.461303949356079,6.091994762420654,0.9076250791549683
2.43664813041687,6.154943943023682,0.9218664169311523
2.403825521469116,6.199934959411621,0.9335693120956421
2.3763036727905273,6.259129047393799,0.9472701549530029
2.348037004470825,6.32242488861084,0.9611577987670898
2.314948558807373,6.374734401702881,0.9734895825386047
2.2862133979797363,6.437437057495117,0.9874117374420166
2.2566983699798584,6.500030517578125,1.0014317035675049
2.2284669876098633,6.565905570983887,1.0159964561462402
2.191894054412842,6.613902568817139,1.0272804498672485
2.160524606704712,6.680145263671875,1.0413984060287476
2.098151445388794,6.6504435539245605,1.0406123399734497
2.0314323902130127,6.601510047912598,1.0367451906204224
1.9729615449905396,6.573956489562988,1.036164402961731
1.9178229570388794,6.557185649871826,1.0370787382125854
1.8556597232818604,6.518049240112305,1.0339287519454956
1.7972521781921387,6.489533424377441,1.0324735641479492
1.733925461769104,6.4380035400390625,1.0273213386535645
1.6823077201843262,6.4269633293151855,1.0286322832107544
0.8268037438392639,3.2506837844848633,0.5218177437782288
1.5706148147583008,6.362294673919678,1.0239990949630737
0.7930569648742676,3.313965082168579,0.5346088409423828
1.4723596572875977,6.3527607917785645,1.027238368988037
1.4106897115707397,6.29097843170166,1.0196843147277832
1.3479582071304321,6.213322162628174,1.0094786882400513
1.3014194965362549,6.206848621368408,1.0108484029769897
1.2636325359344482,6.245577335357666,1.019222378730774
1.2021448612213135,6.166835308074951,1.0081357955932617
1.1574653387069702,6.174861431121826,1.0112910270690918
0.2666866183280945,1.4801231622695923,0.2428489625453949
0.23196399211883545,1.4621978998184204,0.24118490517139435
0.8666727542877197,6.017159938812256,0.995084285736084
0.8221398591995239,6.007469177246094,0.9948192834854126
0.775830864906311,5.978276252746582,0.9913454651832581
0.6342039108276367,5.16832160949707,0.8582508563995361
0.5798919200897217,5.015369415283203,0.833908200263977
0.5584861040115356,5.15327787399292,0.8575245141983032
0.40955308079719543,4.044979572296143,0.6736626029014587
0.38544341921806335,4.093625545501709,0.6823654174804688
0.3596065044403076,4.126749515533447,0.6885197162628174
0.334911972284317,4.178908348083496,0.6978949904441833
0.3047392666339874,4.173311710357666,0.6976792216300964
0.2744998037815094,4.159869194030762,0.6956778168678284
0.24758997559547424,4.200059413909912,0.7026780247688293
0.40350478887557983,7.772184371948242,1.300881266593933
0.3478720188140869,7.739988803863525,1.2961279153823853
0.29237204790115356,7.718974590301514,1.2933151721954346
0.2375664860010147,7.682138442993164,1.2878972291946411
0.18310384452342987,7.641160011291504,1.281265377998352
0.12962706387043,7.626818656921387,1.27881920337677
0.07628162205219269,7.604400634765625,1.2750805616378784
0.02237446792423725,7.57005500793457,1.2694051265716553
-0.030110526829957962,7.554595470428467,1.2669563293457031
