X,Y,Z
1.6019567251205444,4.065338134765625,-0.21768321096897125
1.6268833875656128,4.047152519226074,-0.2147853970527649
1.654199481010437,4.036200046539307,-0.21221475303173065
1.68195378780365,4.024851322174072,-0.20959563553333282
1.7252243757247925,4.049079418182373,-0.20879904925823212
2.0159051418304443,4.642029762268066,-0.23698610067367554
2.0518460273742676,4.639220714569092,-0.2343328446149826
2.0781919956207275,4.614803314208984,-0.23060137033462524
2.110577344894409,4.600248336791992,-0.22726647555828094
2.1392908096313477,4.578515529632568,-0.22361360490322113
2.169961929321289,4.564223766326904,-0.22022056579589844
2.2038848400115967,4.55677604675293,-0.21715819835662842
2.231670618057251,4.5346999168396,-0.2133413553237915
2.267220973968506,4.525930881500244,-0.21007384359836578
2.293940782546997,4.503854751586914,-0.20614631474018097
2.327498197555542,4.495562553405762,-0.20284660160541534
2.3637006282806396,4.490037441253662,-0.19958780705928802
1.7353928089141846,3.2416634559631348,-0.14187832176685333
1.7494089603424072,3.2164793014526367,-0.13850466907024384
1.735196590423584,3.1398086547851562,-0.13293339312076569
1.7377009391784668,3.093845844268799,-0.1286894530057907
1.795691728591919,3.1463639736175537,-0.12849082052707672
1.3407505750656128,2.3137848377227783,-0.09270013868808746
1.2947533130645752,2.2005844116210938,-0.08643462508916855
0.9536906480789185,1.5949894189834595,-0.06130490452051163
0.9703895449638367,1.5986632108688354,-0.06009986624121666
0.9746914505958557,1.5823626518249512,-0.05813971534371376
0.9855270981788635,1.5756973028182983,-0.05647946894168854
1.0004136562347412,1.575606107711792,-0.055023808032274246
1.021386742591858,1.5854262113571167,-0.05385610833764076
1.0213664770126343,1.5622237920761108,-0.05154036357998848
1.027720332145691,1.5487459897994995,-0.049517977982759476
1.0420160293579102,1.5486431121826172,-0.0479140467941761
1.063378930091858,1.5578093528747559,-0.04650656506419182
2.5552077293395996,3.6884117126464844,-0.1058344841003418
2.5831358432769775,3.6785871982574463,-0.10130977630615234
2.612640142440796,3.667421579360962,-0.09644530713558197
2.6366310119628906,3.650344133377075,-0.09130227565765381
2.6368772983551025,3.6020026206970215,-0.08533446490764618
2.670710325241089,3.5965964794158936,-0.08000528067350388
2.625452756881714,3.6811609268188477,0.13242997229099274
2.5978896617889404,3.700460433959961,0.13802450895309448
2.5799672603607178,3.731780767440796,0.14377105236053467
1.069116234779358,1.572259545326233,0.06246911734342575
1.049192190170288,1.5667835474014282,0.0639742761850357
1.0376747846603394,1.574353814125061,0.06594501435756683
1.029645323753357,1.5888434648513794,0.06822941452264786
1.0184327363967896,1.5959750413894653,0.07005023211240768
1.0026363134384155,1.596655249595642,0.07155603170394897
0.982333242893219,1.5908242464065552,0.07274061441421509
0.9830868244171143,1.617748737335205,0.07535478472709656
0.963363528251648,1.611329197883606,0.07640533149242401
0.9927642345428467,1.689101219177246,0.08143645524978638
1.3337594270706177,2.3078908920288086,0.1130596175789833
1.801905632019043,3.168503999710083,0.15753073990345
1.7502888441085815,3.1302642822265625,0.1578376144170761
1.7622755765914917,3.208244800567627,0.16402548551559448
1.759555459022522,3.258460283279419,0.16876396536827087
1.7733612060546875,3.3394510746002197,0.17511166632175446
2.3570451736450195,4.518054485321045,0.23971252143383026
2.3306472301483154,4.549074649810791,0.2441442310810089
2.293933391571045,4.5587687492370605,0.24740466475486755
2.2585763931274414,4.567495822906494,0.25050392746925354
2.23207950592041,4.597670555114746,0.25467246770858765
2.194831132888794,4.606739044189453,0.25764915347099304
2.168199062347412,4.636381149291992,0.2617417275905609
2.1358959674835205,4.651170253753662,0.26493269205093384
2.095768690109253,4.652097702026367,0.26729968190193176
2.071237564086914,4.688493728637695,0.2715921700000763
2.0184195041656494,4.660330772399902,0.27214670181274414
1.74333918094635,4.103326797485352,0.24146375060081482
1.7116641998291016,4.108040809631348,0.24358823895454407
1.6783766746520996,4.11318302154541,0.24560517072677612
1.6571004390716553,4.1468682289123535,0.24930799007415771
1.6216683387756348,4.143961429595947,0.25080132484436035
1.5983699560165405,4.169575214385986,0.2539859414100647
1.569068193435669,4.180552005767822,0.2562580108642578
1.5355961322784424,4.184520244598389,0.2580006420612335
1.5053346157073975,4.19536828994751,0.2601516842842102
1.4781314134597778,4.213164806365967,0.2627224028110504
1.4538005590438843,4.237986087799072,0.26572635769844055
1.423938274383545,4.247984409332275,0.26775914430618286
1.3903666734695435,4.250763893127441,0.2692357897758484
1.3668922185897827,4.28281307220459,0.2725607752799988
1.336503028869629,4.292273044586182,0.27445080876350403
1.3042880296707153,4.293903827667236,0.27583011984825134
1.2785698175430298,4.317782402038574,0.27860820293426514
1.250792145729065,4.337975978851318,0.28100866079330444
1.2212505340576172,4.354374408721924,0.2831997871398926
1.192309021949768,4.370361804962158,0.2853553295135498
1.163854718208313,4.385985374450684,0.2874815762042999
1.1332931518554688,4.393874168395996,0.28911665081977844
1.103841781616211,4.409307956695557,0.2910645604133606
1.0791361331939697,4.447418212890625,0.29454585909843445
1.0456116199493408,4.447314262390137,0.2954985499382019
1.0163697004318237,4.461989879608154,0.29742470383644104
0.988652229309082,4.484085559844971,0.299864798784256
0.9554286599159241,4.483224391937256,0.3006533086299896
0.8163090944290161,3.9706766605377197,0.2669717073440552
0.7540030479431152,3.8042473793029785,0.25644397735595703
0.7287020683288574,3.817042589187622,0.25797557830810547
0.8330961465835571,4.53497838973999,0.3072974383831024
0.8068816065788269,4.571301460266113,0.3105592429637909
0.7778723239898682,4.599978446960449,0.31312504410743713
0.7440595626831055,4.597605228424072,0.31358492374420166
0.712701141834259,4.610390663146973,0.3150944709777832
0.6817470788955688,4.62288236618042,0.3165907859802246
0.6522789597511292,4.646744251251221,0.31888484954833984
0.6222764849662781,4.6743879318237305,0.3213483691215515
0.5912894606590271,4.694070339202881,0.3231435716152191
0.5582166910171509,4.698067665100098,0.32387644052505493
0.5252581238746643,4.701816558837891,0.32460615038871765
0.49575522541999817,4.736316204071045,0.32747453451156616
0.46428248286247253,4.7551164627075195,0.3292781114578247
0.4314662218093872,4.769907474517822,0.3306409418582916
0.3992525637149811,4.788318634033203,0.33221471309661865
0.3662085235118866,4.798741817474365,0.33325204253196716
0.3337705433368683,4.816697597503662,0.33482858538627625
0.300761342048645,4.826645851135254,0.3358649015426636
0.26746776700019836,4.844182014465332,0.3374444246292114
0.23473995923995972,4.869268894195557,0.33931782841682434
0.2015141397714615,4.890240669250488,0.34092214703559875
0.16760697960853577,4.899301052093506,0.3417135775089264
0.13394461572170258,4.915912628173828,0.3430483639240265
0.09945902973413467,4.9323039054870605,0.3443891108036041
0.06544164568185806,4.956241607666016,0.3462089002132416
0.030985461547970772,4.968268871307373,0.34701064229011536
-0.003592961933463812,4.9917449951171875,0.34862878918647766
-0.03842763230204582,4.999393463134766,0.3491581976413727
-0.07415845990180969,5.022375106811523,0.3507758378982544
-0.10926318913698196,5.0295305252075195,0.35130515694618225
-0.14443707466125488,5.036448955535889,0.35172316431999207
-0.17994248867034912,5.050922393798828,0.35252898931503296
-0.2154899686574936,5.061251163482666,0.35306137800216675
-0.2509966492652893,5.067438125610352,0.3533211648464203
-0.29101288318634033,5.139477252960205,0.35818415880203247
-0.32504791021347046,5.110124111175537,0.35599926114082336
-0.30254948139190674,4.287582874298096,0.2984561622142792
-0.3303951919078827,4.26210880279541,0.2963661551475525
-0.36245250701904297,4.290821552276611,0.29805824160575867
-0.3912665843963623,4.272671222686768,0.2965022027492523
-0.4163558781147003,4.223343849182129,0.2928054630756378
-0.44041144847869873,4.1699957847595215,0.2888498306274414
-0.46261411905288696,4.108814239501953,0.28420117497444153
-0.4853307604789734,4.059144496917725,0.28033167123794556
-0.5083555579185486,4.013164043426514,0.27673250436782837
-0.5330262780189514,3.986416816711426,0.27448466420173645
-0.5525404214859009,3.924777030944824,0.2698543667793274
-0.5729174017906189,3.874629497528076,0.2660277485847473
-0.5935172438621521,3.83215069770813,0.2625635862350464
-0.6170884370803833,3.8087430000305176,0.2604182958602905
-0.6379662752151489,3.7737388610839844,0.2575085759162903
-0.6560196876525879,3.7232167720794678,0.2535560131072998
-0.6755843162536621,3.6841139793395996,0.2504028379917145
-0.6952113509178162,3.648782730102539,0.24745813012123108
-0.7148640155792236,3.6172420978546143,0.24466925859451294
-0.7337520122528076,3.5817010402679443,0.24162080883979797
-0.7502203583717346,3.538517951965332,0.2380894273519516
-0.7672702670097351,3.499018907546997,0.23482215404510498
-0.7898710370063782,3.4860575199127197,0.2333536148071289
-0.8030394911766052,3.4350996017456055,0.22923120856285095
-0.8203818202018738,3.403012275695801,0.22633963823318481
-0.8379071354866028,3.374718427658081,0.2237330675125122
-0.8573013544082642,3.353825330734253,0.22162671387195587
-0.8706867694854736,3.310154676437378,0.21803124248981476
-0.8904866576194763,3.29284405708313,0.2161545306444168
-0.9069356322288513,3.26416277885437,0.21342405676841736
-0.9268890023231506,3.250525951385498,0.21171079576015472
-0.9359025955200195,3.199306011199951,0.20756712555885315
-0.9558742046356201,3.185335874557495,0.20584800839424133
-0.9677003622055054,3.1451475620269775,0.20245389640331268
-0.9846635460853577,3.123617172241211,0.20013806223869324
-0.9961801767349243,3.087289810180664,0.1968943178653717
-1.0133352279663086,3.0694704055786133,0.194853276014328
-1.0346148014068604,3.0624501705169678,0.19348497688770294
-1.0406428575515747,3.011028289794922,0.18933047354221344
-1.0611166954040527,3.0039637088775635,0.18789836764335632
-1.0737478733062744,2.974702835083008,0.18502624332904816
-1.0991305112838745,2.9821388721466064,0.18446768820285797
-1.1073459386825562,2.941718339920044,0.1809362769126892
-1.1194041967391968,2.9121882915496826,0.17809490859508514
-1.1164274215698242,2.8465006351470947,0.1730068027973175
-1.132919430732727,2.831674098968506,0.17097260057926178
-1.1445358991622925,2.8060433864593506,0.16832193732261658
-1.1578683853149414,2.7837741374969482,0.16586342453956604
-1.1589035987854004,2.73266863822937,0.16170985996723175
-1.1371113061904907,2.6317782402038574,0.15460164844989777
-1.154926061630249,2.6241049766540527,0.15296632051467896
-1.1723740100860596,2.6164495944976807,0.15135996043682098
-1.1987063884735107,2.6260440349578857,0.15069441497325897
-1.2054729461669922,2.5929579734802246,0.14759165048599243
-1.244371771812439,2.630831241607666,0.14841456711292267
-1.2722641229629517,2.6435608863830566,0.14776960015296936
-1.266171932220459,2.5859057903289795,0.14320392906665802
-1.2807196378707886,2.570119619369507,0.14095519483089447
-1.3016825914382935,2.5684211254119873,0.13943928480148315
-1.298999309539795,2.5216987133026123,0.1354595571756363
-1.3048396110534668,2.492387294769287,0.13245171308517456
-1.3077484369277954,2.4556570053100586,0.12899081408977509
-1.3189326524734497,2.4364676475524902,0.12648841738700867
-1.331080675125122,2.4210526943206787,0.12413627654314041
-1.343083143234253,2.4055817127227783,0.12179532647132874
-1.355867624282837,2.389535427093506,0.11934775114059448
-1.3842686414718628,2.400372266769409,0.11818553507328033
-1.3920128345489502,2.3779237270355225,0.11536741256713867
-1.39555025100708,2.3487539291381836,0.11225080490112305
-1.4119031429290771,2.33906888961792,0.10996856540441513
-1.4276970624923706,2.3295698165893555,0.10766883939504623
-1.4306288957595825,2.300344228744507,0.10440154373645782
-1.4375919103622437,2.277662992477417,0.10143949836492538
-1.451381802558899,2.2643747329711914,0.09881839156150818
-1.4575512409210205,2.2419137954711914,0.09577453136444092
-1.4762412309646606,2.2391135692596436,0.09357760101556778
-1.4746242761611938,2.2028043270111084,0.08980400860309601
-1.4626846313476562,2.154458522796631,0.08561335504055023
-1.471820592880249,2.138857841491699,0.0827573612332344
-1.4798531532287598,2.1191461086273193,0.0795506164431572
-1.4937001466751099,2.1095147132873535,0.07668201625347137
-1.4981412887573242,2.0872724056243896,0.07330159842967987
-1.5080201625823975,2.070601463317871,0.06993716955184937
-1.5022999048233032,2.0361642837524414,0.06599728018045425
-1.493232250213623,2.091160297393799,-0.0617489293217659
-1.4872280359268188,2.1144561767578125,-0.0655803233385086
-1.4953604936599731,2.1610453128814697,-0.07020300626754761
-1.4932152032852173,2.1908316612243652,-0.07410971075296402
-1.481217384338379,2.208258628845215,-0.07758954167366028
-1.4690182209014893,2.2256410121917725,-0.08102595806121826
-1.4680595397949219,2.2588260173797607,-0.08494333177804947
-1.4489294290542603,2.2663960456848145,-0.0878654420375824
-1.4385850429534912,2.2867088317871094,-0.09121643751859665
-1.416382908821106,2.2866475582122803,-0.09364543855190277
-1.4175876379013062,2.3270232677459717,-0.09773160517215729
-1.4002526998519897,2.337373971939087,-0.10058776289224625
-1.3878475427627563,2.3537118434906006,-0.10356926918029785
-1.382249116897583,2.3839950561523438,-0.10716566443443298
-1.3529771566390991,2.373687267303467,-0.10893750190734863
-1.3440197706222534,2.396569013595581,-0.11210410296916962
-1.3302870988845825,2.4130146503448486,-0.11500418931245804
-1.323691487312317,2.443183183670044,-0.11852377653121948
-1.3025238513946533,2.445573091506958,-0.12065916508436203
-1.290866732597351,2.4648499488830566,-0.12358742207288742
-1.3050167560577393,2.5365233421325684,-0.12915734946727753
-1.2948988676071167,2.563453197479248,-0.13255035877227783
-1.2873032093048096,2.5933165550231934,-0.1360142081975937
-1.275903582572937,2.6161949634552,-0.1391211301088333
-1.277083158493042,2.66749906539917,-0.14372940361499786
-1.2211883068084717,2.5988845825195312,-0.14185714721679688
-1.216068148612976,2.635575294494629,-0.14563779532909393
-1.1939061880111694,2.637000322341919,-0.1475011259317398
-1.1636713743209839,2.620509147644043,-0.14825907349586487
-1.1617896556854248,2.6680893898010254,-0.15265727043151855
-1.1523287296295166,2.6975371837615967,-0.15600231289863586
-1.159009337425232,2.7665882110595703,-0.16167767345905304
-1.1446233987808228,2.789318561553955,-0.1646435260772705
-1.1274160146713257,2.8046035766601562,-0.16716261208057404
-1.1162949800491333,2.834092140197754,-0.1705109179019928
-1.1175799369812012,2.8962562084198,-0.1758657991886139
-1.107817530632019,2.9332563877105713,-0.17964725196361542
-1.0863683223724365,2.9411423206329346,-0.1816903054714203
-1.0695464611053467,2.959620714187622,-0.18435141444206238
-1.0645151138305664,3.0109894275665283,-0.18907661736011505
-1.0432175397872925,3.0183141231536865,-0.19098906219005585
-1.0266374349594116,3.040342330932617,-0.19379271566867828
-1.0118963718414307,3.069800615310669,-0.1971193253993988
-0.9916685819625854,3.0803720951080322,-0.19919966161251068
-0.977135956287384,3.1094233989715576,-0.2024802416563034
-0.9686727523803711,3.160922050476074,-0.20712459087371826
-0.9517145752906799,3.1863038539886475,-0.2100939154624939
-0.9379720687866211,3.2227561473846436,-0.21380867063999176
-0.9193792343139648,3.2442023754119873,-0.21656444668769836
-0.9006953835487366,3.265505790710449,-0.219230517745018
-0.8835375905036926,3.2943029403686523,-0.2223527729511261
-0.8650602102279663,3.3192386627197266,-0.22523920238018036
-0.8495577573776245,3.3553073406219482,-0.22888877987861633
-0.8350894451141357,3.398975372314453,-0.23311133682727814
-0.8093120455741882,3.3970913887023926,-0.23405753076076508
-0.7914013862609863,3.4292140007019043,-0.23733624815940857
-0.774013102054596,3.465034008026123,-0.24089661240577698
-0.7564235329627991,3.5007193088531494,-0.24446682631969452
-0.740290641784668,3.5478665828704834,-0.24887652695178986
-0.71981281042099,3.5758426189422607,-0.25175997614860535
-0.7026554346084595,3.6228373050689697,-0.25601306557655334
-0.6814807057380676,3.650576591491699,-0.25892820954322815
-0.6643316745758057,3.701162815093994,-0.26348528265953064
-0.6413686871528625,3.7248916625976562,-0.2661251127719879
-0.6202394366264343,3.7599871158599854,-0.26941949129104614
-0.601076602935791,3.810361862182617,-0.2738383114337921
-0.5796281099319458,3.8490703105926514,-0.27744531631469727
-0.5583207607269287,3.8915042877197266,-0.2813471555709839
-0.536418080329895,3.93776535987854,-0.2854903042316437
-0.5137379765510559,3.980010986328125,-0.2891981601715088
-0.4909273684024811,4.026000499725342,-0.29320648312568665
-0.4698946177959442,4.091195583343506,-0.2986412048339844
-0.44314274191856384,4.109786510467529,-0.3006972372531891
-0.4195694923400879,4.163105487823486,-0.30522263050079346
-0.394684374332428,4.216357707977295,-0.30961695313453674
-0.36518046259880066,4.21896505355835,-0.31030556559562683
-0.33480650186538696,4.209709644317627,-0.3101342022418976
-0.3074711561203003,4.239085674285889,-0.3128245770931244
-0.32881850004196167,5.018553256988525,-0.37085866928100586
-0.29513049125671387,5.055731296539307,-0.3739446997642517
-0.25640347599983215,4.991495132446289,-0.36953964829444885
-0.22126591205596924,4.9853410720825195,-0.36944660544395447
-0.1856289505958557,4.959471702575684,-0.367906391620636
-0.15123674273490906,4.964510440826416,-0.36855843663215637
-0.11598237603902817,4.961549282073975,-0.3684443533420563
-0.08119569718837738,4.946643829345703,-0.36745887994766235
-0.046739161014556885,4.939284801483154,-0.3670511245727539
-0.01233013067394495,4.908313751220703,-0.36490511894226074
0.02174602635204792,4.900486469268799,-0.36438244581222534
0.05617467686533928,4.884641170501709,-0.3630613088607788
0.08996839821338654,4.8763556480407715,-0.3623226284980774
0.12355076521635056,4.863941669464111,-0.361295223236084
0.15671460330486298,4.8396124839782715,-0.35940051078796387
0.18947789072990417,4.815068244934082,-0.3574124872684479
0.22185148298740387,4.790321350097656,-0.35521405935287476
0.25530585646629333,4.780887603759766,-0.35416465997695923
0.2878178358078003,4.767366409301758,-0.3528371751308441
0.32041606307029724,4.757512092590332,-0.3517993688583374
0.3511204123497009,4.7241339683532715,-0.3489557206630707
0.3831741511821747,4.713881492614746,-0.3476211726665497
0.4136196970939636,4.68007755279541,-0.34456145763397217
0.4467795789241791,4.684911727905273,-0.34437504410743713
0.47737133502960205,4.662368297576904,-0.3421921133995056
0.5079973936080933,4.643515110015869,-0.34022581577301025
0.5418700575828552,4.655449867248535,-0.3403198719024658
0.5707666873931885,4.620669364929199,-0.33700457215309143
0.6007418036460876,4.601227283477783,-0.33484333753585815
0.6306735277175903,4.581564903259277,-0.33268260955810547
0.6613584756851196,4.5694427490234375,-0.3310103118419647
0.6940411925315857,4.572570323944092,-0.3302517831325531
0.716988205909729,4.509954929351807,-0.3247535526752472
0.7520374059677124,4.5280375480651855,-0.3251039385795593
0.7821675539016724,4.515115737915039,-0.3232371509075165
0.8079266548156738,4.479005336761475,-0.31964433193206787
0.7065762877464294,3.7687339782714844,-0.267971009016037
0.7280035614967346,3.7409303188323975,-0.26502662897109985
0.7574262022972107,3.7510826587677,-0.26476234197616577
0.9199165105819702,4.398097038269043,-0.30930444598197937
0.9544515013694763,4.410787582397461,-0.3089700937271118
0.9863840341567993,4.41187047958374,-0.30768948793411255
1.0149073600769043,4.397523403167725,-0.3053455948829651
1.0449919700622559,4.386594295501709,-0.3032214045524597
1.0754984617233276,4.3793416023254395,-0.30138513445854187
1.0999621152877808,4.349278450012207,-0.29786232113838196
1.1277527809143066,4.334239959716797,-0.29530102014541626
1.153409719467163,4.3114848136901855,-0.2922339141368866
1.1838632822036743,4.303364276885986,-0.29013097286224365
1.2117140293121338,4.287643909454346,-0.28755423426628113
1.2345912456512451,4.256915092468262,-0.28381356596946716
1.268122673034668,4.2634687423706055,-0.28253746032714844
1.2950481176376343,4.2473673820495605,-0.2797662019729614
1.3204442262649536,4.223359107971191,-0.2764405608177185
1.3485277891159058,4.21053409576416,-0.27386683225631714
1.374740481376648,4.194005966186523,-0.27089112997055054
1.4007569551467896,4.1773247718811035,-0.26792705059051514
1.4320652484893799,4.1751017570495605,-0.26587653160095215
1.4559293985366821,4.150476455688477,-0.26239803433418274
1.4822721481323242,4.133026123046875,-0.2592656910419464
1.5049537420272827,4.108381748199463,-0.2556622326374054
1.5355333089828491,4.105544567108154,-0.2534336447715759
1.5613371133804321,4.087622165679932,-0.25022992491722107
1.5925509929656982,4.084104537963867,-0.24791219830513
1.6177817583084106,4.06596040725708,-0.24452075362205505
1.6364864110946655,4.033398628234863,-0.24032960832118988
1.6701557636260986,4.036637306213379,-0.23825213313102722
1.6952120065689087,4.01788854598999,-0.2348545789718628
1.9644333124160767,4.569046974182129,-0.2643539309501648
2.034865617752075,4.644995212554932,-0.2658865749835968
2.0632376670837402,4.62412691116333,-0.261863112449646
2.087311029434204,4.592100143432617,-0.2571692168712616
2.1252458095550537,4.59207820892334,-0.25420400500297546
2.152695655822754,4.57086181640625,-0.2499854415655136
2.1840295791625977,4.556186199188232,-0.24607092142105103
2.215738296508789,4.541064262390137,-0.242096409201622
2.246840715408325,4.525968074798584,-0.23809190094470978
2.2770466804504395,4.511058807373047,-0.23403990268707275
2.3072729110717773,4.495884418487549,-0.2299714833498001
2.3440167903900146,4.490262508392334,-0.2262631207704544
2.3824844360351562,4.487869739532471,-0.22260059416294098
1.745314598083496,3.2355895042419434,-0.15792040526866913
1.7633363008499146,3.2170584201812744,-0.1544208973646164
1.7457897663116455,3.1332664489746094,-0.14777743816375732
1.7590841054916382,3.1080451011657715,-0.14393973350524902
1.812974452972412,3.1538453102111816,-0.143294557929039
1.3522425889968872,2.3157026767730713,-0.10313466191291809
0.9619776010513306,1.6215132474899292,-0.07071902602910995
0.9585355520248413,1.5918140411376953,-0.06791604310274124
0.973147451877594,1.5921571254730225,-0.06640181690454483
0.980279266834259,1.5786716938018799,-0.06421102583408356
0.9907388687133789,1.5722044706344604,-0.06233072653412819
1.005161166191101,1.572372555732727,-0.06070442497730255
1.022384524345398,1.5752872228622437,-0.05906791612505913
1.0265007019042969,1.5586766004562378,-0.05667758733034134
1.0324188470840454,1.5454539060592651,-0.05439139902591705
1.0495586395263672,1.5481127500534058,-0.05259125307202339
1.0575944185256958,1.537969946861267,-0.05031725764274597
2.5657684803009033,3.6807749271392822,-0.11575224995613098
2.604745388031006,3.6822080612182617,-0.1106855645775795
2.6334147453308105,3.6715447902679443,-0.10509807616472244
2.6343815326690674,3.622838258743286,-0.09837649762630463
2.640246629714966,3.5799813270568848,-0.09153776615858078
2.6115005016326904,3.6902127265930176,0.15453411638736725
2.610884189605713,3.7476284503936768,0.16223633289337158
1.0614711046218872,1.5487998723983765,0.06918514519929886
1.0591374635696411,1.569165587425232,0.0720834732055664
1.0428658723831177,1.5705580711364746,0.07406371086835861
1.0353015661239624,1.5847810506820679,0.07660572975873947
1.032637357711792,1.6050118207931519,0.07933491468429565
1.0038217306137085,1.5862587690353394,0.08008525520563126
0.985463559627533,1.583851933479309,0.08163386583328247
0.9886603951454163,1.6138839721679688,0.08472269773483276
0.9687491655349731,1.6076184511184692,0.08588720858097076
0.9566400051116943,1.6147538423538208,0.08773990720510483
1.3498214483261108,2.315883159637451,0.12783367931842804
1.8279788494110107,3.188519239425659,0.17871421575546265
1.7849316596984863,3.167922258377075,0.1801019310951233
1.746160626411438,3.153642177581787,0.18180055916309357
1.7707653045654297,3.2512199878692627,0.18983951210975647
1.7549058198928833,3.277336359024048,0.19375431537628174
2.3855373859405518,4.536660671234131,0.2714565694332123
2.3485546112060547,4.546885013580322,0.27523574233055115
2.309713125228882,4.549005508422852,0.2783643901348114
2.2774064540863037,4.565023899078369,0.2822834551334381
2.2437281608581543,4.58143424987793,0.28610759973526
2.2127063274383545,4.604908466339111,0.2904430627822876
2.17718768119812,4.612955093383789,0.2936234772205353
2.1449153423309326,4.6278181076049805,0.297237366437912
2.1142373085021973,4.650259017944336,0.3011697232723236
2.0801684856414795,4.665372371673584,0.30464744567871094
2.049985647201538,4.6870036125183105,0.30850690603256226
1.9874347448349,4.633143424987793,0.30737292766571045
1.7335878610610962,4.122303009033203,0.27548879384994507
1.6946094036102295,4.113005638122559,0.27678337693214417
1.661693811416626,4.117823123931885,0.2790290117263794
1.6443157196044922,4.158170223236084,0.2836303114891052
1.6091697216033936,4.1549973487854,0.2853083312511444
1.584787368774414,4.180866718292236,0.2887939512729645
1.5490516424179077,4.177443027496338,0.2902408838272095
1.5242258310317993,4.202983856201172,0.2937072217464447
1.4948619604110718,4.213350772857666,0.29608023166656494
1.467463493347168,4.231052875518799,0.2990154027938843
1.4369655847549438,4.2413530349731445,0.30120688676834106
1.4112212657928467,4.266255855560303,0.30444076657295227
1.380519151687622,4.276134490966797,0.3066176772117615
1.350679636001587,4.285501480102539,0.3087286651134491
1.325995683670044,4.313436985015869,0.3122233748435974
1.2940703630447388,4.318913459777832,0.3138984441757202
1.2641396522521973,4.33168888092041,0.3160872757434845
1.2373270988464355,4.3554887771606445,0.31910061836242676
1.211013913154602,4.3789143562316895,0.32207947969436646
1.1744322776794434,4.364523887634277,0.3222852945327759
1.1469804048538208,4.387797832489014,0.32517555356025696
1.1232595443725586,4.425971031188965,0.32908475399017334
1.089779257774353,4.42618465423584,0.33019232749938965
1.0604381561279297,4.4411940574646,0.33240407705307007
1.0365513563156128,4.478704452514648,0.33631351590156555
1.0046968460083008,4.485836029052734,0.33793705701828003
0.9728120565414429,4.492753028869629,0.3393285870552063
0.9392411708831787,4.491826057434082,0.340144544839859
0.7625529170036316,3.7803795337677,0.2870258092880249
0.7384721040725708,3.796976089477539,0.2890423536300659
0.728722870349884,3.893920421600342,0.29722583293914795
0.8212586641311646,4.565942764282227,0.34929418563842773
0.7915353178977966,4.5869140625,0.35160142183303833
0.7603312134742737,4.599998474121094,0.353324294090271
0.7304270267486572,4.620529651641846,0.3556351661682129
0.6976714730262756,4.6255011558532715,0.3567749857902527
0.6671352386474609,4.641722679138184,0.3587833046913147
0.6354614496231079,4.653960704803467,0.36023563146591187
0.6056469678878784,4.681432723999023,0.36288851499557495
0.5735396146774292,4.6932549476623535,0.3643505275249481
0.5407835245132446,4.697075843811035,0.36520394682884216
0.5108256340026855,4.7316999435424805,0.36848315596580505
0.47937217354774475,4.75058650970459,0.3704695701599121
0.4459533989429474,4.7537946701049805,0.3710578978061676
0.4142441153526306,4.776162624359131,0.37316104769706726
0.3818846046924591,4.794439315795898,0.37496626377105713
0.34740233421325684,4.789205551147461,0.37495413422584534
0.31563451886177063,4.814774990081787,0.37736639380455017
0.2834327220916748,4.84014892578125,0.3796430230140686
0.2503945827484131,4.857544898986816,0.3811699450016022
0.21730035543441772,4.878603935241699,0.3830043077468872
0.1838100701570511,4.911132335662842,0.3857630491256714
0.14962737262248993,4.912268161773682,0.3860720694065094
0.11585403233766556,4.928737640380859,0.3876052796840668
0.08176379650831223,4.944990158081055,0.3889572024345398
0.04742885008454323,4.9610137939453125,0.39021214842796326
0.012304198928177357,4.97290563583374,0.3911614716053009
-0.02246151491999626,5.004021644592285,0.39364203810691833
-0.057481568306684494,5.019317626953125,0.39489758014678955
-0.0925208181142807,5.026581764221191,0.3955404758453369
-0.1278173327445984,5.04140567779541,0.39655908942222595
-0.1630609929561615,5.048202991485596,0.39690086245536804
-0.19917848706245422,5.058620452880859,0.3975428640842438
-0.23434045910835266,5.057134628295898,0.39727121591567993
-0.2724458873271942,5.109845161437988,0.40127453207969666
-0.3084312379360199,5.115623950958252,0.40161025524139404
-0.2892380952835083,4.301324367523193,0.3373636305332184
-0.31775033473968506,4.275920867919922,0.33504518866539
-0.3466629683971405,4.265896797180176,0.3339560329914093
-0.378364622592926,4.286697864532471,0.3352932333946228
-0.4022458493709564,4.22197151184082,0.32995930314064026
-0.4280416667461395,4.18424129486084,0.3267379701137543
-0.4523165822029114,4.134733200073242,0.32238584756851196
-0.47403255105018616,4.073546886444092,0.31715965270996094
-0.49925944209098816,4.047042369842529,0.3146571218967438
-0.5217466354370117,4.001058578491211,0.3106602132320404
-0.5452520251274109,3.9665274620056152,0.3075745403766632
-0.5658886432647705,3.9125430583953857,0.3029283285140991
-0.5868279337882996,3.8701376914978027,0.2990410625934601
-0.6054202318191528,3.8160831928253174,0.294280469417572
-0.6277182698249817,3.78886079788208,0.2916148900985718
-0.6447392702102661,3.7307422161102295,0.28658849000930786
-0.6686099767684937,3.714733839035034,0.2848195731639862
-0.684578537940979,3.6564338207244873,0.27971896529197693
-0.7066065073013306,3.6364500522613525,0.2774929106235504
-0.7275887727737427,3.6125242710113525,0.2749865651130676
-0.7444407343864441,3.569385290145874,0.2710374593734741
-0.7520041465759277,3.484231948852539,0.2639245092868805
-0.7766085863113403,3.478909969329834,0.26287660002708435
-0.7933313250541687,3.4432497024536133,0.25939232110977173
-0.8104435205459595,3.4113290309906006,0.25619056820869446
-0.831789493560791,3.3982558250427246,0.2544240653514862
-0.849541962146759,3.369849681854248,0.25151652097702026
-0.8694754838943481,3.3487548828125,0.24915644526481628
-0.8845347762107849,3.3126509189605713,0.24565857648849487
-0.9018487930297852,3.2878832817077637,0.24290446937084198
-0.913586437702179,3.244279384613037,0.23878556489944458
-0.9357109665870667,3.2380669116973877,0.23743532598018646
-0.9442012310028076,3.1828994750976562,0.2324877679347992
-0.9640244841575623,3.168905258178711,0.2305915206670761
-0.9738898873329163,3.1252007484436035,0.2264081984758377
-0.9902211427688599,3.103813648223877,0.22385276854038239
-1.0063360929489136,3.082338333129883,0.22130942344665527
-1.0305359363555908,3.0826621055603027,0.22030018270015717
-1.0406078100204468,3.0423364639282227,0.21641972661018372
-1.0639042854309082,3.042639970779419,0.2153562605381012
-1.0764925479888916,3.013502836227417,0.21216534078121185
-1.0833934545516968,2.9696855545043945,0.20797240734100342
-1.0983821153640747,2.9476561546325684,0.2053082287311554
-1.112296462059021,2.9217050075531006,0.2023622691631317
-1.118141531944275,2.8778088092803955,0.19815479218959808
-1.125908374786377,2.841378927230835,0.1944279819726944
-1.13764226436615,2.8158066272735596,0.19147150218486786
-1.1510404348373413,2.793616771697998,0.18873760104179382
-1.1391128301620483,2.7100207805633545,0.1818656325340271
-1.145258903503418,2.6736490726470947,0.17817023396492004
-1.15687096118927,2.6517584323883057,0.175409197807312
-1.187237024307251,2.6725916862487793,0.17547518014907837
-1.2088974714279175,2.6715500354766846,0.17405091226100922
-1.1967874765396118,2.5957531929016113,0.16776137053966522
-1.2323840856552124,2.6266303062438965,0.16832034289836884
-1.2666001319885254,2.6537086963653564,0.16858063638210297
-1.2741402387619019,2.624236822128296,0.16523447632789612
-1.2630164623260498,2.5559868812561035,0.15944331884384155
-1.3036261796951294,2.5925278663635254,0.1601492166519165
-1.2905454635620117,2.524949312210083,0.15438877046108246
-1.3035821914672852,2.5095834732055664,0.1518709361553192
-1.29898202419281,2.459282636642456,0.14720748364925385
-1.3142489194869995,2.4468605518341064,0.1448291689157486
-1.3266196250915527,2.431422472000122,0.1421997845172882
-1.3352775573730469,2.4089834690093994,0.13914857804775238
-1.351648211479187,2.399967908859253,0.13685669004917145
-1.3605828285217285,2.3770816326141357,0.133749321103096
-1.3761557340621948,2.3682329654693604,0.1313810497522354
-1.3717349767684937,2.325737714767456,0.12716741859912872
-1.4039193391799927,2.3430564403533936,0.1261090785264969
-1.4161365032196045,2.3266968727111816,0.12321051210165024
-1.422992467880249,2.3043196201324463,0.11993761360645294
-1.4275585412979126,2.278632640838623,0.11652273684740067
-1.4350345134735107,2.255589723587036,0.11312121152877808
-1.454604148864746,2.252455472946167,0.11066214740276337
-1.4647608995437622,2.2366724014282227,0.10759855806827545
-1.453865885734558,2.1878838539123535,0.10288877040147781
-1.4905991554260254,2.210402488708496,0.10145065933465958
-1.4957510232925415,2.188166856765747,0.09789101779460907
-1.477085828781128,2.1300644874572754,0.09264297038316727
-1.4871504306793213,2.1136474609375,0.08917010575532913
-1.5003995895385742,2.104396104812622,0.08597169071435928
-1.496124267578125,2.069150924682617,0.08157183974981308
-1.5051217079162598,2.0530760288238525,0.07784197479486465
-1.508440375328064,2.0313467979431152,0.07391694188117981
-1.524487018585205,2.1501433849334717,-0.07147599011659622
-1.5038347244262695,2.1549878120422363,-0.07520487904548645
-1.4966837167739868,2.1787989139556885,-0.07948324084281921
-1.4806896448135376,2.1895623207092285,-0.08318708091974258
-1.4769080877304077,2.220163106918335,-0.08761043846607208
-1.461076021194458,2.2304763793945312,-0.09104550629854202
-1.4574519395828247,2.2606253623962402,-0.09526116400957108
-1.4362072944641113,2.264796257019043,-0.098397396504879
-1.4262428283691406,2.2847588062286377,-0.10206850618124008
-1.4177700281143188,2.308225631713867,-0.1058533787727356
-1.396509051322937,2.311887502670288,-0.10873333364725113
-1.3961597681045532,2.3483541011810303,-0.11303555965423584
-1.3832331895828247,2.364891767501831,-0.11638332158327103
-1.3731708526611328,2.3886184692382812,-0.12013844400644302
-1.3483716249465942,2.3846402168273926,-0.12237799167633057
-1.331547737121582,2.393927574157715,-0.12523630261421204
-1.32510244846344,2.424067258834839,-0.12916702032089233
-1.3147317171096802,2.4472861289978027,-0.13275060057640076
-1.3064351081848145,2.4736568927764893,-0.13647344708442688
-1.3210664987564087,2.5451138019561768,-0.14268572628498077
-1.284739375114441,2.5197739601135254,-0.14347422122955322
-1.2894049882888794,2.574084520339966,-0.14876927435398102
-1.2782931327819824,2.5968687534332275,-0.15224845707416534
-1.2625919580459595,2.6130475997924805,-0.15534821152687073
-1.2368899583816528,2.607896566390991,-0.15713109076023102
-1.2150945663452148,2.6093661785125732,-0.15925203263759613
-1.2001001834869385,2.6247217655181885,-0.1621982604265213
-1.1843456029891968,2.6402676105499268,-0.16508527100086212
-1.1510910987854004,2.6164824962615967,-0.16549427807331085
-1.161605954170227,2.69256591796875,-0.1722429394721985
-1.1625474691390991,2.7471344470977783,-0.17764876782894135
-1.1547579765319824,2.7840652465820312,-0.18189014494419098
-1.131724238395691,2.7849366664886475,-0.1837850958108902
-1.1263773441314697,2.8289570808410645,-0.18852519989013672
-1.121899962425232,2.8766579627990723,-0.1935674101114273
-1.1125810146331787,2.913529634475708,-0.19782015681266785
-1.0944339036941528,2.9285659790039062,-0.2005767822265625
-1.0802339315414429,2.954439163208008,-0.2040935456752777
-1.0647965669631958,2.9764480590820312,-0.2073407918214798
-1.0588513612747192,3.0280065536499023,-0.21267177164554596
-1.0371031761169434,3.0353739261627197,-0.21480916440486908
-1.0264302492141724,3.07584810256958,-0.21931655704975128
-1.0073390007019043,3.0902016162872314,-0.22195248305797577
-0.9834665060043335,3.089552402496338,-0.22351431846618652
-0.9703841805458069,3.1261980533599854,-0.22768571972846985
-0.9616910219192505,3.177626132965088,-0.23293684422969818
-0.9425492286682129,3.1953999996185303,-0.23574885725975037
-0.928895890712738,3.2316951751708984,-0.23993752896785736
-0.9125417470932007,3.2604904174804688,-0.24354206025600433
-0.8965724110603333,3.2930548191070557,-0.24733546376228333
-0.8787814378738403,3.321892261505127,-0.2509056031703949
-0.8593397736549377,3.342928647994995,-0.25387659668922424
-0.8416431546211243,3.371384620666504,-0.25743263959884644
-0.8251874446868896,3.4073925018310547,-0.2614603340625763
-0.8036704659461975,3.424407958984375,-0.2640010118484497
-0.7806895971298218,3.4375782012939453,-0.2662859261035919
-0.7617669105529785,3.465625524520874,-0.26970353722572327
-0.7497784495353699,3.527860403060913,-0.2758236229419708
-0.7311615943908691,3.5634639263153076,-0.2796854078769684
-0.7105616927146912,3.591336727142334,-0.2829662263393402
-0.6943387389183044,3.6459410190582275,-0.28840577602386475
-0.6745474934577942,3.6812145709991455,-0.29232585430145264
-0.6528943777084351,3.708728313446045,-0.2956136465072632
-0.6338670253753662,3.755375385284424,-0.30025890469551086
-0.6123833656311035,3.790395975112915,-0.3040064573287964
-0.5889243483543396,3.817648410797119,-0.30717140436172485
-0.5685976147651672,3.863924026489258,-0.31187528371810913
-0.5481520295143127,3.913966655731201,-0.31682929396629333
-0.5263375639915466,3.96008563041687,-0.32132458686828613
-0.5024453401565552,3.9944980144500732,-0.3249000608921051
-0.48049449920654297,4.048086643218994,-0.3300642669200897
-0.4570000469684601,4.097731113433838,-0.33495381474494934
-0.4319952726364136,4.135596752166748,-0.33876892924308777
-0.40754732489585876,4.184954643249512,-0.34338584542274475
-0.3789268434047699,4.195394515991211,-0.3448337912559509
-0.35190486907958984,4.225028038024902,-0.34787893295288086
-0.3199433386325836,4.200170040130615,-0.34646281599998474
-0.29201772809028625,4.221661567687988,-0.34872671961784363
-0.2618132531642914,4.211898326873779,-0.3482810854911804
-0.2261851727962494,4.100855827331543,-0.33946654200553894
-0.1976221203804016,4.10228967666626,-0.3399682343006134
-0.1685868501663208,4.103542804718018,-0.3404780626296997
-0.14024300873279572,4.112371921539307,-0.34145790338516235
-0.1344914734363556,4.957672595977783,-0.41178756952285767
-0.09947138279676437,4.935118198394775,-0.41007620096206665
-0.06508012115955353,4.935672283172607,-0.41030415892601013
-0.030027927830815315,4.912633895874023,-0.40859293937683105
0.004153039772063494,4.897149562835693,-0.4073294401168823
0.03819940239191055,4.897012710571289,-0.40720856189727783
0.07194190472364426,4.873283386230469,-0.4051458537578583
0.1050601601600647,4.837648868560791,-0.40211397409439087
0.13909471035003662,4.852376937866211,-0.40328824520111084
0.1727856695652008,4.835740089416504,-0.40167081356048584
0.20534639060497284,4.811127662658691,-0.39926013350486755
0.2379181981086731,4.7940754890441895,-0.3974993824958801
0.270346462726593,4.776798248291016,-0.39574047923088074
0.3018464744091034,4.747644901275635,-0.3930191993713379
0.3342720568180084,4.729918003082275,-0.39105024933815
0.3652307987213135,4.7042670249938965,-0.3883058726787567
0.39847618341445923,4.709449768066406,-0.38812732696533203
0.4298018515110016,4.691123962402344,-0.3860287666320801
0.4616563618183136,4.680339813232422,-0.3845723271369934
0.49301424622535706,4.66156530380249,-0.3822711706161499
0.5221894383430481,4.631054401397705,-0.37891948223114014
0.5551731586456299,4.6351518630981445,-0.3784201443195343
0.586358904838562,4.6235527992248535,-0.37665554881095886
0.6143104434013367,4.588589668273926,-0.3730123043060303
0.6443968415260315,4.568842887878418,-0.3704063594341278
0.6730338335037231,4.54514741897583,-0.36741572618484497
0.7031655311584473,4.53281831741333,-0.3653676211833954
0.7359238266944885,4.535621166229248,-0.3645477294921875
0.7649297118186951,4.515137672424316,-0.3618731200695038
0.7934059500694275,4.494536876678467,-0.35898876190185547
0.8192641735076904,4.458363056182861,-0.3547903895378113
0.7171054482460022,3.756521463394165,-0.29786473512649536
0.7402063012123108,3.736274003982544,-0.2951933741569519
0.7693276405334473,3.7464067935943604,-0.2949365973472595
0.9367526173591614,4.407864093780518,-0.3455337882041931
0.9751025438308716,4.435596942901611,-0.3461712598800659
1.0004280805587769,4.406148433685303,-0.3423841595649719
1.0248345136642456,4.372692108154297,-0.3383025527000427
1.0588606595993042,4.38076639175415,-0.33743590116500854
1.0869792699813843,4.366021633148193,-0.3345693349838257
1.1135467290878296,4.343414306640625,-0.3310943841934204
1.1414834260940552,4.328272819519043,-0.3282339572906494
1.1695830821990967,4.312866687774658,-0.3253568708896637
1.1952260732650757,4.289834022521973,-0.3218521773815155
1.2288212776184082,4.296733379364014,-0.320441871881485
1.2543429136276245,4.273303508758545,-0.3167486786842346
1.2794259786605835,4.249775409698486,-0.3130882978439331
1.3090448379516602,4.2409348487854,-0.31051841378211975
1.335850715637207,4.224591255187988,-0.30727410316467285
1.3622527122497559,4.208161354064941,-0.3039732873439789
1.3939599990844727,4.206179618835449,-0.30168911814689636
1.4119689464569092,4.16334867477417,-0.2965003550052643
1.4434752464294434,4.160982131958008,-0.2942006587982178
1.4665460586547852,4.136579990386963,-0.29017218947410583
1.4973156452178955,4.1340436935424805,-0.2876950800418854
1.520352840423584,4.10921573638916,-0.28365564346313477
1.5549671649932861,4.113131046295166,-0.28154662251472473
1.5774728059768677,4.088057518005371,-0.2774006128311157
1.6022948026657104,4.0702314376831055,-0.27369850873947144
1.629943609237671,4.059454441070557,-0.2704791724681854
1.6552631855010986,4.040990352630615,-0.26670166850090027
1.6806774139404297,4.022258758544922,-0.2628434896469116
1.720058560371399,4.039726257324219,-0.2612645626068115
2.0064890384674072,4.625661849975586,-0.2960403561592102
2.044769048690796,4.626187801361084,-0.2928761839866638
2.073745012283325,4.604978084564209,-0.2883249521255493
2.1052443981170654,4.590931415557861,-0.28401872515678406
2.136086940765381,4.57692289352417,-0.27978605031967163
2.167541027069092,4.562374591827393,-0.2754557430744171
2.1992790699005127,4.547423839569092,-0.271072119474411
2.2298645973205566,4.532770156860352,-0.2665870785713196
2.2607007026672363,4.51773738861084,-0.2620165944099426
2.2952773571014404,4.509291648864746,-0.25779804587364197
2.3284752368927,4.496899604797363,-0.25330615043640137
2.362182378768921,4.488372325897217,-0.24892278015613556
1.7333576679229736,3.241029739379883,-0.176910400390625
1.7482415437698364,3.2154653072357178,-0.17259390652179718
1.7349936962127686,3.1383728981018066,-0.16549994051456451
1.7290382385253906,3.0793392658233643,-0.15946003794670105
1.776558518409729,3.1154046058654785,-0.1583435982465744
1.336441159248352,2.306248426437378,-0.11489202082157135
1.298582673072815,2.206467390060425,-0.10766386240720749
0.9589825868606567,1.6048285961151123,-0.07661274820566177
0.9698681235313416,1.5983693599700928,-0.07458328455686569
0.9809383749961853,1.5916959047317505,-0.07249937951564789
0.9913396835327148,1.5853327512741089,-0.07040993124246597
0.9955617785453796,1.5689252614974976,-0.0678647980093956
1.0130013227462769,1.5717697143554688,-0.06603037565946579
1.01687490940094,1.5553839206695557,-0.06341267377138138
1.0334839820861816,1.5585603713989258,-0.061579570174217224
1.0443099737167358,1.551419973373413,-0.059199023991823196
1.0478062629699707,1.5349881649017334,-0.05646592378616333
2.5448966026306152,3.675767421722412,-0.12996028363704681
2.5793886184692383,3.6709654331207275,-0.1242324560880661
2.611706256866455,3.667440891265869,-0.11849400401115417
2.6406149864196777,3.6565234661102295,-0.11222250014543533
2.616481065750122,3.5728750228881836,-0.1035393700003624
2.683117628097534,3.6161231994628906,-0.0985168069601059
2.6291916370391846,3.6865015029907227,0.17111879587173462
2.6054012775421143,3.712568521499634,0.17835025489330292
2.581876039505005,3.738133192062378,0.18533611297607422
1.0602751970291138,1.5585908889770508,0.0794878751039505
1.0612351894378662,1.586055874824524,0.08308739960193634
1.0281585454940796,1.5610438585281372,0.08380911499261856
1.0337308645248413,1.5945647954940796,0.08760771155357361
1.0215152502059937,1.6022875308990479,0.08995991945266724
0.9973582029342651,1.5897395610809326,0.09106914699077606
0.9902840852737427,1.6032116413116455,0.09357825666666031
0.9822023510932922,1.6171871423721313,0.09608817100524902
0.9619136452674866,1.6110624074935913,0.09740936011075974
0.9664382338523865,1.644533634185791,0.10101067274808884
1.3408855199813843,2.320080280303955,0.14466683566570282
1.8069928884506226,3.181136131286621,0.2012586146593094
1.755462408065796,3.142788887023926,0.2015799731016159
1.753737211227417,3.1925601959228516,0.20750999450683594
1.765397310256958,3.2703568935394287,0.21519142389297485
1.7593145370483398,3.317608594894409,0.22093604505062103
2.368138313293457,4.543569087982178,0.30604028701782227
2.3327696323394775,4.552766799926758,0.3100414276123047
2.2987189292907715,4.569752216339111,0.31445980072021484
2.2717506885528564,4.600318908691406,0.31974923610687256
2.2284722328186035,4.595163822174072,0.32247260212898254
2.199712038040161,4.61735200881958,0.32703596353530884
2.163146495819092,4.625707149505615,0.3305102288722992
2.1356329917907715,4.65535306930542,0.33544793725013733
2.0978658199310303,4.663660526275635,0.3388983905315399
2.0715689659118652,4.692176342010498,0.34367138147354126
2.0230538845062256,4.670581817626953,0.3447522222995758
1.7437338829040527,4.10740852355957,0.30535051226615906
1.7106919288635254,4.112609386444092,0.30791348218917847
1.6808502674102783,4.124664783477783,0.31098470091819763
1.657854437828064,4.150526523590088,0.31503650546073914
1.6283513307571411,4.161970615386963,0.31791695952415466
1.5981413125991821,4.173452377319336,0.3206820487976074
1.56784987449646,4.184713363647461,0.32344698905944824
1.53777277469635,4.195647716522217,0.32618507742881775
1.5085034370422363,4.206052780151367,0.32884278893470764
1.481146216392517,4.22382116317749,0.3319728672504425
1.4531604051589966,4.241573810577393,0.33501338958740234
1.4200125932693481,4.244377136230469,0.33689263463020325
1.3943872451782227,4.269063472747803,0.34051668643951416
1.3669705390930176,4.285908222198486,0.34349432587623596
1.33897066116333,4.302713394165039,0.3463776707649231
1.3091506958007812,4.3157758712768555,0.348839670419693
1.2825227975845337,4.339834690093994,0.3522146940231323
1.2517971992492676,4.348623752593994,0.3543507158756256
1.2251323461532593,4.372215270996094,0.3577195107936859
1.1944835186004639,4.380517959594727,0.3597871959209442
1.1651567220687866,4.396313667297363,0.3622758984565735
1.135622262954712,4.411922454833984,0.3647734522819519
1.1060514450073242,4.427300453186035,0.3672698140144348
