X,Y,Z
-2.41780424118042,5.643618106842041,0.7352766394615173
-2.4823529720306396,5.688389301300049,0.7366526126861572
-3.918923854827881,8.812390327453613,1.1340715885162354
-2.521923065185547,5.5663743019104,0.7118422985076904
-4.14786958694458,8.992622375488281,1.1418825387954712
-2.5754432678222656,5.487929344177246,0.6919438242912292
-2.625838041305542,5.4993157386779785,0.6883957386016846
-2.661012649536133,5.474671840667725,0.6801526546478271
-2.6890347003936768,5.4358954429626465,0.6702197790145874
-2.7117862701416016,5.390790939331055,0.6590042114257812
-2.720992088317871,5.321734428405762,0.6450636982917786
-4.984005451202393,9.587925910949707,1.1520129442214966
-2.756188154220581,5.213382720947266,0.6206886172294617
-2.8030645847320557,5.215762138366699,0.6151057481765747
-1.1729363203048706,2.1488349437713623,0.250884473323822
-1.1684865951538086,2.1073262691497803,0.24350355565547943
-2.5018975734710693,4.439443111419678,0.5074008703231812
-2.5368587970733643,4.42937707901001,0.5006470680236816
-6.0052714347839355,10.329548835754395,1.1536451578140259
-6.104360580444336,10.345632553100586,1.141419768333435
-1.2557424306869507,2.094972848892212,0.2280818074941635
-2.9232935905456543,4.800960540771484,0.5156219601631165
-2.9242167472839355,4.732929706573486,0.5010294318199158
-2.9776980876922607,4.751033782958984,0.4955560863018036
-2.9895575046539307,4.69854211807251,0.4822859764099121
-3.0356130599975586,4.69779109954834,0.47406789660453796
-3.0465574264526367,4.649888038635254,0.4609823226928711
-3.0595083236694336,4.605032920837402,0.4482188820838928
-3.0462327003479004,4.516578674316406,0.43069759011268616
-3.0895636081695557,4.516427516937256,0.4215606153011322
-3.1055808067321777,4.47805118560791,0.40858712792396545
-2.8226122856140137,4.011460781097412,0.3570098578929901
-2.845078945159912,3.9869472980499268,0.34556469321250916
-2.895221471786499,4.004643440246582,0.3375946581363678
-2.9366745948791504,4.004392147064209,0.3270444869995117
-2.9329097270965576,3.9451746940612793,0.3113830089569092
-2.4778802394866943,3.495840072631836,-0.18779951333999634
-2.4396886825561523,3.4934616088867188,-0.1979932337999344
-2.4039297103881836,3.498589515686035,-0.20854809880256653
-2.3278822898864746,3.441187620162964,-0.2146909087896347
-2.2661330699920654,3.4021310806274414,-0.22120951116085052
-2.203991651535034,3.3630616664886475,-0.22745367884635925
-2.1673521995544434,3.3583450317382812,-0.23530833423137665
-2.1426279544830322,3.3735203742980957,-0.2444760501384735
-2.1124942302703857,3.382596254348755,-0.2533298432826996
-1.2740201950073242,2.071899175643921,-0.1597260981798172
-2.0720596313476562,3.424436569213867,-0.2714623808860779
-2.058478593826294,3.459162712097168,-0.28168171644210815
-2.0475919246673584,3.496579170227051,-0.2919008135795593
-2.0104928016662598,3.4903900623321533,-0.29853183031082153
-1.2053444385528564,2.1284425258636475,-0.1862773299217224
-2.5788280963897705,4.630579471588135,-0.4141939878463745
-2.551785707473755,4.657937526702881,-0.42535099387168884
-2.532550811767578,4.702889442443848,-0.4380882978439331
-2.5045900344848633,4.734482288360596,-0.449815571308136
-2.481924057006836,4.771796703338623,-0.4616692364215851
-2.453303098678589,4.798728942871094,-0.472541868686676
-2.4321298599243164,4.843378067016602,-0.4851158559322357
-2.4038729667663574,4.873836040496826,-0.4962889552116394
-2.385899305343628,4.924922943115234,-0.5095705986022949
-2.3523194789886475,4.944370269775391,-0.5194171071052551
-2.32949161529541,4.988523960113525,-0.5318127870559692
-1.5210380554199219,3.3183844089508057,-0.35883578658103943
-1.4976521730422974,3.32834529876709,-0.3648984134197235
-1.4706392288208008,3.3312151432037354,-0.3700934052467346
-1.453771948814392,3.3591184616088867,-0.37811216711997986
-1.4571024179458618,3.4331090450286865,-0.39129769802093506
-1.4374338388442993,3.453343629837036,-0.39840832352638245
-1.4186697006225586,3.477208375930786,-0.40586212277412415
-1.3964996337890625,3.493865966796875,-0.4124300181865692
-1.3824435472488403,3.532139778137207,-0.4216569662094116
-1.3339762687683105,3.4794721603393555,-0.4198600947856903
-1.3161123991012573,3.506345272064209,-0.4274979829788208
-1.735079288482666,4.724357604980469,-0.5817368030548096
-1.9964916706085205,5.5572710037231445,-0.691013753414154
-1.0388351678848267,2.9571752548217773,-0.3712824285030365
-1.0079268217086792,2.934523105621338,-0.37186354398727417
-0.9758732318878174,2.9080278873443604,-0.37172457575798035
-0.9502850770950317,2.899655342102051,-0.3738681674003601
-0.9252173900604248,2.890963077545166,-0.3759016990661621
-0.831843912601471,2.6638622283935547,-0.34932851791381836
-0.7733996510505676,2.5394976139068604,-0.33557453751564026
-0.7641667127609253,2.574216842651367,-0.34274721145629883
-0.7481604218482971,2.586549997329712,-0.34697389602661133
-0.7520543336868286,2.669599771499634,-0.36077818274497986
-0.7393209338188171,2.6968278884887695,-0.3669958710670471
-0.7178165912628174,2.694190263748169,-0.3691004514694214
-0.711345911026001,2.747511386871338,-0.37887638807296753
-0.6798253655433655,2.7031898498535156,-0.3751790523529053
-0.6682313680648804,2.7375502586364746,-0.3823591470718384
-0.6515660285949707,2.7531120777130127,-0.3866995573043823
-0.6369558572769165,2.7799580097198486,-0.39271068572998047
-0.6224811673164368,2.8066272735595703,-0.3986983597278595
-0.6044849157333374,2.8180761337280273,-0.40255972743034363
-0.5901546478271484,2.8484013080596924,-0.40894201397895813
-0.5731180310249329,2.867300033569336,-0.4136098325252533
-0.5569837093353271,2.893744945526123,-0.41944435238838196
-0.5424442887306213,2.9276113510131836,-0.42636018991470337
-0.5233762860298157,2.9385745525360107,-0.42994242906570435
-0.5060195922851562,2.9609107971191406,-0.4348851144313812
-0.4889994263648987,2.9869561195373535,-0.4404177963733673
-0.47134873270988464,3.01294207572937,-0.4460136294364929
-0.45605042576789856,3.054053783416748,-0.45387229323387146
-0.4363059997558594,3.0683507919311523,-0.45757603645324707
-0.41894254088401794,3.101694107055664,-0.46397557854652405
-0.39919665455818176,3.1196038722991943,-0.46810880303382874
-0.3793216645717621,3.137373924255371,-0.47225138545036316
-0.36189281940460205,3.181920289993286,-0.480501264333725
-0.34129953384399414,3.199517011642456,-0.4842628538608551
-0.32047387957572937,3.216981887817383,-0.488014280796051
-0.30265146493911743,3.26891827583313,-0.49704039096832275
-0.28181517124176025,3.2938177585601807,-0.5020054578781128
-0.26236602663993835,3.3455810546875,-0.5109739899635315
-0.24009579420089722,3.3625857830047607,-0.5143312811851501
-0.2175733894109726,3.379441738128662,-0.5176989436149597
-0.19629234075546265,3.419266939163208,-0.5246186256408691
-0.1729120910167694,3.428104877471924,-0.5268204212188721
-0.15014468133449554,3.463853359222412,-0.5328472852706909
-0.12687210738658905,3.4878835678100586,-0.536934494972229
-0.10327219218015671,3.5117554664611816,-0.5410286784172058
-0.0798368826508522,3.554762601852417,-0.5481041669845581
-0.055839721113443375,3.601473093032837,-0.5557705760002136
-0.03722222521901131,4.416326999664307,-0.6814644932746887
-0.00652350066229701,4.42419958114624,-0.6826609969139099
0.02385985292494297,4.354648113250732,-0.6719436645507812
0.05399559065699577,4.342795372009277,-0.6701616644859314
0.08017922937870026,4.133918762207031,-0.6377629637718201
0.11084183305501938,4.206683158874512,-0.6484589576721191
0.1398497074842453,4.182737827301025,-0.6442632079124451
0.16717170178890228,4.139326572418213,-0.6371176242828369
0.19667008519172668,4.1535844802856445,-0.6388818025588989
0.2325880527496338,4.283368110656738,-0.6579554677009583
0.25640833377838135,4.185493469238281,-0.6419135332107544
0.28490766882896423,4.168361663818359,-0.6382955312728882
0.3112901449203491,4.131810665130615,-0.6317615509033203
0.3406575918197632,4.1374382972717285,-0.631659984588623
0.3758959472179413,4.208339214324951,-0.6409764885902405
0.40732088685035706,4.228977203369141,-0.642633855342865
0.5202857255935669,5.029271125793457,-0.7624819278717041
0.5544212460517883,5.018186092376709,-0.7591038346290588
0.580702543258667,4.941697597503662,-0.7455770969390869
0.616341769695282,4.949490547180176,-0.7444450855255127
0.5271682143211365,4.006990432739258,-0.60084068775177
0.5534605383872986,3.9881956577301025,-0.5961707830429077
0.580116868019104,3.976942777633667,-0.5927016139030457
0.6041934490203857,3.9503121376037598,-0.586524486541748
0.6297388076782227,3.934999465942383,-0.5819854140281677
0.6532515287399292,3.9080705642700195,-0.5757707953453064
0.6830896139144897,3.9190807342529297,-0.5751754641532898
0.7108412981033325,3.914584159851074,-0.5721595287322998
0.7321574091911316,3.8796627521514893,-0.56440269947052
0.7575151324272156,3.8673908710479736,-0.5599908828735352
0.7729141116142273,3.8056395053863525,-0.5484671592712402
0.8050364851951599,3.8271217346191406,-0.548983633518219
0.8246423006057739,3.787842273712158,-0.5404642820358276
0.8508572578430176,3.7825698852539062,-0.5367411971092224
0.8735668063163757,3.762028455734253,-0.5308855175971985
0.8962088823318481,3.741307497024536,-0.5250338315963745
0.92039954662323,3.7279841899871826,-0.5202157497406006
0.9465981721878052,3.7220025062561035,-0.5160157084465027
0.9723203778266907,3.715937376022339,-0.5118852853775024
0.9961937069892883,3.702160596847534,-0.5066978335380554
1.0200077295303345,3.6882035732269287,-0.5015126466751099
1.0423859357833862,3.670457124710083,-0.4956171214580536
1.0681813955307007,3.663651704788208,-0.49102360010147095
1.0846816301345825,3.627061367034912,-0.4825437366962433
1.107791781425476,3.612565517425537,-0.47702765464782715
1.1306794881820679,3.597946882247925,-0.4714670479297638
1.1483726501464844,3.5685436725616455,-0.46374839544296265
1.1807057857513428,3.5831139087677,-0.4616982042789459
1.198263168334961,3.5533628463745117,-0.4539850354194641
1.2408117055892944,3.59684157371521,-0.45560964941978455
1.2449567317962646,3.5303146839141846,-0.44308704137802124
1.2652629613876343,3.5113613605499268,-0.43658363819122314
1.309730887413025,3.5577523708343506,-0.43813326954841614
1.3378387689590454,3.5562362670898438,-0.43361279368400574
1.6339021921157837,4.254122734069824,-0.5134448409080505
1.6631213426589966,4.243587493896484,-0.5067682266235352
1.69239342212677,4.232796669006348,-0.5000620484352112
1.7205594778060913,4.218032360076904,-0.4928346574306488
1.7355142831802368,4.1706743240356445,-0.4816928207874298
1.7731192111968994,4.180960178375244,-0.4771658778190613
1.7986713647842407,4.162365436553955,-0.4693337082862854
1.8278340101242065,4.150446891784668,-0.462155282497406
1.8504258394241333,4.1241888999938965,-0.4533863067626953
1.8790110349655151,4.112061500549316,-0.4459073841571808
1.9004664421081543,4.085836410522461,-0.4370466470718384
1.919167160987854,4.05208683013916,-0.42727017402648926
1.9508428573608398,4.046359062194824,-0.4204723834991455
1.9749201536178589,4.026790142059326,-0.4120948612689972
2.0062506198883057,4.020762920379639,-0.4050089120864868
2.022139549255371,3.983063220977783,-0.3946862518787384
2.0462961196899414,3.962726593017578,-0.38611283898353577
2.0730814933776855,3.949549436569214,-0.37816354632377625
2.103644609451294,3.942943811416626,-0.37079790234565735
2.120173692703247,3.908295154571533,-0.36063143610954285
2.147519826889038,3.8941054344177246,-0.352227121591568
2.1299197673797607,3.802147626876831,-0.3370077610015869
2.167603015899658,3.8084373474121094,-0.33046311140060425
2.1787047386169434,3.7668678760528564,-0.3196471035480499
2.200085401535034,3.746098279953003,-0.31061115860939026
2.2334938049316406,3.7451441287994385,-0.30308523774147034
2.251692295074463,3.7167303562164307,-0.2930985391139984
2.2690165042877197,3.688579559326172,-0.28317782282829285
2.3141322135925293,3.70715594291687,-0.276781290769577
2.3270680904388428,3.672064781188965,-0.26608604192733765
2.353055238723755,3.656151294708252,-0.25650885701179504
2.377084255218506,3.6412227153778076,-0.2471368908882141
2.3931334018707275,3.6126396656036377,-0.23662030696868896
2.4140784740448,3.5899226665496826,-0.2262193113565445
2.459477424621582,3.6069092750549316,-0.21826055645942688
2.4576001167297363,3.552018880844116,-0.20550362765789032
2.4775936603546143,3.529170513153076,-0.19454821944236755
2.5319433212280273,3.5582292079925537,-0.18635544180870056
2.5288331508636475,3.5034115314483643,-0.17313840985298157
2.5706369876861572,3.512181043624878,-0.16284410655498505
2.190905809402466,2.9535951614379883,-0.12770304083824158
2.794440507888794,3.920133113861084,0.36667510867118835
2.763123035430908,3.9410769939422607,0.3792800009250641
2.7425894737243652,3.97318696975708,0.392304927110672
2.713674545288086,3.991870164871216,0.4035555124282837
2.673624277114868,3.9989514350891113,0.41341304779052734
2.635457754135132,4.0044941902160645,0.4225445091724396
2.610525369644165,4.028980255126953,0.43346354365348816
2.583400249481201,4.054576396942139,0.444121778011322
2.579584836959839,4.115722179412842,0.45858368277549744
2.5504558086395264,4.132809162139893,0.4677451550960541
2.5117239952087402,4.1372528076171875,0.4752727448940277
2.477501630783081,4.152259349822998,0.48399728536605835
2.449276924133301,4.172481536865234,0.49289244413375854
2.439164161682129,4.222348213195801,0.505201518535614
2.4074513912200928,4.239527225494385,0.5133797526359558
2.3638784885406494,4.236322402954102,0.5190169215202332
2.276740550994873,4.150426387786865,0.5141808390617371
2.2474536895751953,4.1654462814331055,0.521513044834137
2.218458890914917,4.184455871582031,0.5291038751602173
2.186997413635254,4.200084686279297,0.5362035036087036
2.163400650024414,4.228848457336426,0.5448784828186035
2.1434574127197266,4.264183521270752,0.5543925166130066
2.1161792278289795,4.285580158233643,0.5619144439697266
2.084153175354004,4.300398349761963,0.5683626532554626
2.062013864517212,4.335984230041504,0.5776093006134033
2.0248942375183105,4.335514545440674,0.5818336606025696
1.997613549232483,4.355865478515625,0.5888689756393433
1.9716968536376953,4.383859157562256,0.596748411655426
1.9955779314041138,4.5251784324646,0.6200178861618042
1.9531313180923462,4.51753044128418,0.6229753494262695
1.9304600954055786,4.551751136779785,0.6315677762031555
1.9267438650131226,4.632364749908447,0.6467044949531555
1.8895046710968018,4.6385416984558105,0.6512237787246704
1.8525503873825073,4.6443352699279785,0.6555454730987549
1.838322401046753,4.707486152648926,0.6680131554603577
1.8135764598846436,4.741225719451904,0.6762545704841614
1.3606852293014526,3.632791519165039,0.5208137631416321
1.3367255926132202,3.6493728160858154,0.5256856679916382
1.315301775932312,3.673072338104248,0.531437873840332
1.280819296836853,3.6601173877716064,0.5319101214408875
1.6507303714752197,4.825502872467041,0.7042874693870544
1.6145099401474,4.828914165496826,0.7077961564064026
1.5869828462600708,4.861783981323242,0.7156007289886475
1.54238760471344,4.843038082122803,0.7153935432434082
1.5072743892669678,4.853470325469971,0.7195220589637756
1.4814443588256836,4.8931450843811035,0.7280099391937256
1.4581496715545654,4.939870357513428,0.7375563979148865
1.4417541027069092,5.012505531311035,0.751060426235199
1.4074974060058594,5.029686450958252,0.7560170292854309
1.3438600301742554,4.938436985015869,0.7444272637367249
1.2954435348510742,4.898870944976807,0.740602433681488
1.2569210529327393,4.892418384552002,0.7417566776275635
1.2190070152282715,4.885561466217041,0.7428451180458069
1.21064031124115,5.002488136291504,0.7628717422485352
1.1766724586486816,5.018064975738525,0.7670297622680664
1.1356271505355835,5.003296852111816,0.766501247882843
1.1081039905548096,5.048573970794678,0.7752161622047424
1.0750237703323364,5.067123889923096,0.7798515558242798
1.0390374660491943,5.074174880981445,0.7827789783477783
1.0096348524093628,5.1111602783203125,0.7903409004211426
1.8939049243927002,9.958723068237305,1.5425810813903809
1.8188945055007935,9.94843864440918,1.5436018705368042
0.37579137086868286,2.141165018081665,0.33280161023139954
1.6692829132080078,9.926237106323242,1.545600414276123
1.60007905960083,9.936936378479004,1.5500364303588867
1.527870774269104,9.92807388305664,1.5514906644821167
1.4566876888275146,9.93040657043457,1.5538628101348877
1.3768208026885986,9.871118545532227,1.546451210975647
1.3087170124053955,9.903205871582031,1.5534604787826538
1.240149974822998,9.919282913208008,1.5579910278320312
1.1666460037231445,9.888816833496094,1.5552618503570557
1.0977727174758911,9.896181106567383,1.5585527420043945
1.0247936248779297,9.868673324584961,1.555733561515808
0.9545601010322571,9.867612838745117,1.5567235946655273
0.38878464698791504,4.343106746673584,0.6857246160507202
0.3554484248161316,4.310964584350586,0.6812201142311096
0.32547879219055176,4.313181400299072,0.6821680665016174
0.29786789417266846,4.3498334884643555,0.6886004209518433
0.34665873646736145,5.6379241943359375,0.8931644558906555
0.30528518557548523,5.617035388946533,0.8901137113571167
0.26709896326065063,5.642060279846191,0.8943784832954407
0.22982162237167358,5.697664260864258,0.9035388231277466
0.1910705715417862,5.7260212898254395,0.9084255695343018
0.1523810774087906,5.7733964920043945,0.9163797497749329
0.11246901005506516,5.824375629425049,0.9249661564826965
0.07167035341262817,5.809591770172119,0.9224904775619507
0.03122524730861187,5.833102226257324,0.9261391758918762
-0.009729369543492794,6.010646343231201,0.9542880654335022
-0.052195582538843155,6.083735942840576,0.9658980965614319
-0.09611481428146362,6.144939422607422,0.9756696820259094
-0.13663803040981293,6.047703742980957,0.9603304862976074
-0.17875978350639343,6.05439567565918,0.9611071348190308
-0.21876071393489838,5.9991455078125,0.9518429040908813
-0.2596110999584198,5.982179164886475,0.9487049579620361
-0.18022073805332184,3.5797300338745117,0.5674639344215393
-0.2051086276769638,3.570728063583374,0.5658202171325684
-0.23093181848526,3.5846822261810303,0.5678452253341675
-0.5588945746421814,7.82811164855957,1.2394737005233765
-0.6111475229263306,7.801263332366943,1.2340551614761353
-0.5663195848464966,6.639867305755615,1.0493934154510498
-0.6086481213569641,6.589860439300537,1.0405876636505127
-0.6342245936393738,6.382183074951172,1.0069758892059326
-0.6798784136772156,6.389353275299072,1.0073351860046387
-0.7277673482894897,6.415379047393799,1.010711908340454
-0.7677380442619324,6.376065254211426,1.0031806230545044
-0.8055427670478821,6.317276477813721,0.9925588965415955
-0.844316303730011,6.277497291564941,0.985015869140625
-0.8823121190071106,6.233623504638672,0.9768837094306946
-0.9302269220352173,6.258212089538574,0.9795214533805847
-0.9778642654418945,6.278633117675781,0.9815452694892883
-1.03056001663208,6.325377941131592,0.9872466921806335
-1.0783491134643555,6.345266819000244,0.9885520339012146
-1.1352747678756714,6.414215564727783,0.9975153803825378
-1.1828484535217285,6.425697326660156,0.9975571036338806
-1.2406171560287476,6.4860382080078125,1.0051867961883545
-1.2909419536590576,6.50423526763916,1.006311058998108
-1.3544702529907227,6.582540988922119,1.0164000988006592
-1.4073201417922974,6.611516952514648,1.018494963645935
-1.4506680965423584,6.5948076248168945,1.0135886669158936
-1.4812252521514893,6.521257400512695,1.0000076293945312
-1.517830729484558,6.473738193511963,0.9904601573944092
-0.6750786304473877,2.7904179096221924,0.42595216631889343
-0.6924828886985779,2.7784483432769775,0.42308691143989563
-0.7056338787078857,2.7514946460723877,0.41777727007865906
-0.7322185635566711,2.7768146991729736,0.4204227924346924
-0.7551932334899902,2.7869656085968018,0.42076826095581055
-0.7728904485702515,2.774386167526245,0.41765108704566956
-1.7524843215942383,6.125735282897949,0.9195502996444702
-1.7880860567092896,6.091946601867676,0.9116610288619995
-1.8215007781982422,6.05450963973999,0.9028979539871216
-1.08899986743927,3.533259630203247,0.5250812768936157
-1.1181976795196533,3.5407912731170654,0.5243384838104248
-1.1405847072601318,3.5259509086608887,0.5202910900115967
-1.165216088294983,3.5183229446411133,0.5173399448394775
-1.1867845058441162,3.5034000873565674,0.5131136178970337
-1.224381446838379,3.5359950065612793,0.515708327293396
-1.2611470222473145,3.564610719680786,0.5177022218704224
-1.2834903001785278,3.548898935317993,0.5131813883781433
-2.090524911880493,5.657285213470459,0.8145290613174438
-2.1189637184143066,5.614395618438721,0.8048577904701233
-2.1538290977478027,5.593667507171631,0.7978729605674744
-2.205495834350586,5.615972995758057,0.7970417737960815
-2.2742342948913574,5.677073001861572,0.8015843629837036
-2.328587770462036,5.697758197784424,0.800294041633606
-2.3535287380218506,5.646443843841553,0.78892982006073
-2.3918824195861816,5.631227493286133,0.7823120355606079
-2.432591438293457,5.623147964477539,0.7765170931816101
-2.5286905765533447,5.738617897033691,0.7876157760620117
-2.532099723815918,5.640514850616455,0.7692914605140686
-2.545842409133911,5.567163467407227,0.7544628977775574
-2.565896511077881,5.511924743652344,0.7419474720954895
-2.609231472015381,5.509714603424072,0.7363601922988892
-2.6229898929595947,5.443978786468506,0.7222569584846497
-2.647213935852051,5.398723125457764,0.7108362913131714
-2.68510365486145,5.38100004196167,0.7030579447746277
-2.7250783443450928,5.370611190795898,0.6959834098815918
-2.75176739692688,5.33621072769165,0.6856380701065063
-2.7836039066314697,5.31195068359375,0.6766384243965149
-2.785003423690796,5.224494457244873,0.6592684388160706
-1.1508771181106567,2.123300313949585,0.26544076204299927
-1.1723648309707642,2.129706382751465,0.2635614275932312
-2.8446595668792725,5.08895206451416,0.6233358383178711
-2.5322105884552,4.459024906158447,0.5402957201004028
-2.591358184814453,4.488833904266357,0.537678062915802
-6.046948432922363,10.315651893615723,1.2210150957107544
-1.2399815320968628,2.0843398571014404,0.24367989599704742
-2.9159398078918457,4.8283185958862305,0.5572296977043152
-2.933663845062256,4.7822465896606445,0.5443621873855591
-2.962362766265869,4.756500720977783,0.533571183681488
-2.9890997409820557,4.731655120849609,0.5228930115699768
-3.008402109146118,4.692837715148926,0.5104368329048157
-3.03503680229187,4.662893772125244,0.4986669421195984
-3.0399136543273926,4.60500955581665,0.4837583899497986
-3.0699782371520996,4.58616304397583,0.4728139042854309
-3.102011203765869,4.565755844116211,0.4610988199710846
-3.1112213134765625,4.513464450836182,0.4460289180278778
-3.1578986644744873,4.520150184631348,0.436635285615921
-5.012451648712158,7.073863506317139,0.6665145754814148
-2.892606258392334,4.023094654083252,0.36880403757095337
-2.913273572921753,3.99959397315979,0.35635000467300415
-2.9403538703918457,3.9808545112609863,0.3435324430465698
-3.0126760005950928,4.216836452484131,-0.22854039072990417
-2.450892210006714,3.485471725463867,-0.200425386428833
-2.439568042755127,3.521237850189209,-0.21318665146827698
-2.362013339996338,3.464942455291748,-0.22023504972457886
-2.2953953742980957,3.419825792312622,-0.22710910439491272
-2.2232534885406494,3.3640828132629395,-0.23263105750083923
-2.182293176651001,3.357555866241455,-0.24146226048469543
-2.145709276199341,3.3526158332824707,-0.24957551062107086
-2.121422052383423,3.3673248291015625,-0.25899606943130493
-1.2646715641021729,2.040689706802368,-0.1619584858417511
-1.2541459798812866,2.055873394012451,-0.16792729496955872
-2.093228578567505,3.487647294998169,-0.2929439842700958
-2.1424474716186523,3.629840850830078,-0.31305572390556335
-2.086895704269409,3.5938663482666016,-0.31773215532302856
-1.1823896169662476,2.0692896842956543,-0.18730486929416656
-1.1937463283538818,2.1250433921813965,-0.19675800204277039
-2.574063301086426,4.662090301513672,-0.44133561849594116
-2.548574209213257,4.692769527435303,-0.45341089367866516
-2.518324613571167,4.7168498039245605,-0.46483442187309265
-2.4980790615081787,4.761713981628418,-0.47833558917045593
-2.472895622253418,4.79567289352417,-0.49060821533203125
-2.442007064819336,4.819108963012695,-0.5018903017044067
-2.4172310829162598,4.856581211090088,-0.5143932104110718
-2.388568162918091,4.88695764541626,-0.5262138247489929
-2.3641164302825928,4.9236345291137695,-0.5385202169418335
-2.3292131423950195,4.939142227172852,-0.548520028591156
-1.5293980836868286,3.3043949604034424,-0.3723706305027008
-1.5082470178604126,3.3218843936920166,-0.37982749938964844
-1.4847828149795532,3.331704616546631,-0.3862093985080719
-1.461110234260559,3.3414158821105957,-0.3925441801548004
-1.4476064443588257,3.3761484622955322,-0.40173548460006714
-1.451823353767395,3.4537484645843506,-0.4161683917045593
-1.4330118894577026,3.477630138397217,-0.4242318868637085
-1.4200345277786255,3.5156984329223633,-0.43396246433258057
-1.3975898027420044,3.532275915145874,-0.44092756509780884
-1.3343802690505981,3.4437766075134277,-0.4346631169319153
-1.3238983154296875,3.4886043071746826,-0.44506964087486267
-1.7538456916809082,4.722381114959717,-0.6089659929275513
-2.0178756713867188,5.553802490234375,-0.7232925295829773
-1.0383360385894775,2.9222898483276367,-0.3843245506286621
-1.0088624954223633,2.903287410736084,-0.3854770362377167
-0.9573327898979187,2.8179550170898438,-0.37768274545669556
-0.9161716103553772,2.7617268562316895,-0.37345218658447266
-0.9000445604324341,2.7786953449249268,-0.378996342420578
-0.8313877582550049,2.6293232440948486,-0.3616701662540436
-0.7843867540359497,2.542062997817993,-0.3526028096675873
-0.7753372192382812,2.5767149925231934,-0.3602348864078522
-0.7635360360145569,2.6039674282073975,-0.36681067943573
-0.7490164637565613,2.623788595199585,-0.37243419885635376
-0.7482319474220276,2.6918654441833496,-0.3849329352378845
-0.7293035387992859,2.696560859680176,-0.38837823271751404
-0.7160931825637817,2.7236387729644775,-0.3948618471622467
-0.69679194688797,2.7281672954559326,-0.39811742305755615
-0.6772909760475159,2.732593536376953,-0.401401162147522
-0.6581242084503174,2.7367985248565674,-0.4046233594417572
-0.6431722044944763,2.759765386581421,-0.41037148237228394
-0.6270493268966675,2.77889084815979,-0.4155443012714386
-0.6141167283058167,2.812995195388794,-0.4230000376701355
-0.5973213315010071,2.8319592475891113,-0.4282647669315338
-0.582880973815918,2.862147092819214,-0.4350978136062622
-0.5657464265823364,2.8809361457824707,-0.4400158226490021
-0.5483532547950745,2.8996224403381348,-0.4449639320373535
-0.5322458148002625,2.9257760047912598,-0.4510931074619293
-0.5161131024360657,2.9556946754455566,-0.4578973650932312
-0.49791914224624634,2.974116325378418,-0.4625738263130188
-0.4794774353504181,2.992431640625,-0.4672258794307709
-0.46552354097366333,3.0411484241485596,-0.4766804575920105
-0.4471063017845154,3.063053607940674,-0.4819868505001068
-0.4242713153362274,3.0581605434417725,-0.48298323154449463
-0.40888741612434387,3.1066718101501465,-0.4921291470527649
-0.38998398184776306,3.132131814956665,-0.49768057465553284
-0.3699445128440857,3.1497979164123535,-0.5020295977592468
-0.34925419092178345,3.1634976863861084,-0.5057840943336487
-0.33031922578811646,3.19630765914917,-0.5122618079185486
-0.5110419988632202,5.3139214515686035,-0.8535869121551514
-0.4743160903453827,5.320806503295898,-0.8566398024559021
-0.42181751132011414,5.135242462158203,-0.8286771774291992
-0.3549000322818756,4.722375392913818,-0.7636933922767639
-0.3185744285583496,4.674487590789795,-0.7570211291313171
-0.2849987745285034,4.66869592666626,-0.7572078704833984
-0.25249823927879333,4.670337677001953,-0.7586163878440857
-0.218175008893013,4.633239269256592,-0.7537590861320496
-0.18744835257530212,4.673015594482422,-0.7609825730323792
-0.15412016212940216,4.650979042053223,-0.75788813829422
-0.1211531013250351,4.651843070983887,-0.7585695385932922
-0.08870647102594376,4.644754409790039,-0.7579789161682129
-0.05623314902186394,4.629732608795166,-0.756115734577179
-0.023541154339909554,4.525934219360352,-0.7390453815460205
0.007823038846254349,4.468172073364258,-0.7295317649841309
0.039288200438022614,4.452596664428711,-0.7269418835639954
0.0685395896434784,4.344294548034668,-0.7092500329017639
0.09295056760311127,4.089388847351074,-0.6673834919929504
0.12425500899553299,4.185100555419922,-0.6823827028274536
0.15304900705814362,4.176548957824707,-0.6804019808769226
0.18055441975593567,4.140834808349609,-0.6740348935127258
0.2168826162815094,4.278199672698975,-0.6958514451980591
0.24701949954032898,4.284499645233154,-0.6958160400390625
0.2705337703227997,4.186709403991699,-0.6788058280944824
0.2979678213596344,4.1618733406066895,-0.6736875176429749
0.3260093629360199,4.148388385772705,-0.6704469323158264
0.35831204056739807,4.180810451507568,-0.6744892001152039
0.4036664664745331,4.355220317840576,-0.7008877396583557
0.4266219437122345,4.279725551605225,-0.6870589256286621
0.4604863226413727,4.315347671508789,-0.69111168384552
0.48701879382133484,4.281709671020508,-0.6841027140617371
0.5307246446609497,4.38964319229126,-0.6992678046226501
0.5601890087127686,4.378644943237305,-0.6952587366104126
0.6556413769721985,4.856962203979492,-0.7687346935272217
0.7003042101860046,4.929191589355469,-0.7776846885681152
0.7300527095794678,4.894157409667969,-0.7696957588195801
0.7622093558311462,4.874236106872559,-0.7634090781211853
0.7922580242156982,4.846568584442139,-0.7560272216796875
0.8259701132774353,4.841530799865723,-0.7522160410881042
0.8536437153816223,4.802024841308594,-0.7431002855300903
0.880005955696106,4.758626461029053,-0.733142077922821
0.9144487380981445,4.760671138763428,-0.7299079298973083
0.9404982924461365,4.716893196105957,-0.7196423411369324
0.9695146679878235,4.691959381103516,-0.7123695611953735
0.818759024143219,3.8279500007629395,-0.5783830881118774
0.8344475030899048,3.773730516433716,-0.5669618844985962
0.8623250722885132,3.7759904861450195,-0.5640721321105957
0.5297104716300964,2.246434211730957,-0.33362966775894165
0.9044148921966553,3.7196097373962402,-0.5492514967918396
0.9264770746231079,3.698849678039551,-0.542848527431488
0.9578524827957153,3.7154667377471924,-0.5417119860649109
0.9796145558357239,3.694427967071533,-0.5351000428199768
1.0058879852294922,3.688018321990967,-0.5305523872375488
1.0285508632659912,3.6703498363494873,-0.5244744420051575
1.0517983436584473,3.65639066696167,-0.518583357334137
1.0727087259292603,3.6348514556884766,-0.5116657614707947
1.095779538154602,3.6205525398254395,-0.505790114402771
1.1215521097183228,3.613339900970459,-0.5008522272109985
1.1396034955978394,3.5840096473693848,-0.49273884296417236
1.169130802154541,3.591493844985962,-0.4895831346511841
1.1915746927261353,3.576650857925415,-0.48338040709495544
1.2116363048553467,3.554239273071289,-0.4761584401130676
1.2338628768920898,3.53908371925354,-0.46988609433174133
1.2586785554885864,3.5310757160186768,-0.4642820954322815
1.276384711265564,3.504810333251953,-0.4564003348350525
1.302289366722107,3.500128746032715,-0.451297789812088
1.3323475122451782,3.506117582321167,-0.4475652873516083
1.646844506263733,4.246308326721191,-0.5362746119499207
1.6722592115402222,4.224756240844727,-0.527693510055542
1.6930274963378906,4.1922688484191895,-0.5178295373916626
1.7283564805984497,4.1955108642578125,-0.5123838186264038
1.7542592287063599,4.17722749710083,-0.5041036009788513
1.7798620462417603,4.158833980560303,-0.4957835078239441
1.8154675960540771,4.161281585693359,-0.4897765815258026
1.832075834274292,4.120906829833984,-0.47881343960762024
1.8637144565582275,4.116122245788574,-0.47188299894332886
1.8885762691497803,4.097108840942383,-0.46327170729637146
1.9070526361465454,4.063685417175293,-0.45300599932670593
1.9360500574111938,4.050849437713623,-0.4448959529399872
1.9672907590866089,4.045300006866455,-0.4375852346420288
1.982697606086731,4.008296489715576,-0.42686665058135986
2.0104596614837646,3.9953155517578125,-0.41863390803337097
2.0403053760528564,3.9853971004486084,-0.41063642501831055
2.058590888977051,3.954928398132324,-0.40044450759887695
2.082202672958374,3.9346065521240234,-0.39119043946266174
2.120656728744507,3.941406488418579,-0.38455143570899963
2.1371054649353027,3.9067585468292236,-0.373825341463089
2.152078628540039,3.8726603984832764,-0.36312779784202576
2.141822099685669,3.7944211959838867,-0.3484646677970886
2.168933153152466,3.7798194885253906,-0.33934661746025085
2.202841281890869,3.779003143310547,-0.33155104517936707
2.2122480869293213,3.7381162643432617,-0.32023927569389343
2.2379117012023926,3.7235875129699707,-0.3110499083995819
2.2681262493133545,3.71517276763916,-0.302185982465744
2.2851500511169434,3.6871659755706787,-0.2915637493133545
2.305738687515259,3.665858268737793,-0.28159549832344055
2.3398914337158203,3.6634225845336914,-0.2726779282093048
2.351835012435913,3.628643035888672,-0.2613733410835266
2.388598680496216,3.6332826614379883,-0.2529054880142212
2.41888165473938,3.6233091354370117,-0.24262045323848724
2.4214539527893066,3.5752663612365723,-0.2300005853176117
2.4492666721343994,3.566398859024048,-0.21996328234672546
2.4875786304473877,3.5690324306488037,-0.20992045104503632
2.4886398315429688,3.5212559700012207,-0.19695168733596802
2.530306339263916,3.5305473804473877,-0.18681560456752777
2.559643507003784,3.519620418548584,-0.17494536936283112
2.572800397872925,3.491219997406006,-0.1622476875782013
2.772789239883423,3.922842025756836,0.3979482054710388
2.7509286403656006,3.955853223800659,0.4122006297111511
2.7271103858947754,3.980506181716919,0.42467841506004333
2.68271541595459,3.9811606407165527,0.4345254898071289
2.6734180450439453,4.032893657684326,0.4495840072631836
2.64475679397583,4.050557613372803,0.46018505096435547
2.6058125495910645,4.056046009063721,0.4691985547542572
2.5742430686950684,4.074938774108887,0.4796435832977295
2.5443904399871826,4.092482089996338,0.48947373032569885
2.533238172531128,4.139303207397461,0.5025925636291504
2.493417501449585,4.144139289855957,0.5103768706321716
2.473905324935913,4.181768417358398,0.5221349596977234
2.44425630569458,4.198075771331787,0.5308418273925781
2.405503988265991,4.201401710510254,0.5378919243812561
2.3773415088653564,4.225225448608398,0.5472137928009033
2.310023784637451,4.177260875701904,0.5470854640007019
2.260164737701416,4.154911994934082,0.5498449802398682
2.2322747707366943,4.173353672027588,0.5578967928886414
2.2111642360687256,4.209872245788574,0.5681964755058289
2.1759462356567383,4.2184529304504395,0.5746840834617615
2.1530466079711914,4.246626853942871,0.5835757255554199
2.126497983932495,4.267683982849121,0.5915259122848511
2.098334550857544,4.289294719696045,0.5992483496665955
2.065700054168701,4.304152965545654,0.606060266494751
2.047420024871826,4.346240043640137,0.6165885329246521
2.0102381706237793,4.3455915451049805,0.6209393739700317
1.9761868715286255,4.3517746925354,0.6262242794036865
2.0100345611572266,4.514022350311279,0.6537243127822876
1.9858148097991943,4.549190998077393,0.6630123853683472
1.964597463607788,4.591201305389404,0.673333466053009
1.9322988986968994,4.604018211364746,0.6792585849761963
1.8967341184616089,4.609548568725586,0.6840580105781555
1.8599717617034912,4.615344047546387,0.6884983777999878
1.8317002058029175,4.642454147338867,0.6961657404899597
1.824118733406067,4.72348165512085,0.7120113372802734
1.7964112758636475,4.749823570251465,0.71955806016922
1.7388806343078613,4.696216583251953,0.7149901986122131
1.321590781211853,3.6500701904296875,0.5581122636795044
1.3026657104492188,3.6809046268463135,0.565239429473877
1.2704046964645386,3.675217866897583,0.5668227076530457
1.6219494342803955,4.800232410430908,0.7434021234512329
1.585884690284729,4.803398132324219,0.7469831109046936
1.5646718740463257,4.854328155517578,0.757770299911499
1.531791090965271,4.872236728668213,0.7631950378417969
1.498139500617981,4.890088081359863,0.7687039375305176
1.4699668884277344,4.922159671783447,0.7764109373092651
1.4420130252838135,4.953904151916504,0.7840832471847534
1.4146888256072998,4.989215850830078,0.7923884391784668
1.3809677362442017,5.006069183349609,0.7973269820213318
1.3159233331680298,4.9071502685546875,0.7837376594543457
1.2770118713378906,4.9048686027526855,0.7856121063232422
1.2453594207763672,4.92438268661499,0.790925145149231
1.2275030612945557,4.999861717224121,0.8052879571914673
1.1961820125579834,5.0227460861206055,0.8112481832504272
1.1550194025039673,5.008128643035889,0.8106092214584351
1.1218866109848022,5.030973434448242,0.8161047697067261
1.0875554084777832,5.045912265777588,0.8203338384628296
1.0576996803283691,5.079360008239746,0.827589750289917
1.0222169160842896,5.0861382484436035,0.8305445909500122
0.9926130771636963,5.122947692871094,0.8384515047073364
1.802247166633606,9.67534065246582,1.5860810279846191
1.7334260940551758,9.687165260314941,1.5906091928482056
1.667683720588684,9.71751594543457,1.5982692241668701
1.5984859466552734,9.720590591430664,1.6014758348464966
1.525343894958496,9.696479797363281,1.6002615690231323
1.4508885145187378,9.668176651000977,1.5984607934951782
1.377830982208252,9.643244743347168,1.5962138175964355
1.3065166473388672,9.629281997680664,1.5957057476043701
1.2336094379425049,9.599491119384766,1.5926398038864136
1.1653246879577637,9.599715232849121,1.5946117639541626
1.0944559574127197,9.572607040405273,1.5921002626419067
1.0258454084396362,9.571908950805664,1.5940829515457153
0.9594504237174988,9.586113929748535,1.5979037284851074
0.4074268639087677,4.381753444671631,0.7308933138847351
0.36963438987731934,4.303729057312012,0.7184061408042908
0.3412303030490875,4.32910680770874,0.7232063412666321
0.31146740913391113,4.342778205871582,0.7260950803756714
0.28076839447021484,4.3369903564453125,0.7257567048072815
0.32608455419540405,5.64647102355957,0.9455642700195312
0.28580859303474426,5.633127212524414,0.9435527324676514
0.2496064305305481,5.708024024963379,0.9563706517219543
0.20898137986660004,5.709558010101318,0.9569529891014099
0.170774906873703,5.764692306518555,0.966562807559967
0.13185280561447144,5.8157124519348145,0.9755355715751648
0.09149859845638275,5.824095726013184,0.9774083495140076
0.051044680178165436,5.840002536773682,0.9799848198890686
0.009675132110714912,5.874905109405518,0.9857063293457031
-0.0471673347055912,8.86042308807373,1.4864963293075562
-0.10839957743883133,8.825234413146973,1.4805376529693604
-0.16852736473083496,8.762664794921875,1.4700570106506348
-0.16063347458839417,6.13484001159668,1.0292644500732422
-0.2051071971654892,6.191405296325684,1.0385264158248901
-0.24488060176372528,6.093710422515869,1.021547794342041
-0.37993738055229187,8.062382698059082,1.3508713245391846
-0.1940707266330719,3.5893726348876953,0.6011231541633606
-0.2181108146905899,3.5726332664489746,0.5980636477470398
-0.5343323945999146,7.85336446762085,1.3141642808914185
-0.5878214836120605,7.822683334350586,1.3085442781448364
-0.5491661429405212,6.689727306365967,1.117917537689209
-0.5915371775627136,6.643839359283447,1.1091996431350708
-0.6267461776733398,6.528631210327148,1.0889830589294434
-0.6561911702156067,6.371068954467773,1.0617895126342773
-0.702521562576294,6.378029823303223,1.062069296836853
-0.7512731552124023,6.411543846130371,1.066832423210144
-0.790278434753418,6.364482402801514,1.0577430725097656
-0.8269935846328735,6.305783271789551,1.0465352535247803
-0.8655077815055847,6.265975475311279,1.0385345220565796
-0.9050245881080627,6.229616641998291,1.0311391353607178
-0.9570916295051575,6.28071403503418,1.0382752418518066
-1.0080225467681885,6.319979667663574,1.0434865951538086
-1.0587354898452759,6.355110168457031,1.047795295715332
-1.1074392795562744,6.378622055053711,1.0497182607650757
-1.162752628326416,6.435908794403076,1.057216763496399
-1.2146186828613281,6.466087818145752,1.0602521896362305
-1.2678385972976685,6.499619960784912,1.063859462738037
-1.3276329040527344,6.562984466552734,1.0723720788955688
-1.3843889236450195,6.606978416442871,1.077656626701355
-1.434406042098999,6.620639324188232,1.0773299932479858
-1.4685837030410767,6.55846643447876,1.0646830797195435
-1.503748893737793,6.507584571838379,1.0540012121200562
-0.6701974868774414,2.811516046524048,0.4543217122554779
-0.6860730051994324,2.7920730113983154,0.4501569867134094
-0.7017103433609009,2.7725419998168945,0.44601067900657654
-0.7208545804023743,2.767956018447876,0.44395899772644043
-0.7436130046844482,2.778240919113159,0.4443255066871643
-0.7696139216423035,2.7995145320892334,0.4464510381221771
-1.739575743675232,6.161159992218018,0.9797148108482361
-1.7718075513839722,6.112511157989502,0.9691842794418335
-1.80519437789917,6.067224025726318,0.9592021107673645
-1.8349735736846924,6.018735408782959,0.9481785297393799
-1.1157073974609375,3.5732264518737793,0.5609458684921265
-1.1327894926071167,3.5439999103546143,0.5544192790985107
-1.1514313220977783,3.518155336380005,0.5484131574630737
-1.1739747524261475,3.5030438899993896,0.5440796613693237
-1.207026481628418,3.5209054946899414,0.5448296666145325
-1.243514895439148,3.5497090816497803,0.5469681024551392
-1.2674528360366821,3.5417752265930176,0.543443500995636
-2.0812268257141113,5.694482326507568,0.870051920413971
-2.112943410873413,5.658927917480469,0.8608526587486267
-2.142155647277832,5.615736961364746,0.8505063056945801
-2.1860592365264893,5.616332054138184,0.8465204238891602
-2.2436890602111816,5.652832984924316,0.8477120399475098
-2.3063108921051025,5.699562072753906,0.8503850698471069
-2.345733404159546,5.6844482421875,0.8436928987503052
-2.3773560523986816,5.647131443023682,0.8336163759231567
-2.413450241088867,5.624388694763184,0.825703501701355
-2.508488893508911,5.740399360656738,0.8376445174217224
-3.929030418395996,8.83089828491211,1.2807974815368652
-2.517324447631836,5.556349754333496,0.8008645176887512
-2.5699384212493896,5.567464351654053,0.7972393035888672
-2.598827600479126,5.52944803237915,0.7866533994674683
-2.5971450805664062,5.432745456695557,0.7673375606536865
-2.614621162414551,5.378098011016846,0.7541175484657288
-2.663256883621216,5.385583877563477,0.7495262622833252
-2.70176362991333,5.367538928985596,0.7411083579063416
-4.905511856079102,9.58126163482666,1.312360405921936
-2.7583441734313965,5.301695823669434,0.7199409604072571
-5.168158054351807,9.7767333984375,1.3161022663116455
-2.811497926712036,5.232058525085449,0.697890043258667
-1.185081958770752,2.1690969467163086,0.2866054177284241
-1.1717761754989624,2.1104791164398193,0.27604401111602783
-2.5238163471221924,4.476919651031494,0.5795093774795532
-5.938617706298828,10.374228477478027,1.3286124467849731
-6.019565105438232,10.348015785217285,1.310158133506775
-1.2407962083816528,2.099813461303711,0.2627364695072174
-1.2687692642211914,2.1153383255004883,0.26132825016975403
-2.926846742630005,4.80903959274292,0.5865769982337952
-2.9688901901245117,4.8027544021606445,0.5776971578598022
-2.981527328491211,4.750352382659912,0.5632434487342834
-3.0039467811584473,4.7190351486206055,0.551091730594635
-3.039677858352661,4.706628322601318,0.5409203767776489
-3.0366837978363037,4.631017684936523,0.5230962634086609
-3.0636518001556396,4.605170249938965,0.5108821392059326
-3.0714941024780273,4.554360866546631,0.4958239495754242
-3.091463327407837,4.51858377456665,0.4819785952568054
-3.114753246307373,4.484969615936279,0.46786314249038696
-2.8631672859191895,4.068443298339844,0.41470572352409363
-2.8674051761627197,4.018923282623291,0.3996126055717468
-2.900407552719116,4.006042003631592,0.3875119984149933
-2.934767484664917,4.001495361328125,0.37596896290779114
-2.9566516876220703,3.976898431777954,0.3618900179862976
-2.455171585083008,3.4632956981658936,-0.20053794980049133
-2.4376442432403564,3.493932008743286,-0.21421106159687042
-2.4041037559509277,3.4974279403686523,-0.22534844279289246
-2.313588857650757,3.4214439392089844,-0.23123475909233093
-2.247476100921631,3.375807762145996,-0.23807336390018463
-2.191126823425293,3.342177152633667,-0.24511626362800598
-2.1700241565704346,3.364412546157837,-0.2561458647251129
-2.1331934928894043,3.3594400882720947,-0.264640748500824
-2.1168670654296875,3.387349843978882,-0.2756815552711487
-1.2814007997512817,2.0845208168029785,-0.17494691908359528
-2.143481969833374,3.5431370735168457,-0.3059832453727722
-2.1262147426605225,3.570826768875122,-0.316813588142395
-2.0543110370635986,3.508396625518799,-0.3194728493690491
-1.2161762714385986,2.112243413925171,-0.19722187519073486
-1.2012596130371094,2.1202547550201416,-0.20260325074195862
-2.577942371368408,4.627519130706787,-0.45216673612594604
-2.549365282058716,4.655486583709717,-0.4648657441139221
-2.523686647415161,4.68600606918335,-0.4775085747241974
-2.504063606262207,4.730584621429443,-0.49179548025131226
-2.4835398197174072,4.775307655334473,-0.5059682130813599
-2.4542076587677,4.802364349365234,-0.5182175040245056
-2.423783779144287,4.825313568115234,-0.5298357605934143
-2.402702569961548,4.869348526000977,-0.5437408685684204
-2.3699047565460205,4.892797946929932,-0.5555176138877869
-2.3482718467712402,4.936448097229004,-0.5693356394767761
-2.33475661277771,4.997425556182861,-0.5852102637290955
-1.5166960954666138,3.307851791381836,-0.3930554687976837
-1.4958109855651855,3.3250441551208496,-0.40078005194664
-1.4690903425216675,3.3276383876800537,-0.40662312507629395
-1.4529659748077393,3.3550374507904053,-0.4155908226966858
-1.4697346687316895,3.4610323905944824,-0.43421727418899536
-1.4447720050811768,3.470682382583618,-0.440912127494812
-1.4406870603561401,3.530261278152466,-0.4539569914340973
-1.4229927062988281,3.557464838027954,-0.4629390835762024
-1.818311095237732,4.642755508422852,-0.6111378073692322
-1.3268622159957886,3.4601871967315674,-0.4605412185192108
-0.9386236071586609,2.4999067783355713,-0.33633092045783997
-2.0264976024627686,5.513609409332275,-0.7496842741966248
-0.9844073057174683,2.7377984523773193,-0.3759983479976654
-0.927207350730896,2.63828182220459,-0.36594927310943604
-0.8405446410179138,2.4464149475097656,-0.34260350465774536
-0.8332006931304932,2.4810593128204346,-0.3507438004016876
-0.8228475451469421,2.5084116458892822,-0.35780069231987
-0.8108501434326172,2.5320913791656494,-0.3642951250076294
-0.79486083984375,2.544698715209961,-0.36928707361221313
-0.7860013246536255,2.5792627334594727,-0.377442330121994
-0.772223174571991,2.599008083343506,-0.3834225833415985
-0.7558732032775879,2.61132550239563,-0.3881573975086212
-0.7530403733253479,2.671905517578125,-0.40015339851379395
-0.7404307126998901,2.698934555053711,-0.40719282627105713
-0.7171816825866699,2.6886403560638428,-0.4086820185184479
-0.7107331156730652,2.74176025390625,-0.4195098578929901
-0.6790568828582764,2.6974895000457764,-0.41543737053871155
-0.6674181222915649,2.7316970825195312,-0.42343536019325256
-0.6491618156433105,2.7395384311676025,-0.4273918867111206
-0.6399236917495728,2.7887654304504395,-0.43771785497665405
-0.6185789108276367,2.785184860229492,-0.43960344791412354
-0.605442464351654,2.8191776275634766,-0.4474586248397827
-0.5888543128967285,2.837967872619629,-0.45294618606567383
-0.5773221850395203,2.883150339126587,-0.46267440915107727
-0.5581507086753845,2.8943328857421875,-0.4666897654533386
-0.5406215190887451,2.9129090309143066,-0.4718989133834839
-0.5263141989707947,2.9503490924835205,-0.4802173376083374
-0.4985615313053131,2.911682605743408,-0.47615811228752136
