X,Y,Z
-1.6293357610702515,4.640874862670898,-0.54982590675354
-1.5937840938568115,4.644256114959717,-0.5551866888999939
-1.9154342412948608,5.710582256317139,-0.6886724233627319
-0.9412239193916321,2.8725738525390625,-0.3493933081626892
-0.9396559596061707,2.9378983974456787,-0.3601870536804199
-0.9067977070808411,2.907142162322998,-0.3592899441719055
-0.7802707552909851,2.5641703605651855,-0.3193589150905609
-0.76231449842453,2.5691800117492676,-0.3224472999572754
-0.7483989000320435,2.5890543460845947,-0.3272193670272827
-0.7499405741691589,2.664855480194092,-0.3391239643096924
-0.7434660792350769,2.714559555053711,-0.3478020131587982
-0.716162383556366,2.6894259452819824,-0.3469476103782654
-0.7118253707885742,2.75030779838562,-0.3570595681667328
-0.685757040977478,2.7286088466644287,-0.3563332259654999
-0.6747404336929321,2.766911268234253,-0.3634640872478485
-0.6500411033630371,2.748582601547241,-0.3631608188152313
-1.450347661972046,6.332521915435791,-0.8416575789451599
-1.40061616897583,6.3191752433776855,-0.8441039323806763
-1.347063422203064,6.286518573760986,-0.8439329266548157
-0.6059620976448059,2.92759370803833,-0.3949669599533081
-0.5794825553894043,2.9010331630706787,-0.39332127571105957
-0.5603068470954895,2.9123637676239014,-0.3967127203941345
-0.53843092918396,2.908324718475342,-0.39778804779052734
-0.5254532098770142,2.953667640686035,-0.405656635761261
-0.5074259638786316,2.9722328186035156,-0.4098901152610779
-0.48544037342071533,2.967764377593994,-0.4109693765640259
-0.469028115272522,3.0014801025390625,-0.4171048700809479
-0.45364099740982056,3.0427236557006836,-0.42423713207244873
-0.43614086508750916,3.072387933731079,-0.4298008680343628
-0.4188653230667114,3.1057708263397217,-0.4359259307384491
-0.3991675078868866,3.123715877532959,-0.43986013531684875
-0.37915274500846863,3.141592025756836,-0.4434696137905121
-0.3598291873931885,3.170908212661743,-0.44875040650367737
-0.34180498123168945,3.2115962505340576,-0.45566248893737793
-0.3217533528804779,3.2367796897888184,-0.46041640639305115
-0.30310308933258057,3.28112530708313,-0.46771878004074097
-0.2801888883113861,3.2830095291137695,-0.46878382563591003
-0.26047760248184204,3.331026315689087,-0.47648540139198303
-0.23922257125377655,3.3596043586730957,-0.48143070936203003
-0.2168666273355484,3.376465082168579,-0.48473015427589417
-0.19557194411754608,3.4163930416107178,-0.49099376797676086
-0.17388838529586792,3.46005916595459,-0.49774810671806335
-0.15070314705371857,3.492011547088623,-0.5028606057167053
-0.12722763419151306,3.5160646438598633,-0.5068591833114624
-0.10353394597768784,3.5438311100006104,-0.5113610625267029
-0.07969421148300171,3.58309268951416,-0.517122745513916
-0.055076126009225845,3.6067287921905518,-0.520656168460846
-0.029903458431363106,3.649527072906494,-0.5269861817359924
-0.004587285686284304,3.6960129737854004,-0.5338757038116455
0.021234000101685524,3.7230224609375,-0.5377534627914429
0.04767651483416557,3.769223213195801,-0.5441233515739441
0.07471729815006256,3.811368942260742,-0.5499271154403687
0.10221219062805176,3.8494553565979004,-0.5551663041114807
0.13127018511295319,3.9027833938598633,-0.5626204609870911
0.15947724878787994,3.928924798965454,-0.5657855868339539
0.18932951986789703,3.9819204807281494,-0.5726785659790039
0.21971499919891357,4.0308308601379395,-0.5789926648139954
0.2508222758769989,4.079509735107422,-0.5852829813957214
0.28074201941490173,4.093199729919434,-0.5865479707717896
0.30800047516822815,4.075935363769531,-0.5828817486763
0.33595386147499084,4.070054054260254,-0.5808783173561096
0.3642185628414154,4.067829608917236,-0.5794246196746826
0.39584699273109436,4.100053310394287,-0.5828948616981506
0.4239911139011383,4.089698314666748,-0.5801352858543396
0.44593697786331177,4.029275417327881,-0.569973349571228
0.4765279293060303,4.049422740936279,-0.5712517499923706
0.5027633905410767,4.030936241149902,-0.567097008228302
0.5297757983207703,4.019949436187744,-0.5640338063240051
0.5528358221054077,3.978109836578369,-0.5563305020332336
0.583717405796051,3.9975051879882812,-0.5570718050003052
0.6014881730079651,3.9286718368530273,-0.5455607175827026
0.6288033127784729,3.924731731414795,-0.5431147217750549
0.6573700904846191,3.9282352924346924,-0.541721522808075
0.6858471632003784,3.9316234588623047,-0.539861261844635
0.7121046185493469,3.9194915294647217,-0.5358403325080872
0.7350043058395386,3.892023801803589,-0.5297964215278625
0.7606613039970398,3.8795981407165527,-0.5258331298828125
0.7830170392990112,3.851855754852295,-0.5196904540061951
0.7992902994155884,3.797522783279419,-0.509746789932251
0.8309608697891235,3.814955711364746,-0.5094342231750488
0.8507295846939087,3.7792797088623047,-0.5020866394042969
0.873579204082489,3.758593797683716,-0.49678289890289307
0.9086626172065735,3.790599822998047,-0.4981266260147095
0.9367001056671143,3.7922439575195312,-0.4953649640083313
1.166059136390686,4.582310199737549,-0.5949134826660156
1.198000431060791,4.574657440185547,-0.590329647064209
1.2267870903015137,4.55557918548584,-0.5842240452766418
1.2540526390075684,4.5326972007751465,-0.5773367881774902
1.2831432819366455,4.517117023468018,-0.5714309215545654
1.308650016784668,4.486203193664551,-0.5635240077972412
1.3400347232818604,4.477556228637695,-0.5585148930549622
1.371001958847046,4.468828201293945,-0.553234875202179
1.397156834602356,4.445122718811035,-0.5460144877433777
1.4231846332550049,4.421217441558838,-0.5388051271438599
1.4534066915512085,4.407960891723633,-0.5328240394592285
1.4815744161605835,4.391047477722168,-0.5264168381690979
1.506678819656372,4.366762638092041,-0.5189142823219299
1.2616020441055298,3.5771219730377197,-0.4213257431983948
1.2813199758529663,3.5541629791259766,-0.4148293733596802
1.308884620666504,3.5529394149780273,-0.41088980436325073
1.6113752126693726,4.282224655151367,-0.4903041422367096
1.6379553079605103,4.264498710632324,-0.48341768980026245
1.6675165891647339,4.25371789932251,-0.477297306060791
1.6929265260696411,4.23180627822876,-0.4699217975139618
1.7191061973571777,4.213542938232422,-0.4628249406814575
1.7483532428741455,4.202202796936035,-0.4563210904598236
1.7742737531661987,4.1835784912109375,-0.4490954875946045
1.7943289279937744,4.150314807891846,-0.44026848673820496
1.8199094533920288,4.131361484527588,-0.4329250454902649
1.8385236263275146,4.098247051239014,-0.4240357279777527
1.8703588247299194,4.093072414398193,-0.4179471433162689
1.905604600906372,4.0946478843688965,-0.4125170409679413
1.9239542484283447,4.060935974121094,-0.40349045395851135
1.9548894166946411,4.055466175079346,-0.3971937596797943
1.9706329107284546,4.018206596374512,-0.3877807557582855
1.9992371797561646,4.004751205444336,-0.3804832994937897
2.026808500289917,3.9915499687194824,-0.37326672673225403
2.0501456260681152,3.9715282917022705,-0.3653562068939209
2.077333927154541,3.9580490589141846,-0.3579806685447693
2.101436138153076,3.93715763092041,-0.34980958700180054
2.1246347427368164,3.9164960384368896,-0.34163305163383484
2.1439015865325928,3.888867139816284,-0.33274394273757935
2.1307802200317383,3.803220272064209,-0.3189842104911804
2.161289930343628,3.7955799102783203,-0.3117980659008026
2.19059157371521,3.788383722305298,-0.30455949902534485
2.204115390777588,3.7540619373321533,-0.2951560914516449
2.2348334789276123,3.745581865310669,-0.2873983383178711
2.260376453399658,3.7308406829833984,-0.27925872802734375
2.2728323936462402,3.69643497467041,-0.2696589231491089
2.294098138809204,3.6746904850006104,-0.26078078150749207
2.3363821506500244,3.6855459213256836,-0.2540293335914612
2.3442091941833496,3.644120693206787,-0.24353541433811188
2.3731093406677246,3.6352641582489014,-0.2352035641670227
2.4115219116210938,3.6385915279388428,-0.2273206114768982
2.4221982955932617,3.6038808822631836,-0.21705326437950134
2.433149814605713,3.568746566772461,-0.20663708448410034
2.484964609146118,3.5905184745788574,-0.19897021353244781
2.4811360836029053,3.5366315841674805,-0.18726490437984467
2.5005078315734863,3.513906717300415,-0.1768709272146225
2.5425539016723633,3.5226998329162598,-0.1676913946866989
2.574148416519165,3.5195255279541016,-0.157866969704628
2.184697151184082,2.9437999725341797,-0.12302158027887344
2.7792065143585205,3.897214889526367,0.31263163685798645
2.7570483684539795,3.9310266971588135,0.325372576713562
2.724684953689575,3.943185567855835,0.3352617621421814
2.6947104930877686,3.962838888168335,0.3456372916698456
2.655200481414795,3.9697864055633545,0.3547165095806122
2.6528823375701904,4.026589870452881,0.3675350248813629
2.6180386543273926,4.039183139801025,0.3763801157474518
2.5909762382507324,4.064964771270752,0.38625437021255493
2.576498031616211,4.105549335479736,0.39702004194259644
2.5366249084472656,4.106622219085693,0.4038578271865845
2.5051486492156982,4.1250762939453125,0.4121784269809723
2.4819581508636475,4.156386375427246,0.42173659801483154
2.466489315032959,4.19642448425293,0.43182146549224854
2.423891067504883,4.193448543548584,0.4373137354850769
2.403655529022217,4.2311577796936035,0.4469493627548218
2.3614587783813477,4.227375507354736,0.4520094096660614
2.2674710750579834,4.127528190612793,0.4465665817260742
2.2407407760620117,4.150217533111572,0.4539644420146942
2.220444917678833,4.1868109703063965,0.4628238379955292
2.191685438156128,4.205609321594238,0.46962425112724304
2.16029953956604,4.216756820678711,0.4754292368888855
2.1415483951568604,4.25608491897583,0.4843887686729431
2.097738027572632,4.24685001373291,0.4875684082508087
2.0780506134033203,4.286081314086914,0.4963206648826599
2.0546176433563232,4.313927173614502,0.5035877227783203
2.0210187435150146,4.3205342292785645,0.5084068179130554
1.9891777038574219,4.33465051651001,0.5137947797775269
1.972485065460205,4.384241580963135,0.5234702229499817
1.9972155094146729,4.525619983673096,0.5441221594810486
1.9546314477920532,4.513940334320068,0.5463770627975464
1.9197399616241455,4.5198259353637695,0.5507016181945801
1.8894826173782349,4.540367603302002,0.556491494178772
1.8892029523849487,4.636403560638428,0.5716876983642578
1.8603111505508423,4.660006046295166,0.5779065489768982
1.8304818868637085,4.679543972015381,0.5835917592048645
1.792028546333313,4.677196025848389,0.5865193605422974
1.7742347717285156,4.7331671714782715,0.5964349508285522
1.3347357511520386,3.642052412033081,0.46121829748153687
1.3085740804672241,3.651106595993042,0.4645903408527374
1.2804034948349,3.6524434089660645,0.46694672107696533
1.628257155418396,4.750352382659912,0.6101650595664978
1.606258749961853,4.798238754272461,0.6188184022903442
1.581672191619873,4.84260892868042,0.6270692348480225
1.5583125352859497,4.890371322631836,0.6357855796813965
1.5240814685821533,4.900651931762695,0.6395914554595947
1.4830783605575562,4.888422966003418,0.6404761075973511
1.4550220966339111,4.920626640319824,0.6470192074775696
1.407733678817749,4.889575481414795,0.6449936628341675
1.3896387815475464,4.962740898132324,0.656794548034668
1.346199870109558,4.942138195037842,0.6561692953109741
1.2868494987487793,4.857357978820801,0.6469677090644836
1.260627269744873,4.895810604095459,0.6541847586631775
1.2276391983032227,4.911788463592529,0.6580599546432495
1.2018356323242188,4.9616379737854,0.6664465665817261
1.1697946786880493,4.984827518463135,0.6712772846221924
1.1433547735214233,5.0303120613098145,0.6791273951530457
1.1099377870559692,5.045349597930908,0.682902991771698
1.0779778957366943,5.067738056182861,0.6877146363258362
1.0350446701049805,5.044743537902832,0.6859415769577026
0.9976218342781067,5.044073581695557,0.6871926188468933
0.409885048866272,2.15264630317688,0.29385751485824585
1.967182993888855,10.738558769226074,1.4688559770584106
1.8862817287445068,10.717041015625,1.4688985347747803
1.8101699352264404,10.729504585266113,1.4736700057983398
1.726610779762268,10.695713996887207,1.471044659614563
1.6531728506088257,10.722474098205566,1.4768122434616089
1.571564793586731,10.695115089416504,1.4751956462860107
1.488772988319397,10.647842407226562,1.470855951309204
1.4058128595352173,10.600055694580078,1.46652090549469
1.310861587524414,10.440136909484863,1.4466572999954224
1.2222340106964111,10.321956634521484,1.4315543174743652
1.1362838745117188,10.210745811462402,1.4174318313598633
1.0619829893112183,10.19506549835205,1.416622281074524
0.9881353974342346,10.174944877624512,1.415248155593872
0.3908112943172455,4.3430633544921875,0.6047266125679016
0.35608604550361633,4.2915568351745605,0.5982093214988708
0.32780298590660095,4.3170013427734375,0.6020866632461548
0.29860401153564453,4.3345513343811035,0.6048162579536438
0.27032163739204407,4.371213436126709,0.6102463603019714
0.30821552872657776,5.632283687591553,0.7867476344108582
0.2697213888168335,5.649646282196045,0.7896530628204346
0.23232297599315643,5.697666168212891,0.7968864440917969
0.19327177107334137,5.718421459197998,0.8000009059906006
0.15378175675868988,5.735074996948242,0.8023419380187988
0.11361879110336304,5.766940593719482,0.8068517446517944
0.07391912490129471,5.810118675231934,0.8129839897155762
0.033549681305885315,5.818204402923584,0.8142458200454712
-0.007010949309915304,5.841483116149902,0.817674458026886
-0.04933330416679382,6.05018949508667,0.8468973636627197
-0.09270451962947845,6.084562301635742,0.8513379096984863
-0.1366022229194641,6.153446674346924,0.8606494665145874
-0.2498272955417633,8.56928825378418,1.1981438398361206
-0.22240130603313446,6.158805847167969,0.8608707785606384
-0.259041428565979,6.014161109924316,0.8404553532600403
-0.17805707454681396,3.558682680130005,0.497195303440094
-0.20441532135009766,3.580601692199707,0.49982601404190063
-0.22913753986358643,3.5791878700256348,0.49922892451286316
-0.5554332137107849,7.826725482940674,1.0908559560775757
-0.6028128862380981,7.734145164489746,1.0771865844726562
-0.5622419118881226,6.619612693786621,0.921345591545105
-0.6072526574134827,6.596364974975586,0.9175337553024292
-0.37554931640625,3.792853832244873,0.5269545912742615
-0.39839431643486023,3.7595348358154297,0.5216681957244873
-0.4181928336620331,3.703007936477661,0.5132007598876953
-0.4378106892108917,3.6502137184143066,0.5052893161773682
-0.46169230341911316,3.631805419921875,0.502159595489502
-0.4838773012161255,3.6056246757507324,0.49799537658691406
-0.5027718544006348,3.560211658477783,0.4909910559654236
-0.5226766467094421,3.5262253284454346,0.48546209931373596
-0.5456638336181641,3.5150864124298096,0.4831119179725647
-0.5672199130058289,3.4922478199005127,0.4791644811630249
-1.066439151763916,6.2898125648498535,0.8616107702255249
-1.1229636669158936,6.354997158050537,0.869160532951355
-1.1779729127883911,6.408387184143066,0.8748212456703186
-1.2297166585922241,6.4424309730529785,0.8775274753570557
-1.2827321290969849,6.479866981506348,0.8807108402252197
-1.334934115409851,6.505315780639648,0.8822424411773682
-1.3971426486968994,6.575821876525879,0.8898972272872925
-1.4462673664093018,6.581479072570801,0.8887921571731567
-1.478753685951233,6.5151567459106445,0.8777567744255066
-1.5125415325164795,6.460168838500977,0.8679595589637756
-1.5545504093170166,6.438738822937012,0.8626937866210938
-0.6965009570121765,2.8006861209869385,0.3742368221282959
-0.7121670842170715,2.7809689044952393,0.3705945611000061
-0.7275637984275818,2.761174201965332,0.3669721782207489
-0.750589907169342,2.771296262741089,0.3672080934047699
-0.7759386897087097,2.7887001037597656,0.3682565987110138
-1.755617380142212,6.148575782775879,0.809245765209198
-1.7814464569091797,6.081142902374268,0.7976995706558228
-1.1456058025360107,3.812227964401245,0.4983888864517212
-1.1562308073043823,3.7526192665100098,0.4889535903930664
-1.1845908164978027,3.752274990081787,0.4869931638240814
-1.2099277973175049,3.74456524848938,0.484038382768631
-1.2352501153945923,3.736670732498169,0.4810790717601776
-1.2709627151489258,3.757826566696167,0.48182839155197144
-2.0021297931671143,5.786990165710449,0.7389596700668335
-2.027975082397461,5.733360290527344,0.7290551066398621
-2.064471483230591,5.712735652923584,0.7229069471359253
-2.0894012451171875,5.662981986999512,0.7131898403167725
-2.11948561668396,5.627569675445557,0.7053229808807373
-2.146254301071167,5.580678462982178,0.6959723234176636
-2.188068389892578,5.5734100341796875,0.6916128993034363
-2.2481589317321777,5.612901210784912,0.6926456689834595
-2.3107004165649414,5.659484386444092,0.6944337487220764
-2.354579448699951,5.658897876739502,0.6904124617576599
-2.3848047256469727,5.621663570404053,0.6818107962608337
-2.4302337169647217,5.6198272705078125,0.6775197982788086
-2.4848999977111816,5.6390910148620605,0.6754521727561951
-2.5494532585144043,5.68340539932251,0.6761964559555054
-2.55668306350708,5.5999064445495605,0.6617634892463684
-2.54803729057312,5.48065185546875,0.6430916786193848
-2.5930287837982178,5.477482318878174,0.6381069421768188
-2.6410226821899414,5.481196403503418,0.6336115598678589
-2.684218406677246,5.478291988372803,0.6282351016998291
-2.692831516265869,5.405482769012451,0.6149082779884338
-2.6937873363494873,5.314485549926758,0.5993852019309998
-2.727487564086914,5.28933572769165,0.5913899540901184
-2.762822389602661,5.27179479598999,0.583950400352478
-2.8128647804260254,5.281374931335449,0.5793410539627075
-2.805978775024414,5.18440055847168,0.5630931258201599
-1.1905267238616943,2.1636273860931396,0.23256643116474152
-1.1958487033843994,2.1387927532196045,0.2274324595928192
-2.5138120651245117,4.428276062011719,0.46558254957199097
-2.543440818786621,4.412071228027344,0.458458811044693
-2.588134288787842,4.41837215423584,0.4534055292606354
-2.6187002658843994,4.40109395980835,0.4458823800086975
-1.2512507438659668,2.072402238845825,0.20712585747241974
-2.6718058586120605,4.361466407775879,0.42991769313812256
-2.688568592071533,4.319909572601318,0.41927579045295715
-3.0052671432495117,4.756321430206299,0.45443111658096313
-3.00659441947937,4.691730499267578,0.4409148693084717
-3.0355026721954346,4.669305324554443,0.4312848448753357
-3.0554275512695312,4.6292219161987305,0.4196126163005829
-3.077894687652588,4.5964789390563965,0.4083724617958069
-3.0810391902923584,4.538842678070068,0.3950982689857483
-3.096968412399292,4.49582052230835,0.38255709409713745
-3.140754461288452,4.494805812835693,0.3733977675437927
-2.9303619861602783,4.138551712036133,0.335268497467041
-2.8680896759033203,3.9923171997070312,0.3143005073070526
-2.910975217819214,3.9958155155181885,0.3051741421222687
-2.8918848037719727,3.9187612533569336,0.28989577293395996
-2.464606761932373,3.4489734172821045,-0.16263599693775177
-2.4469454288482666,3.480111837387085,-0.17391814291477203
-2.4305191040039062,3.510094165802002,-0.1846197545528412
-2.3630220890045166,3.4659879207611084,-0.1910291463136673
-2.2909748554229736,3.4152560234069824,-0.19670875370502472
-2.228184700012207,3.3721835613250732,-0.201909139752388
-2.179309844970703,3.3523786067962646,-0.2084057778120041
-2.1459407806396484,3.3548028469085693,-0.21592433750629425
-2.12237286567688,3.3692493438720703,-0.22378402948379517
-1.277811884880066,2.061713218688965,-0.1411268711090088
-2.0805466175079346,3.412447929382324,-0.24039790034294128
-2.056105375289917,3.4266903400421143,-0.24796922504901886
-2.0311150550842285,3.441018581390381,-0.25539684295654297
-2.009470224380493,3.4621636867523193,-0.26332178711891174
-1.2060604095458984,2.1118316650390625,-0.16429100930690765
-1.1795294284820557,2.099652051925659,-0.1669405847787857
-1.947113037109375,3.527137517929077,-0.286491334438324
-2.54982328414917,4.697846412658691,-0.3892832398414612
-2.520519256591797,4.721724510192871,-0.39875441789627075
-2.504357099533081,4.773590564727783,-0.41056519746780396
-2.4747471809387207,4.801385402679443,-0.4203647971153259
-2.447129487991333,4.832211494445801,-0.4303815960884094
-2.4199066162109375,4.862534523010254,-0.44022199511528015
-2.3980484008789062,4.907266616821289,-0.4512590765953064
-2.369028091430664,4.937831401824951,-0.4610571265220642
-1.5627986192703247,3.316480875015259,-0.3141913414001465
-1.5490440130233765,3.348149538040161,-0.3217013478279114
-1.5210635662078857,3.3518788814544678,-0.3265083432197571
-1.503175139427185,3.376455783843994,-0.3332698345184326
-1.4825941324234009,3.3935163021087646,-0.3392089605331421
-1.470840573310852,3.4319844245910645,-0.34729209542274475
-1.4536352157592773,3.459888219833374,-0.3542374074459076
-1.4209429025650024,3.4518918991088867,-0.3575838506221771
-1.399607539176941,3.468465805053711,-0.3633181154727936
-1.3722954988479614,3.4704830646514893,-0.3674963414669037
-1.3543680906295776,3.497859477996826,-0.37420928478240967
-1.3374671936035156,3.5287890434265137,-0.3813691735267639
-1.7502098083496094,4.718146324157715,-0.5150077939033508
-2.0221750736236572,5.569578647613525,-0.6138595342636108
-1.922533631324768,5.414699554443359,-0.6021565198898315
-1.6112595796585083,4.6422038078308105,-0.5208480358123779
-1.5785483121871948,4.652783393859863,-0.5265852808952332
-1.891141653060913,5.706474304199219,-0.6514866352081299
-1.865041732788086,5.763288497924805,-0.6632569432258606
-0.9809669852256775,3.1062684059143066,-0.3602525591850281
-0.9280921220779419,3.01255464553833,-0.3520655333995819
-0.7763134241104126,2.583634376525879,-0.30421683192253113
-0.7581300735473633,2.5886952877044678,-0.3070361912250519
-0.7532392144203186,2.6423003673553467,-0.31553271412849426
-0.7510645389556885,2.7070810794830322,-0.3254295289516449
-0.7280459403991699,2.6969618797302246,-0.3263453543186188
-0.7170460820198059,2.731677532196045,-0.33271193504333496
-0.6987013220787048,2.740121364593506,-0.3357042968273163
-0.6742880940437317,2.7259464263916016,-0.3359197676181793
-0.6569040417671204,2.737861394882202,-0.3393135666847229
-0.6456883549690247,2.7760679721832275,-0.3459962010383606
-1.3684061765670776,6.074865341186523,-0.7612426280975342
-1.3148469924926758,6.034506797790527,-0.7598425149917603
-1.2819020748138428,6.092487812042236,-0.7709317803382874
-1.2377595901489258,6.093095302581787,-0.7747271060943604
-1.196700096130371,6.108586311340332,-0.7804484963417053
-1.1401441097259521,6.043929576873779,-0.7754371762275696
-1.093440294265747,6.028407573699951,-0.7765088081359863
-1.0031908750534058,5.764492511749268,-0.745517909526825
-0.955973207950592,5.728815078735352,-0.7438468933105469
-0.9568978548049927,5.991193771362305,-0.7809790968894958
-0.9171730279922485,6.012655258178711,-0.7862327694892883
-0.8760791420936584,6.026182651519775,-0.7904971241950989
-0.8390663266181946,6.074029445648193,-0.79935622215271
-0.41427281498908997,3.160613775253296,-0.41727644205093384
-0.3950856924057007,3.1862823963165283,-0.421874076128006
-0.3799844980239868,3.2503368854522705,-0.4313673675060272
-0.35769152641296387,3.256582498550415,-0.43322882056236267
-0.33461838960647583,3.254962205886841,-0.4340611696243286
-0.31487011909484863,3.2917590141296387,-0.44006720185279846
-0.29191824793815613,3.293729782104492,-0.44114288687705994
-0.273307740688324,3.3495872020721436,-0.4493405520915985
-0.2507915794849396,3.362866163253784,-0.4518614709377289
-0.2305087000131607,3.410752773284912,-0.4590657949447632
-0.20543146133422852,3.39670729637146,-0.4579768776893616
-0.1833934187889099,3.428907871246338,-0.4627096951007843
-0.16109424829483032,3.464832305908203,-0.467958927154541
-0.13879041373729706,3.5122125148773193,-0.47478723526000977
-0.11438154429197311,3.51301646232605,-0.47534695267677307
-0.09040970355272293,3.5485012531280518,-0.48053503036499023
-0.0668545514345169,3.6109519004821777,-0.489043265581131
-0.041808340698480606,3.6190545558929443,-0.49021556973457336
-0.01698533073067665,3.692786931991577,-0.5003036260604858
0.008680823259055614,3.716024160385132,-0.5035771131515503
0.03523882478475571,3.7507193088531494,-0.5082035064697266
0.06212758645415306,3.8046188354492188,-0.515186607837677
0.08931524306535721,3.8389744758605957,-0.5195408463478088
0.11769569665193558,3.8924782276153564,-0.5265036225318909
0.1458507627248764,3.918691396713257,-0.5297945141792297
0.17486156523227692,3.956350326538086,-0.5343044400215149
0.20485471189022064,3.9937946796417236,-0.538632869720459
0.23604555428028107,4.0503621101379395,-0.5455615520477295
0.2664198577404022,4.083515644073486,-0.5493494868278503
0.29478970170021057,4.081686973571777,-0.5484511256217957
0.3215392827987671,4.060434341430664,-0.5444730520248413
0.3558274805545807,4.123837471008301,-0.5518128275871277
0.38514742255210876,4.1291728019714355,-0.5514077544212341
0.4115353524684906,4.103468894958496,-0.54688560962677
0.43466809391975403,4.050658226013184,-0.5386958122253418
0.46447381377220154,4.063192844390869,-0.5388435125350952
0.4912078380584717,4.044698238372803,-0.5348775386810303
0.5183272361755371,4.033753395080566,-0.5319639444351196
0.5453181862831116,4.022624969482422,-0.5290575623512268
0.5699140429496765,3.996016263961792,-0.5239225625991821
0.5975252985954285,3.992288112640381,-0.5215758681297302
0.6177965402603149,3.9385385513305664,-0.51270991563797
0.6483414769172668,3.9535624980926514,-0.5128557085990906
0.6771642565727234,3.956894874572754,-0.5114973783493042
0.7127112150192261,3.998239278793335,-0.5146976709365845
0.8908117413520813,4.80525016784668,-0.6159120202064514
0.9153047204017639,4.753722667694092,-0.6066799759864807
0.9474886655807495,4.739947319030762,-0.6022637486457825
0.9780867099761963,4.722287654876709,-0.597385823726654
1.0114667415618896,4.71970272064209,-0.5940102338790894
1.0415406227111816,4.701728820800781,-0.5887275338172913
1.0690076351165771,4.672178745269775,-0.5820279717445374
1.093257188796997,4.627213954925537,-0.5734100937843323
1.1272062063217163,4.627547740936279,-0.5702762007713318
1.1553635597229004,4.605132102966309,-0.5641348958015442
1.191023349761963,4.612590312957764,-0.561680257320404
1.2172105312347412,4.582194805145264,-0.5546137690544128
1.2466789484024048,4.562730312347412,-0.5488615036010742
1.2760021686553955,4.547118186950684,-0.5432872772216797
1.3051680326461792,4.531316757202148,-0.5376895666122437
1.323352336883545,4.478050231933594,-0.527693510055542
1.3546160459518433,4.469247817993164,-0.5229702591896057
1.3861451148986816,4.460146903991699,-0.5180264711380005
1.4120763540267944,4.436295032501221,-0.5112461447715759
1.4401497840881348,4.419674873352051,-0.5053432583808899
1.4710286855697632,4.410079002380371,-0.5002073645591736
1.4930251836776733,4.374540328979492,-0.49218133091926575
1.5179022550582886,4.350119113922119,-0.48516812920570374
1.2701690196990967,3.5605804920196533,-0.3935433626174927
1.2948522567749023,3.5521702766418457,-0.3890763521194458
1.5950251817703247,4.282802104949951,-0.4648037254810333
1.6218410730361938,4.265008449554443,-0.45842647552490234
1.6538249254226685,4.261659622192383,-0.45349594950675964
1.6836371421813965,4.250589370727539,-0.4476536810398102
1.7061192989349365,4.2212677001953125,-0.4399260878562927
1.7398768663406372,4.220697402954102,-0.43515950441360474
1.7641574144363403,4.198574542999268,-0.4280151128768921
1.786683201789856,4.172730922698975,-0.4205405116081238
1.8101656436920166,4.146254062652588,-0.4128461182117462
1.839076042175293,4.1341233253479,-0.4066821336746216
1.8671492338180542,4.122137069702148,-0.40038129687309265
1.8918817043304443,4.102884292602539,-0.3934020400047302
1.9105929136276245,4.069037437438965,-0.38493531942367554
1.9361186027526855,4.048944473266602,-0.37771478295326233
1.9634803533554077,4.036356449127197,-0.37114083766937256
1.987302541732788,4.016595363616943,-0.363933801651001
2.015313148498535,4.003224849700928,-0.3571590483188629
2.043192148208618,3.989671230316162,-0.35035407543182373
2.064631223678589,3.966050863265991,-0.3425757586956024
2.0918471813201904,3.952364683151245,-0.3355700671672821
2.1121222972869873,3.9244816303253174,-0.3272794485092163
2.1279797554016113,3.889869451522827,-0.318463534116745
2.1255998611450195,3.825014114379883,-0.30723559856414795
2.1477718353271484,3.804229974746704,-0.29955214262008667
2.1710050106048584,3.7826180458068848,-0.2915472090244293
2.1965830326080322,3.7683842182159424,-0.2841919958591461
2.2176899909973145,3.7474942207336426,-0.2763347327709198
2.243666172027588,3.7325592041015625,-0.26867732405662537
2.269482135772705,3.7174699306488037,-0.26094383001327515
2.302703619003296,3.715893507003784,-0.2539904713630676
2.319594144821167,3.687493085861206,-0.24515843391418457
2.3369956016540527,3.6585257053375244,-0.23612858355045319
2.3652889728546143,3.6501150131225586,-0.2284243404865265
2.372439384460449,3.608686923980713,-0.21858152747154236
2.4024782180786133,3.5986690521240234,-0.21017621457576752
2.434847354888916,3.5962073802948,-0.2023048996925354
2.4542644023895264,3.5740060806274414,-0.19315548241138458
2.4702956676483154,3.5444223880767822,-0.18323172628879547
2.5110344886779785,3.554443597793579,-0.1753418892621994
2.5170910358428955,3.5122807025909424,-0.16432760655879974
2.5500428676605225,3.508208751678467,-0.15491342544555664
2.1739907264709473,2.9517359733581543,-0.12253119796514511
2.7662179470062256,3.90788197517395,0.2941216826438904
2.7441937923431396,3.9415781497955322,0.3058115243911743
2.724517822265625,3.9733529090881348,0.3166359066963196
2.6945595741271973,3.9929440021514893,0.32640326023101807
2.663339138031006,4.013045787811279,0.33597537875175476
2.61765718460083,4.005070686340332,0.3424776494503021
2.6053011417388916,4.049490451812744,0.35330483317375183
2.5740978717803955,4.068647384643555,0.3618279695510864
2.5521318912506104,4.100088596343994,0.3712347149848938
2.537466526031494,4.140471935272217,0.38119786977767944
2.49185848236084,4.135573863983154,0.38676074147224426
2.468418836593628,4.166996479034424,0.39569148421287537
2.435124635696411,4.176849842071533,0.4021821916103363
2.404493808746338,4.19386100769043,0.40938833355903625
2.3727588653564453,4.211214542388916,0.416345477104187
2.3075144290924072,4.166749000549316,0.4170479476451874
2.2577974796295166,4.144586086273193,0.4196016788482666
2.2354822158813477,4.173692226409912,0.42724382877349854
2.2073404788970947,4.196796894073486,0.43417584896087646
2.1779403686523438,4.21587610244751,0.4406197667121887
2.1588549613952637,4.251263618469238,0.4485774636268616
2.121976852416992,4.251802921295166,0.45286959409713745
2.0971710681915283,4.280827045440674,0.4599056839942932
2.0681138038635254,4.30295991897583,0.4663164019584656
2.0373663902282715,4.317023277282715,0.4716566503047943
2.007018804550171,4.330639839172363,0.4769102931022644
1.9661531448364258,4.323176860809326,0.47967031598091125
1.9927632808685303,4.468332290649414,0.49931591749191284
1.989353895187378,4.54996919631958,0.5120439529418945
1.9629967212677002,4.577749729156494,0.5186842083930969
1.9279015064239502,4.583651542663574,0.5228129029273987
1.8916946649551392,4.589774131774902,0.5266905426979065
1.8696463108062744,4.6317949295043945,0.5346235036849976
1.851533055305481,4.6844987869262695,0.5438486337661743
1.7859405279159546,4.613722324371338,0.5386605858802795
1.7481753826141357,4.6110453605651855,0.5413321256637573
1.3652517795562744,3.6801998615264893,0.4342166483402252
1.3291804790496826,3.664107322692871,0.4343978464603424
1.305125117301941,3.6806046962738037,0.4384527802467346
1.2636221647262573,3.6454248428344727,0.4363129436969757
1.644167184829712,4.852136611938477,0.5834371447563171
1.581602692604065,4.778494358062744,0.5770571231842041
1.5636907815933228,4.841073989868164,0.586918294429779
1.5437886714935303,4.899929046630859,0.5964062213897705
1.4913592338562012,4.854846477508545,0.5932610034942627
1.4551600217819214,4.857291221618652,0.5958534479141235
1.4309273958206177,4.9004387855529785,0.6034659743309021
1.4189499616622925,4.992313385009766,0.6167172193527222
1.3881508111953735,5.020698070526123,0.6221963763237
1.305771827697754,4.857847690582275,0.6039421558380127
1.26930570602417,4.859111309051514,0.6060289740562439
1.241101861000061,4.890029430389404,0.6118174195289612
1.2177361249923706,4.943483829498291,0.6202955842018127
1.1886571645736694,4.978140354156494,0.6262032985687256
1.16176438331604,5.023959159851074,0.6335676312446594
1.1238616704940796,5.024295806884766,0.6352498531341553
1.0970367193222046,5.069569110870361,0.6426011323928833
1.0640803575515747,5.088144302368164,0.6466153860092163
1.0181933641433716,5.045839309692383,0.6426059007644653
0.9897556304931641,5.090720176696777,0.6495438814163208
0.40096357464790344,2.144900321960449,0.27421340346336365
2.0067858695983887,11.168815612792969,1.4306570291519165
0.9137173295021057,5.2969160079956055,0.679842472076416
1.8377407789230347,11.114240646362305,1.4293476343154907
1.744933843612671,11.034557342529297,1.421285629272461
1.6388680934906006,10.870131492614746,1.4020600318908691
1.5453200340270996,10.765966415405273,1.3905937671661377
1.4546462297439575,10.664772033691406,1.3795173168182373
1.3604507446289062,10.520524978637695,1.3628766536712646
1.2698564529418945,10.3870267868042,1.347633957862854
1.1828511953353882,10.272184371948242,1.3341608047485352
1.0971897840499878,10.168408393859863,1.321858525276184
1.0231995582580566,10.152478218078613,1.3210070133209229
0.40086203813552856,4.277318954467773,0.5570880174636841
0.3737664222717285,4.31076192855835,0.5620083808898926
0.34314703941345215,4.305418491363525,0.5619022250175476
0.3124941289424896,4.307662010192871,0.5625866055488586
0.28430789709091187,4.340604305267334,0.5671208500862122
0.3279538154602051,5.610742092132568,0.7334064245223999
0.2901206612586975,5.639891624450684,0.7375887036323547
0.25087547302246094,5.641690254211426,0.7382298111915588
0.21274542808532715,5.689682960510254,0.744962215423584
0.17364399135112762,5.7064528465271,0.7474266290664673
0.13506567478179932,5.757847309112549,0.7541319131851196
0.09475944191217422,5.750889301300049,0.7532311081886292
0.054913848638534546,5.774632453918457,0.7563881278038025
0.014115617610514164,5.8252129554748535,0.7630997896194458
-0.03992104530334473,8.807449340820312,1.1539556980133057
-0.10099877417087555,8.783716201782227,1.150933027267456
-0.15990762412548065,8.662839889526367,1.1345417499542236
-0.21851709485054016,8.595780372619629,1.1252650022506714
-0.2761085331439972,8.528329849243164,1.115999460220337
-0.23789231479167938,6.029913425445557,0.7887874841690063
-0.2756556570529938,5.939183712005615,0.7766909599304199
-0.19015103578567505,3.5623104572296143,0.4657433331012726
-0.213841050863266,3.5455212593078613,0.4631395936012268
-0.24354073405265808,3.6213326454162598,0.4726337492465973
-0.2865073084831238,3.855252981185913,0.5027451515197754
-0.3113488554954529,3.830092668533325,0.4990779757499695
-0.33661890029907227,3.812483310699463,0.4964214563369751
-0.3598213493824005,3.775425672531128,0.49126115441322327
-0.38352200388908386,3.7498443126678467,0.4873564839363098
-0.40515804290771484,3.704831123352051,0.48086249828338623
-0.42978134751319885,3.694380283355713,0.4788970351219177
-0.44961580634117126,3.645303964614868,0.4719541370868683
-0.47195228934288025,3.6191608905792236,0.4680105447769165
-0.49341925978660583,3.5890448093414307,0.4635833203792572
-0.5119267106056213,3.5396270751953125,0.4564850926399231
-0.5361961722373962,3.536193609237671,0.4552282392978668
-0.562871515750885,3.547902822494507,0.45593875646591187
-0.5765402317047119,3.4791078567504883,0.4463324546813965
-1.0972167253494263,6.346956729888916,0.8128716349601746
-1.147519826889038,6.373793601989746,0.8149662017822266
-1.19935142993927,6.404019355773926,0.8171815276145935
-1.2497286796569824,6.430288791656494,0.8186522126197815
-1.3074092864990234,6.49036979675293,0.8244360685348511
-1.3622817993164062,6.530938148498535,0.8277350068092346
-1.417499303817749,6.567157745361328,0.8304735422134399
-1.4622795581817627,6.549777507781982,0.8264313340187073
-1.4950802326202393,6.487096309661865,0.8164446949958801
-1.52937650680542,6.435713291168213,0.8076697587966919
-0.690660834312439,2.821089029312134,0.353044331073761
-0.6967365741729736,2.76383376121521,0.3449067771434784
-0.7202042937278748,2.7740399837493896,0.3451865613460541
-0.7375088334083557,2.7616567611694336,0.34268662333488464
-0.7584440112113953,2.764238119125366,0.34189942479133606
-0.7876918911933899,2.7965896129608154,0.3447106182575226
-1.762983798980713,6.100841999053955,0.7494249939918518
-1.8013564348220825,6.073941707611084,0.7434971928596497
-1.1504502296447754,3.7825520038604736,0.4614073634147644
-1.1675541400909424,3.7451140880584717,0.45526614785194397
-1.1952193975448608,3.7448630332946777,0.4533728361129761
-1.2277066707611084,3.7591819763183594,0.45323118567466736
-1.2608731985092163,3.77309513092041,0.4530077278614044
-1.2971969842910767,3.7939460277557373,0.45358383655548096
-2.014371871948242,5.760151386260986,0.6857388615608215
-2.040964365005493,5.7101287841796875,0.6767248511314392
-2.074026584625244,5.682253837585449,0.6701051592826843
-2.104144811630249,5.646890640258789,0.6626495718955994
-2.128265857696533,5.592754364013672,0.6529467701911926
-2.1615781784057617,5.563885688781738,0.6462582349777222
-2.21601939201355,5.588993072509766,0.6458432674407959
-2.279552459716797,5.639491081237793,0.6478894948959351
-2.3423776626586914,5.685804843902588,0.6493993401527405
-2.3648624420166016,5.6308135986328125,0.6392490863800049
-2.3918795585632324,5.586241722106934,0.6302997469902039
-2.4479682445526123,5.609203338623047,0.6289888024330139
-2.504451274871826,5.63595724105835,0.6277139782905579
-3.9611358642578125,8.757271766662598,0.9686214923858643
-2.573847770690918,5.588866233825684,0.6137680411338806
-2.599741220474243,5.543240547180176,0.6042842864990234
-4.342252254486084,9.093528747558594,0.983975350856781
-2.6243488788604736,5.403657913208008,0.5799887180328369
-2.686028480529785,5.4390974044799805,0.5790136456489563
-2.679900884628296,5.334259510040283,0.5629755258560181
-2.743759870529175,5.368023872375488,0.5615562200546265
-2.746659278869629,5.284110069274902,0.5477716326713562
-2.7433788776397705,5.19433069229126,0.53326016664505
-2.7849771976470947,5.190530300140381,0.5276635885238647
-1.1552094221115112,2.1179168224334717,0.21306602656841278
-1.1891593933105469,2.1439669132232666,0.21335215866565704
-2.5442450046539307,4.516839981079102,0.44439247250556946
-2.54290771484375,4.446646690368652,0.43241050839424133
-2.5672855377197266,4.419784069061279,0.42453861236572266
-2.6358444690704346,4.466037750244141,0.4234856963157654
-1.2490142583847046,2.0840773582458496,0.19491177797317505
-1.2625824213027954,2.0762057304382324,0.19147001206874847
-2.6781082153320312,4.33797550201416,0.39413946866989136
-2.7353951930999756,4.3626708984375,0.39020389318466187
-2.977271795272827,4.680566310882568,0.4117733836174011
-3.0227973461151123,4.684548854827881,0.40503689646720886
-3.044485330581665,4.648000717163086,0.39443477988243103
-3.054814100265503,4.595280647277832,0.38240331411361694
-3.0710742473602295,4.557025909423828,0.37150487303733826
-3.0771048069000244,4.501892566680908,0.35903629660606384
-3.122556209564209,4.499800682067871,0.35023337602615356
-3.1331608295440674,4.455129146575928,0.3381084203720093
-2.8588786125183105,4.009914875030518,0.29621583223342896
-2.8778905868530273,3.977797508239746,0.2851109206676483
-2.9326865673065186,4.001331329345703,0.27779674530029297
-2.910247802734375,3.9168314933776855,0.2625052332878113
-2.456395387649536,3.4645473957061768,-0.15979813039302826
-2.434502124786377,3.489023208618164,-0.1699570119380951
-2.4188244342803955,3.5184166431427,-0.17972509562969208
-2.3325066566467285,3.4492549896240234,-0.18442796170711517
-2.2619926929473877,3.3974227905273438,-0.18918567895889282
-2.201267719268799,3.3575856685638428,-0.19408901035785675
-2.1716833114624023,3.367046594619751,-0.20168493688106537
-2.134979009628296,3.3622865676879883,-0.20803673565387726
-2.118608236312866,3.3905649185180664,-0.21641400456428528
-1.2783573865890503,2.080063819885254,-0.13670994341373444
-2.060652017593384,3.406931161880493,-0.23004679381847382
-2.040468454360962,3.427663803100586,-0.2374355047941208
-2.026811122894287,3.462405204772949,-0.24580328166484833
-1.9857065677642822,3.449706554412842,-0.25076165795326233
-1.202612042427063,2.1232964992523193,-0.15776203572750092
-1.9246883392333984,3.4564099311828613,-0.26228195428848267
-1.9459354877471924,3.5554754734039307,-0.2753825783729553
-1.9283324480056763,3.5822713375091553,-0.28278496861457825
-2.507329225540161,4.739052772521973,-0.38118085265159607
-2.48332142829895,4.777369022369385,-0.3911360204219818
-2.4577155113220215,4.811801433563232,-0.4007299244403839
-2.434384346008301,4.8491435050964355,-0.4104648530483246
-2.4063730239868164,4.8798065185546875,-0.4195820093154907
-2.380293369293213,4.917856693267822,-0.42944711446762085
-2.353675603866577,4.951538562774658,-0.4387225806713104
-1.5646494626998901,3.351451873779297,-0.30116206407546997
-1.5340770483016968,3.3479793071746826,-0.30491793155670166
-1.5066311359405518,3.351428747177124,-0.3092641830444336
-1.4954473972320557,3.3900399208068848,-0.3168085813522339
-1.4743214845657349,3.407297134399414,-0.3224472999572754
-1.4848116636276245,3.4997146129608154,-0.3350943922996521
-1.4371334314346313,3.4559757709503174,-0.33471643924713135
-1.4067397117614746,3.451204776763916,-0.33798903226852417
-1.382534384727478,3.4605188369750977,-0.3425997793674469
-1.3574217557907104,3.4699935913085938,-0.34715738892555237
-1.339411973953247,3.497370719909668,-0.3534151017665863
-1.7786599397659302,4.744311332702637,-0.4841385781764984
-2.0454862117767334,5.573652744293213,-0.5742307901382446
-1.9732131958007812,5.495798110961914,-0.5714241862297058
-1.6178237199783325,4.6106767654418945,-0.48367515206336975
-1.5950148105621338,4.650938987731934,-0.4921308755874634
-1.5685834884643555,4.67985725402832,-0.49938100576400757
-1.8706048727035522,5.7131805419921875,-0.6147134900093079
-0.9734577536582947,3.0460703372955322,-0.3302348852157593
-0.9675137996673584,3.104627847671509,-0.339172899723053
-0.9197071194648743,3.0255045890808105,-0.3329770863056183
-0.7738045454025269,2.61067795753479,-0.2894313633441925
-0.7510400414466858,2.600870132446289,-0.2902926504611969
-0.7483175992965698,2.661943197250366,-0.299049973487854
-0.7417988181114197,2.711826801300049,-0.30662792921066284
-0.7165814638137817,2.694211006164551,-0.3066118061542511
-0.7084141373634338,2.7402255535125732,-0.31378063559532166
-0.6890554428100586,2.744896173477173,-0.31605976819992065
-0.6650505065917969,2.7305755615234375,-0.31615784764289856
-1.4854837656021118,6.289513111114502,-0.7322326302528381
-1.440809965133667,6.299286365509033,-0.7374663352966309
-1.378855586051941,6.229136943817139,-0.7328655123710632
-1.3210864067077637,6.173671722412109,-0.7297219038009644
-1.265838384628296,6.125292778015137,-0.7273775935173035
-1.2086973190307617,6.061157703399658,-0.7230954766273499
-1.1327474117279053,5.897615432739258,-0.7069019079208374
-1.0764250755310059,5.824903964996338,-0.7008330225944519
-1.0279629230499268,5.789896488189697,-0.6992796659469604
-0.9548801779747009,5.605345249176025,-0.6795763969421387
-0.9614492058753967,5.890873908996582,-0.7169265747070312
-0.9357353448867798,6.000600337982178,-0.7329252362251282
-0.8959850072860718,6.021988391876221,-0.737738847732544
-0.8608248233795166,6.077670097351074,-0.7468167543411255
-0.8162915110588074,6.067799091339111,-0.747880756855011
-0.6215519905090332,4.8768415451049805,-0.6029421091079712
-0.7180914878845215,5.9662957191467285,-0.7395288348197937
-0.6733484864234924,5.95172119140625,-0.7394077181816101
-0.626778244972229,5.909750938415527,-0.7358697652816772
-0.5822187662124634,5.878976345062256,-0.7337284088134766
-0.537762463092804,5.8440117835998535,-0.7310783863067627
-0.4930328130722046,5.801076412200928,-0.7268555760383606
-0.44973695278167725,5.777192115783691,-0.7249581813812256
-0.2464873492717743,3.4796009063720703,-0.4373109042644501
-0.22224868834018707,3.4811224937438965,-0.4381909966468811
-0.1960446536540985,3.447652816772461,-0.4346483051776886
-0.2822226881980896,5.659099102020264,-0.7139695882797241
-0.2410484105348587,5.637628555297852,-0.7118257880210876
-0.20052966475486755,5.604216575622559,-0.7081924676895142
-0.16096311807632446,5.582133769989014,-0.7060167193412781
-0.1216529905796051,5.559798717498779,-0.7036478519439697
-0.08210746943950653,5.502373695373535,-0.696392834186554
-0.0430624894797802,5.487303256988525,-0.6945327520370483
-0.003916689194738865,4.39461612701416,-0.556294858455658
0.026794174686074257,4.417778491973877,-0.5593186616897583
0.07028153538703918,5.397883415222168,-0.6832411885261536
0.10780994594097137,5.397331714630127,-0.6827077865600586
0.1125389039516449,4.180075645446777,-0.5284039974212646
0.1807188093662262,5.3140869140625,-0.6713559627532959
0.21405820548534393,5.2237043380737305,-0.6595842242240906
0.20152559876441956,4.204092025756836,-0.5302370190620422
0.22985102236270905,4.187227725982666,-0.5273739695549011
0.2553544342517853,4.127617359161377,-0.5191643238067627
0.28291672468185425,4.102624416351318,-0.5153363347053528
0.315531462430954,4.15477991104126,-0.521230936050415
0.34556499123573303,4.1681132316589355,-0.5218452215194702
0.37096402049064636,4.1271843910217285,-0.5156395435333252
0.39397770166397095,4.066805839538574,-0.5070524215698242
0.42195385694503784,4.056375503540039,-0.5047134160995483
0.45099470019340515,4.061224460601807,-0.5042747259140015
0.4781811237335205,4.050529956817627,-0.5015115737915039
0.503316342830658,4.024263381958008,-0.4968552887439728
0.6424866914749146,4.8627424240112305,-0.5987014174461365
0.6779660582542419,4.866026401519775,-0.5974226593971252
0.7095171213150024,4.846139430999756,-0.5931838750839233
0.7382896542549133,4.8107829093933105,-0.5867456793785095
0.7715649008750916,4.805885314941406,-0.5840614438056946
0.8049659729003906,4.800731182098389,-0.5813642144203186
0.8450122475624084,4.833553314208984,-0.583277702331543
0.8804678916931152,4.835474967956543,-0.5811376571655273
0.9109499454498291,4.814418315887451,-0.576099693775177
0.9411827325820923,4.793167591094971,-0.5710817575454712
0.9683813452720642,4.7564568519592285,-0.5642495155334473
0.9999170303344727,4.742375373840332,-0.5601488351821899
1.0291063785552979,4.716699123382568,-0.5542669296264648
1.0582245588302612,4.694765567779541,-0.5488628149032593
1.0854426622390747,4.665064334869385,-0.5425896048545837
1.1124498844146729,4.635170936584473,-0.5363343954086304
1.1427756547927856,4.620218276977539,-0.5317579507827759
1.1770251989364624,4.620095729827881,-0.5285221934318542
1.2048672437667847,4.59731912612915,-0.5227805376052856
1.2327804565429688,4.574289321899414,-0.5170228481292725
1.2636500597000122,4.562286376953125,-0.512538731098175
1.2909343242645264,4.538971424102783,-0.5065910220146179
1.3183414936065674,4.515402317047119,-0.5004504919052124
1.3427916765213013,4.484353542327881,-0.49358510971069336
1.3695067167282104,4.460500240325928,-0.48752498626708984
1.3982809782028198,4.44390344619751,-0.48226988315582275
1.4311572313308716,4.442103385925293,-0.47832584381103516
1.456101894378662,4.4140520095825195,-0.47151979804039
1.4842138290405273,4.396984100341797,-0.4659615755081177
1.5072861909866333,4.364968776702881,-0.4588419198989868
1.2694942951202393,3.5961601734161377,-0.3748071491718292
1.283499836921692,3.5585708618164062,-0.36761507391929626
