X,Y,Z
-0.34977421164512634,3.8150722980499268,0.4665357768535614
-0.3719072937965393,3.770216464996338,0.46055319905281067
-0.3939248025417328,3.7290844917297363,0.4550565481185913
-0.4150352478027344,3.683966636657715,0.4491039216518402
-0.43788161873817444,3.657982349395752,0.4455127716064453
-0.4587463140487671,3.6164462566375732,0.4399263560771942
-0.4809819161891937,3.594123601913452,0.43651583790779114
-0.5024296045303345,3.567819833755493,0.4326493442058563
-0.5224412679672241,3.5337114334106445,0.4278658330440521
-0.546942412853241,3.5301313400268555,0.4267999231815338
-0.5663127899169922,3.4918458461761475,0.4215528964996338
-0.586556613445282,3.465038299560547,0.417641282081604
-1.1207661628723145,6.3568291664123535,0.7645936012268066
-1.1732831001281738,6.398921012878418,0.7680826783180237
-1.2264271974563599,6.440593242645264,0.7715330123901367
-1.2818199396133423,6.485478401184082,0.7753500938415527
-1.3363040685653687,6.518355846405029,0.7777219414710999
-1.3910207748413086,6.554832935333252,0.7803887724876404
-1.442334532737732,6.575891971588135,0.7808361649513245
-1.475142240524292,6.513295650482178,0.7713931798934937
-1.5100090503692627,6.461843967437744,0.7633264660835266
-0.6704884171485901,2.7805087566375732,0.3275933861732483
-0.689802348613739,2.775941848754883,0.3262214958667755
-0.7108057737350464,2.7788233757019043,0.3256392478942871
-0.7276884317398071,2.7666101455688477,0.3231702148914337
-0.7373208999633789,2.728070020675659,0.31765761971473694
-0.7698260545730591,2.771677017211914,0.3216916620731354
-1.7485913038253784,6.130222797393799,0.7092186808586121
-1.7771052122116089,6.069863319396973,0.7000013589859009
-1.8073691129684448,6.020843029022217,0.691815972328186
-1.8446457386016846,5.997803211212158,0.686509370803833
-1.8765467405319214,5.9558024406433105,0.6790374517440796
-1.905741810798645,5.906195163726807,0.6707494258880615
-1.9383898973464966,5.867401123046875,0.6637240648269653
-1.9642339944839478,5.810085773468018,0.6546196937561035
-2.0008366107940674,5.789867877960205,0.6493129134178162
-2.028200149536133,5.743774890899658,0.6411547660827637
-1.376810908317566,3.8152122497558594,0.4238530993461609
-1.3979867696762085,3.791283369064331,0.4191778898239136
-1.4216344356536865,3.7745132446289062,0.41532614827156067
-1.4235033988952637,3.70347261428833,0.4053593873977661
-1.4326807260513306,3.6544058322906494,0.3977861702442169
-1.446012020111084,3.616039514541626,0.3913993537425995
-1.4681750535964966,3.599059820175171,0.38732481002807617
-1.478320837020874,3.553191900253296,0.3801782727241516
-1.4737632274627686,3.475348949432373,0.36957016587257385
-1.458417296409607,3.376551628112793,0.35672348737716675
-1.4672638177871704,3.334876537322998,0.3499705195426941
-1.4902905225753784,3.325007677078247,0.3465562164783478
-1.5135045051574707,3.3148648738861084,0.3431035876274109
-1.5442992448806763,3.3224542140960693,0.3413783311843872
-1.5447443723678589,3.266770839691162,0.33306989073753357
-1.5499413013458252,3.2215635776519775,0.3258648216724396
-1.5723518133163452,3.211061716079712,0.32213589549064636
-1.59481942653656,3.2003376483917236,0.3183848559856415
-1.619837760925293,3.1968586444854736,0.31520041823387146
-1.644565463066101,3.193351984024048,0.31194937229156494
-1.6768051385879517,3.2033119201660156,0.3099653124809265
-1.7032651901245117,3.198554754257202,0.30636322498321533
-1.7401617765426636,3.214493751525879,0.3047338128089905
-1.1891841888427734,2.1628854274749756,0.2028038054704666
-2.501673936843872,4.480560302734375,0.4154718220233917
-2.5442955493927,4.483977317810059,0.41085386276245117
-2.5547475814819336,4.429252624511719,0.40083035826683044
-2.6092350482940674,4.456745147705078,0.39808937907218933
-1.2375596761703491,2.0828163623809814,0.18358644843101501
-1.247869849205017,2.067852735519409,0.17967887222766876
-2.661058187484741,4.341248989105225,0.37167173624038696
-2.7451889514923096,4.413561820983887,0.37185823917388916
-2.9836840629577637,4.729183197021484,0.3920958638191223
-3.002042531967163,4.685889720916748,0.3816460072994232
-3.034045457839966,4.665927410125732,0.3730561137199402
-3.0339503288269043,4.601446628570557,0.36082735657691956
-3.0500476360321045,4.5587005615234375,0.3500059247016907
-3.082054853439331,4.537832736968994,0.34066805243492126
-3.097824811935425,4.499403953552246,0.32986968755722046
-3.131486177444458,4.486249923706055,0.3207728862762451
-2.8337490558624268,4.000267028808594,0.2781417667865753
-2.868751287460327,3.9951117038726807,0.26956915855407715
-2.894592761993408,3.9770703315734863,0.25993627309799194
-2.908231019973755,3.9387176036834717,0.24834011495113373
-3.0001258850097656,4.198855876922607,-0.19076886773109436
-2.443474054336548,3.4733433723449707,-0.16679120063781738
-2.4405269622802734,3.5225412845611572,-0.17773546278476715
-2.391467571258545,3.5084145069122314,-0.1854948103427887
-2.321046829223633,3.4566562175750732,-0.19034965336322784
-2.2502248287200928,3.404906749725342,-0.19489148259162903
-2.1881983280181885,3.3657782077789307,-0.19989372789859772
-2.147698402404785,3.35431170463562,-0.20584090054035187
-2.1227777004241943,3.3696706295013428,-0.2133573740720749
-2.1142849922180176,3.4112942218780518,-0.222494974732399
-1.2634949684143066,2.07067608833313,-0.13878867030143738
-2.048515558242798,3.4139044284820557,-0.23500601947307587
-2.0310580730438232,3.441950798034668,-0.24298688769340515
-2.010815382003784,3.462360382080078,-0.25013846158981323
-1.1834020614624023,2.0715279579162598,-0.15303289890289307
-1.2024435997009277,2.1410796642303467,-0.16161687672138214
-1.9480184316635132,3.527797222137451,-0.27183830738067627
-1.9380500316619873,3.568305492401123,-0.2803596556186676
-1.6897984743118286,3.165987968444824,-0.25343891978263855
-1.608747959136963,3.067368984222412,-0.2500383257865906
-1.587171196937561,3.07816219329834,-0.25523945689201355
-1.5577243566513062,3.0752737522125244,-0.25933024287223816
-1.538689374923706,3.0931105613708496,-0.2650347352027893
-1.5232948064804077,3.1176342964172363,-0.271279901266098
-2.3641514778137207,4.925155162811279,-0.4349370300769806
-2.3404011726379395,4.965950012207031,-0.44481536746025085
-2.3173470497131348,5.010395050048828,-0.455030620098114
-2.2874739170074463,5.04050874710083,-0.463996559381485
-2.261627435684204,5.077045440673828,-0.47342032194137573
-2.2221791744232178,5.0852580070495605,-0.48005548119544983
-2.147106170654297,5.0110578536987305,-0.47875192761421204
-2.2275168895721436,5.301711559295654,-0.512446403503418
-2.183734893798828,5.302350044250488,-0.5184507369995117
-1.8852653503417969,4.671396255493164,-0.4617404639720917
-1.832979679107666,4.637219429016113,-0.46321213245391846
-1.3548998832702637,3.4998364448547363,-0.3532082140445709
-1.3331466913223267,3.516047239303589,-0.35841214656829834
-1.7676562070846558,4.764520645141602,-0.4904518723487854
-2.0226686000823975,5.573134899139404,-0.5789656043052673
-1.9283087253570557,5.4328413009643555,-0.569516122341156
-1.607268214225769,4.63035774230957,-0.48968976736068726
-1.579717755317688,4.655677318572998,-0.49664393067359924
-1.8709070682525635,5.647723197937012,-0.6074004173278809
-1.8700335025787354,5.782258987426758,-0.626834511756897
-0.9743897914886475,3.0862245559692383,-0.3371759355068207
-0.9528361558914185,3.0925850868225098,-0.3404792845249176
-0.8135896921157837,2.708284854888916,-0.3002967834472656
-0.7561628818511963,2.583225727081299,-0.28841206431388855
-0.7556848526000977,2.651793956756592,-0.29813411831855774
-0.7495848536491394,2.701624631881714,-0.3057933747768402
-0.7377065420150757,2.732764959335327,-0.3113382160663605
-0.7173207402229309,2.733896017074585,-0.31333255767822266
-0.7027076482772827,2.7574455738067627,-0.31792235374450684
-0.6709551215171814,2.713106632232666,-0.3146863579750061
-0.6619443893432617,2.7589707374572754,-0.3218890130519867
-1.4704216718673706,6.324236869812012,-0.741729199886322
-1.3967137336730957,6.205173969268799,-0.7314420342445374
-1.3447728157043457,6.176368713378906,-0.7317146062850952
-1.2641090154647827,6.010543346405029,-0.7157013416290283
-1.2135926485061646,5.976871013641357,-0.7151765823364258
-1.1625062227249146,5.939116954803467,-0.7136255502700806
-1.1084203720092773,5.881886005401611,-0.7097142338752747
-1.0541493892669678,5.816508769989014,-0.7047614455223083
-0.9830005168914795,5.651417255401611,-0.6876776218414307
-0.9351934194564819,5.608006477355957,-0.6849758625030518
-0.9593842625617981,6.012326717376709,-0.7368181347846985
-0.9136842489242554,5.995508670806885,-0.7372388243675232
-0.8813853859901428,6.066562652587891,-0.748500645160675
-0.8383162021636963,6.0722551345825195,-0.7518104910850525
-0.6347326040267944,4.847498416900635,-0.6018264293670654
-0.7383859157562256,5.963473320007324,-0.742301881313324
-0.6975847482681274,5.975872993469238,-0.7458007335662842
-0.6521955132484436,5.945586204528809,-0.7439900040626526
-0.6037431955337524,5.880255222320557,-0.7377776503562927
-0.5601123571395874,5.864870548248291,-0.7372065782546997
-0.518486738204956,5.860686779022217,-0.7380495071411133
-0.47384926676750183,5.817574501037598,-0.7340114712715149
-0.2577877640724182,3.462932586669922,-0.43777135014533997
-0.23365919291973114,3.464522123336792,-0.4387354850769043
-0.2060347944498062,3.4157190322875977,-0.43303728103637695
-0.18216267228126526,3.4169921875,-0.4336945116519928
-0.16321103274822235,3.522611618041992,-0.44763070344924927
-0.14282765984535217,3.6281211376190186,-0.46160608530044556
-0.11779814958572388,3.6367123126983643,-0.46307969093322754
-0.09211025387048721,3.641295909881592,-0.4638383686542511
-0.06714535504579544,3.6650619506835938,-0.4670618772506714
-0.041800640523433685,3.6731555461883545,-0.4683114290237427
-0.016384730115532875,3.696572780609131,-0.4715394675731659
0.00938206072896719,3.731476068496704,-0.47594699263572693
0.03596225008368492,3.7545886039733887,-0.47872456908226013
0.06293902546167374,3.808513641357422,-0.485453724861145
0.09006219357252121,3.8351244926452637,-0.48872166872024536
0.11814809590578079,3.8809075355529785,-0.4944543242454529
0.14698925614356995,3.930408000946045,-0.5002727508544922
0.17600463330745697,3.968087911605835,-0.5045453310012817
0.20860692858695984,4.055842399597168,-0.5151845216751099
0.236776202917099,4.054380416870117,-0.5145134925842285
0.2672373056411743,4.087531089782715,-0.518211841583252
0.29945844411849976,4.1398444175720215,-0.5238984227180481
0.32291924953460693,4.072139739990234,-0.5144240260124207
0.3546998202800751,4.1046576499938965,-0.5176242589950562
0.383228600025177,4.102239608764648,-0.5164515376091003
0.40902790427207947,4.07264518737793,-0.511744499206543
0.4330774247646332,4.031378269195557,-0.5052863955497742
0.4654230773448944,4.066995143890381,-0.5084876418113708
0.4904051423072815,4.03302526473999,-0.502987265586853
0.5174670815467834,4.022027492523193,-0.500407338142395
0.5521010160446167,4.0685200691223145,-0.5047487616539001
0.5878753066062927,4.118603706359863,-0.5093069672584534
0.7209057807922363,4.812624931335449,-0.5932181477546692
0.752579391002655,4.792385578155518,-0.5887998938560486
0.7803091406822205,4.752887725830078,-0.5820953249931335
0.8164548277854919,4.766837120056152,-0.5815685391426086
0.8589473962783813,4.81489372253418,-0.5850863456726074
0.8908616304397583,4.801567554473877,-0.5811478495597839
0.9184625744819641,4.765130043029785,-0.5744423270225525
0.9522037506103516,4.758875846862793,-0.5713392496109009
0.9850316047668457,4.752607345581055,-0.5678518414497375
1.012122631072998,4.719552993774414,-0.5612062215805054
1.0415140390396118,4.697670936584473,-0.5559240579605103
1.0707635879516602,4.675579071044922,-0.5506518483161926
1.0983816385269165,4.645679950714111,-0.544278085231781
1.124853491783142,4.615828514099121,-0.5377529859542847
1.1604150533676147,4.623477935791016,-0.5356272459030151
1.1906794309616089,4.608211994171143,-0.5308326482772827
1.2188284397125244,4.585230827331543,-0.5251863598823547
1.2458499670028687,4.558330059051514,-0.5187579989433289
1.2772023677825928,4.550132751464844,-0.5144608616828918
1.3021918535232544,4.519285678863525,-0.507628321647644
1.333707571029663,4.510571479797363,-0.5032923817634583
1.362794280052185,4.4942426681518555,-0.49805524945259094
1.3849622011184692,4.455450057983398,-0.4900350570678711
1.4155312776565552,4.4463419914245605,-0.48539429903030396
1.4416369199752808,4.422113418579102,-0.4790888726711273
1.4712656736373901,4.408756256103516,-0.47398748993873596
1.4990636110305786,4.391697406768799,-0.4682719111442566
1.516299843788147,4.345160961151123,-0.4593849182128906
1.2737488746643066,3.5697338581085205,-0.374099999666214
1.296024203300476,3.553868055343628,-0.3691648244857788
1.3342454433441162,3.5816569328308105,-0.3686772882938385
1.6254825592041016,4.274394989013672,-0.4357680082321167
1.6546536684036255,4.2637248039245605,-0.43047866225242615
1.6821603775024414,4.245136737823486,-0.42423421144485474
1.7045575380325317,4.215760231018066,-0.4170319736003876
1.739226222038269,4.218966007232666,-0.41283169388771057
1.761956810951233,4.193195343017578,-0.4058152139186859
1.7910901308059692,4.181385517120361,-0.4000980257987976
1.811464786529541,4.147688865661621,-0.39222481846809387
1.8365843296051025,4.128660202026367,-0.38570040464401245
1.8613672256469727,4.109548568725586,-0.3791627883911133
1.8962475061416626,4.111274719238281,-0.37447279691696167
1.9183157682418823,4.08437442779541,-0.3671388626098633
1.9399396181106567,4.057450771331787,-0.3596354126930237
1.9639025926589966,4.037790298461914,-0.3528558909893036
1.9865349531173706,4.014217376708984,-0.34566575288772583
2.0146243572235107,4.000739097595215,-0.3392934203147888
2.043595790863037,3.990939140319824,-0.33313924074172974
2.0650696754455566,3.967235803604126,-0.3258031904697418
2.085631847381592,3.939387798309326,-0.31794506311416626
2.105797290802002,3.9114887714385986,-0.3101583421230316
2.135822057723999,3.9045915603637695,-0.3039587140083313
2.1505916118621826,3.870265483856201,-0.2956470549106598
2.1488282680511475,3.8047637939453125,-0.2848363220691681
2.1717090606689453,3.7832860946655273,-0.2772817015647888
2.204744338989258,3.7826976776123047,-0.2712942361831665
2.2104880809783936,3.734607696533203,-0.26184314489364624
2.236565589904785,3.719553232192993,-0.25458332896232605
2.2858943939208984,3.7448766231536865,-0.24997885525226593
2.286388635635376,3.6901192665100098,-0.23991475999355316
2.312077283859253,3.6745715141296387,-0.2322426289319992
2.3496906757354736,3.678919553756714,-0.22575531899929047
2.3568224906921387,3.637687921524048,-0.21646535396575928
2.3817825317382812,3.621866464614868,-0.20842282474040985
2.4243407249450684,3.6315858364105225,-0.20153602957725525
2.4216678142547607,3.5774035453796387,-0.19124963879585266
2.4417121410369873,3.554736375808716,-0.18235735595226288
2.497041702270508,3.5833394527435303,-0.17584308981895447
2.502047061920166,3.5421030521392822,-0.16585691273212433
2.5269298553466797,3.524831533432007,-0.15630629658699036
2.5637078285217285,3.527580499649048,-0.1476566642522812
2.5913596153259277,3.5174193382263184,-0.13812178373336792
2.7872116565704346,3.940593719482422,0.299105167388916
2.7265920639038086,3.9156627655029297,0.3059937357902527
2.711407423019409,3.953810691833496,0.31728923320770264
2.6972343921661377,4.000343322753906,0.3293493986129761
2.6594531536102295,4.006107330322266,0.337372362613678
2.6434099674224854,4.0439229011535645,0.34783047437667847
2.5953314304351807,4.03718900680542,0.3542782664299011
2.569716215133667,4.062028884887695,0.3631695508956909
2.5570242404937744,4.106050968170166,0.3736693561077118
2.529913902282715,4.131221771240234,0.382186621427536
2.5084242820739746,4.166312217712402,0.3916369676589966
2.4691264629364014,4.166419506072998,0.39735084772109985
2.439181089401245,4.183327674865723,0.4045853614807129
2.41270112991333,4.21141242980957,0.4128415584564209
2.3775932788848877,4.2217116355896,0.4191769063472748
2.315809726715088,4.1797895431518555,0.41999420523643494
2.2577731609344482,4.1444315910339355,0.42125362157821655
2.2266685962677,4.160585880279541,0.4275303781032562
2.206143856048584,4.197238922119141,0.43598440289497375
2.176643133163452,4.2119975090026855,0.44189175963401794
2.152053117752075,4.237086772918701,0.4488575756549835
2.123964548110962,4.259321212768555,0.45530885457992554
2.09224271774292,4.274380207061768,0.46102485060691833
2.064821720123291,4.295723915100098,0.46731579303741455
2.037968158721924,4.3165388107299805,0.4734867513179779
1.9967350959777832,4.309503555297852,0.47637394070625305
1.9777499437332153,4.3518548011779785,0.4846540093421936
1.9886798858642578,4.461421012878418,0.5005059242248535
1.9745615720748901,4.513814926147461,0.5099287629127502
1.9423704147338867,4.527179718017578,0.515063464641571
1.924206256866455,4.5765581130981445,0.5239130854606628
1.899478554725647,4.611542701721191,0.5311775207519531
1.8662407398223877,4.624549388885498,0.5358940958976746
1.846677303314209,4.669469356536865,0.5442698001861572
1.7951021194458008,4.634897708892822,0.5434446930885315
1.766775369644165,4.661883354187012,0.5494008660316467
1.3629895448684692,3.676694631576538,0.4355100393295288
1.3232342004776,3.6495304107666016,0.4344754219055176
1.3003215789794922,3.665616512298584,0.43852636218070984
1.276734471321106,3.6817269325256348,0.4426533281803131
1.638729453086853,4.837296962738037,0.5840805768966675
1.6085153818130493,4.86331844329834,0.5896815061569214
1.5660909414291382,4.852222919464111,0.5908089280128479
1.5170077085494995,4.814486980438232,0.5885983109474182
1.5044472217559814,4.895142078399658,0.6009425520896912
1.4620167016983032,4.879209995269775,0.6012457013130188
1.4366854429244995,4.922703742980957,0.608659029006958
1.4192332029342651,4.995938301086426,0.6198246479034424
1.3682830333709717,4.949390888214111,0.6161321401596069
1.306511640548706,4.85730504989624,0.6067029237747192
1.279753565788269,4.896095275878906,0.6136624217033386
1.2447725534439087,4.904754161834717,0.6164632439613342
1.2151142358779907,4.935802459716797,0.622056782245636
1.18597412109375,4.970442771911621,0.6281520128250122
1.1512024402618408,4.978269100189209,0.6308547854423523
1.1243884563446045,5.023778438568115,0.6383999586105347
1.0925476551055908,5.046326160430908,0.6429961323738098
1.0566461086273193,5.053675174713135,0.6452732682228088
1.0114996433258057,5.0151753425598145,0.641716480255127
0.9832177758216858,5.059994697570801,0.6488514542579651
2.0576632022857666,11.00546932220459,1.414353370666504
1.9877378940582275,11.05706787109375,1.424109697341919
0.9054015278816223,5.246751308441162,0.6771668195724487
1.8216290473937988,11.021712303161621,1.4247239828109741
1.737968921661377,10.999411582946777,1.424120545387268
1.64420485496521,10.915365219116211,1.4156057834625244
1.54513680934906,10.764979362487793,1.3984181880950928
1.4519075155258179,10.640634536743164,1.3846169710159302
1.3568050861358643,10.488689422607422,1.3670072555541992
1.2674014568328857,10.37075138092041,1.3530421257019043
1.181830883026123,10.271343231201172,1.3415312767028809
1.097881555557251,10.182921409606934,1.3315162658691406
1.0196453332901,10.116761207580566,1.3244081735610962
0.16054114699363708,1.7122832536697388,0.22443094849586487
0.3782353401184082,4.360443592071533,0.5722002983093262
0.3417857587337494,4.289547443389893,0.5632111430168152
0.3128036856651306,4.314973831176758,0.5668997168540955
0.2845444679260254,4.347897529602051,0.5715997219085693
0.3299823999404907,5.644930839538574,0.7426332235336304
0.29073578119277954,5.646979808807373,0.7434557676315308
0.25188231468200684,5.656491279602051,0.7452966570854187
0.21403548121452332,5.720014572143555,0.7537934184074402
0.17421172559261322,5.725200653076172,0.7546048760414124
0.13514284789562225,5.764954566955566,0.7600103616714478
0.09546276181936264,5.796694278717041,0.7643983364105225
0.055189114063978195,5.8049235343933105,0.7657241821289062
0.014076217077672482,5.824491500854492,0.7685896158218384
-0.049277760088443756,10.84728717803955,1.4311919212341309
-0.12494557350873947,10.86223316192627,1.4327632188796997
-0.15914340317249298,8.619233131408691,1.136641263961792
-0.21892821788787842,8.610223770141602,1.135245442390442
-0.2765892446041107,8.53886604309082,1.1256855726242065
-0.2380286455154419,6.0291242599487305,0.7947549223899841
-0.2788103520870209,6.00418758392334,0.791140079498291
-0.1905524879693985,3.5696194171905518,0.47001364827156067
-0.21664422750473022,3.59147572517395,0.47257617115974426
-0.2381468117237091,3.539716958999634,0.46547645330429077
-0.5826463103294373,7.833061218261719,1.0294532775878906
-0.3135155439376831,3.852715015411377,0.5060727596282959
-0.33506911993026733,3.7926623821258545,0.4978365898132324
-0.3604738414287567,3.782665491104126,0.495947927236557
-0.3849685788154602,3.764791488647461,0.49305346608161926
-0.4071097671985626,3.7236127853393555,0.4871300756931305
-0.4289436936378479,3.686177968978882,0.4817343056201935
-0.4517005980014801,3.6601529121398926,0.4778606593608856
-0.47107213735580444,3.610950469970703,0.4709516763687134
-0.4932016432285309,3.5885961055755615,0.4672732353210449
-0.513799250125885,3.554546594619751,0.46209198236465454
-0.5323745608329773,3.5127809047698975,0.45595625042915344
-0.5628007650375366,3.547422170639038,0.4597524404525757
-0.5780022740364075,3.486227512359619,0.45115071535110474
-1.0975148677825928,6.345981597900391,0.8200459480285645
-1.148449182510376,6.380626201629639,0.8227660655975342
-1.1999298334121704,6.41093111038208,0.8249145150184631
-1.25639009475708,6.467586040496826,0.8304915428161621
-1.3110960721969604,6.508481502532959,0.8340359926223755
-1.3659090995788574,6.545082092285156,0.8370355367660522
-1.4220445156097412,6.5850396156311035,0.8404831886291504
-1.4601408243179321,6.5413994789123535,0.832667350769043
-1.4924688339233398,6.478849411010742,0.8225443959236145
-1.534764051437378,6.461420059204102,0.8182082176208496
-0.6934042572975159,2.83198881149292,0.3576808571815491
-0.6931950449943542,2.7483296394348145,0.3462187945842743
-0.7223309278488159,2.7810893058776855,0.34941646456718445
-0.7391936779022217,2.7688443660736084,0.34675291180610657
-0.7620499730110168,2.7789454460144043,0.34690240025520325
-0.7745941281318665,2.7515225410461426,0.3423849940299988
-1.7672998905181885,6.114861488342285,0.7584360837936401
-1.7974218130111694,6.058030605316162,0.7489241361618042
-1.8301607370376587,6.016288757324219,0.7412149906158447
-1.8603947162628174,5.970982074737549,0.7327592372894287
-1.8889776468276978,5.921820640563965,0.7238935232162476
-1.9245455265045166,5.894563674926758,0.7177395820617676
-1.9553163051605225,5.84816312789917,0.7091978192329407
-1.9861092567443848,5.805508613586426,0.7012230753898621
-2.017953395843506,5.770419597625732,0.6938706636428833
-2.054189920425415,5.749953269958496,0.68819260597229
-1.3890942335128784,3.807335138320923,0.45356497168540955
-1.4045894145965576,3.768906593322754,0.44684216380119324
-1.4161337614059448,3.7193121910095215,0.43880265951156616
-1.433288335800171,3.688140392303467,0.4329388737678528
-1.4494025707244873,3.6571929454803467,0.42692798376083374
-1.460768222808838,3.6153981685638428,0.419708251953125
-1.467711091041565,3.5626304149627686,0.41123339533805847
-1.493001937866211,3.552520513534546,0.4076390266418457
-1.4825536012649536,3.4602959156036377,0.39470961689949036
-1.4605704545974731,3.3474631309509277,0.379329115152359
-1.478163242340088,3.327383518218994,0.37456175684928894
-1.4975203275680542,3.310594320297241,0.3701538145542145
-1.5275458097457886,3.3143959045410156,0.3679398000240326
-1.5522069931030273,3.3076276779174805,0.36457958817481995
-1.562423825263977,3.273118257522583,0.35796287655830383
-1.5807123184204102,3.2561089992523193,0.35330647230148315
-1.5925596952438354,3.224764585494995,0.34705644845962524
-1.608502745628357,3.199887275695801,0.3414252698421478
-1.6339768171310425,3.1961307525634766,0.3380441665649414
-1.6622413396835327,3.1995108127593994,0.3352663815021515
-1.686987280845642,3.1957759857177734,0.33173733949661255
-1.7239177227020264,3.2118375301361084,0.3300759494304657
-1.1741989850997925,2.1516425609588623,0.21887122094631195
-1.1773960590362549,2.123561382293701,0.2136179804801941
-2.506746530532837,4.452610492706299,0.44290047883987427
-2.5060858726501465,4.3820600509643555,0.43076106905937195
-2.5818498134613037,4.442402362823486,0.43130582571029663
-2.589945077896118,4.388728141784668,0.42058515548706055
-1.2565391063690186,2.097527265548706,0.1982721984386444
-2.6485958099365234,4.35498046875,0.4058666229248047
-2.658527374267578,4.303926467895508,0.3951491415500641
-2.9579713344573975,4.719236373901367,0.4265095591545105
-2.994602918624878,4.710697174072266,0.4188598692417145
-3.027301788330078,4.6905646324157715,0.40963760018348694
-3.0366997718811035,4.63413667678833,0.39721593260765076
-3.0448644161224365,4.582859516143799,0.38512688875198364
-3.083456516265869,4.576581001281738,0.37674006819725037
-3.0825140476226807,4.507387638092041,0.3626696467399597
-3.1080267429351807,4.481167316436768,0.3518904745578766
-2.9121620655059814,4.143222808837891,0.31735479831695557
-2.83253812789917,3.97106671333313,0.29559409618377686
-2.894996166229248,4.003764629364014,0.28919312357902527
-2.8788678646087646,3.9294114112854004,0.27490752935409546
-2.920438289642334,3.9285941123962402,0.26487666368484497
-2.465311050415039,3.476870536804199,-0.17078793048858643
-2.435004711151123,3.4881293773651123,-0.1807558536529541
-2.4142582416534424,3.5114779472351074,-0.1908775418996811
-2.3453125953674316,3.4682021141052246,-0.19740228354930878
-2.275289535522461,3.4160051345825195,-0.2023085504770279
-2.2052841186523438,3.36354660987854,-0.20681726932525635
-2.1588423252105713,3.346686840057373,-0.21324856579303741
-2.143571376800537,3.3744730949401855,-0.22203688323497772
-2.1140966415405273,3.383281946182251,-0.22970500588417053
-1.2740763425827026,2.072950601577759,-0.14495189487934113
-2.0648369789123535,3.4124982357025146,-0.24508722126483917
-2.0360467433929443,3.420142412185669,-0.2520442605018616
-2.01845121383667,3.44808030128479,-0.2605035603046417
-1.997428297996521,3.4687459468841553,-0.2682736814022064
-1.2101147174835205,2.1361899375915527,-0.16890360414981842
-1.1829289197921753,2.1242988109588623,-0.17157906293869019
-1.932849407196045,3.530144214630127,-0.29096800088882446
-2.5305049419403076,4.698923587799072,-0.3948213458061218
-1.6286062002182007,3.077915906906128,-0.2635333836078644
-1.597037672996521,3.0719854831695557,-0.26780155301094055
-1.5682194232940674,3.068828821182251,-0.2721065580844879
-1.5465143918991089,3.0793352127075195,-0.27758127450942993
-1.5309064388275146,3.1040072441101074,-0.28426340222358704
-2.391658306121826,4.940117359161377,-0.4595767557621002
-2.3519461154937744,4.945446968078613,-0.4668563902378082
-2.3250792026519775,4.97883939743042,-0.4767475128173828
-2.3051507472991943,5.030149459838867,-0.4882952570915222
-2.2784993648529053,5.067091941833496,-0.49849626421928406
-2.2476210594177246,5.092837810516357,-0.5074998140335083
-2.05171537399292,4.7404375076293945,-0.4784056842327118
-1.9946469068527222,4.7006988525390625,-0.4800998270511627
-1.9309927225112915,4.642360687255859,-0.47973334789276123
-1.8911007642745972,4.6370625495910645,-0.4846285283565521
-1.8381626605987549,4.5990400314331055,-0.4859672486782074
-1.3625733852386475,3.4822754859924316,-0.3718965947628021
-1.344525933265686,3.5095815658569336,-0.37869998812675476
-1.7621198892593384,4.697273254394531,-0.5119454264640808
-2.04109525680542,5.558713912963867,-0.6118219494819641
-1.9827959537506104,5.521227836608887,-0.6132925152778625
-1.6247351169586182,4.6293864250183105,-0.5190036296844482
-1.5946922302246094,4.64738130569458,-0.5256444811820984
-1.5596767663955688,4.650400161743164,-0.5305973291397095
-1.8699452877044678,5.708729267120361,-0.656647264957428
-0.9755119681358337,3.051025629043579,-0.3537391126155853
-0.9581891894340515,3.0723633766174316,-0.3590577244758606
-0.8259376287460327,2.714648485183716,-0.319706529378891
-0.7670798301696777,2.5860846042633057,-0.3068084418773651
-0.7551659345626831,2.6135101318359375,-0.3122069537639618
-0.7502556443214417,2.667034864425659,-0.320797324180603
-0.7398203015327454,2.7018110752105713,-0.3271760940551758
-0.7185879945755005,2.6991629600524902,-0.3290994465351105
-0.7101557850837708,2.7451796531677246,-0.33670324087142944
-0.6860056519508362,2.7310075759887695,-0.33695027232170105
-0.6649766564369202,2.727908134460449,-0.33854761719703674
-0.6503781676292419,2.75104022026062,-0.34341391921043396
-1.4474842548370361,6.323215484619141,-0.7937241196632385
-1.362579584121704,6.150932788848877,-0.7759785056114197
-1.3240156173706055,6.182502269744873,-0.7838888168334961
-1.274579405784607,6.160586833953857,-0.7850064039230347
-1.2300658226013184,6.161090850830078,-0.7889949679374695
-1.177944540977478,6.127290725708008,-0.7880749702453613
-1.127765417098999,6.096770763397217,-0.7874225974082947
-1.0748310089111328,6.046753883361816,-0.7842284440994263
-0.9576987028121948,5.614346504211426,-0.731194257736206
-0.9746770858764648,5.964524269104004,-0.7799013257026672
-0.9380469918251038,6.009150505065918,-0.7883958220481873
-0.4644552767276764,3.1186773777008057,-0.4105435013771057
-0.443781316280365,3.129277229309082,-0.4133269190788269
-0.4209391176700592,3.1243813037872314,-0.4140819311141968
-0.4020664393901825,3.150085687637329,-0.4187035858631134
-0.3799963891506195,3.1526360511779785,-0.42011773586273193
-0.3605990707874298,3.182002544403076,-0.4251536726951599
-0.34089553356170654,3.207348108291626,-0.4296661615371704
-0.3223861753940582,3.247980833053589,-0.43626925349235535
-0.3004094362258911,3.2577171325683594,-0.438394159078598
-0.28125905990600586,3.3020291328430176,-0.4451530873775482
-0.25900906324386597,3.319236993789673,-0.4483076333999634
-0.24001434445381165,3.3787384033203125,-0.4571984112262726
-0.21796734631061554,3.403369903564453,-0.4613455832004547
-0.19553682208061218,3.4279072284698486,-0.46514496207237244
-0.1723874807357788,3.4445626735687256,-0.46790292859077454
-0.1504986584186554,3.5036120414733887,-0.4764610528945923
-0.12725034356117249,3.5354273319244385,-0.48134320974349976
-0.10347167402505875,3.563242197036743,-0.48551926016807556
-0.07952164858579636,3.6025402545928955,-0.49102094769477844
-0.0544745996594429,3.6029748916625977,-0.4912506639957428
-0.02938212640583515,3.6535518169403076,-0.49834734201431274
-0.004010430537164211,3.7078216075897217,-0.5059747695922852
0.021920034661889076,3.7348642349243164,-0.5095834732055664
0.04840397462248802,3.7733559608459473,-0.514613687992096
0.07527148723602295,3.803919553756714,-0.5185836553573608
0.10284528881311417,3.8458993434906006,-0.524131715297699
0.1316201239824295,3.891530990600586,-0.530196487903595
0.16036644577980042,3.933161735534668,-0.5352741479873657
0.18877184391021729,3.9552550315856934,-0.5376706123352051
0.22069542109966278,4.035116672515869,-0.5479297637939453
0.25227463245391846,4.09154748916626,-0.5550140738487244
0.28040334582328796,4.0781965255737305,-0.5525497198104858
0.30863142013549805,4.076333522796631,-0.5512513518333435
0.33624279499053955,4.066555500030518,-0.5489098429679871
0.36310863494873047,4.048871994018555,-0.5455309748649597
0.39760369062423706,4.111935615539551,-0.5530450940132141
0.42666128277778625,4.109232425689697,-0.5514785051345825
0.45086273550987244,4.06793737411499,-0.5444979667663574
0.4758719801902771,4.038037300109863,-0.5390917658805847
0.5058668255805969,4.050240993499756,-0.5393319129943848
0.5269341468811035,3.993112087249756,-0.5303785800933838
0.5540157556533813,3.9819109439849854,-0.5272008776664734
0.5776330232620239,3.9514524936676025,-0.5214031338691711
0.603821337223053,3.9399940967559814,-0.518150806427002
0.6263582706451416,3.9053852558135986,-0.5118856430053711
0.6599307060241699,3.9394333362579346,-0.5146398544311523
0.6858100891113281,3.9274964332580566,-0.5109489560127258
0.7079045176506042,3.8924267292022705,-0.5042544603347778
0.7363293170928955,3.8953847885131836,-0.5025554299354553
0.7560312151908875,3.8524694442749023,-0.4949664771556854
0.7789233922958374,3.8284928798675537,-0.4897225797176361
0.805362343788147,3.8234105110168457,-0.4866531193256378
0.8289265036582947,3.8028981685638428,-0.48161086440086365
0.8570792078971863,3.804990530014038,-0.47948482632637024
0.8879969120025635,3.818190813064575,-0.4787597060203552
0.9179966449737549,3.827465057373047,-0.4772626757621765
1.146261215209961,4.638486385345459,-0.575050950050354
1.16739821434021,4.5857343673706055,-0.5651558637619019
1.201395869255066,4.585490703582764,-0.5618101954460144
1.2303051948547363,4.5662946701049805,-0.5561152100563049
1.255577802658081,4.535828590393066,-0.5487179160118103
1.2846956253051758,4.5201616287231445,-0.5431655645370483
1.3166815042495728,4.5115203857421875,-0.5383901000022888
1.3415027856826782,4.480459690093994,-0.5310336351394653
1.3679306507110596,4.456802845001221,-0.5243716239929199
1.4008638858795166,4.455291748046875,-0.520204484462738
1.4292168617248535,4.438709735870361,-0.5142844319343567
1.4546825885772705,4.410590648651123,-0.5069559812545776
1.4754573106765747,4.371495723724365,-0.49844804406166077
1.5105024576187134,4.376562118530273,-0.4947204291820526
1.2652654647827148,3.586397886276245,-0.401872843503952
1.2823069095611572,3.5560731887817383,-0.39493244886398315
1.3125544786453247,3.562087059020996,-0.3920350670814514
1.6071418523788452,4.269820690155029,-0.4653453230857849
1.6363427639007568,4.259335041046143,-0.4596419036388397
1.674302577972412,4.270238399505615,-0.45619532465934753
1.6983972787857056,4.24459171295166,-0.44880369305610657
1.7174549102783203,4.2081618309021,-0.4402105510234833
1.7466577291488647,4.196765422821045,-0.43406587839126587
1.775477647781372,4.1852803230285645,-0.42798468470573425
1.8016467094421387,4.166238784790039,-0.4210717976093292
1.8211469650268555,4.132885456085205,-0.4127010703086853
1.8428716659545898,4.106821537017822,-0.4049733877182007
1.8778094053268433,4.108715057373047,-0.3999203145503998
1.9032950401306152,4.089019298553467,-0.3927229940891266
1.9350324869155884,4.083336353302002,-0.3868519067764282
1.9559359550476074,4.056716442108154,-0.3788580298423767
1.9800468683242798,4.036952018737793,-0.37153932452201843
2.000074863433838,4.00595760345459,-0.3629750907421112
2.036628484725952,4.009965896606445,-0.357663631439209
2.0511398315429688,3.9725232124328613,-0.348575621843338
2.0780863761901855,3.9591009616851807,-0.3416072428226471
2.098459243774414,3.931302547454834,-0.33325016498565674
2.1217620372772217,3.910518169403076,-0.325479656457901
2.1522164344787598,3.9033496379852295,-0.3186761140823364
2.135098695755005,3.810922622680664,-0.30502963066101074
2.1656079292297363,3.8032283782958984,-0.29815375804901123
2.1834144592285156,3.7756121158599854,-0.28968173265457153
2.2006494998931885,3.7480854988098145,-0.2812572717666626
2.2431845664978027,3.759735345840454,-0.27535051107406616
2.2529890537261963,3.7180116176605225,-0.26559603214263916
2.2776665687561035,3.7034966945648193,-0.257786363363266
2.3069591522216797,3.695070266723633,-0.25023746490478516
2.320258140563965,3.6596055030822754,-0.24069195985794067
2.3447630405426025,3.644493579864502,-0.23236514627933502
2.3818321228027344,3.6488842964172363,-0.2252618670463562
2.3944342136383057,3.6131105422973633,-0.2153141051530838
2.422626495361328,3.6041858196258545,-0.20697909593582153
2.4596142768859863,3.6079182624816895,-0.19920657575130463
2.4586052894592285,3.552314043045044,-0.1876005381345749
2.490561008453369,3.5495505332946777,-0.178998664021492
2.5141944885253906,3.533324718475342,-0.16937653720378876
2.5293197631835938,3.50374436378479,-0.15870390832424164
2.5746238231658936,3.5195207595825195,-0.15003719925880432
2.1846890449523926,2.94405460357666,-0.11692789942026138
2.801011800765991,3.929335355758667,0.3177192807197571
2.756782293319702,3.9310224056243896,0.32767000794410706
2.7466583251953125,3.97517466545105,0.34024620056152344
2.689709186553955,3.9566256999969482,0.34726008772850037
2.66382098197937,3.982590436935425,0.35784849524497986
2.6613752841949463,4.0394697189331055,0.37070807814598083
2.6132006645202637,4.032853126525879,0.37774625420570374
2.5905914306640625,4.065027236938477,0.38817548751831055
2.5659799575805664,4.088987827301025,0.3972911536693573
2.5359458923339844,4.106858730316162,0.4057127833366394
2.514512300491333,4.141969203948975,0.41572245955467224
2.481750011444092,4.156332969665527,0.42348286509513855
2.452530860900879,4.172856330871582,0.4311430752277374
2.434997320175171,4.213809967041016,0.44115281105041504
2.403135061264038,4.231268405914307,0.4486984610557556
2.372769355773926,4.247608661651611,0.4558599591255188
2.271108865737915,4.134223937988281,0.4489629864692688
2.243903875350952,4.157165050506592,0.45637625455856323
2.2161853313446045,4.180077075958252,0.4637918770313263
2.1915318965911865,4.205502033233643,0.47130024433135986
2.1619272232055664,4.220096111297607,0.47753453254699707
2.137559413909912,4.249197006225586,0.4853006601333618
2.1092922687530518,4.271279335021973,0.4921150803565979
2.0814080238342285,4.292891025543213,0.49883583188056946
2.051245927810669,4.306723117828369,0.504514753818512
2.020742177963257,4.320456027984619,0.5101655721664429
1.995243787765503,4.3487467765808105,0.5172620415687561
1.9784269332885742,4.398376941680908,0.5270344614982605
1.9908753633499146,4.511210918426514,0.5443276762962341
1.9592113494873047,4.524410247802734,0.5496407151222229
1.9360065460205078,4.559070110321045,0.5574530959129333
1.8905686140060425,4.5438737869262695,0.5589328408241272
1.8800259828567505,4.61474084854126,0.5711092948913574
1.8559144735336304,4.648965358734131,0.5786638855934143
1.8275920152664185,4.672071933746338,0.5848439931869507
1.802659511566162,4.706092357635498,0.5922948122024536
1.7601572275161743,4.696738243103027,0.5940471291542053
1.3369543552398682,3.6492791175842285,0.4638969302177429
1.3110228776931763,3.6582441329956055,0.46728456020355225
1.2725807428359985,3.6302998065948486,0.46592575311660767
3.6946332454681396,10.78046989440918,1.390076994895935
1.616870403289795,4.831178188323975,0.625471293926239
1.5836676359176636,4.849796295166016,0.6304737329483032
1.5582377910614014,4.890069961547852,0.6382787823677063
1.5113979578018188,4.859611988067627,0.6368081569671631
1.485265851020813,4.895517349243164,0.6440608501434326
1.4426391124725342,4.879496097564697,0.6441935300827026
1.4170805215835571,4.922829627990723,0.6520525217056274
1.3914183378219604,4.969928741455078,0.6605117917060852
1.3441956043243408,4.934288024902344,0.6579174399375916
1.2869231700897217,4.856970310211182,0.6497230529785156
1.2626333236694336,4.90291690826416,0.6580056548118591
1.231256365776062,4.926479816436768,0.6628782153129578
1.1980831623077393,4.946216583251953,0.667309582233429
1.1697242259979248,4.984442710876465,0.6742545962333679
1.1418085098266602,5.0223069190979,0.6811594367027283
1.1084799766540527,5.0373148918151855,0.6850081086158752
1.0747573375701904,5.052165985107422,0.688755452632904
1.0397138595581055,5.067070960998535,0.6921973824501038
1.0005905628204346,5.05883264541626,0.6924884915351868
0.9769517779350281,5.130137920379639,0.7037131786346436
1.9528663158416748,10.657563209533691,1.4649699926376343
1.8724464178085327,10.635946273803711,1.4651070833206177
1.7914350032806396,10.6178560256958,1.465490698814392
0.8667258024215698,5.368370532989502,0.7420356273651123
1.6348323822021484,10.602888107299805,1.467786192893982
1.5620572566986084,10.62897777557373,1.4736822843551636
1.4767323732376099,10.558599472045898,1.4662269353866577
1.401917815208435,10.56827163696289,1.4699820280075073
1.314069151878357,10.465991020202637,1.4578977823257446
1.2238662242889404,10.336301803588867,1.4412322044372559
1.1334187984466553,10.18664836883545,1.4218134880065918
1.0615736246109009,10.194029808044434,1.4243614673614502
0.997294008731842,10.270137786865234,1.4365737438201904
0.39310944080352783,4.369570255279541,0.6119222640991211
0.357852578163147,4.314228057861328,0.6048467755317688
0.32584986090660095,4.293396949768066,0.6022297739982605
0.2972983717918396,4.3186469078063965,0.6061068177223206
0.26745402812957764,4.328260898590088,0.6078217029571533
0.30844998359680176,5.639370441436768,0.7924611568450928
0.26885926723480225,5.633536338806152,0.792189359664917
0.2316320240497589,5.681532859802246,0.7995286583900452
0.1937320977449417,5.73322057723999,0.8069299459457397
0.15416845679283142,5.7498626708984375,0.8093675374984741
0.11331992596387863,5.750775337219238,0.8096334934234619
0.07397453486919403,5.80553674697876,0.8175194263458252
0.03400353714823723,5.87162971496582,0.8270441293716431
-0.0068153683096170425,5.879423141479492,0.8283998370170593
-0.04892125725746155,6.03396463394165,0.8500967025756836
-0.09121223539113998,6.010312557220459,0.8464747071266174
-0.13458995521068573,6.0830583572387695,0.8564735054969788
-0.17893767356872559,6.1516218185424805,0.8659191131591797
-0.22090104222297668,6.127083778381348,0.8622996211051941
-0.258440762758255,6.005641460418701,0.8450869917869568
-0.17692747712135315,3.5389060974121094,0.4978140592575073
-0.20387938618659973,3.5724070072174072,0.5021377801895142
-0.2306336909532547,3.6018693447113037,0.505918025970459
-0.5555274486541748,7.825654983520508,1.098459243774414
-0.6068805456161499,7.783209323883057,1.0918238162994385
-0.5636709332466125,6.634101390838623,0.9300946593284607
-0.6091625094413757,6.614696025848389,0.9268158674240112
-0.6356191039085388,6.418079853057861,0.8981757760047913
-0.6728554964065552,6.34837532043457,0.8873822093009949
-0.7217562198638916,6.389957904815674,0.8921899795532227
-0.4378899931907654,3.6496849060058594,0.5090279579162598
-0.46469229459762573,3.6543056964874268,0.5091301202774048
-0.4833862781524658,3.6012625694274902,0.5012388825416565
-0.5048753023147583,3.575037717819214,0.4968039095401764
-0.5248497724533081,3.5410423278808594,0.49127721786499023
-0.5456064343452454,3.5145821571350098,0.48682987689971924
-0.5690639615058899,3.503197193145752,0.48448318243026733
-1.0754696130752563,6.342307090759277,0.8757879734039307
-1.1269117593765259,6.376929759979248,0.8792641162872314
-1.180425763130188,6.422728538513184,0.8838503956794739
-1.232215166091919,6.456756591796875,0.8866475224494934
-1.2852070331573486,6.4941887855529785,0.8899309635162354
-1.3408430814743042,6.534739971160889,0.8936034440994263
-1.3968346118927002,6.574887275695801,0.8972476124763489
-1.4459717273712158,6.580538272857666,0.896209716796875
-1.4816763401031494,6.529394149780273,0.8870739340782166
-1.5191186666488647,6.489469528198242,0.8793037533760071
-0.6752830743789673,2.797266960144043,0.37800684571266174
-0.696391761302948,2.800285577774048,0.3774229884147644
-0.7139597535133362,2.7880799770355225,0.3747935891151428
-0.7254691123962402,2.7532880306243896,0.36915916204452515
-0.7442652583122253,2.748504638671875,0.36738428473472595
-0.7715227007865906,2.7734150886535645,0.3694867789745331
-1.7508174180984497,6.132883071899414,0.8144117593765259
-1.7876594066619873,6.102615833282471,0.8077491521835327
-1.8145530223846436,6.038601875305176,0.7966625690460205
-1.8497693538665771,6.004130840301514,0.789544403553009
-1.8853166103363037,5.973366737365723,0.7823887467384338
-1.9065840244293213,5.902076244354248,0.7700203061103821
-1.937978744506836,5.863871097564697,0.7620426416397095
-1.9662870168685913,5.814138412475586,0.7525543570518494
-2.0017144680023193,5.7862372398376465,0.7459465265274048
-2.032571315765381,5.747309684753418,0.7378069162368774
-1.3786029815673828,3.8153281211853027,0.48745355010032654
-1.3988536596298218,3.791853189468384,0.4821847677230835
-1.4137675762176514,3.753613233566284,0.4750523269176483
-1.4219188690185547,3.696991443634033,0.46560409665107727
-1.4321483373641968,3.6476638317108154,0.4571538269519806
-1.4427393674850464,3.6021885871887207,0.44891977310180664
-1.4551746845245361,3.5641281604766846,0.44168195128440857
-1.473190426826477,3.5403618812561035,0.43625909090042114
-1.4933478832244873,3.5197250843048096,0.43116819858551025
-1.4547284841537476,3.3635756969451904,0.40961122512817383
-1.470051646232605,3.3361687660217285,0.40363481640815735
-1.4859082698822021,3.3125808238983154,0.39812031388282776
-1.5111910104751587,3.310119152069092,0.39516833424568176
-1.5310282707214355,3.2929012775421143,0.3903442323207855
-1.5656838417053223,3.3071465492248535,0.3892507553100586
-1.569841742515564,3.258300542831421,0.3805232346057892
-1.5777943134307861,3.2203657627105713,0.3731141686439514
-1.606205701828003,3.2241454124450684,0.3705531358718872
-1.6323189735412598,3.220223903656006,0.36695191264152527
-1.654891014099121,3.2091825008392334,0.36255067586898804
-1.6797640323638916,3.2055277824401855,0.3587585389614105
-1.7177724838256836,3.2255396842956543,0.35751473903656006
-1.74344003200531,3.221111297607422,0.3534940183162689
-1.18109130859375,2.146367073059082,0.23312203586101532
-2.5165958404541016,4.501333236694336,0.483640193939209
-2.52116322517395,4.44148588180542,0.4718257188796997
-2.535576105117798,4.3981547355651855,0.46172165870666504
-6.01389741897583,10.265999794006348,1.0643278360366821
-1.2415655851364136,2.0866990089416504,0.2135627567768097
-1.2591805458068848,2.0855891704559326,0.21055938303470612
-2.7267467975616455,4.450631618499756,0.4430812895298004
-2.7625772953033447,4.438510417938232,0.43508094549179077
-2.9694812297821045,4.7002105712890625,0.45352062582969666
-3.0186777114868164,4.711325168609619,0.4471309185028076
-3.030933141708374,4.662600040435791,0.43483567237854004
-3.0465805530548096,4.616030216217041,0.4224134087562561
-3.064425468444824,4.577029705047607,0.4104337990283966
-3.0784523487091064,4.535576343536377,0.3984057307243347
-3.096787929534912,4.495660781860352,0.3858843445777893
-3.1179757118225098,4.462915420532227,0.3738970160484314
-2.8308753967285156,3.998638153076172,0.32660621404647827
-2.8633735179901123,3.9859132766723633,0.3162344694137573
-2.928915500640869,4.021159648895264,0.30939731001853943
-2.935434103012085,3.978543996810913,0.2964133024215698
-3.0044305324554443,4.204463005065918,-0.21019940078258514
-2.4473378658294678,3.479309320449829,-0.18414519727230072
-2.448218822479248,3.535217523574829,-0.1969689279794693
-2.3788509368896484,3.487618923187256,-0.20349909365177155
-2.3021955490112305,3.430540084838867,-0.20912058651447296
-2.241041660308838,3.3910138607025146,-0.21494160592556
-2.1839423179626465,3.3578972816467285,-0.2209325134754181
-2.145904541015625,3.353989601135254,-0.2285488098859787
-2.1304759979248047,3.3816840648651123,-0.23780222237110138
-2.118102550506592,3.4164066314697266,-0.2475993037223816
-1.2501945495605469,2.0502820014953613,-0.152958944439888
-2.055643320083618,3.4258811473846436,-0.26255494356155396
-2.027005195617676,3.43324613571167,-0.26988035440444946
-2.0132055282592773,3.4677953720092773,-0.2793441414833069
-1.1902722120285034,2.084174156188965,-0.1717815101146698
-1.1984912157058716,2.132875442504883,-0.17967620491981506
-2.575876474380493,4.6646952629089355,-0.40142861008644104
