X,Y,Z
1.2296756505966187,2.5255074501037598,0.25272852182388306
1.2145837545394897,2.5411245822906494,0.25644445419311523
1.195772647857666,2.549729585647583,0.2594181299209595
1.1789904832839966,2.5615193843841553,0.26268064975738525
1.1607109308242798,2.569559097290039,0.26555129885673523
1.1583257913589478,2.612938642501831,0.2720513343811035
2.5665230751037598,5.90546178817749,0.6190403699874878
2.536797285079956,5.955703258514404,0.628536581993103
2.506532907485962,6.001596450805664,0.6374990940093994
2.481423854827881,6.061820030212402,0.6480856537818909
2.448486328125,6.1039042472839355,0.656582772731781
2.4237546920776367,6.171666145324707,0.6675922870635986
2.3940348625183105,6.228470802307129,0.6775020956993103
2.358247995376587,6.2664361000061035,0.6853125095367432
2.300158977508545,6.245998382568359,0.6867945194244385
2.291537284851074,6.360207557678223,0.7029432654380798
2.27500581741333,6.4603962898254395,0.717303454875946
2.2407095432281494,6.512903213500977,0.7264688014984131
2.2105910778045654,6.575927734375,0.7368096113204956
2.180776834487915,6.6425676345825195,0.7476517558097839
2.137803792953491,6.668198108673096,0.753880500793457
2.076920747756958,6.6421589851379395,0.7537403702735901
2.0153279304504395,6.611897945404053,0.7531280517578125
1.9558957815170288,6.584676742553711,0.752833902835846
1.8969554901123047,6.552918910980225,0.7519572973251343
1.8366788625717163,6.517151832580566,0.7506681084632874
1.7781106233596802,6.484630584716797,0.7493792176246643
1.7205582857131958,6.455532073974609,0.7482583522796631
1.6664332151412964,6.437221527099609,0.7484015226364136
0.820564329624176,3.2636938095092773,0.38058021664619446
1.559849500656128,6.395150184631348,0.7480250597000122
0.7942772507667542,3.357572317123413,0.3939199447631836
1.429800271987915,6.241709232330322,0.7340252995491028
1.3869128227233887,6.258988380432129,0.7378044724464417
1.3423542976379395,6.268356800079346,0.7406855225563049
1.290003776550293,6.239381313323975,0.739057183265686
1.2290228605270386,6.160372734069824,0.7314715385437012
1.188826560974121,6.183743476867676,0.7359527945518494
1.1222984790802002,6.069683074951172,0.7236567139625549
1.0879747867584229,6.126894474029541,0.7318021655082703
1.034157633781433,6.076919078826904,0.7271959185600281
0.9949124455451965,6.102860450744629,0.7316602468490601
0.9494442343711853,6.090209484100342,0.7315312027931213
0.8977351188659668,6.035068035125732,0.7261500954627991
0.8414641618728638,5.945055961608887,0.7162041664123535
0.7909925580024719,5.89309024810791,0.7108694911003113
0.7504842281341553,5.906015396118164,0.713371217250824
0.6136875748634338,5.113802433013916,0.6185184121131897
0.5745864510536194,5.086958408355713,0.6161319613456726
0.5468020439147949,5.16397762298584,0.6262187957763672
0.40296217799186707,4.07926607131958,0.4950523376464844
0.3719737231731415,4.062649250030518,0.4934384822845459
0.3526211380958557,4.173266887664795,0.5073035359382629
0.3229748606681824,4.167798042297363,0.5070888996124268
0.29346612095832825,4.1621174812316895,0.506870448589325
0.2664218544960022,4.194943428039551,0.5112757086753845
0.2356816530227661,4.181203365325928,0.5097483396530151
0.38403621315956116,7.780607223510742,0.9488824605941772
0.32800236344337463,7.744280815124512,0.9448122382164001
0.2728252112865448,7.707542419433594,0.9407315254211426
0.21872559189796448,7.689793109893799,0.939010739326477
0.16380062699317932,7.667820453643799,0.9367331266403198
0.10968508571386337,7.618374824523926,0.9305642247200012
0.05652546137571335,7.603446006774902,0.928657591342926
0.0035790300462394953,7.588147163391113,0.9267509579658508
-0.04891963303089142,7.5492167472839355,0.9220030903816223
-0.1019207090139389,7.521543979644775,0.9186757802963257
-0.1537281721830368,7.4973955154418945,0.9158222675323486
-0.20487907528877258,7.46522331237793,0.9113597869873047
-0.25638940930366516,7.4559550285339355,0.9097326993942261
-0.3081012964248657,7.454081058502197,0.9090519547462463
-0.2587439715862274,5.3564934730529785,0.652949333190918
-0.3009287416934967,5.4320244789123535,0.6618854999542236
-0.336786687374115,5.398898124694824,0.6576163172721863
-0.3741419315338135,5.396547794342041,0.6567156910896301
-0.40908345580101013,5.363017559051514,0.6519791483879089
-0.44486603140830994,5.344720840454102,0.649131178855896
-0.4693438708782196,5.194797992706299,0.6303339600563049
-0.4505528509616852,4.627986431121826,0.5610682368278503
-0.47987085580825806,4.597846031188965,0.5569546818733215
-0.5115615129470825,4.5945634841918945,0.5558370351791382
-0.5422275066375732,4.583383083343506,0.5536807179450989
-0.5713631510734558,4.556539535522461,0.549651026725769
-0.6008822917938232,4.537239074707031,0.5465713143348694
-0.6312808394432068,4.525424480438232,0.5444223880767822
-0.660466730594635,4.505723476409912,0.5413534045219421
-0.6902490258216858,4.493583679199219,0.5389708280563354
-0.717261016368866,4.462045192718506,0.5341342687606812
-0.7490456104278564,4.464876651763916,0.5334623456001282
-0.7772172689437866,4.444498062133789,0.530033528804779
-0.801157534122467,4.401007652282715,0.5238798260688782
-0.8303017020225525,4.387895107269287,0.521377682685852
-0.8507553339004517,4.332799434661865,0.513681948184967
-0.7453792691230774,3.6616151332855225,0.4330254793167114
-0.768750786781311,3.6490418910980225,0.4304954707622528
-0.9401633739471436,4.314974308013916,0.5078313946723938
-0.9795402884483337,4.350207328796387,0.5107524394989014
-1.0071043968200684,4.332188606262207,0.507439136505127
-1.0263757705688477,4.2800469398498535,0.499880850315094
-1.0517010688781738,4.258170127868652,0.4958418607711792
-1.0749061107635498,4.228610038757324,0.49094200134277344
-1.1120545864105225,4.251369476318359,0.4921094477176666
-1.1436039209365845,4.251302242279053,0.49064114689826965
-1.1695460081100464,4.228402614593506,0.4865374267101288
-1.1981254816055298,4.220697402954102,0.4838959574699402
-1.2245140075683594,4.205333232879639,0.4803951680660248
-1.2552329301834106,4.204674243927002,0.4785938858985901
-1.274349570274353,4.162691593170166,0.4720710515975952
-1.3038880825042725,4.153846263885498,0.46931469440460205
-1.3277515172958374,4.130281925201416,0.4648321866989136
-1.3556270599365234,4.121554374694824,0.46183308959007263
-1.385960340499878,4.119987487792969,0.4596511721611023
-1.414231300354004,4.110709190368652,0.4565961956977844
-1.437666416168213,4.08644437789917,0.451878160238266
-1.4692195653915405,4.083813190460205,0.44954290986061096
-1.485973596572876,4.045011520385742,0.4430113136768341
-1.5130949020385742,4.035309314727783,0.43967509269714355
-1.5431122779846191,4.032615661621094,0.4371029734611511
-1.5712074041366577,4.022128582000732,0.43362951278686523
-1.5881834030151367,3.982377052307129,0.4270002245903015
-1.607882022857666,3.953874349594116,0.4214843511581421
-1.625332236289978,3.921884298324585,0.4155411124229431
-1.6621205806732178,3.9363811016082764,0.41453635692596436
-1.701911211013794,3.953634738922119,0.4136906564235687
-1.7299680709838867,3.9418485164642334,0.40976476669311523
-1.7440747022628784,3.901986837387085,0.40284472703933716
-1.7684266567230225,3.8871545791625977,0.3984362483024597
-1.7845818996429443,3.854475975036621,0.3922238349914551
-1.8147872686386108,3.8493781089782715,0.3887191116809845
-1.8252781629562378,3.80173659324646,0.38090670108795166
-1.8576210737228394,3.803797721862793,0.3779766857624054
-1.875896692276001,3.7778828144073486,0.37221384048461914
-1.9118905067443848,3.7864086627960205,0.36979812383651733
-1.9241396188735962,3.7456815242767334,0.3624752163887024
-1.9609276056289673,3.7533695697784424,0.35983550548553467
-1.9970186948776245,3.7612228393554688,0.35691389441490173
-2.0107052326202393,3.7278618812561035,0.3501574993133545
-2.0403225421905518,3.7210910320281982,0.34573426842689514
-1.7175501585006714,3.081367254257202,0.2831239402294159
-1.745681643486023,3.0838265419006348,0.28002259135246277
-0.8423511385917664,1.4653520584106445,0.13142475485801697
-0.8523727059364319,1.4597402811050415,0.12924274802207947
-0.8625569343566895,1.453941822052002,0.12701644003391266
-0.8762072920799255,1.4550552368164062,0.12533818185329437
-0.8815743923187256,1.4428807497024536,0.12249898910522461
-0.875200092792511,1.4104043245315552,0.1178487241268158
-0.9099925756454468,1.4439982175827026,0.11870178580284119
-0.889973521232605,1.3922845125198364,0.11249526590108871
-0.8989860415458679,1.3866770267486572,0.11006700247526169
-0.897997260093689,1.3642499446868896,0.10616772621870041
-0.918214738368988,1.374435544013977,0.10475083440542221
-2.402747631072998,3.547722578048706,0.2646642327308655
-2.4402523040771484,3.5509982109069824,0.2587358355522156
-1.503352403640747,2.1559603214263916,0.1531972587108612
-1.476459264755249,2.089393377304077,0.14460211992263794
-1.3459933996200562,1.9120256900787354,-0.0856037512421608
-1.3322123289108276,1.9214332103729248,-0.09040824323892593
-1.2345507144927979,1.8083727359771729,-0.08906945586204529
-1.2948853969573975,1.9275490045547485,-0.09909293800592422
-1.2942545413970947,1.9558852910995483,-0.10444065183401108
-1.341203212738037,2.0601844787597656,-0.11413758248090744
-1.2552258968353271,1.9896759986877441,-0.117604561150074
-1.1849273443222046,1.9091717004776,-0.11623380333185196
-1.8381824493408203,3.058997392654419,-0.19662007689476013
-0.836323618888855,1.4622057676315308,-0.10086336731910706
-1.647958517074585,2.929093599319458,-0.20638476312160492
-1.5863921642303467,2.8693206310272217,-0.2064259946346283
-1.5230474472045898,2.801450252532959,-0.2054852396249771
-1.470321536064148,2.749829053878784,-0.20547443628311157
-1.4231125116348267,2.70835018157959,-0.20600487291812897
-1.385404109954834,2.683715581893921,-0.20769456028938293
-1.3292131423950195,2.620220422744751,-0.20616084337234497
-1.2915879487991333,2.590850591659546,-0.20710580050945282
-1.2521096467971802,2.557894706726074,-0.2075994908809662
-1.2150752544403076,2.527923345565796,-0.2082132250070572
-1.1807667016983032,2.500821828842163,-0.20889073610305786
-1.1385058164596558,2.455796957015991,-0.20794740319252014
-1.0978541374206543,2.4141740798950195,-0.20715275406837463
-1.0599175691604614,2.3754568099975586,-0.20644037425518036
-1.0401191711425781,2.3754165172576904,-0.20898690819740295
-1.0079028606414795,2.346675157546997,-0.20893533527851105
-0.9743050932884216,2.3141605854034424,-0.20839686691761017
-0.9425966739654541,2.284935235977173,-0.20810538530349731
-0.919305145740509,2.2731692790985107,-0.20926827192306519
-0.8975671529769897,2.2648470401763916,-0.21069775521755219
-0.8559534549713135,2.2056801319122314,-0.20722833275794983
-0.8304675221443176,2.186046838760376,-0.2073960155248642
-0.8013684153556824,2.155179500579834,-0.20643487572669983
-0.7809875011444092,2.1458613872528076,-0.2074684053659439
-0.7617414593696594,2.140162229537964,-0.20870253443717957
-0.7336785793304443,2.108581066131592,-0.20737910270690918
-0.7113379240036011,2.0913710594177246,-0.20740428566932678
-0.6989085078239441,2.103533983230591,-0.210361510515213
-0.676813542842865,2.08602237701416,-0.21022309362888336
-0.6466830968856812,2.0423974990844727,-0.20735682547092438
-0.6207603812217712,2.009570837020874,-0.20552176237106323
-0.6044606566429138,2.0062196254730225,-0.20666159689426422
-0.5870967507362366,1.999025583267212,-0.20737111568450928
-0.5662341713905334,1.9806077480316162,-0.20679907500743866
-0.5479860901832581,1.9694225788116455,-0.2069455087184906
-0.5301595330238342,1.9580199718475342,-0.2070373296737671
-0.5145130157470703,1.9539779424667358,-0.20790119469165802
-0.4939980208873749,1.931038498878479,-0.2066321074962616
-0.4800736904144287,1.9343855381011963,-0.20813968777656555
-0.4664711356163025,1.9375522136688232,-0.20960992574691772
-0.44767510890960693,1.917897343635559,-0.20859789848327637
-0.43087396025657654,1.905660629272461,-0.20836444199085236
-0.41744062304496765,1.9085109233856201,-0.20962008833885193
-0.4005275070667267,1.8961164951324463,-0.20922186970710754
-0.3826005458831787,1.8759042024612427,-0.2079281061887741
-0.36577102541923523,1.8593388795852661,-0.20702451467514038
-0.35128921270370483,1.854099988937378,-0.207302525639534
-0.33822065591812134,1.8564128875732422,-0.2083340883255005
-0.32492199540138245,1.8586688041687012,-0.20938250422477722
-0.3081102669239044,1.83780038356781,-0.20780548453330994
-0.29285070300102234,1.824454665184021,-0.20707207918167114
-0.28123125433921814,1.834038257598877,-0.2088109850883484
-0.26611196994781494,1.820509433746338,-0.2078782320022583
-0.24939881265163422,1.7953532934188843,-0.20562320947647095
-0.2394397109746933,1.8161927461624146,-0.20862911641597748
-0.2248930037021637,1.8023159503936768,-0.2076576203107834
-0.2122783660888672,1.8037748336791992,-0.2082676738500595
-0.19922755658626556,1.80128812789917,-0.2084309309720993
-0.1834542155265808,1.7716853618621826,-0.20545677840709686
-0.17312683165073395,1.7960456609725952,-0.20875607430934906
-0.15853537619113922,1.7739540338516235,-0.20661674439907074
-0.14676739275455475,1.7827051877975464,-0.2079291194677353
-0.13371942937374115,1.7759013175964355,-0.20743735134601593
-0.11979036778211594,1.7535147666931152,-0.20512822270393372
-0.10882026702165604,1.7775046825408936,-0.20825985074043274
-0.09603246301412582,1.7704319953918457,-0.20767970383167267
-0.0829753652215004,1.7555309534072876,-0.20607541501522064
-0.0710526704788208,1.7637944221496582,-0.20719993114471436
-0.05880513787269592,1.7642199993133545,-0.20741385221481323
-0.04611364006996155,1.7568100690841675,-0.20671921968460083
-0.034056197851896286,1.7648335695266724,-0.20773504674434662
-0.021868010982871056,1.7727831602096558,-0.20867328345775604
-0.009460531175136566,1.7573717832565308,-0.20687167346477509
0.002783017698675394,1.7651509046554565,-0.20780999958515167
0.015224305912852287,1.757325291633606,-0.20692186057567596
0.027329981327056885,1.7494328022003174,-0.2058907002210617
0.03932547569274902,1.7414625883102417,-0.20481431484222412
0.05189879611134529,1.7566773891448975,-0.2064741551876068
0.06440262496471405,1.764047384262085,-0.20722021162509918
0.07633743435144424,1.7558239698410034,-0.2061445564031601
0.0887521505355835,1.755280613899231,-0.20580139756202698
0.1004788726568222,1.746917486190796,-0.20454010367393494
0.11412087827920914,1.769449234008789,-0.20690301060676575
0.12476140260696411,1.7454339265823364,-0.2038329839706421
0.1393197923898697,1.7755132913589478,-0.2070743590593338
0.1511818766593933,1.766818642616272,-0.2056182473897934
0.16413737833499908,1.7735193967819214,-0.20597174763679504
0.17645399272441864,1.7724000215530396,-0.20542405545711517
0.18877780437469482,1.7711933851242065,-0.2048756629228592
0.2002146989107132,1.7621946334838867,-0.2033887505531311
0.21772588789463043,1.803210735321045,-0.20752744376659393
0.22775325179100037,1.782495379447937,-0.20457299053668976
0.2427348643541336,1.800186276435852,-0.20603425800800323
0.2552613615989685,1.7985384464263916,-0.20528535544872284
0.26029932498931885,1.7469067573547363,-0.19877615571022034
0.27139151096343994,1.7374638319015503,-0.19699473679065704
0.28591689467430115,1.7509701251983643,-0.19783355295658112
0.3078756630420685,1.8064489364624023,-0.20339225232601166
0.32450971007347107,1.8273051977157593,-0.20503109693527222
0.33995842933654785,1.840410590171814,-0.20567046105861664
0.3541073501110077,1.84577476978302,-0.20539222657680511
0.37165406346321106,1.8662141561508179,-0.20676809549331665
0.37680619955062866,1.8256709575653076,-0.20141388475894928
0.39114946126937866,1.8307207822799683,-0.20111383497714996
0.40880855917930603,1.8508750200271606,-0.2023027241230011
0.42329105734825134,1.855729579925537,-0.20181043446063995
0.431052565574646,1.830150842666626,-0.19800162315368652
0.4493008255958557,1.84989595413208,-0.19912058115005493
0.45460355281829834,1.8167237043380737,-0.19450771808624268
0.47583064436912537,1.8475712537765503,-0.1966467946767807
0.5153982043266296,1.9458351135253906,-0.20588721334934235
0.5291987061500549,1.9422986507415771,-0.2042643427848816
0.5427253842353821,1.9387296438217163,-0.20267075300216675
0.5625373125076294,1.9575278759002686,-0.20330625772476196
0.5803689956665039,1.9687135219573975,-0.20308920741081238
0.6063328981399536,2.0057733058929443,-0.20550383627414703
0.6274988055229187,2.0238804817199707,-0.20590002834796906
0.6439467072486877,2.027059316635132,-0.20477068424224854
0.6698672771453857,2.059774398803711,-0.20647446811199188
0.6888980865478516,2.0700929164886475,-0.20590268075466156
0.7095810770988464,2.0838558673858643,-0.20563194155693054
0.7369014024734497,2.1157925128936768,-0.20711933076381683
0.7516986727714539,2.110801935195923,-0.2048526108264923
0.7807443141937256,2.146047830581665,-0.20645077526569366
0.8036620616912842,2.16271710395813,-0.20620237290859222
0.8270443081855774,2.1791012287139893,-0.20587453246116638
0.860429584980011,2.2207093238830566,-0.20784324407577515
0.8929873108863831,2.258362054824829,-0.20923864841461182
0.9025764465332031,2.2380120754241943,-0.20527416467666626
0.9329900145530701,2.2678985595703125,-0.205861434340477
0.9653862118721008,2.301056146621704,-0.206681489944458
0.9993462562561035,2.3376657962799072,-0.20762911438941956
1.0325812101364136,2.3702340126037598,-0.20810192823410034
1.05539071559906,2.3774847984313965,-0.20628689229488373
1.092861294746399,2.4164376258850098,-0.2071598619222641
1.128830075263977,2.451669692993164,-0.2075476050376892
1.1701911687850952,2.497154712677002,-0.20869307219982147
1.2113007307052612,2.5383312702178955,-0.20925520360469818
1.2256320714950562,2.5230722427368164,-0.205155611038208
1.2651832103729248,2.5603854656219482,-0.20522263646125793
1.3156589269638062,2.6182403564453125,-0.2067967653274536
1.37813138961792,2.6961004734039307,-0.20968951284885406
1.4184831380844116,2.7282228469848633,-0.20886050164699554
1.4334784746170044,2.7118775844573975,-0.20415547490119934
1.3833379745483398,2.5754806995391846,-0.1906437873840332
1.3732644319534302,2.5147364139556885,-0.18282553553581238
1.3755601644515991,2.4781575202941895,-0.1768660843372345
1.3997137546539307,2.4827985763549805,-0.17381973564624786
1.4128772020339966,2.4666357040405273,-0.16920995712280273
1.434014081954956,2.4637224674224854,-0.16545799374580383
1.4427638053894043,2.4407851696014404,-0.16035130620002747
1.454898476600647,2.424752712249756,-0.15571020543575287
1.4838051795959473,2.434901237487793,-0.1525818556547165
1.5132652521133423,2.4445559978485107,-0.1492483913898468
1.4857285022735596,2.365447759628296,-0.14063282310962677
1.445104718208313,2.2667551040649414,-0.1309983879327774
1.3867323398590088,2.1421902179718018,-0.1200966164469719
1.3943160772323608,2.1235039234161377,-0.1153387650847435
1.415254831314087,2.1239256858825684,-0.11145361512899399
1.4388134479522705,2.127145767211914,-0.10757851600646973
1.423875093460083,2.076153516769409,-0.10101816058158875
1.4555913209915161,2.0924179553985596,-0.09760653972625732
1.4519976377487183,2.0570244789123535,-0.0916084349155426
1.4471348524093628,2.0223753452301025,-0.08568345010280609
1.4609843492507935,2.0126025676727295,-0.08061303198337555
1.4741648435592651,2.0031683444976807,-0.0754856988787651
2.0956146717071533,2.9567596912384033,0.18689745664596558
2.0870606899261475,2.990940570831299,0.19510918855667114
2.134416341781616,3.1094913482666016,0.20893998444080353
2.3808434009552,3.5215816497802734,0.2429260015487671
2.3717310428619385,3.5647497177124023,0.25200796127319336
2.3594977855682373,3.6050100326538086,0.26083317399024963
3.10095477104187,4.810494422912598,0.35535725951194763
1.6267186403274536,2.564391851425171,0.1932331621646881
1.6190975904464722,2.5964548587799072,0.19947831332683563
1.5802984237670898,2.5742924213409424,0.20120738446712494
2.996973991394043,4.960094928741455,0.39416593313217163
2.975200891494751,5.0088396072387695,0.40433061122894287
2.9676332473754883,5.080493927001953,0.4162950813770294
2.890493392944336,5.029995918273926,0.4180535078048706
2.846233367919922,5.036668300628662,0.4242497384548187
2.8120620250701904,5.0641279220581055,0.43206164240837097
2.756669044494629,5.049564361572266,0.43607836961746216
2.654890537261963,4.944646835327148,0.4319872558116913
2.607563018798828,4.94279146194458,0.43670380115509033
2.5921669006347656,5.00300931930542,0.44672152400016785
2.52407169342041,4.95863676071167,0.44727596640586853
2.480605125427246,4.958232402801514,0.4515942931175232
2.450512647628784,4.985659599304199,0.45836883783340454
1.232681155204773,2.5560569763183594,0.2371007800102234
1.2171672582626343,2.5718283653259277,0.24063324928283691
1.1778225898742676,2.534139633178711,0.23904423415660858
1.1746309995651245,2.5739166736602783,0.24476133286952972
1.1686092615127563,2.6105523109436035,0.2500964105129242
1.1400402784347534,2.597428321838379,0.2506406605243683
2.5526628494262695,5.932837963104248,0.5765990614891052
2.524705171585083,5.982264995574951,0.5853700041770935
2.491615056991577,6.020839214324951,0.5931209921836853
2.4636311531066895,6.078012466430664,0.6023765802383423
2.439246654510498,6.145931243896484,0.6127830147743225
2.4073967933654785,6.195509910583496,0.621407151222229
2.3778347969055176,6.248022556304932,0.6302750110626221
2.3502509593963623,6.307749271392822,0.6398933529853821
1.9715479612350464,5.4107985496521,0.5516240000724792
2.2884089946746826,6.424472808837891,0.6582129597663879
2.2559688091278076,6.480735778808594,0.6672578454017639
2.225712537765503,6.539997577667236,0.6765739917755127
2.1959636211395264,6.602830410003662,0.6863378286361694
2.166358232498169,6.6734747886657715,0.6965193152427673
2.1099307537078857,6.662535190582275,0.6982027292251587
2.043074607849121,6.61782169342041,0.6963693499565125
1.9868295192718506,6.597962379455566,0.6970270276069641
1.923297643661499,6.551541805267334,0.6948736310005188
1.8714238405227661,6.545930862426758,0.6967583298683167
1.8140190839767456,6.52135705947876,0.6964225769042969
1.7519270181655884,6.477564334869385,0.6940404176712036
1.6938360929489136,6.444416522979736,0.6927826404571533
0.8287516832351685,3.2447879314422607,0.3499613404273987
1.580355167388916,6.372413158416748,0.689530074596405
0.807348906993866,3.357802152633667,0.36427298188209534
1.4847254753112793,6.374789714813232,0.6933872103691101
1.415574550628662,6.282713890075684,0.6852104067802429
1.3551788330078125,6.216224193572998,0.6797423362731934
1.3166022300720215,6.248020172119141,0.6850398778915405
1.2610626220703125,6.199739933013916,0.6813908219337463
1.205727458000183,6.151133060455322,0.67739337682724
1.1482388973236084,6.090749263763428,0.6721290946006775
1.1164090633392334,6.159573554992676,0.6811181902885437
1.0654675960540771,6.121049404144287,0.6782591938972473
1.0190153121948242,6.1050896644592285,0.6779153943061829
0.9644325971603394,6.039036750793457,0.6717414259910583
0.9267526865005493,6.084019660949707,0.6777469515800476
0.8697892427444458,5.994167804718018,0.6687378287315369
0.8214098215103149,5.9537739753723145,0.6652467846870422
0.7860398292541504,6.005353927612305,0.6720572710037231
0.7365713119506836,5.948849201202393,0.6668033003807068
0.5837211012840271,5.001275539398193,0.5612382292747498
0.5576199293136597,5.093974590301514,0.5721867084503174
0.531611979007721,5.194211959838867,0.5840219259262085
0.39148959517478943,4.107909679412842,0.4623546898365021
0.3601653575897217,4.079512119293213,0.4596487879753113
0.3402620851993561,4.186295986175537,0.47220578789711
0.30988073348999023,4.18080472946167,0.4719078838825226
0.2795318067073822,4.167331695556641,0.47060349583625793
0.2521786093711853,4.200135707855225,0.4745491147041321
0.41271916031837463,7.779421806335449,0.8794384002685547
0.35788482427597046,7.7665019035339355,0.8785048127174377
0.30113595724105835,7.722201824188232,0.8740696310997009
0.24651576578617096,7.696905612945557,0.8714247941970825
0.19239845871925354,7.682896614074707,0.8698495030403137
0.13843004405498505,7.660745620727539,0.8673943877220154
0.08473166823387146,7.626572132110596,0.8636194467544556
0.030674006789922714,7.603671073913574,0.8611645698547363
-0.0221101101487875,7.588155269622803,0.8595847487449646
-0.07434725761413574,7.541259765625,0.8541655540466309
-0.12623797357082367,7.513446807861328,0.8506409525871277
-0.17828664183616638,7.5046772956848145,0.8493145704269409
-0.22859124839305878,7.445114612579346,0.8422839641571045
-0.28173673152923584,7.454996585845947,0.8431477546691895
-0.333907812833786,7.460663318634033,0.8435798287391663
-0.2804908752441406,5.4231181144714355,0.6128907203674316
-0.3184681832790375,5.428882122039795,0.6130090951919556
-0.3540545105934143,5.395643711090088,0.60875403881073
-0.3909454345703125,5.377614498138428,0.6062409281730652
-0.4270893931388855,5.359373092651367,0.6037424206733704
-0.4626070261001587,5.337027072906494,0.6008141040802002
-0.43184706568717957,4.611028671264648,0.5186311602592468
-0.4636099934577942,4.608057975769043,0.517609715461731
-0.49380549788475037,4.585514545440674,0.514406144618988
-0.5272099375724792,4.597539901733398,0.5151159763336182
-0.3185199201107025,2.616814374923706,0.29283925890922546
-0.33423087000846863,2.595348358154297,0.29010048508644104
-0.35481876134872437,2.6122779846191406,0.2916066646575928
-0.6450316309928894,4.512423038482666,0.5027858018875122
-0.6748358607292175,4.500363349914551,0.5005505084991455
-0.70038241147995,4.461241245269775,0.4953344166278839
-0.7326144576072693,4.464085578918457,0.4947991371154785
-0.7622979283332825,4.451387405395508,0.4925649166107178
-0.7944120168685913,4.453822135925293,0.4919225871562958
-0.8154395818710327,4.394928455352783,0.484272837638855
-0.8425024747848511,4.374189853668213,0.48088812828063965
-0.7340526580810547,3.6753242015838623,0.40314504504203796
-0.7564420104026794,3.6550772190093994,0.4000225067138672
-0.7834294438362122,3.657491445541382,0.3994026482105255
-0.9610864520072937,4.33851432800293,0.47258010506629944
-0.988821268081665,4.324531078338623,0.46970951557159424
-1.0110607147216797,4.287683486938477,0.464388906955719
-1.0368541479110718,4.265751361846924,0.46070396900177
-1.056167483329773,4.217191219329834,0.4541657865047455
-1.0947216749191284,4.24369478225708,0.45571592450141907
-1.1257774829864502,4.243844985961914,0.45426055788993835
-1.1565791368484497,4.243862628936768,0.45269539952278137
-1.1811498403549194,4.221203804016113,0.4487347900867462
-1.2124749422073364,4.220656394958496,0.44711774587631226
-1.2401483058929443,4.204765796661377,0.4438602924346924
-1.2637481689453125,4.177690505981445,0.43948012590408325
-1.2953770160675049,4.180483818054199,0.4379529654979706
-1.3176968097686768,4.153399467468262,0.4333188235759735
-1.3483086824417114,4.1520209312438965,0.4313787519931793
-1.3679072856903076,4.113136291503906,0.42549586296081543
-1.3940373659133911,4.096426486968994,0.4219761788845062
-1.424606204032898,4.094428062438965,0.4198368787765503
-1.4547114372253418,4.092392444610596,0.41756653785705566
-1.4716206789016724,4.0535712242126465,0.4115699529647827
-1.5023635625839233,4.050887584686279,0.40921497344970703
-1.5310466289520264,4.040453910827637,0.40604421496391296
-1.5589057207107544,4.030104637145996,0.4028800427913666
-1.583017110824585,4.012667655944824,0.39880988001823425
-1.6011574268341064,3.980649471282959,0.39332515001296997
-1.6284198760986328,3.9699108600616455,0.38991954922676086
-1.6460670232772827,3.9334661960601807,0.3839397728443146
-1.6840788125991821,3.9473090171813965,0.38289767503738403
-1.7165894508361816,3.9506118297576904,0.3805960714817047
-1.7287497520446777,3.907393455505371,0.3738412857055664
-1.7570762634277344,3.8993654251098633,0.3704211413860321
-1.773358702659607,3.862398624420166,0.36418774724006653
-1.8032466173171997,3.8574917316436768,0.3610091507434845
-1.8120944499969482,3.8106560707092285,0.3537583649158478
-1.8441284894943237,3.8129281997680664,0.3510979413986206
-1.8704276084899902,3.8004753589630127,0.34696996212005615
-1.8904199600219727,3.773545980453491,0.3414626121520996
-1.9371323585510254,3.8026795387268066,0.34095075726509094
-1.9407166242599487,3.748697519302368,0.33289435505867004
-1.9548853635787964,3.715331792831421,0.32669317722320557
-2.0102832317352295,3.7568814754486084,0.3269094228744507
-2.0028810501098633,3.6816115379333496,0.31696006655693054
-1.710939645767212,3.095738649368286,0.2634584605693817
-1.7236653566360474,3.071147918701172,0.2583692669868469
-0.8339055180549622,1.4620190858840942,0.12148208171129227
-0.8480014204978943,1.463067650794983,0.12004464119672775
-0.8614962697029114,1.464378833770752,0.11854928731918335
-0.875167965888977,1.4655028581619263,0.11699996143579483
-0.8692179322242737,1.4328680038452148,0.11269327998161316
-0.879205048084259,1.4269322156906128,0.11051106452941895
-0.8967187404632568,1.434584140777588,0.10930866003036499
-0.9019627571105957,1.4222395420074463,0.10655540972948074
-0.9036325812339783,1.4028446674346924,0.10315398871898651
-0.8959782719612122,1.370800495147705,0.09888828545808792
-0.9047517776489258,1.3651942014694214,0.09653671085834503
-0.9728343486785889,1.4465208053588867,0.10007192939519882
-2.3966307640075684,3.5112392902374268,0.23734021186828613
-1.3339463472366333,1.9276719093322754,0.1271139234304428
-1.3154734373092651,1.8742331266403198,0.12035559117794037
-1.386836290359497,1.9836483001708984,-0.08545632660388947
-1.6017069816589355,2.328463554382324,-0.10527796298265457
-1.252063274383545,1.8485536575317383,-0.08728542923927307
-1.2753806114196777,1.9126332998275757,-0.09397854655981064
-1.2566757202148438,1.9154430627822876,-0.09772355109453201
-1.1945116519927979,1.8486181497573853,-0.09753093868494034
-1.224915862083435,1.9262679815292358,-0.10493692755699158
-1.1441190242767334,1.8293988704681396,-0.10279394686222076
-1.9128073453903198,3.2104451656341553,-0.19538934528827667
-0.8829260468482971,1.557204246520996,-0.10145524144172668
-1.7056543827056885,3.058452844619751,-0.20336751639842987
-1.6598608493804932,3.0255320072174072,-0.20514218509197235
-1.6007498502731323,2.968594551086426,-0.20506899058818817
-1.547696590423584,2.921478509902954,-0.20555824041366577
-1.5145957469940186,2.9077389240264893,-0.20809930562973022
-1.4459760189056396,2.8244173526763916,-0.20550429821014404
-1.4007707834243774,2.7858660221099854,-0.20595210790634155
-1.3652453422546387,2.7640888690948486,-0.2074919492006302
-1.3251664638519287,2.731351852416992,-0.2081097513437271
-1.2805629968643188,2.6876602172851562,-0.20768779516220093
-1.229709267616272,2.6295244693756104,-0.20597757399082184
-1.1947189569473267,2.6025290489196777,-0.20656128227710724
-1.1556260585784912,2.564408779144287,-0.20615129172801971
-1.1278403997421265,2.5509581565856934,-0.20760221779346466
-1.0904018878936768,2.5160622596740723,-0.20725469291210175
-1.0557477474212646,2.4840636253356934,-0.2069835513830185
-1.015912413597107,2.4372057914733887,-0.20535561442375183
-0.9956782460212708,2.436893939971924,-0.20753885805606842
-0.9636757373809814,2.4076008796691895,-0.20715750753879547
-0.9377216100692749,2.3925206661224365,-0.20797216892242432
-0.9028360247612,2.35154128074646,-0.20641669631004333
-0.883500337600708,2.350337028503418,-0.20827864110469818
-0.8505109548568726,2.312554121017456,-0.20676873624324799
-0.8247482180595398,2.292721748352051,-0.20681342482566833
-0.805873692035675,2.290964365005493,-0.20846129953861237
-0.7721558213233948,2.2448017597198486,-0.20600193738937378
-0.7561681866645813,2.2500457763671875,-0.20808540284633636
-0.7243437767028809,2.2071220874786377,-0.20568814873695374
-0.701701283454895,2.1897363662719727,-0.20560884475708008
-0.6814731359481812,2.1796271800994873,-0.2062157839536667
-0.6604053974151611,2.165597438812256,-0.20632772147655487
-0.6427673697471619,2.1626105308532715,-0.20741689205169678
-0.618800163269043,2.13704252243042,-0.20631925761699677
-0.5954456329345703,2.1111888885498047,-0.20514671504497528
-0.5827733278274536,2.122622489929199,-0.20759008824825287
-0.560436487197876,2.1003124713897705,-0.20659109950065613
-0.541648805141449,2.089020013809204,-0.20664188265800476
-0.5251163840293884,2.085068702697754,-0.2074032574892044
-0.5031934380531311,2.0583128929138184,-0.20588013529777527
-0.4905540943145752,2.0692121982574463,-0.20805108547210693
-0.46437105536460876,2.0232911109924316,-0.20442190766334534
-0.4484047591686249,2.0187954902648926,-0.20494267344474792
-0.431073933839798,2.006538152694702,-0.2046620398759842
-0.4154990017414093,2.001753568649292,-0.20514371991157532
-0.4014386236667633,2.0045053958892822,-0.2062671184539795
-0.38558489084243774,1.9995863437652588,-0.20658056437969208
-0.36730051040649414,1.9792046546936035,-0.20527639985084534
-0.3534967303276062,1.9816069602966309,-0.2063313126564026
-0.3383609354496002,1.9762543439865112,-0.20657870173454285
-0.32132813334465027,1.9593188762664795,-0.2054462879896164
-0.30729663372039795,1.9614754915237427,-0.20633216202259064
-0.29361221194267273,1.9634796380996704,-0.20719517767429352
-0.2777726650238037,1.9499965906143188,-0.20642642676830292
-0.26313483715057373,1.9441003799438477,-0.20641392469406128
-0.2475496530532837,1.9304105043411255,-0.2054394781589508
-0.234971821308136,1.9397376775741577,-0.20692269504070282
-0.21859264373779297,1.9181246757507324,-0.20511750876903534
-0.20442305505275726,1.91180419921875,-0.20494067668914795
-0.19033555686473846,1.9053905010223389,-0.20467665791511536
-0.1777275949716568,1.9143595695495605,-0.20597393810749054
-0.16301146149635315,1.9000262022018433,-0.20477266609668732
-0.14804010093212128,1.8817222118377686,-0.2031513899564743
-0.13605602085590363,1.898152470588684,-0.20528335869312286
-0.12231553345918655,1.8912663459777832,-0.2047928124666214
-0.10865774750709534,1.884290099143982,-0.2042275369167328
-0.09472628682851791,1.8694584369659424,-0.2028181105852127
-0.08215431869029999,1.885571837425232,-0.2047792673110962
-0.06931725889444351,1.893829584121704,-0.20589615404605865
-0.055894240736961365,1.8864885568618774,-0.20518821477890015
-0.042379818856716156,1.8712934255599976,-0.20358707010746002
-0.029339449480175972,1.8715338706970215,-0.20367459952831268
-0.016207972541451454,1.8872175216674805,-0.20545460283756256
-0.0030481903813779354,1.8717421293258667,-0.20385102927684784
0.010036568157374859,1.879492998123169,-0.20461785793304443
0.023117756471037865,1.8793888092041016,-0.20451383292675018
0.03633148595690727,1.8869593143463135,-0.20525461435317993
0.04922858998179436,1.8789088726043701,-0.20430617034435272
0.06251304596662521,1.8785253763198853,-0.20420047640800476
0.07491094619035721,1.8625563383102417,-0.2022305279970169
0.08855389058589935,1.8775399923324585,-0.20362861454486847
0.10200449079275131,1.884667158126831,-0.20418132841587067
0.11510071158409119,1.8839439153671265,-0.20389224588871002
0.12789931893348694,1.8753668069839478,-0.20274147391319275
0.1414717435836792,1.8822319507598877,-0.20310941338539124
0.15514537692070007,1.8889989852905273,-0.20347347855567932
0.1692965030670166,1.8995329141616821,-0.20424847304821014
0.18214687705039978,1.8944931030273438,-0.20335641503334045
0.1891426295042038,1.8313961029052734,-0.19620724022388458
0.20521728694438934,1.860999345779419,-0.19887234270572662
0.22217896580696106,1.894324779510498,-0.20192639529705048
0.22718311846256256,1.8272712230682373,-0.19429698586463928
0.24192507565021515,1.8411198854446411,-0.19529159367084503
0.259189248085022,1.870227336883545,-0.19782741367816925
0.27323782444000244,1.8761663436889648,-0.19781291484832764
0.287967324256897,1.8858413696289062,-0.19819527864456177
0.30353623628616333,1.8992271423339844,-0.19896423816680908
0.31546589732170105,1.8894920349121094,-0.19731807708740234
0.33121082186698914,1.902672290802002,-0.19797882437705994
0.3431813418865204,1.8927584886550903,-0.1961543709039688
0.35912781953811646,1.9057234525680542,-0.19672054052352905
0.3709193766117096,1.895649790763855,-0.19490744173526764
0.38875508308410645,1.9159791469573975,-0.19622458517551422
0.4019823372364044,1.9133663177490234,-0.19506624341011047
0.4343893826007843,1.997987151145935,-0.20271523296833038
0.44651108980178833,1.987472414970398,-0.2006950080394745
0.4621196389198303,1.9920108318328857,-0.20019780099391937
0.48324963450431824,2.0191140174865723,-0.20195090770721436
0.4971323013305664,2.0158839225769043,-0.20051653683185577
0.5160250663757324,2.031341314315796,-0.2009204924106598
0.5438937544822693,2.0805232524871826,-0.20463958382606506
0.5543463826179504,2.0618062019348145,-0.20166528224945068
0.5706937313079834,2.065563678741455,-0.20084500312805176
0.5954712629318237,2.0991764068603516,-0.20281566679477692
0.6112207174301147,2.098860740661621,-0.20146840810775757
0.6369493007659912,2.1319916248321533,-0.2033218890428543
0.6540690064430237,2.1351053714752197,-0.2022932767868042
0.6803739070892334,2.1678566932678223,-0.2039373517036438
0.6987640857696533,2.1744422912597656,-0.20306305587291718
0.7189027667045593,2.184443950653076,-0.20245839655399323
0.7415796518325806,2.2016844749450684,-0.20252074301242828
0.7644641995429993,2.2187423706054688,-0.2025097757577896
0.7886605858802795,2.2393579483032227,-0.20269756019115448
0.8197631239891052,2.2780601978302,-0.20447927713394165
0.83836829662323,2.279778003692627,-0.20287151634693146
0.8668859601020813,2.306759834289551,-0.20346158742904663
0.8910444378852844,2.322783946990967,-0.20297223329544067
0.9153918623924255,2.338615655899048,-0.20241643488407135
0.9445401430130005,2.364990472793579,-0.20271176099777222
0.9757080674171448,2.3946259021759033,-0.20322111248970032
1.013382077217102,2.4383084774017334,-0.20476572215557098
1.0405193567276,2.4567179679870605,-0.20411251485347748
1.0727440118789673,2.4855334758758545,-0.20425717532634735
1.1104812622070312,2.524566173553467,-0.2051280438899994
1.1374913454055786,2.538389205932617,-0.20387046039104462
1.167883038520813,2.5591018199920654,-0.2029997855424881
1.1901856660842896,2.5619468688964844,-0.2007139027118683
1.2213804721832275,2.5820024013519287,-0.19967922568321228
1.2561737298965454,2.6088287830352783,-0.19909650087356567
1.3388477563858032,2.7335734367370605,-0.20574137568473816
1.3785032033920288,2.76642107963562,-0.205226868391037
1.4312951564788818,2.8230507373809814,-0.2063242495059967
1.4365061521530151,2.785637617111206,-0.20049680769443512
1.4316104650497437,2.731334924697876,-0.19348210096359253
1.4427587985992432,2.7080729007720947,-0.18870583176612854
1.400371789932251,2.585049629211426,-0.17703890800476074
1.4051765203475952,2.5515828132629395,-0.17159900069236755
1.4069286584854126,2.515178918838501,-0.16604936122894287
1.4163951873779297,2.4921810626983643,-0.16136224567890167
1.425963282585144,2.468966484069824,-0.15663744509220123
1.4424505233764648,2.4596123695373535,-0.15278683602809906
1.4629933834075928,2.4567761421203613,-0.1492704153060913
1.4922287464141846,2.466773271560669,-0.14638341963291168
1.4621001482009888,2.3802883625030518,-0.13784220814704895
1.4137356281280518,2.2682058811187744,-0.1280599683523178
1.3895946741104126,2.1960415840148926,-0.12064316123723984
1.3881945610046387,2.160126209259033,-0.11522941291332245
1.406527042388916,2.157761573791504,-0.11168796569108963
1.4124552011489868,2.1353981494903564,-0.10700806230306625
1.4207375049591064,2.116011142730713,-0.1024039164185524
1.434355616569519,2.106998920440674,-0.09831127524375916
1.435481071472168,2.07802677154541,-0.09308871626853943
1.4407498836517334,2.0555293560028076,-0.08814796060323715
1.4357725381851196,2.0209977626800537,-0.08276866376399994
1.4542157649993896,2.0175859928131104,-0.078402079641819
1.4674142599105835,2.008183717727661,-0.07373928278684616
1.4804939031600952,1.9987329244613647,-0.06891143321990967
2.116274356842041,2.9624228477478027,0.16745580732822418
2.098742961883545,2.984031915664673,0.17448633909225464
2.0778281688690186,3.0029900074005127,0.18123432993888855
2.3533284664154053,3.4523069858551025,0.2141904979944229
2.381521463394165,3.5505383014678955,0.2261362224817276
2.3611385822296143,3.57771897315979,0.23352572321891785
3.1113057136535645,4.787664413452148,0.3196031451225281
1.6490800380706787,2.579238176345825,0.17582333087921143
1.633662223815918,2.5979461669921875,0.18067695200443268
1.5989893674850464,2.5825271606445312,0.18287864327430725
3.0205485820770264,4.9577460289001465,0.35723990201950073
2.9902701377868652,4.99368953704834,0.36597758531570435
2.9641005992889404,5.031365871429443,0.3745010495185852
2.911099910736084,5.021174907684326,0.37931933999061584
2.8061344623565674,4.923635005950928,0.3771926760673523
2.7556469440460205,4.920304298400879,0.3821074664592743
2.677189826965332,4.860853672027588,0.3823164105415344
2.624629259109497,4.844677448272705,0.38572797179222107
2.5612215995788574,4.811913013458252,0.38749682903289795
2.514566421508789,4.809621810913086,0.3916599750518799
2.4290356636047363,4.726251602172852,0.38890454173088074
2.3759937286376953,4.7047319412231445,0.39119112491607666
2.3138036727905273,4.665731430053711,0.3916640877723694
1.2393324375152588,2.546022891998291,0.215719535946846
1.2060095071792603,2.5229547023773193,0.21566900610923767
1.1999162435531616,2.555785894393921,0.22036407887935638
1.184932827949524,2.571125030517578,0.22352324426174164
1.165675401687622,2.579692840576172,0.22604840993881226
1.1562728881835938,2.6092772483825684,0.23040024936199188
1.09916353225708,2.5278382301330566,0.22484470903873444
2.514192581176758,5.894136428833008,0.5280850529670715
2.4970152378082275,5.972768306732178,0.538693368434906
2.4730916023254395,6.041172504425049,0.5484431385993958
2.4513306617736816,6.112525939941406,0.55842524766922
2.419997215270996,6.158014297485352,0.5660173296928406
2.392395257949829,6.214228630065918,0.574657142162323
2.3638827800750732,6.274625778198242,0.5833877921104431
2.332286834716797,6.331632137298584,0.5918867588043213
1.9453775882720947,5.399578094482422,0.5074108242988586
2.2698018550872803,6.440141201019287,0.6082978248596191
2.242518186569214,6.506899833679199,0.6177574992179871
2.21183705329895,6.570372581481934,0.626605212688446
2.1804702281951904,6.637786388397217,0.6358685493469238
2.143549680709839,6.6861701011657715,0.643305778503418
2.0818142890930176,6.652284622192383,0.6427764892578125
2.020655393600464,6.617868900299072,0.6421874165534973
1.9604250192642212,6.586907863616943,0.6416622996330261
1.9022841453552246,6.563098430633545,0.6416224241256714
1.838488221168518,6.520308971405029,0.6397677063941956
1.782440423965454,6.495194911956787,0.6395542025566101
1.7260820865631104,6.4657979011535645,0.6389103531837463
1.671006679534912,6.439752578735352,0.6385518312454224
0.816697895526886,3.2425966262817383,0.32244428992271423
1.552022933959961,6.356858730316162,0.6339779496192932
0.7906113266944885,3.3407180309295654,0.33413565158843994
1.442552924156189,6.290314674377441,0.6309539675712585
1.3903000354766846,6.2619733810424805,0.6299301981925964
1.3478281497955322,6.278947353363037,0.633245587348938
1.2929359674453735,6.242610454559326,0.6310060024261475
1.2447218894958496,6.232349872589111,0.6313956379890442
1.1840637922286987,6.152909755706787,0.6247652769088745
1.1326767206192017,6.114919662475586,0.6223331093788147
1.085964322090149,6.099477291107178,0.6222096681594849
1.0473525524139404,6.137577533721924,0.6272265315055847
0.9956949353218079,6.09480094909668,0.6238884925842285
0.9488921165466309,6.0784831047058105,0.6232779026031494
0.9019110798835754,6.0540242195129395,0.6218366622924805
0.8428242206573486,5.940705299377441,0.6112698316574097
0.748338520526886,5.557374000549316,0.5728745460510254
0.7583696842193604,5.9478559494018555,0.6138066649436951
0.6184558272361755,5.138885498046875,0.5309217572212219
0.5721638798713684,5.054203033447266,0.5227870941162109
0.5484308004379272,5.166151523590088,0.5350121855735779
0.40439373254776,4.0793328285217285,0.42298877239227295
0.37545207142829895,4.082013130187988,0.42381513118743896
0.3500537872314453,4.123211860656738,0.4283527135848999
0.3268525302410126,4.199112415313721,0.43652358651161194
0.2957008481025696,4.1779961585998535,0.43463417887687683
0.26615703105926514,4.172141075134277,0.43434804677963257
0.23882289230823517,4.212656021118164,0.4389193654060364
0.38683804869651794,7.780288219451904,0.8112876415252686
0.3308384418487549,7.743945121765137,0.8076044321060181
0.2757814824581146,7.718849182128906,0.8051325678825378
0.2214260697364807,7.705014705657959,0.8038737177848816
0.166378915309906,7.683045864105225,0.8018075823783875
0.1122809648513794,7.637362480163574,0.7972994446754456
0.05897655710577965,7.610726356506348,0.7948129177093506
0.006023659836500883,7.595435619354248,0.792963981628418
-0.046617891639471054,7.564237117767334,0.7894939184188843
-0.09975115954875946,7.536548137664795,0.7864274382591248
-0.15107426047325134,7.481314182281494,0.7805293798446655
-0.20332112908363342,7.48787260055542,0.7811169624328613
-0.25420942902565,7.451354026794434,0.777248740196228
-0.3057795763015747,7.449495315551758,0.7764914631843567
-0.35833677649497986,7.466683387756348,0.7777266502380371
-0.2988106608390808,5.427346706390381,0.5649266242980957
-0.33605489134788513,5.4174418449401855,0.5635451078414917
-0.37264081835746765,5.399529457092285,0.5613592863082886
-0.4084051251411438,5.373621940612793,0.5583715438842773
-0.44422009587287903,5.355282306671143,0.5558220744132996
-0.4727246165275574,5.251518249511719,0.5443975925445557
-0.44819602370262146,4.6216912269592285,0.4785621464252472
-0.4782170057296753,4.599236488342285,0.475714772939682
-0.2936517298221588,2.6455347537994385,0.2733486592769623
-0.3088253438472748,2.616468906402588,0.27007314562797546
-0.325200617313385,2.5988879203796387,0.2678195834159851
-0.3399851620197296,2.573546886444092,0.2647721469402313
-0.3576495051383972,2.5712199211120605,0.2641088366508484
-0.3827909529209137,2.6187353134155273,0.2685653269290924
-0.39803752303123474,2.596874475479126,0.2659141421318054
-0.42070966958999634,2.6209259033203125,0.267969012260437
-0.7469236850738525,4.458005428314209,0.45481613278388977
-0.7774112820625305,4.452942848205566,0.45332151651382446
-0.8023072481155396,4.4170756340026855,0.4487188756465912
-0.8286814093589783,4.388625144958496,0.4448870122432709
-0.8465172648429871,4.318052291870117,0.43682384490966797
-0.7460836172103882,3.6683452129364014,0.3703112006187439
-0.7679124474525452,3.648101806640625,0.36726099252700806
-0.9308227896690369,4.277312278747559,0.4294429123401642
-0.975400447845459,4.339300632476807,0.43450140953063965
-1.0002562999725342,4.309878349304199,0.4303966462612152
-1.032508134841919,4.310447692871094,0.42929235100746155
-1.0603697299957275,4.295859336853027,0.4266287088394165
-1.0895053148269653,4.2887725830078125,0.4245155453681946
-1.1087636947631836,4.243864059448242,0.4186904728412628
-1.1398123502731323,4.243892669677734,0.4173162281513214
-1.1677228212356567,4.2284440994262695,0.41439560055732727
-1.1949381828308105,4.212959289550781,0.4115215241909027
-1.2236889600753784,4.204923152923584,0.40921467542648315
-1.2487140893936157,4.185617446899414,0.405733585357666
-1.2780823707580566,4.181042671203613,0.4037017822265625
-1.299404501914978,4.146179676055908,0.39870256185531616
-1.328271746635437,4.137258052825928,0.39624741673469543
