X,Y,Z
1.840724229812622,4.4024224281311035,0.12695685029029846
1.8318604230880737,4.473664283752441,0.1300337314605713
1.8357995748519897,4.577358722686768,0.13407376408576965
1.7896531820297241,4.5536274909973145,0.13436082005500793
1.7902249097824097,4.649730205535889,0.13820049166679382
1.7362087965011597,4.607591152191162,0.137856587767601
1.3189525604248047,3.579622507095337,0.1078062579035759
1.3039779663085938,3.6182971000671387,0.10966655611991882
1.2735947370529175,3.6125175952911377,0.11017029732465744
1.6187102794647217,4.6954755783081055,0.14408044517040253
1.6185780763626099,4.806859970092773,0.14830847084522247
1.5760949850082397,4.796266555786133,0.14880774915218353
1.5384857654571533,4.796126365661621,0.14960838854312897
1.5085500478744507,4.817866325378418,0.15108488500118256
1.4953895807266235,4.8954668045043945,0.15432733297348022
1.4513782262802124,4.8760809898376465,0.15442396700382233
1.4077215194702148,4.856317520141602,0.1545078456401825
1.3790876865386963,4.888838291168213,0.1562657505273819
1.336788535118103,4.868157386779785,0.1563052535057068
1.2838034629821777,4.805622100830078,0.15499281883239746
1.2555280923843384,4.837264537811279,0.15659210085868835
1.2230085134506226,4.85361385345459,0.15770067274570465
1.1953824758529663,4.892621994018555,0.15956653654575348
1.1675925254821777,4.927391529083252,0.16128814220428467
1.134961485862732,4.942993640899658,0.16239506006240845
1.1000332832336426,4.950857639312744,0.16317830979824066
1.0729832649230957,4.996705055236816,0.16519170999526978
1.0368419885635376,5.0043044090271,0.16596101224422455
1.0057557821273804,5.030528545379639,0.16733983159065247
0.9655846357345581,5.010539531707764,0.16718728840351105
2.1309151649475098,11.489141464233398,0.38445281982421875
2.0229625701904297,11.35396671295166,0.38082507252693176
1.911023736000061,11.19114875793457,0.37627920508384705
1.8047045469284058,11.034711837768555,0.37191635370254517
1.7073378562927246,10.91581916809082,0.3688051402568817
1.6047978401184082,10.749776840209961,0.3640931248664856
1.5099796056747437,10.625472068786621,0.360546737909317
1.424801230430603,10.570228576660156,0.35932016372680664
1.3304600715637207,10.42507553100586,0.35503020882606506
1.2433454990386963,10.313899993896484,0.35188964009284973
1.1479160785675049,10.112783432006836,0.3456747233867645
1.0686869621276855,10.038990020751953,0.34373703598976135
1.0005054473876953,10.069530487060547,0.34521153569221497
0.40017423033714294,4.342333793640137,0.14906255900859833
0.36281612515449524,4.263330459594727,0.14654558897018433
0.3319578766822815,4.250171661376953,0.14629311859607697
0.3034735918045044,4.267946243286133,0.14711283147335052
0.27414071559906006,4.277747631072998,0.14757657051086426
0.2427896112203598,4.263995170593262,0.14719469845294952
0.2150728404521942,4.308475017547607,0.1488294005393982
0.18118107318878174,4.220156669616699,0.14588242769241333
0.15113914012908936,4.2018022537231445,0.14535799622535706
0.12362368404865265,4.261280059814453,0.14753171801567078
0.06466565281152725,4.328953266143799,0.1499105840921402
0.034995898604393005,4.391757965087891,0.15211467444896698
0.004323442932218313,4.2396416664123535,0.146881103515625
-0.026084978133440018,4.399625301361084,0.15246756374835968
-0.05230040103197098,4.024588108062744,0.13948076963424683
-0.0796179473400116,3.9929051399230957,0.13832993805408478
-0.21903513371944427,3.545816421508789,0.12252097576856613
-0.2435804158449173,3.544220447540283,0.12236220389604568
-0.4609230160713196,6.088341236114502,0.21002794802188873
-0.5038904547691345,6.092780590057373,0.21002213656902313
-0.35015159845352173,3.6176834106445312,0.12443845719099045
-0.3734953999519348,3.5996570587158203,0.12364749610424042
-0.3867242634296417,3.4922358989715576,0.11979727447032928
-0.40325483679771423,3.4235565662384033,0.11728821694850922
-0.4206955134868622,3.36639142036438,0.11518218368291855
-0.44606834650039673,3.378884792327881,0.11543860286474228
-0.8579206466674805,6.171476364135742,0.21043410897254944
-0.8896494507789612,6.0920491218566895,0.20732702314853668
-0.4998040497303009,3.2647905349731445,0.1108991801738739
-0.5222725868225098,3.257328987121582,0.11043649911880493
-0.5410580635070801,3.2305238246917725,0.109328493475914
-0.5592204332351685,3.2036664485931396,0.1081659346818924
-0.5811432600021362,3.199775457382202,0.1077650785446167
-0.592210054397583,3.138183116912842,0.10543034970760345
-0.6109213829040527,3.1186959743499756,0.10451870411634445
-0.6313904523849487,3.1066622734069824,0.10385862737894058
-0.6480608582496643,3.0793070793151855,0.10267934203147888
-0.6690349578857422,3.074834108352661,0.10220611840486526
-0.6968556642532349,3.1006851196289062,0.10274200141429901
-0.714561939239502,3.080639123916626,0.1017589345574379
-0.7272320985794067,3.037557601928711,0.10001549869775772
-0.69125896692276,2.8012232780456543,0.09194707870483398
-0.7026829123497009,2.7661807537078857,0.09046266973018646
-0.7214710116386414,2.7613563537597656,0.0899600014090538
-0.7382007241249084,2.7488627433776855,0.0892125815153122
-0.759653627872467,2.7511303424835205,0.08893565833568573
-0.7787665128707886,2.745797872543335,0.08842144906520844
-0.8586890697479248,2.950342893600464,0.0946076288819313
-0.9322453141212463,3.124065637588501,0.09971123933792114
-0.9579257369041443,3.132643699645996,0.09951997548341751
-0.9868865013122559,3.1482226848602295,0.09953304380178452
-1.0195244550704956,3.174755096435547,0.09989247471094131
-1.046305537223816,3.182497024536133,0.09963871538639069
-1.0777164697647095,3.2049944400787354,0.09979205578565598
-1.1133146286010742,3.238279342651367,0.10027305781841278
-1.1406601667404175,3.245332956314087,0.0999290943145752
-1.1635485887527466,3.237222671508789,0.09910343587398529
-1.2302724123001099,3.3500993251800537,0.10195841640233994
-1.4158132076263428,3.7768924236297607,0.11420660465955734
-1.4536687135696411,3.8001651763916016,0.11416618525981903
-1.4739841222763062,3.775601387023926,0.1126745268702507
-1.5006632804870605,3.7651095390319824,0.1115863099694252
-1.5235719680786133,3.7475008964538574,0.11028200387954712
-1.5606164932250977,3.766096353530884,0.10998843610286713
-2.3467957973480225,5.557851314544678,0.16107754409313202
-2.3927454948425293,5.559537887573242,0.1598515510559082
-2.428877115249634,5.535370826721191,0.15785326063632965
-2.528468132019043,5.657876491546631,0.1599796563386917
-2.5288960933685303,5.559215068817139,0.1558079570531845
-2.549706220626831,5.506750106811523,0.15295763313770294
-2.5779364109039307,5.467751502990723,0.15045197308063507
-2.5978808403015137,5.410745620727539,0.14743943512439728
-2.65252423286438,5.432067394256592,0.14649146795272827
-1.7558345794677734,3.536165952682495,0.09436541795730591
-1.7870988845825195,3.5380139350891113,0.09337866306304932
-1.8045299053192139,3.5116381645202637,0.0916370376944542
-1.8153228759765625,3.475295305252075,0.08960898220539093
-1.8312960863113403,3.449265241622925,0.08782652765512466
-1.869423508644104,3.464329481124878,0.08708183467388153
-1.1721149682998657,2.136526584625244,0.05298877879977226
-1.1787620782852173,2.115023374557495,0.051721975207328796
-1.900392770767212,3.3580846786499023,0.08092890679836273
-1.9350669384002686,3.3653194904327393,0.0798434317111969
-1.9820817708969116,3.3922743797302246,0.07918847352266312
-1.9586913585662842,3.3018460273742676,0.07577529549598694
-1.261005163192749,2.0945615768432617,0.047230713069438934
-2.045309543609619,3.345494270324707,0.07402745634317398
-2.511701822280884,4.0444560050964355,0.08771282434463501
-2.5397427082061768,4.031569957733154,0.08563436567783356
-2.5513498783111572,3.9918715953826904,0.08296718448400497
-2.5620579719543457,3.9478578567504883,0.08012164384126663
-2.50630521774292,3.807036876678467,0.07536625862121582
-2.4681098461151123,3.6965060234069824,0.07128158956766129
-2.430192708969116,3.5855469703674316,0.06716097891330719
-2.4338724613189697,3.5405173301696777,0.06432268023490906
-2.447261095046997,3.5122921466827393,0.06180359050631523
-2.514483690261841,3.5558180809020996,0.0603150874376297
-2.651547431945801,3.6980087757110596,0.06029846891760826
-2.728102922439575,3.753586769104004,0.058677781373262405
-2.7675375938415527,3.753809690475464,0.055931206792593
-2.9258172512054443,4.092479228973389,-0.06841927021741867
-2.462653160095215,3.5015249252319336,-0.061360668390989304
-2.438199996948242,3.518545389175415,-0.0641883984208107
-2.774601936340332,4.06926965713501,-0.07712914049625397
-2.764369249343872,4.1185712814331055,-0.0808364674448967
-2.756730079650879,4.170527458190918,-0.08450489491224289
-2.7117786407470703,4.171909332275391,-0.08719614893198013
-2.742955207824707,4.286515712738037,-0.09211166203022003
-2.1087398529052734,3.34751558303833,-0.07383065670728683
-2.060999870300293,3.3266358375549316,-0.07522004097700119
-1.2686219215393066,2.080789804458618,-0.0481497086584568
-2.0251870155334473,3.3758175373077393,-0.07987163960933685
-1.996021032333374,3.3840301036834717,-0.08176376670598984
-1.981183648109436,3.4152822494506836,-0.08418020606040955
-1.9612622261047363,3.4357101917266846,-0.08627436310052872
-1.2003605365753174,2.138683557510376,-0.05467020720243454
-1.180523157119751,2.140751361846924,-0.05569334328174591
-1.8897026777267456,3.484325647354126,-0.09211865812540054
-1.8578439950942993,3.483675241470337,-0.09355011582374573
-1.8648308515548706,3.559441089630127,-0.09703134745359421
-1.847819209098816,3.590226888656616,-0.09931035339832306
-2.3740360736846924,4.6938581466674805,-0.1316608190536499
-2.3373382091522217,4.703456878662109,-0.13369344174861908
-2.2995784282684326,4.713282108306885,-0.13568994402885437
-2.282447576522827,4.76487398147583,-0.13888590037822723
-2.2525620460510254,4.787644863128662,-0.14120618999004364
-2.2285006046295166,4.824649810791016,-0.14393377304077148
-2.200870990753174,4.858694553375244,-0.146562397480011
-2.168976306915283,4.881501197814941,-0.14882899820804596
-1.5028668642044067,3.446831464767456,-0.10616453737020493
-1.46483314037323,3.4249348640441895,-0.10654759407043457
-1.446068286895752,3.4497997760772705,-0.10833664238452911
-1.4280734062194824,3.478358268737793,-0.11027443408966064
-1.4183517694473267,3.524415969848633,-0.11273477226495743
-1.4109761714935303,3.577747106552124,-0.11545362323522568
-1.3656855821609497,3.5367040634155273,-0.11506091803312302
-1.3319724798202515,3.524465322494507,-0.1155795305967331
-1.3024837970733643,3.5229434967041016,-0.11645004153251648
-1.2845277786254883,3.550257921218872,-0.11825180053710938
-1.2699013948440552,3.5886261463165283,-0.12041192501783371
-1.2466950416564941,3.6049790382385254,-0.12179727107286453
-1.2345352172851562,3.654482364654541,-0.12432105094194412
-1.2183626890182495,3.6927711963653564,-0.1264761984348297
-1.1974698305130005,3.715970993041992,-0.12811321020126343
-0.9802287220954895,3.117257595062256,-0.10812540352344513
-0.962554395198822,3.1390676498413086,-0.1095215305685997
-0.9223906397819519,3.085932493209839,-0.10829544812440872
-0.8047897219657898,2.7624099254608154,-0.09749636054039001
-0.7734696865081787,2.7267045974731445,-0.09679584205150604
-0.7561386823654175,2.739637851715088,-0.09773938357830048
-0.7305541038513184,2.722301721572876,-0.09760292619466782
-0.7182492017745972,2.753800630569458,-0.09921824932098389
-0.7067588567733765,2.78897762298584,-0.10097433626651764
-1.286298155784607,5.231448173522949,-0.19032981991767883
-1.2555593252182007,5.266965866088867,-0.19241578876972198
-1.232286810874939,5.336542129516602,-0.19576890766620636
-1.1913437843322754,5.3297905921936035,-0.19633257389068604
-1.1666055917739868,5.395143032073975,-0.19956019520759583
-1.137829303741455,5.449106216430664,-0.2023879587650299
-1.102370262145996,5.472283363342285,-0.20393453538417816
-1.2020156383514404,6.192672252655029,-0.2315664440393448
-1.1556246280670166,6.185572147369385,-0.23208972811698914
-1.0898171663284302,6.066627502441406,-0.22840166091918945
-1.001078486442566,5.808722019195557,-0.21944479644298553
-0.9442643523216248,5.719308853149414,-0.2166464626789093
-0.9496333599090576,6.014963626861572,-0.2284652441740036
-0.7020516991615295,4.658904075622559,-0.1774444878101349
-0.6685054302215576,4.655923366546631,-0.17782007157802582
-0.6565544605255127,4.8152289390563965,-0.1844281107187271
-0.6102255582809448,4.722917556762695,-0.18125604093074799
-0.5746228098869324,4.707700252532959,-0.18103307485580444
-0.5371212363243103,4.672817707061768,-0.1800573319196701
-0.5021081566810608,4.653134346008301,-0.17966783046722412
-0.4744040369987488,4.70310115814209,-0.18197880685329437
0.06155698373913765,5.386132717132568,-0.21122533082962036
0.0998019352555275,5.4285078048706055,-0.2127952128648758
0.13755027949810028,5.427687644958496,-0.21267545223236084
0.174409881234169,5.399295806884766,-0.2114861011505127
0.1621810495853424,4.130373001098633,-0.16173239052295685
0.24763457477092743,5.357368469238281,-0.2097216695547104
0.282945841550827,5.3087239265441895,-0.20764780044555664
0.25982940196990967,4.313114166259766,-0.16852982342243195
0.28578904271125793,4.252801418304443,-0.16600796580314636
0.31360116600990295,4.227366924285889,-0.16485826671123505
0.34075790643692017,4.197861194610596,-0.16355961561203003
0.3775932192802429,4.27701473236084,-0.16644057631492615
0.4878031611442566,5.12141227722168,-0.19897036254405975
0.5132346153259277,5.020861625671387,-0.19474920630455017
0.49759432673454285,4.555447101593018,-0.17641808092594147
0.533798336982727,4.590662002563477,-0.1775081604719162
0.5743252038955688,4.652653217315674,-0.17960722744464874
0.6200454831123352,4.753108978271484,-0.1830606311559677
0.6873348951339722,5.000103950500488,-0.19213581085205078
0.7202324867248535,4.983664035797119,-0.19107450544834137
0.7524852752685547,4.963128089904785,-0.18986602127552032
0.7863380908966064,4.949996471405029,-0.188944473862648
0.8164889812469482,4.921402454376221,-0.18730057775974274
0.8489699363708496,4.9080095291137695,-0.18623895943164825
0.8765066862106323,4.8675031661987305,-0.18416127562522888
0.9088575839996338,4.8536529541015625,-0.18310074508190155
0.9411016702651978,4.839580059051514,-0.18204165995121002
0.9703284502029419,4.809947490692139,-0.18028759956359863
0.9984468817710876,4.780298233032227,-0.17852821946144104
1.0312347412109375,4.7733659744262695,-0.1776271015405655
1.0592892169952393,4.743256568908691,-0.17586682736873627
1.0878525972366333,4.716792106628418,-0.1742558628320694
1.1189967393875122,4.701512336730957,-0.17296521365642548
1.1455156803131104,4.671046733856201,-0.17109979689121246
1.1735821962356567,4.648007869720459,-0.1695205122232437
1.205876111984253,4.639772415161133,-0.1684785634279251
1.236055612564087,4.623780250549316,-0.16716517508029938
1.2610574960708618,4.588730812072754,-0.1650732159614563
1.288023591041565,4.5650529861450195,-0.16337880492210388
1.3212785720825195,4.563709259033203,-0.16249163448810577
1.3463391065597534,4.531991004943848,-0.16051578521728516
1.3778104782104492,4.522563934326172,-0.1593424528837204
1.4022425413131714,4.4905595779418945,-0.1572747677564621
1.4279770851135254,4.466094970703125,-0.15547198057174683
1.4584118127822876,4.456294059753418,-0.15418656170368195
1.4844447374343872,4.431268215179443,-0.15236541628837585
1.511466145515442,4.409789562225342,-0.15067920088768005
1.25092613697052,3.5704219341278076,-0.1211492046713829
1.2886812686920166,3.5985071659088135,-0.12122843414545059
1.310638666152954,3.5822932720184326,-0.11981897056102753
1.6102707386016846,4.30824089050293,-0.1430489420890808
1.6427334547042847,4.304375171661377,-0.14184615015983582
1.6660783290863037,4.278687000274658,-0.13985855877399445
1.7011500597000122,4.281723976135254,-0.1387978494167328
1.7204424142837524,4.244581699371338,-0.13643495738506317
1.7543522119522095,4.243406772613525,-0.13523344695568085
1.778551459312439,4.220663547515869,-0.1332901120185852
1.8006527423858643,4.194340705871582,-0.1312233805656433
1.8327215909957886,4.189005374908447,-0.12978380918502808
1.8554519414901733,4.1619439125061035,-0.12767119705677032
1.8840280771255493,4.149137496948242,-0.12597967684268951
1.9084566831588745,4.129409313201904,-0.12402167916297913
1.936029314994812,4.11660623550415,-0.1222795769572258
1.9583476781845093,4.088778972625732,-0.12002366781234741
1.9798412322998047,4.061097145080566,-0.11780862510204315
2.0068249702453613,4.047884464263916,-0.11596907675266266
2.0337202548980713,4.034491062164307,-0.11412951350212097
2.0579676628112793,4.013455390930176,-0.11202681809663773
2.073185920715332,3.9748637676239014,-0.1094406396150589
2.1091549396514893,3.9780638217926025,-0.10790789127349854
2.1298844814300537,3.9537546634674072,-0.1056576520204544
2.1590046882629395,3.9424362182617188,-0.1036936491727829
2.1425657272338867,3.8489651679992676,-0.09959151595830917
2.15055251121521,3.804237127304077,-0.09675726294517517
2.1915969848632812,3.8168628215789795,-0.09535377472639084
2.218095064163208,3.8015787601470947,-0.09318234771490097
2.2359225749969482,3.773026704788208,-0.09068016707897186
2.2686126232147217,3.7717556953430176,-0.08880925178527832
2.29392671585083,3.7564663887023926,-0.08655419945716858
2.312176465988159,3.726943016052246,-0.08388601243495941
2.3364644050598145,3.7118165493011475,-0.08155779540538788
2.369046926498413,3.709707021713257,-0.07949518412351608
2.3905162811279297,3.6866557598114014,-0.0768531784415245
2.419170379638672,3.677321672439575,-0.07448747754096985
2.458317995071411,3.684231996536255,-0.07239042967557907
2.4706616401672363,3.6477482318878174,-0.0693051889538765
2.4792258739471436,3.608861207962036,-0.06618145853281021
2.526784896850586,3.6282541751861572,-0.06410200148820877
2.547396183013916,3.604302406311035,-0.061029430478811264
2.5640106201171875,3.5781466960906982,-0.05785982310771942
2.603396415710449,3.5834925174713135,-0.05511953681707382
2.6414315700531006,3.584752321243286,-0.05210448056459427
2.559800148010254,3.614323616027832,0.0788673385977745
2.5256316661834717,3.6191763877868652,0.08181556314229965
2.524522066116333,3.6768686771392822,0.08595399558544159
2.5100951194763184,3.7149715423583984,0.08959324657917023
2.507537841796875,3.768336296081543,0.09345284104347229
2.532179355621338,3.8689773082733154,0.09852967411279678
2.521127939224243,3.913329601287842,0.10210845619440079
2.4976162910461426,3.9375557899475098,0.10510005801916122
2.463146924972534,3.9499309062957764,0.1077893003821373
2.4425621032714844,3.9809563159942627,0.11086776107549667
2.4066970348358154,3.9844303131103516,0.11309363692998886
2.3770291805267334,4.002126693725586,0.11566446721553802
2.347139835357666,4.019654273986816,0.11822126060724258
2.3224828243255615,4.042888164520264,0.12085536867380142
2.299325942993164,4.069491863250732,0.12354698032140732
2.2728347778320312,4.093209743499756,0.12612535059452057
2.237548828125,4.0991926193237305,0.12811490893363953
2.22188401222229,4.138683319091797,0.13109593093395233
2.195128917694092,4.161696434020996,0.13355490565299988
2.1643590927124023,4.177711009979248,0.13573843240737915
2.1414661407470703,4.206955432891846,0.13831540942192078
2.108670234680176,4.214691162109375,0.14014731347560883
2.088754892349243,4.250646591186523,0.14288224279880524
2.0604279041290283,4.2730512619018555,0.14517097175121307
2.022970199584961,4.273571491241455,0.14666834473609924
1.993105411529541,4.287515163421631,0.14858508110046387
1.9626599550247192,4.301471710205078,0.15047591924667358
1.9981515407562256,4.4653096199035645,0.15759922564029694
1.9591933488845825,4.465423583984375,0.15899449586868286
1.9214078187942505,4.464750289916992,0.16031569242477417
1.9024474620819092,4.506718158721924,0.16315887868404388
1.8609496355056763,4.49860954284668,0.16410470008850098
1.8488497734069824,4.562560558319092,0.1676844209432602
1.8105692863464355,4.561026096343994,0.16885453462600708
1.7994340658187866,4.62825345993042,0.17258374392986298
1.7807472944259644,4.677209377288818,0.17561374604701996
1.7210469245910645,4.620375156402588,0.17457473278045654
1.3174844980239868,3.6166088581085205,0.1375093162059784
1.2946199178695679,3.6331005096435547,0.13898076117038727
1.2765365839004517,3.664259433746338,0.1410333216190338
1.6004539728164673,4.700416564941406,0.18195033073425293
1.5740236043930054,4.7339677810668945,0.1842205822467804
1.5555859804153442,4.7933831214904785,0.18752261996269226
1.5089865922927856,4.763179779052734,0.18730401992797852
1.490211009979248,4.822170734405518,0.19061365723609924
1.4528391361236572,4.821280002593994,0.1914989948272705
1.4259682893753052,4.857728958129883,0.19378997385501862
1.4040571451187134,4.912791728973389,0.19684474170207977
1.3810205459594727,4.963849067687988,0.19974850118160248
1.3097593784332275,4.837644577026367,0.19550368189811707
1.2733490467071533,4.839235305786133,0.19639092683792114
1.2427245378494263,4.86326265335083,0.19807809591293335
1.212715983390808,4.89089822769165,0.19992822408676147
1.1800528764724731,4.906867027282715,0.2013068050146103
1.1511846780776978,4.9377264976501465,0.20330192148685455
1.1179016828536987,4.9533257484436035,0.20469613373279572
1.0877346992492676,4.98397159576416,0.20656508207321167
1.0539166927337646,4.999172210693359,0.20779630541801453
1.0223193168640137,5.025607585906982,0.20950740575790405
0.983562171459198,5.013413429260254,0.2096068561077118
2.1887500286102295,11.589815139770508,0.4860093295574188
2.078767776489258,11.447365760803223,0.4812849760055542
1.9622106552124023,11.257933616638184,0.4744003415107727
1.8587265014648438,11.129030227661133,0.47005656361579895
1.7511388063430786,10.9567232131958,0.4638601541519165
1.652388572692871,10.829874038696289,0.45958957076072693
1.5595788955688477,10.72131633758545,0.45607319474220276
1.4626168012619019,10.577347755432129,0.4506971538066864
1.3713016510009766,10.459643363952637,0.4464379847049713
1.274518370628357,10.283087730407715,0.43966612219810486
1.2011232376098633,10.276152610778809,0.4401434659957886
1.1087965965270996,10.105892181396484,0.433645099401474
1.0307271480560303,10.039571762084961,0.43146759271621704
0.40472280979156494,4.234615802764893,0.18219509720802307
0.37776845693588257,4.268435478210449,0.18386562168598175
0.3466004431247711,4.2554030418396,0.1835273951292038
0.31707435846328735,4.265517234802246,0.18419843912124634
0.28928595781326294,4.294857978820801,0.18570639193058014
0.26399195194244385,4.374674320220947,0.1893060952425003
0.22964775562286377,4.306257724761963,0.18645896017551422
0.19794140756130219,4.272663116455078,0.18512563407421112
0.16854386031627655,4.297349452972412,0.18632839620113373
0.13500677049160004,4.185292720794678,0.18160569667816162
0.03888539969921112,1.5371224880218506,0.06675092875957489
0.07808469235897064,4.260894298553467,0.1850396990776062
0.04914524033665657,4.327672481536865,0.18795546889305115
0.01911729760468006,4.480109691619873,0.19460225105285645
-0.011647161096334457,4.327932834625244,0.18802626430988312
-0.041422661393880844,4.292624473571777,0.18653513491153717
-0.06752385199069977,4.065914630889893,0.1766962707042694
-0.09560056775808334,4.057548522949219,0.1762544959783554
-0.047616276890039444,1.560304045677185,0.0677507221698761
-0.15556396543979645,4.137714862823486,0.17960228025913239
-0.1845180243253708,3.5817294120788574,0.15538381040096283
-0.20774927735328674,3.5530996322631836,0.1540437638759613
-0.23228181898593903,3.5515894889831543,0.15382812917232513
-0.25500595569610596,3.518738031387329,0.15226101875305176
-0.6073354482650757,7.644575119018555,0.33049896359443665
-0.5559581518173218,6.430975914001465,0.2777971029281616
-0.3493660092353821,3.7380566596984863,0.16134332120418549
-0.3662587106227875,3.6462512016296387,0.15717056393623352
-0.3851664066314697,3.5815205574035645,0.15415552258491516
-0.40898406505584717,3.5710368156433105,0.15349094569683075
-0.7672004699707031,6.311051368713379,0.27089592814445496
-0.8069995045661926,6.274632930755615,0.2689804434776306
-0.8436466455459595,6.2186408042907715,0.2662176191806793
-0.8787855505943298,6.154677391052246,0.26293039321899414
-0.9186595678329468,6.133101463317871,0.26148292422294617
-0.519981861114502,3.315887928009033,0.14109332859516144
-0.5418019890785217,3.304501533508301,0.14033344388008118
-0.5647730231285095,3.300671100616455,0.1399022936820984
-0.5759368538856506,3.2313883304595947,0.13665975630283356
-0.5941888093948364,3.2042911052703857,0.13515882194042206
-0.614676296710968,3.1924970149993896,0.13431908190250397
-0.6282732486724854,3.1461024284362793,0.1320333033800125
-0.6453633308410645,3.1187527179718018,0.13055768609046936
-0.6539297103881836,3.0531535148620605,0.1274958997964859
-0.6768000721931458,3.0561861991882324,0.1272091269493103
-0.6915409564971924,3.0248894691467285,0.12550175189971924
-0.701379656791687,2.9745466709136963,0.12302012741565704
-0.6906642913818359,2.8406803607940674,0.11710561066865921
-0.6933259963989258,2.7676823139190674,0.11373168230056763
-0.7107337117195129,2.7552270889282227,0.11281447112560272
-0.7244459390640259,2.7314934730529785,0.11140863597393036
-0.7501581311225891,2.752899408340454,0.11184845864772797
-0.7733186483383179,2.762726306915283,0.1118101179599762
-0.8032467365264893,2.7948362827301025,0.11266768723726273
-0.9245247840881348,3.1335699558258057,0.1258094310760498
-0.9479429125785828,3.1347556114196777,0.12527190148830414
-0.9771944880485535,3.1544106006622314,0.12547191977500916
-1.0034124851226807,3.1625876426696777,0.12520812451839447
-1.0748776197433472,3.3077657222747803,0.13033030927181244
-1.0909093618392944,3.27787446975708,0.12852513790130615
-1.1244263648986816,3.303701400756836,0.12882943451404572
-1.1672377586364746,3.355060577392578,0.13010872900485992
-1.2579879760742188,3.5383615493774414,0.13645288348197937
-1.3771905899047852,3.7900807857513428,0.14532558619976044
-1.4129595756530762,3.8060996532440186,0.14510560035705566
-1.461139440536499,3.8547861576080322,0.14601491391658783
-1.467231273651123,3.7939810752868652,0.14278019964694977
-1.489922285079956,3.7767844200134277,0.14120161533355713
-1.5132678747177124,3.7591257095336914,0.1395859271287918
-1.5453382730484009,3.7629928588867188,0.13877448439598083
-2.351975202560425,5.617805004119873,0.20559030771255493
-2.37419056892395,5.5661115646362305,0.20214524865150452
-2.4088022708892822,5.54278564453125,0.19972924888134003
-2.55159854888916,5.761598587036133,0.20594437420368195
-2.5687575340270996,5.694140911102295,0.20184952020645142
-2.538748025894165,5.527719974517822,0.19417734444141388
-2.553927183151245,5.46483039855957,0.19024351239204407
-2.5713510513305664,5.404898166656494,0.18638768792152405
-2.6259238719940186,5.422094345092773,0.18518295884132385
-1.7685728073120117,3.5900816917419434,0.12136602401733398
-1.7787158489227295,3.5502209663391113,0.11873776465654373
-1.791947841644287,3.5173442363739014,0.11636613309383392
-1.823575496673584,3.5187089443206787,0.1150921881198883
-1.8438706398010254,3.4993488788604736,0.11311481893062592
-1.8392140865325928,3.435560464859009,0.10968432575464249
-1.1567354202270508,2.1267223358154297,0.06704074889421463
-1.1906460523605347,2.1526949405670166,0.06693098694086075
-1.190012812614441,2.1173183917999268,0.06491737812757492
-1.9276360273361206,3.3779823780059814,0.10206211358308792
-1.9655638933181763,3.3922665119171143,0.10095472633838654
-1.9514892101287842,3.3146235942840576,0.09705106168985367
-1.2306371927261353,2.0577967166900635,0.05922311544418335
-1.2561064958572388,2.06984281539917,0.05852760374546051
-2.5071468353271484,4.069620609283447,0.11294212192296982
-2.531273126602173,4.045522212982178,0.1100604310631752
-2.5388107299804688,3.9992992877960205,0.10655958950519562
-2.5691699981689453,3.989229917526245,0.10399371385574341
-2.5711662769317627,3.932142496109009,0.10008709132671356
-2.577881097793579,3.88570499420166,0.09646802395582199
-2.5981762409210205,3.8628246784210205,0.0934276282787323
-2.6068274974823,3.81929612159729,0.08973567932844162
-2.619452953338623,3.7822518348693848,0.08611944317817688
-2.6319973468780518,3.7497687339782715,0.0826682597398758
-2.6576011180877686,3.731738805770874,0.07931385934352875
-2.7116105556488037,3.7555603981018066,0.07673100382089615
-2.753755807876587,3.7636256217956543,0.07368636876344681
-2.8985095024108887,3.904466390609741,0.07274148613214493
-2.978864908218384,4.198253154754639,-0.08623781055212021
-2.4367141723632812,3.490809679031372,-0.0750807598233223
-2.4343209266662598,3.5399069786071777,-0.07921994477510452
-2.869054079055786,4.240802764892578,-0.09860388189554214
-2.8527791500091553,4.284555912017822,-0.10313572734594345
-2.8526611328125,4.350075721740723,-0.10805581510066986
-2.8112380504608154,4.358285427093506,-0.11155368387699127
-2.1160902976989746,3.3332860469818115,-0.08771461993455887
-2.09639573097229,3.3548483848571777,-0.09062265604734421
-1.251358151435852,2.0361759662628174,-0.05637174844741821
-1.2567611932754517,2.0785727500915527,-0.05889442190527916
-2.0131731033325195,3.382521152496338,-0.09793484210968018
-1.9882097244262695,3.397181749343872,-0.10042300075292587
-1.9627273082733154,3.4118926525115967,-0.10293342173099518
-1.1848770380020142,2.0933146476745605,-0.06433290243148804
-1.1926586627960205,2.142637252807617,-0.0670352652668953
-1.8777049779891968,3.4325168132781982,-0.10925798863172531
-1.860557198524475,3.459514617919922,-0.11193215101957321
-1.8597033023834229,3.517423152923584,-0.11563096940517426
-1.8646759986877441,3.58968448638916,-0.11977430433034897
-1.882674217224121,3.690131187438965,-0.12492813169956207
-2.4955246448516846,4.9771037101745605,-0.17081372439861298
-2.472911834716797,5.018764019012451,-0.17455102503299713
-2.439103841781616,5.0438551902771,-0.1776910275220871
-2.422454357147217,5.1036810874938965,-0.18204659223556519
-2.39668345451355,5.141592502593994,-0.18556642532348633
-2.365689277648926,5.1687092781066895,-0.188713937997818
-2.334573268890381,5.199862480163574,-0.19192509353160858
-1.4976885318756104,3.4014594554901123,-0.12689964473247528
-1.4671443700790405,3.3976778984069824,-0.12809140980243683
-1.4434291124343872,3.407756805419922,-0.1297731250524521
-1.4339028596878052,3.4540202617645264,-0.13278841972351074
-1.4089285135269165,3.464219331741333,-0.13442380726337433
-1.397343397140503,3.5066940784454346,-0.13730734586715698
-1.3454859256744385,3.447354555130005,-0.13619829714298248
-1.3182586431503296,3.4494407176971436,-0.1374303698539734
-1.2989171743392944,3.473386526107788,-0.1394941210746765
-1.276700735092163,3.4898681640625,-0.14126858115196228
-1.2655093669891357,3.5353705883026123,-0.14420883357524872
-1.2494438886642456,3.5699808597564697,-0.1467496156692505
-1.2314252853393555,3.6009395122528076,-0.14904089272022247
-1.2155297994613647,3.6392152309417725,-0.1516561210155487
-1.1934884786605835,3.658764600753784,-0.153494730591774
-1.0069307088851929,3.16113018989563,-0.13349248468875885
-0.9692707657814026,3.1197385787963867,-0.1325891762971878
-0.9515745043754578,3.1414525508880615,-0.1342882663011551
-0.8231072425842285,2.788749933242798,-0.11990420520305634
-0.7885178327560425,2.7418761253356934,-0.1185595691204071
-0.7672991752624512,2.7397451400756836,-0.11913911253213882
-0.7469502091407776,2.741281032562256,-0.11982640624046326
-0.7271113991737366,2.746572971343994,-0.12066064029932022
-0.7124483585357666,2.7705299854278564,-0.12231436371803284
-0.6865406036376953,2.7488784790039062,-0.12194664776325226
-1.3586612939834595,5.605726718902588,-0.24989189207553864
-1.3217823505401611,5.626497745513916,-0.2518939673900604
-1.282911777496338,5.643425464630127,-0.25371596217155457
-1.2497336864471436,5.682769775390625,-0.2565438151359558
-1.20849609375,5.683638095855713,-0.2576371431350708
-1.1688770055770874,5.691852569580078,-0.2590745687484741
-1.114334225654602,5.627159595489502,-0.2570113241672516
-1.0863239765167236,5.700125217437744,-0.2612217664718628
-1.0594956874847412,5.780510902404785,-0.2657903730869293
-1.0158628225326538,5.768471717834473,-0.2661193311214447
-0.9607481956481934,5.686849117279053,-0.26323434710502625
-0.9431464076042175,5.832094669342041,-0.27070286870002747
-0.9347103834152222,6.054610252380371,-0.2817836403846741
-0.6824289560317993,4.636460781097412,-0.21635819971561432
-0.6669995188713074,4.760845184326172,-0.22275571525096893
-0.643700122833252,4.838815212249756,-0.22701650857925415
-0.5874459743499756,4.665076732635498,-0.21933570504188538
-0.5556647777557373,4.676799297332764,-0.22031205892562866
-0.5167065262794495,4.630197048187256,-0.21855506300926208
-0.4864470660686493,4.653061866760254,-0.22007538378238678
-0.45858684182167053,4.702909469604492,-0.22288835048675537
-0.4302896559238434,4.7564921379089355,-0.2257976531982422
0.08037915825843811,5.481380462646484,-0.26312270760536194
0.117379330098629,5.433888912200928,-0.26071611046791077
0.15532895922660828,5.4407525062561035,-0.26090890169143677
0.18972013890743256,5.326448917388916,-0.255304217338562
0.22558607161045074,5.2977213859558105,-0.2538188397884369
0.26159289479255676,5.280447959899902,-0.25289544463157654
0.29557058215141296,5.231774806976318,-0.2503392994403839
0.26926136016845703,4.244444370269775,-0.2028651088476181
0.2969646453857422,4.211320400238037,-0.2010585367679596
0.32745304703712463,4.224729061126709,-0.20148713886737823
0.3574466407299042,4.230143070220947,-0.20154331624507904
0.4610758125782013,5.039680480957031,-0.23979242146015167
0.49666136503219604,5.0441670417785645,-0.2395796924829483
0.4809424877166748,4.555531024932861,-0.2159893661737442
0.5142866373062134,4.567619323730469,-0.2161949723958969
0.5515710711479187,4.6104536056518555,-0.21786090731620789
0.5898987054824829,4.656869411468506,-0.21965515613555908
0.6550970673561096,4.900249481201172,-0.23058058321475983
0.6921728849411011,4.914890289306641,-0.230714350938797
0.7210082411766052,4.875280380249023,-0.22832205891609192
0.7524908781051636,4.854762554168701,-0.22683754563331604
0.7799456119537354,4.81093692779541,-0.22426538169384003
0.8155608773231506,4.820902347564697,-0.22404350340366364
0.854101836681366,4.845969200134277,-0.22452661395072937
0.892350435256958,4.8629231452941895,-0.22462224960327148
0.9202998280525208,4.825978755950928,-0.22224712371826172
0.9538822770118713,4.819497108459473,-0.22128909826278687
0.9822514653205872,4.7899489402771,-0.21910910308361053
1.0118261575698853,4.767884254455566,-0.21728456020355225
1.0418905019760132,4.745477676391602,-0.2154414802789688
1.0748964548110962,4.738161563873291,-0.21430283784866333
1.1016219854354858,4.704018592834473,-0.2119656652212143
1.1338261365890503,4.696418762207031,-0.21067209541797638
1.162174105644226,4.673458576202393,-0.2086905688047409
1.1890032291412354,4.642596244812012,-0.20635369420051575
1.213310718536377,4.604081630706787,-0.20370228588581085
1.2493493556976318,4.610666275024414,-0.20306037366390228
1.273414134979248,4.575789928436279,-0.20046010613441467
1.3045454025268555,4.567075729370117,-0.19901655614376068
1.3319917917251587,4.542943954467773,-0.1968880593776703
1.35684072971344,4.511199951171875,-0.19445058703422546
1.3904106616973877,4.509199142456055,-0.19329619407653809
1.413994550704956,4.4773759841918945,-0.1907406449317932
1.4420124292373657,4.460295677185059,-0.18882988393306732
1.4682872295379639,4.435341835021973,-0.1865665316581726
1.4978591203689575,4.421389579772949,-0.18478716909885406
1.518105149269104,4.381514549255371,-0.18190014362335205
1.2754653692245483,3.6021926403045654,-0.14847160875797272
1.2918757200241089,3.5715036392211914,-0.146142840385437
1.324676275253296,3.5845062732696533,-0.1455860584974289
1.6271605491638184,4.3091206550598145,-0.17368055880069733
1.6565190553665161,4.2979936599731445,-0.17184540629386902
1.6797586679458618,4.272265434265137,-0.16940228641033173
1.708736538887024,4.260832786560059,-0.16752883791923523
1.7383296489715576,4.24891996383667,-0.16561032831668854
1.7637460231781006,4.2258219718933105,-0.16322430968284607
1.7890498638153076,4.206765174865723,-0.16094106435775757
1.8080010414123535,4.173216819763184,-0.15811948478221893
1.8399406671524048,4.167847156524658,-0.1563369631767273
1.865704894065857,4.147895812988281,-0.15400293469429016
1.8974725008010864,4.142129898071289,-0.15210682153701782
1.9185950756072998,4.1152424812316895,-0.14945176243782043
1.9399149417877197,4.088034629821777,-0.14677470922470093
1.9716999530792236,4.081552505493164,-0.1448175609111786
1.9925222396850586,4.054113388061523,-0.14207541942596436
2.026942491531372,4.054563045501709,-0.1402389258146286
2.0365755558013916,4.006060600280762,-0.1367327719926834
2.062582492828369,3.988417863845825,-0.1342494785785675
2.0914597511291504,3.9778430461883545,-0.13197781145572662
2.117758274078369,3.963984251022339,-0.12956494092941284
2.144432783126831,3.949697494506836,-0.12710881233215332
2.1364986896514893,3.869541883468628,-0.12247218936681747
2.145350217819214,3.8244752883911133,-0.11900445073843002
2.1666369438171387,3.8035483360290527,-0.11629331111907959
2.2003016471862793,3.802309274673462,-0.11411700397729874
2.2227652072906494,3.780242919921875,-0.11126812547445297
2.2400522232055664,3.7519233226776123,-0.10816431045532227
2.2686219215393066,3.743928909301758,-0.10569068789482117
2.294600486755371,3.728142738342285,-0.10285880416631699
2.315577745437622,3.7060208320617676,-0.09984665364027023
2.3312015533447266,3.6778066158294678,-0.09667129814624786
2.3607559204101562,3.668275833129883,-0.09383992850780487
2.398667335510254,3.6716973781585693,-0.0912981703877449
2.4092836380004883,3.6367390155792236,-0.08776865154504776
2.437927484512329,3.6270906925201416,-0.08475361764431
2.4627878665924072,3.610332489013672,-0.08146145939826965
2.486121654510498,3.5943784713745117,-0.07812822610139847
2.4923009872436523,3.552067756652832,-0.07413210719823837
2.5342609882354736,3.5607481002807617,-0.07108555734157562
2.5475103855133057,3.532106399536133,-0.06727082282304764
2.601814031600952,3.555487632751465,-0.06410954147577286
2.210174322128296,2.9805400371551514,-0.050663042813539505
2.611523389816284,3.6586453914642334,0.09549128264188766
2.616377830505371,3.722097873687744,0.10082521289587021
2.640104055404663,3.8149468898773193,0.10691262036561966
2.6107571125030518,3.834974765777588,0.11097702383995056
2.5926356315612793,3.865962505340576,0.11505918204784393
2.5550718307495117,3.8720784187316895,0.11837968975305557
2.533942937850952,3.9044580459594727,0.12249474227428436
2.506638288497925,3.921935558319092,0.12589159607887268
2.4857778549194336,3.953542709350586,0.12971378862857819
2.439483880996704,3.945483922958374,0.13220328092575073
2.430298089981079,3.9922420978546143,0.136321559548378
2.3950116634368896,3.9997551441192627,0.13913153111934662
2.365050792694092,4.0174360275268555,0.14221425354480743
2.3362560272216797,4.034143447875977,0.14516429603099823
2.3139233589172363,4.060377597808838,0.14840662479400635
2.287661552429199,4.084079265594482,0.15148808062076569
2.2566964626312256,4.101163387298584,0.1543659120798111
2.2279775142669678,4.116735458374023,0.1570243388414383
2.2027037143707275,4.139059066772461,0.1599348485469818
2.1829278469085693,4.175870418548584,0.16334718465805054
2.148494005203247,4.184813499450684,0.1656828373670578
2.1187219619750977,4.199865818023682,0.16819144785404205
2.099665880203247,4.2354841232299805,0.17149701714515686
2.0752999782562256,4.2647504806518555,0.17447203397750854
2.040555238723755,4.272734642028809,0.17658689618110657
2.010531187057495,4.286849498748779,0.17888104915618896
1.9806729555130005,4.300631046295166,0.18115514516830444
1.9698671102523804,4.361236572265625,0.18536284565925598
1.9870052337646484,4.486029624938965,0.1923147588968277
1.9518418312072754,4.49283504486084,0.19422022998332977
1.9204659461975098,4.506241798400879,0.1963818371295929
1.9081717729568481,4.566410064697266,0.20056141912937164
1.8580890893936157,4.54056978225708,0.20090892910957336
1.836685061454773,4.582833766937256,0.20425015687942505
1.8016998767852783,4.588226795196533,0.20591288805007935
1.76968514919281,4.60058069229126,0.20788900554180145
1.7368241548538208,4.613000869750977,0.20978480577468872
1.3293955326080322,3.6110849380493164,0.16524261236190796
1.3059933185577393,3.627845287322998,0.1670188158750534
1.2768235206604004,3.625739812850952,0.16789975762367249
1.6428667306900024,4.770953178405762,0.22222480177879333
1.618749976158142,4.812060356140137,0.22532206773757935
1.5785973072052002,4.808874607086182,0.22634166479110718
1.5488791465759277,4.834842681884766,0.22871947288513184
1.5244872570037842,4.875229835510254,0.23176933825016022
1.5030678510665894,4.926692485809326,0.23537208139896393
1.4491286277770996,4.8735857009887695,0.2338765412569046
1.4120615720748901,4.87625789642334,0.2350066751241684
1.3722838163375854,4.871315002441406,0.23579545319080353
1.3269572257995605,4.839294910430908,0.23522956669330597
1.287260890007019,4.825709819793701,0.2355554848909378
1.253240942955017,4.834590911865234,0.2368926703929901
1.2263544797897339,4.873613357543945,0.23962721228599548
1.1974462270736694,4.908851623535156,0.24221207201480865
1.1684081554412842,4.939842700958252,0.24457904696464539
1.1339993476867676,4.947793483734131,0.24581541121006012
1.1045557260513306,4.9783711433410645,0.2481650859117508
1.0708653926849365,4.993654251098633,0.24961499869823456
1.0379666090011597,5.0164794921875,0.2514701783657074
1.0032812356948853,5.027456283569336,0.2527315318584442
0.9711890816688538,5.049594402313232,0.2545592784881592
2.134753465652466,11.531778335571289,0.5829945802688599
2.02205491065979,11.369728088378906,0.5761668086051941
1.9014763832092285,11.156981468200684,0.5666304230690002
1.8029452562332153,11.05070686340332,0.5624710917472839
1.7082915306091309,10.951147079467773,0.5586380958557129
1.6103723049163818,10.816020965576172,0.5529814958572388
1.5032620429992676,10.602849006652832,0.5432783961296082
1.4153300523757935,10.524345397949219,0.5401010513305664
1.3299487829208374,10.44495964050293,0.5368757843971252
1.235978603363037,10.283561706542969,0.5294401049613953
1.1516271829605103,10.179435729980469,0.5249465703964233
1.0692979097366333,10.078508377075195,0.5206230878829956
0.9926608800888062,10.023567199707031,0.5185180902481079
0.3969619870185852,4.323702812194824,0.2239038646221161
0.36233144998550415,4.275829315185547,0.22166728973388672
0.33119696378707886,4.262682914733887,0.22123748064041138
0.3026355504989624,4.280429363250732,0.222420334815979
0.27657175064086914,4.340807914733887,0.22583390772342682
0.24796807765960693,4.381595611572266,0.2281171828508377
0.21692432463169098,4.375420093536377,0.22791673243045807
0.1836564987897873,4.314460754394531,0.22487163543701172
0.15151964128017426,4.257147789001465,0.22202317416667938
0.04331497102975845,1.5129469633102417,0.07895780354738235
0.09286615997552872,4.309534072875977,0.22507105767726898
0.062443461269140244,4.282771110534668,0.22367140650749207
0.03324379026889801,4.3728203773498535,0.228379487991333
0.0027736909687519073,4.365142822265625,0.22799472510814667
-0.027494505047798157,4.349452018737793,0.22720235586166382
-0.05456738546490669,4.072205543518066,0.21275629103183746
-0.08284513652324677,4.0717291831970215,0.21274495124816895
-0.040873195976018906,1.4974026679992676,0.0781974345445633
-0.138329416513443,4.039011478424072,0.2108256071805954
-0.2441093474626541,5.924421310424805,0.30910730361938477
-0.2833760380744934,5.88362979888916,0.3068629801273346
-0.19410724937915802,3.513314723968506,0.18317684531211853
-0.21990413963794708,3.5352554321289062,0.18421077728271484
-0.24324366450309753,3.518099308013916,0.18313142657279968
-0.29417622089385986,3.8664278984069824,0.20106904208660126
-0.32091692090034485,3.8643155097961426,0.20077410340309143
-0.3461598753929138,3.838651180267334,0.19926224648952484
-0.3528231680393219,3.6303822994232178,0.1882944256067276
-0.37631985545158386,3.6123526096343994,0.18712034821510315
-0.4111044704914093,3.6988728046417236,0.191312775015831
-0.44072866439819336,3.7308387756347656,0.19268260896205902
-0.4587291181087494,3.661862850189209,0.1888452023267746
-0.48723092675209045,3.681814432144165,0.1896098107099533
-0.860710084438324,6.174402236938477,0.3175475597381592
-0.8980307579040527,6.133650302886963,0.314820259809494
-0.9388642907142639,6.119688510894775,0.31346485018730164
-0.5282019376754761,3.289560079574585,0.16815662384033203
-0.5452505946159363,3.251206874847412,0.1658664494752884
-0.5792638063430786,3.3126959800720215,0.16867494583129883
-1.1513526439666748,6.32554292678833,0.3214106857776642
-1.2083580493927002,6.390420436859131,0.32385334372520447
-0.6346855163574219,3.2350566387176514,0.1635197252035141
-0.6557390689849854,3.2229256629943848,0.16247959434986115
-0.6733121871948242,3.195413589477539,0.16067826747894287
-0.7021992206573486,3.2211754322052,0.16156207025051117
-0.7405856847763062,3.2886340618133545,0.16445280611515045
-1.2354958057403564,5.3167500495910645,0.26501429080963135
-1.2705532312393188,5.300522327423096,0.2633463144302368
-0.6914520859718323,2.7992537021636963,0.13862952589988708
-0.7031974792480469,2.76416277885437,0.13645333051681519
-0.7203189134597778,2.751718759536743,0.13539111614227295
-0.7410023808479309,2.7543413639068604,0.13498634099960327
-0.7620603442192078,2.756725788116455,0.1345645785331726
-0.7872433066368103,2.7740225791931152,0.1348770707845688
-0.8949387073516846,3.0719640254974365,0.14876732230186462
-0.9475624561309814,3.170393705368042,0.15292461216449738
-0.9736779928207397,3.178847312927246,0.15263541042804718
-1.0048986673355103,3.2019004821777344,0.15300655364990234
-1.0563684701919556,3.2879621982574463,0.15638144314289093
-1.090142846107483,3.3139638900756836,0.15685902535915375
-1.1044365167617798,3.280470132827759,0.15452535450458527
-1.1382458209991455,3.306114912033081,0.15492162108421326
-1.1682145595550537,3.320533514022827,0.15473675727844238
-1.3454208374023438,3.7421793937683105,0.17340026795864105
-1.3941375017166138,3.7951292991638184,0.1748492270708084
-1.4287346601486206,3.80732798576355,0.1744004338979721
-1.4575603008270264,3.8048150539398193,0.17321625351905823
-1.4830454587936401,3.795025587081909,0.17164115607738495
-1.5089410543441772,3.7848761081695557,0.1700364649295807
-1.5350520610809326,3.7744345664978027,0.16841399669647217
-2.3329474925994873,5.623970031738281,0.24921098351478577
-2.3680334091186523,5.600924015045166,0.2463747262954712
-2.3991527557373047,5.570783615112305,0.24317170679569244
-2.4338252544403076,5.547313213348389,0.24024194478988647
-2.5376789569854736,5.676458358764648,0.24383890628814697
-2.5172131061553955,5.527367115020752,0.23549263179302216
-2.560703754425049,5.524685859680176,0.2333044707775116
-2.577376127243042,5.465301036834717,0.22872047126293182
-3.1048099994659424,6.4680891036987305,0.2681378424167633
-1.739389419555664,3.559936761856079,0.1461581587791443
-1.777600884437561,3.5759992599487305,0.14535512030124664
-1.7606902122497559,3.4841244220733643,0.14012983441352844
-1.8015055656433105,3.5072202682495117,0.13955426216125488
-1.8349251747131348,3.511972427368164,0.13815084099769592
-1.8432472944259644,3.467954635620117,0.1348084807395935
-1.8623164892196655,3.448963165283203,0.13241037726402283
