X,Y,Z
1.2887858152389526,2.181330919265747,-0.21798329055309296
1.3141313791275024,2.189537525177002,-0.21304982900619507
1.3415573835372925,2.200887680053711,-0.20830458402633667
1.3565475940704346,2.192314386367798,-0.20151503384113312
1.3675163984298706,2.176917791366577,-0.1940508633852005
1.374518871307373,2.154658079147339,-0.18588514626026154
1.4016249179840088,2.165621519088745,-0.1805654764175415
1.7735815048217773,2.7006871700286865,-0.21717002987861633
1.8599849939346313,2.789163112640381,-0.21546490490436554
1.8567079305648804,2.745124340057373,-0.2034767121076584
1.8464657068252563,2.691464900970459,-0.190831258893013
1.8743844032287598,2.6918270587921143,-0.18166276812553406
1.8696290254592896,2.6481781005859375,-0.1695973128080368
1.451675534248352,2.026855945587158,-0.12237963080406189
1.4702993631362915,2.0235233306884766,-0.114535853266716
1.4740132093429565,2.001913070678711,-0.10569683462381363
2.3313798904418945,3.2996249198913574,0.4254995286464691
2.2743899822235107,3.266897678375244,0.43103891611099243
2.3107311725616455,3.372358560562134,0.4547539949417114
2.2836458683013916,3.3891313076019287,0.46672630310058594
2.24422287940979,3.3813316822052,0.4742833971977234
2.9188530445098877,4.468116760253906,0.6378517746925354
1.632499098777771,2.5413570404052734,0.36893296241760254
1.622100591659546,2.5653045177459717,0.3781522512435913
1.595234990119934,2.562784194946289,0.3834332525730133
3.0295426845550537,4.949652194976807,0.7507284879684448
3.0071816444396973,4.997430801391602,0.7681277394294739
2.9794421195983887,5.030123233795166,0.782526433467865
2.9629709720611572,5.082764148712158,0.8001337647438049
2.940568208694458,5.133979797363281,0.8172716498374939
2.90876841545105,5.167881011962891,0.8316166400909424
2.8832173347473145,5.2068891525268555,0.846242368221283
2.862795352935791,5.255947113037109,0.8626253604888916
2.8378043174743652,5.302754878997803,0.878211259841919
2.8309412002563477,5.387626647949219,0.9003272652626038
2.791781187057495,5.406229019165039,0.9110328555107117
2.7779088020324707,5.4723100662231445,0.9296703934669495
2.760620355606079,5.53542947769165,0.9477421045303345
1.2644271850585938,2.582981824874878,0.44546395540237427
1.2179555892944336,2.536062479019165,0.4405868947505951
1.1966685056686401,2.5368895530700684,0.44372087717056274
1.1786925792694092,2.5445315837860107,0.4480571150779724
1.1553138494491577,2.5417885780334473,0.4503902196884155
1.150472640991211,2.5812971591949463,0.46010586619377136
2.5696468353271484,5.880972862243652,1.0544506311416626
2.5486080646514893,5.947242736816406,1.0724037885665894
2.5200016498565674,5.9954376220703125,1.0871332883834839
2.488387107849121,6.040392875671387,1.101001501083374
2.4624218940734863,6.103509902954102,1.117900013923645
2.4342992305755615,6.162934303283691,1.1342551708221436
2.4077794551849365,6.22549295425415,1.1512116193771362
2.3776016235351562,6.276740550994873,1.1660603284835815
2.3478238582611084,6.331590175628662,1.1815814971923828
2.31974458694458,6.3978376388549805,1.1986310482025146
2.2831084728240967,6.442227840423584,1.211708426475525
2.2546846866607666,6.51185941696167,1.2296671867370605
2.222477436065674,6.566187858581543,1.244661569595337
2.1908223628997803,6.624007225036621,1.2604398727416992
2.1505045890808105,6.660101413726807,1.2716717720031738
2.088197708129883,6.630285263061523,1.2699761390686035
2.022163152694702,6.589160442352295,1.2661967277526855
1.9644657373428345,6.565265655517578,1.2655587196350098
1.9086896181106567,6.544472694396973,1.2655043601989746
1.8481206893920898,6.504742622375488,1.2617928981781006
1.790244698524475,6.476001262664795,1.2595523595809937
1.7335331439971924,6.450611591339111,1.25777006149292
1.6677340269088745,6.39152193069458,1.2494865655899048
0.8127332329750061,3.20662784576416,0.6284545660018921
1.5658988952636719,6.363833427429199,1.2503995895385742
0.7980871200561523,3.343536376953125,0.6586515307426453
1.462025761604309,6.323614120483398,1.2482870817184448
1.4033616781234741,6.277093887329102,1.2415307760238647
1.3412760496139526,6.20744514465332,1.2301756143569946
1.2928895950317383,6.193387508392334,1.2298115491867065
1.2496494054794312,6.201450347900391,1.2338721752166748
1.2004425525665283,6.179115295410156,1.2319365739822388
1.1483144760131836,6.145399570465088,1.2273054122924805
1.1018537282943726,6.137679100036621,1.227515697479248
1.0516587495803833,6.1069512367248535,1.2231712341308594
1.0029196739196777,6.0795578956604,1.2195202112197876
0.9420182704925537,5.968447685241699,1.1990662813186646
0.9065939784049988,6.019803047180176,1.2113193273544312
0.8622970581054688,6.010251045227051,1.2111304998397827
0.8156412243843079,5.985379219055176,1.2072639465332031
0.7659477591514587,5.933563232421875,1.1980055570602417
0.6164494752883911,5.056367874145508,1.021963119506836
0.5833908915519714,5.079185485839844,1.0276788473129272
0.5633485913276672,5.231295585632324,1.0596637725830078
0.40916648507118225,4.065085411071777,0.8243950605392456
0.38203755021095276,4.082894802093506,0.8285361528396606
0.3582567274570465,4.142505168914795,0.841105580329895
0.3296688497066498,4.152363300323486,0.843623161315918
0.29957082867622375,4.1467671394348145,0.8430485129356384
0.2707306742668152,4.148556232452393,0.8440026640892029
0.24522100389003754,4.2074666023254395,0.8566274642944336
0.39722537994384766,7.745011806488037,1.5777815580368042
0.3423965275287628,7.732157230377197,1.5753810405731201
0.28579577803611755,7.692173957824707,1.56753408908844
0.23100726306438446,7.663234710693359,1.5620073080062866
0.17716467380523682,7.633897304534912,1.5564677715301514
0.12377703934907913,7.6118388175964355,1.5524846315383911
0.07066863030195236,7.585581302642822,1.547716736793518
0.017042962834239006,7.5629377365112305,1.5429790019989014
-0.03536688908934593,7.532322883605957,1.5363965034484863
-0.08757328242063522,7.520482540130615,1.5337194204330444
-0.13883407413959503,7.466184139251709,1.5224595069885254
-0.19012652337551117,7.442149639129639,1.5174459218978882
-0.2415890246629715,7.433064937591553,1.5155543088912964
-0.29415038228034973,7.431266784667969,1.5150843858718872
-0.24918335676193237,5.35691499710083,1.0914816856384277
-0.2877523899078369,5.382014274597168,1.095958948135376
-0.32592689990997314,5.3953752517700195,1.0980950593948364
-0.361335813999176,5.362624645233154,1.0908982753753662
-0.3989681303501129,5.356319427490234,1.0891292095184326
-0.4356051981449127,5.345980644226074,1.0866018533706665
-0.4607498049736023,5.2096357345581055,1.0581274032592773
-0.4395880401134491,4.608245372772217,0.9350488185882568
-0.468973845243454,4.582550048828125,0.9289544224739075
-0.49864810705184937,4.556603908538818,0.9228458404541016
-0.5286098122596741,4.53809928894043,0.9183031916618347
-0.5601646304130554,4.534607410430908,0.9168466925621033
-0.5902085304260254,4.51950216293335,0.913088321685791
-0.6212180256843567,4.5157575607299805,0.9110385775566101
-0.6494665145874023,4.488979816436768,0.9043649435043335
-0.6791185736656189,4.4772515296936035,0.9007971286773682
-0.7113439440727234,4.480418682098389,0.9002575278282166
-0.7399837374687195,4.460657596588135,0.8951523303985596
-0.7696896195411682,4.448264122009277,0.8915747404098511
-0.7962530851364136,4.420694351196289,0.8846879601478577
-0.8220344185829163,4.3892107009887695,0.8767522573471069
-0.7101280689239502,3.653970718383789,0.7285804748535156
-0.7352030277252197,3.6494429111480713,0.7263978123664856
-0.7543439865112305,3.614644765853882,0.7182168960571289
-0.9300711750984192,4.306945323944092,0.854317307472229
-0.9671600461006165,4.330758571624756,0.8574917316436768
-0.9949093461036682,4.317226886749268,0.852826714515686
-1.020744800567627,4.296049118041992,0.8467008471488953
-1.0499866008758545,4.289620876312256,0.8435280919075012
-1.0780036449432373,4.275390148162842,0.8388195037841797
-1.1054593324661255,4.257126808166504,0.8333345055580139
-1.1331515312194824,4.242526531219482,0.8286505937576294
-1.1559194326400757,4.213223457336426,0.8206115961074829
-1.1803168058395386,4.191224575042725,0.8140137791633606
-1.2151713371276855,4.2059645652771,0.8145812749862671
-1.2383265495300293,4.175926208496094,0.8064243197441101
-1.26975417137146,4.175248146057129,0.804009735584259
-1.2966583967208862,4.159661293029785,0.7987635135650635
-1.3226029872894287,4.144231796264648,0.793120801448822
-1.343444585800171,4.114091873168945,0.7846409678459167
-1.379096269607544,4.12743616104126,0.7844385504722595
-1.3978772163391113,4.0894598960876465,0.7744967937469482
-1.4290509223937988,4.087657451629639,0.7714423537254333
-1.4512041807174683,4.060262680053711,0.763603150844574
-1.475947618484497,4.044058322906494,0.7573832273483276
-1.4870328903198242,3.991666078567505,0.7444483637809753
-1.5308895111083984,4.025420665740967,0.747546374797821
-1.55915367603302,4.015500068664551,0.7424675226211548
-1.59018874168396,4.0125346183776855,0.7387055158615112
-1.6093409061431885,3.980938196182251,0.7295640110969543
-1.6390429735183716,3.9781365394592285,0.7253905534744263
-1.6662780046463013,3.967823028564453,0.719808042049408
-1.6935566663742065,3.957272529602051,0.7142015099525452
-1.7089557647705078,3.918057441711426,0.7034127116203308
-1.7427109479904175,3.9210622310638428,0.7002468705177307
-1.7563318014144897,3.882219076156616,0.6892285943031311
-1.785915493965149,3.878281593322754,0.6843273043632507
-1.808802604675293,3.860217332839966,0.6769919991493225
-1.836079478263855,3.8484373092651367,0.6706020832061768
-1.8699860572814941,3.850358724594116,0.6666229963302612
-1.8858956098556519,3.8179209232330322,0.6563981175422668
-1.9153209924697876,3.813063144683838,0.6507368087768555
-1.9410241842269897,3.8012006282806396,0.6439429521560669
-1.964269757270813,3.7817370891571045,0.6356808543205261
-1.9837210178375244,3.75528621673584,0.6263031363487244
-2.0088884830474854,3.7430992126464844,0.6189945340156555
-2.020716905593872,3.7071444988250732,0.607733964920044
-1.7109566926956177,3.0887160301208496,0.5017098188400269
-1.736640453338623,3.0842931270599365,0.4962419867515564
-0.8300827741622925,1.450923204421997,0.23117271065711975
-0.8591023087501526,1.479377031326294,0.23324841260910034
-0.8531466722488403,1.4474928379058838,0.22580961883068085
-0.8675368428230286,1.4484952688217163,0.22332914173603058
-0.8858693242073059,1.4560598134994507,0.22187094390392303
-0.8873397707939148,1.4375239610671997,0.21630482375621796
-0.8926426768302917,1.4256312847137451,0.21177618205547333
-0.894347608089447,1.4067803621292114,0.20606113970279694
-0.9003461599349976,1.394290804862976,0.20123636722564697
-0.8967219591140747,1.3694393634796143,0.19460709393024445
-0.9013769030570984,1.3576139211654663,0.1898796558380127
-2.3687825202941895,3.5144364833831787,0.4828681945800781
-2.4347875118255615,3.56025767326355,0.4802274703979492
-1.3541133403778076,1.9531376361846924,0.2582989037036896
-1.2222310304641724,1.7381209135055542,0.2250651866197586
-1.4308990240097046,2.288015842437744,-0.21337570250034332
-1.3636198043823242,2.2144901752471924,-0.2130991369485855
-1.2609878778457642,2.1159584522247314,-0.21600551903247833
-0.8356117010116577,1.448716640472412,-0.15595807135105133
-0.8363199234008789,1.4746901988983154,-0.1627657115459442
-1.0908950567245483,1.9554145336151123,-0.22091171145439148
-1.0582276582717896,1.9284075498580933,-0.22280773520469666
-1.001543402671814,1.856848120689392,-0.21923725306987762
-0.9677749276161194,1.8257977962493896,-0.22017641365528107
-0.9368902444839478,1.7975355386734009,-0.22108472883701324
-0.9097581505775452,1.775972604751587,-0.22264862060546875
-0.8705752491950989,1.7299526929855347,-0.22094419598579407
-0.8444075584411621,1.707714319229126,-0.22201775014400482
-0.8100351691246033,1.6677947044372559,-0.22066530585289001
-0.7845586538314819,1.6450417041778564,-0.22129590809345245
-0.7610329389572144,1.6255594491958618,-0.22225360572338104
-0.7267968654632568,1.5810599327087402,-0.2195519357919693
-0.7155570983886719,1.585618495941162,-0.22356049716472626
-0.696170449256897,1.572511911392212,-0.22496597468852997
-0.6722187399864197,1.5486204624176025,-0.22479180991649628
-0.6551826596260071,1.5385476350784302,-0.22641423344612122
-0.6353147625923157,1.5211834907531738,-0.22689205408096313
-0.6111481189727783,1.4929696321487427,-0.22555555403232574
-0.588858425617218,1.4680933952331543,-0.22461798787117004
-0.5754504203796387,1.4645755290985107,-0.22688832879066467
-0.553963303565979,1.439241647720337,-0.2256603240966797
-0.534068763256073,1.4173811674118042,-0.22478394210338593
-0.5185347199440002,1.406191349029541,-0.22553732991218567
-0.5164472460746765,1.4311319589614868,-0.2320711314678192
0.5287262797355652,1.4110039472579956,-0.22445076704025269
0.5468589067459106,1.4294148683547974,-0.22481213510036469
0.5513337254524231,1.4115959405899048,-0.21944162249565125
0.5641306638717651,1.4153425693511963,-0.21742895245552063
0.5841604471206665,1.436960220336914,-0.21801522374153137
0.5973025560379028,1.4404335021972656,-0.2157442718744278
0.6225482821464539,1.47232186794281,-0.21766546368598938
0.6436567902565002,1.4932844638824463,-0.21784888207912445
0.6695688366889954,1.5247639417648315,-0.21936920285224915
0.6928026676177979,1.5488899946212769,-0.21970705687999725
0.7071319818496704,1.5514686107635498,-0.21681976318359375
0.7245822548866272,1.561040997505188,-0.21491479873657227
0.7502401471138,1.5880948305130005,-0.21525630354881287
0.7746649384498596,1.6113663911819458,-0.21495459973812103
0.8116359114646912,1.6586639881134033,-0.21761474013328552
0.8338617086410522,1.674232006072998,-0.21588106453418732
0.8646417856216431,1.7071187496185303,-0.21627284586429596
0.8906893134117126,1.729266881942749,-0.21512801945209503
0.9335910081863403,1.7819654941558838,-0.21749919652938843
0.9679397344589233,1.817137360572815,-0.21748259663581848
0.9933261871337891,1.8349791765213013,-0.21521194279193878
1.0400607585906982,1.8897902965545654,-0.21692009270191193
1.078062891960144,1.9271239042282104,-0.2163904756307602
1.123891830444336,1.9777971506118774,-0.21708181500434875
1.168388843536377,2.0246572494506836,-0.21707282960414886
1.2122199535369873,2.0673296451568604,-0.21612367033958435
1.2807178497314453,2.14955997467041,-0.21882516145706177
1.315380334854126,2.1748170852661133,-0.21547652781009674
1.3365319967269897,2.176279067993164,-0.2095174789428711
1.3601491451263428,2.1806535720825195,-0.20364825427532196
1.362346887588501,2.1523280143737793,-0.19473950564861298
1.375046968460083,2.140254497528076,-0.1871935874223709
1.3859062194824219,2.1245808601379395,-0.1791950762271881
1.7745846509933472,2.6812241077423096,-0.21771618723869324
1.8467603921890259,2.750979423522949,-0.2146279662847519
1.8112672567367554,2.6580970287323,-0.1983557492494583
1.8671870231628418,2.7008559703826904,-0.1921469271183014
1.8895676136016846,2.6954891681671143,-0.18236298859119415
1.4359614849090576,2.018440008163452,-0.12899446487426758
1.4629758596420288,2.0283915996551514,-0.12196522951126099
1.4673786163330078,2.006399154663086,-0.11272191256284714
1.4672948122024536,1.9778574705123901,-0.10286080092191696
2.3295328617095947,3.270158529281616,0.43973347544670105
2.3089311122894287,3.2924797534942627,0.45344364643096924
2.2913386821746826,3.321845293045044,0.4679929316043854
2.2673628330230713,3.3366217613220215,0.4795066714286804
2.263749837875366,3.384164571762085,0.4956645369529724
1.4762917757034302,2.2442257404327393,0.33471107482910156
1.5080115795135498,2.3288843631744385,0.3531394600868225
1.603730320930481,2.514946460723877,0.38733670115470886
1.6190359592437744,2.5820014476776123,0.40350040793418884
3.056175470352173,4.955660820007324,0.785391628742218
3.0025634765625,4.945506572723389,0.7939448356628418
2.987457275390625,5.0021162033081055,0.8132732510566711
2.9643659591674805,5.049618244171143,0.8306782841682434
2.9513344764709473,5.113250732421875,0.8506799340248108
2.9072461128234863,5.118648052215576,0.860559344291687
2.885327100753784,5.16444206237793,0.8771706819534302
2.8767683506011963,5.242198944091797,0.8990287780761719
2.8479127883911133,5.282228946685791,0.9144070744514465
2.8355798721313477,5.348172664642334,0.9338966012001038
2.813565254211426,5.397019386291504,0.9505568146705627
2.787266254425049,5.443422794342041,0.9663377404212952
2.7747321128845215,5.521339416503906,0.9878717660903931
2.730806589126587,5.532691955566406,0.9972521066665649
1.2330719232559204,2.5426106452941895,0.4615664780139923
1.2149556875228882,2.550466299057007,0.46624523401260376
1.1828055381774902,2.530736207962036,0.4655607044696808
1.1702795028686523,2.552700996398926,0.47255656123161316
1.1641114950180054,2.588528871536255,0.48214593529701233
1.1395153999328613,2.581834554672241,0.48375019431114197
2.5649993419647217,5.923452854156494,1.1163417100906372
2.5328831672668457,5.969008922576904,1.1307387351989746
2.504713296890259,6.025021076202393,1.1472370624542236
2.477644920349121,6.084342002868652,1.1644624471664429
2.450464963912964,6.139240741729736,1.1807098388671875
2.421170473098755,6.190464019775391,1.1963871717453003
2.3938984870910645,6.253002166748047,1.2136646509170532
2.361422300338745,6.304807186126709,1.2288212776184082
2.3289339542388916,6.3602824211120605,1.2448991537094116
2.297011137008667,6.4111456871032715,1.2599176168441772
2.265817880630493,6.465451240539551,1.2757279872894287
2.243452787399292,6.548866271972656,1.297178864479065
2.205324649810791,6.592749118804932,1.3102562427520752
2.170541763305664,6.651261329650879,1.326443076133728
2.1110572814941406,6.628674030303955,1.326379418373108
2.0518946647644043,6.601634979248047,1.325344443321228
1.9966216087341309,6.585098743438721,1.3264304399490356
1.931079626083374,6.535343647003174,1.320353388786316
1.8730462789535522,6.51109504699707,1.3189709186553955
1.8167692422866821,6.493936538696289,1.319116234779358
1.7574024200439453,6.45742654800415,1.3152353763580322
1.7003810405731201,6.423940181732178,1.3119267225265503
0.8352876305580139,3.2469520568847656,0.6649118065834045
1.5975092649459839,6.3967204093933105,1.3130269050598145
0.8055099844932556,3.3283329010009766,0.6846364736557007
1.4843918085098267,6.331460952758789,1.3051393032073975
1.4343998432159424,6.3184428215026855,1.3052266836166382
1.3762495517730713,6.263780117034912,1.2966995239257812
1.3141599893569946,6.186165809631348,1.2834171056747437
1.2760258913040161,6.224518775939941,1.2939238548278809
1.2145085334777832,6.146341323852539,1.2796450853347778
1.1677589416503906,6.139053821563721,1.2801580429077148
1.117318868637085,6.108785629272461,1.2759130001068115
1.0733431577682495,6.108158111572266,1.2778736352920532
1.025502324104309,6.088466167449951,1.2759345769882202
0.9756532311439514,6.049437522888184,1.2698887586593628
0.9303964972496033,6.040524482727051,1.269382357597351
0.8825379610061646,6.012357234954834,1.264882206916809
0.8357225656509399,5.987600326538086,1.2611453533172607
0.7890986204147339,5.9625115394592285,1.2573940753936768
0.7451765537261963,5.948351860046387,1.2559646368026733
0.5933266878128052,5.018924713134766,1.061083436012268
0.5695083141326904,5.125175476074219,1.0845264196395874
0.5393736958503723,5.18576717376709,1.098092794418335
0.3948131501674652,4.0744476318359375,0.8633974194526672
0.3681146204471588,4.103553771972656,0.8702489733695984
0.34519749879837036,4.174324035644531,0.8859789371490479
0.3144376873970032,4.153505325317383,0.8823190331459045
0.2860676348209381,4.162971019744873,0.8850950002670288
0.25785669684410095,4.180000305175781,0.8889364004135132
0.4228168725967407,7.752752304077148,1.6492325067520142
0.3674445152282715,7.732386112213135,1.6454704999923706
0.31171712279319763,7.688712120056152,1.6368203163146973
0.25811493396759033,7.686642169952393,1.6371010541915894
0.20364165306091309,7.649826526641846,1.630056381225586
0.1493537575006485,7.643306732177734,1.6290359497070312
0.09545772522687912,7.594499111175537,1.6184595823287964
0.04239904135465622,7.572054862976074,1.6135817766189575
-0.010244251228868961,7.54160213470459,1.607075572013855
-0.06242995336651802,7.506963729858398,1.5997554063796997
-0.11552977561950684,7.506332874298096,1.5997623205184937
-0.16672901809215546,7.459511756896973,1.5899996757507324
-0.21753732860088348,7.427805423736572,1.5826457738876343
-0.269082635641098,7.426337242126465,1.5816103219985962
-0.3205321133136749,7.4245147705078125,1.5805765390396118
-0.2712463438510895,5.411242485046387,1.1515626907348633
-0.3090500831604004,5.401723861694336,1.1491707563400269
-0.3456195890903473,5.384352684020996,1.1451715230941772
-0.38083308935165405,5.3515167236328125,1.1378077268600464
-0.4168756902217865,5.337651252746582,1.1338690519332886
-0.4517124593257904,5.312122821807861,1.1275144815444946
-0.4231416583061218,4.593643665313721,0.9742400050163269
-0.4542538821697235,4.583266258239746,0.9713224172592163
-0.48610177636146545,4.58027458190918,0.9700168967247009
-0.5170703530311584,4.569464683532715,0.9671034216880798
-0.5477042198181152,4.558542251586914,0.9638488292694092
-0.574215292930603,4.513302326202393,0.9530758857727051
-0.6067341566085815,4.521023750305176,0.9535601735115051
-0.6378847360610962,4.517139434814453,0.9516353011131287
-0.6676349639892578,4.501649856567383,0.9473029971122742
-0.6966129541397095,4.482183456420898,0.9421859383583069
-0.7246739864349365,4.454897880554199,0.9354527592658997
-0.7526072859764099,4.435274600982666,0.9297630190849304
-0.7815877795219421,4.423016548156738,0.9256711006164551
-0.8104848265647888,4.410558223724365,0.9215834140777588
-0.8331822156906128,4.364011764526367,0.9104138016700745
-0.720741331577301,3.637824058532715,0.7577442526817322
-0.7480868697166443,3.6405627727508545,0.7571526169776917
-0.9164324402809143,4.309820652008057,0.8946822881698608
-0.9540417790412903,4.341500759124756,0.8993427753448486
-0.9836053252220154,4.33554220199585,0.8962348103523254
-1.0081313848495483,4.3069562911987305,0.888485848903656
-1.0405352115631104,4.307789325714111,0.8867919445037842
-1.0650328397750854,4.278768539428711,0.8790364265441895
-1.0908950567245483,4.257103443145752,0.8727070093154907
-1.1168917417526245,4.239226341247559,0.8667414784431458
-1.1456996202468872,4.232284069061279,0.8630577921867371
-1.180185079574585,4.243461608886719,0.8630542755126953
-1.2024263143539429,4.210081100463867,0.8540198802947998
-1.2296067476272583,4.194996356964111,0.8487595319747925
-1.2544118165969849,4.172398090362549,0.8419913649559021
-1.2825675010681152,4.1646904945373535,0.8377242684364319
-1.3112332820892334,4.1566290855407715,0.8333714604377747
-1.3369324207305908,4.141225814819336,0.8276429772377014
-1.3635475635528564,4.125338554382324,0.8217660784721375
-1.389961838722229,4.109287261962891,0.8159105181694031
-1.4099020957946777,4.074940204620361,0.80643630027771
-1.4374046325683594,4.066279411315918,0.8015856742858887
-1.47190260887146,4.075321197509766,0.800187885761261
-1.4902312755584717,4.040961265563965,0.7903566956520081
-1.5212301015853882,4.038590431213379,0.7867341041564941
-1.543987512588501,4.014455318450928,0.77891606092453
-1.5661261081695557,3.9903531074523926,0.770999550819397
-1.6019293069839478,4.002047538757324,0.7695819139480591
-1.6287841796875,3.9922451972961426,0.7641074657440186
-1.6502381563186646,3.96783185005188,0.7558085322380066
-1.675227403640747,3.9500792026519775,0.7487286329269409
-1.7122647762298584,3.9604241847991943,0.7469990253448486
-1.730326533317566,3.928499221801758,0.7368667721748352
-1.7346858978271484,3.8687121868133545,0.7215608954429626
-1.7671360969543457,3.8720703125,0.718096911907196
-1.7976595163345337,3.867672920227051,0.7130185961723328
-1.8249073028564453,3.8560657501220703,0.7066388726234436
-1.8518341779708862,3.8444292545318604,0.6999581456184387
-1.8910459280014038,3.860898733139038,0.6982206702232361
-1.8961728811264038,3.8079755306243896,0.6839815974235535
-1.9264743328094482,3.8026604652404785,0.6781089305877686
-1.9533848762512207,3.790180206298828,0.6709593534469604
-1.9758484363555908,3.771095037460327,0.6624543070793152
-2.0013699531555176,3.758941411972046,0.6548728346824646
-2.013615608215332,3.7229886054992676,0.6432806849479675
-1.7030930519104004,3.0972771644592285,0.5304588675498962
-1.7212896347045898,3.079477548599243,0.5227178335189819
-0.8204274773597717,1.4454054832458496,0.24300581216812134
-0.8456059098243713,1.4671822786331177,0.2442013919353485
-0.8556634783744812,1.461901307106018,0.2408151775598526
-0.8700037002563477,1.4629989862442017,0.23838821053504944
-0.8721039891242981,1.444272756576538,0.2326914221048355
-0.8815991878509521,1.4390722513198853,0.22910454869270325
-0.8914214968681335,1.4335992336273193,0.22537904977798462
-0.897510290145874,1.421250820159912,0.22046826779842377
-0.8948500156402588,1.3959925174713135,0.21357519924640656
-0.9082067608833313,1.3971874713897705,0.21066072583198547
-0.8962741494178772,1.3592679500579834,0.20182645320892334
-0.964398980140686,1.4403334856033325,0.21028003096580505
-2.416848659515381,3.5587408542633057,0.5105884671211243
-1.228998064994812,1.7597697973251343,0.24299976229667664
-1.351091980934143,2.1762309074401855,-0.21231110394001007
-1.219596028327942,2.0625689029693604,-0.22007618844509125
-0.8415690660476685,1.4713996648788452,-0.16546665132045746
-1.0350358486175537,1.8392539024353027,-0.2118588387966156
-1.025254249572754,1.8529261350631714,-0.2185421586036682
-0.9966616630554199,1.8324753046035767,-0.22104619443416595
-0.9632654786109924,1.8012744188308716,-0.22197072207927704
-0.9233428835868835,1.7558624744415283,-0.22085125744342804
-0.8623743653297424,1.6688122749328613,-0.2140999138355255
-0.853394091129303,1.6814829111099243,-0.21999762952327728
-0.8275840878486633,1.6591039896011353,-0.22105947136878967
-0.8054766654968262,1.6434521675109863,-0.22290436923503876
-0.7615001201629639,1.5823057889938354,-0.21832725405693054
-0.7533199191093445,1.5941870212554932,-0.22366772592067719
-0.7240447998046875,1.5602357387542725,-0.22244112193584442
-0.709445595741272,1.557815432548523,-0.22564616799354553
-0.6886393427848816,1.5411216020584106,-0.22661563754081726
-0.6682161688804626,1.5241755247116089,-0.22743448615074158
-0.640562117099762,1.4892017841339111,-0.22540327906608582
-0.6208656430244446,1.4717979431152344,-0.22586046159267426
-0.604109525680542,1.4614630937576294,-0.2273387610912323
-0.5747635364532471,1.4186218976974487,-0.2235645353794098
-0.5647061467170715,1.4221147298812866,-0.22697724401950836
-0.551743745803833,1.4183696508407593,-0.22917209565639496
-0.5360326766967773,1.4073325395584106,-0.23009958863258362
0.5541617274284363,1.3767608404159546,-0.2177945226430893
0.5727069973945618,1.3947762250900269,-0.21787141263484955
0.5989313125610352,1.4304765462875366,-0.22056038677692413
0.6149395108222961,1.4410476684570312,-0.21921202540397644
0.6344537734985352,1.4584712982177734,-0.21876952052116394
0.6510537266731262,1.4686397314071655,-0.2171899974346161
0.6788851618766785,1.5033987760543823,-0.21911484003067017
0.6990038752555847,1.5203324556350708,-0.21826297044754028
0.7342543005943298,1.5686136484146118,-0.22173304855823517
0.7522302269935608,1.5778627395629883,-0.21943534910678864
0.7598792910575867,1.5661633014678955,-0.21425049006938934
0.787846028804779,1.5962295532226562,-0.2146792709827423
0.8251047134399414,1.643268346786499,-0.21715189516544342
0.8543866872787476,1.672538161277771,-0.2170303910970688
0.8892755508422852,1.7119351625442505,-0.21800263226032257
0.926601231098175,1.7543706893920898,-0.21905216574668884
0.9444262385368347,1.7587116956710815,-0.21518196165561676
0.9829443097114563,1.800333857536316,-0.21569566428661346
1.0311154127120972,1.8587335348129272,-0.21789415180683136
1.0724340677261353,1.9030745029449463,-0.21814949810504913
1.128661036491394,1.9701886177062988,-0.22041627764701843
1.1600528955459595,1.9931604862213135,-0.21754898130893707
1.215131163597107,2.0562338829040527,-0.21876995265483856
1.2754321098327637,2.1251771450042725,-0.2200884371995926
1.314794659614563,2.1566672325134277,-0.21706897020339966
1.3378955125808716,2.161471366882324,-0.21109619736671448
1.3711894750595093,2.182704448699951,-0.20667141675949097
1.37824547290802,2.160512924194336,-0.19781213998794556
1.382468819618225,2.1353282928466797,-0.18877871334552765
1.3988484144210815,2.1299519538879395,-0.181539386510849
1.7968071699142456,2.6944451332092285,-0.2203948199748993
1.8328076601028442,2.7086398601531982,-0.21229343116283417
1.8065861463546753,2.6329305171966553,-0.19729186594486237
1.8851721286773682,2.70737361907959,-0.19290970265865326
1.8990466594696045,2.6888744831085205,-0.18154948949813843
1.4467922449111938,2.020343780517578,-0.12863413989543915
1.4473106861114502,1.9916536808013916,-0.11858604848384857
1.4696791172027588,1.995133399963379,-0.11050419509410858
2.3026156425476074,3.2611875534057617,0.468239963054657
2.290008068084717,3.2919013500213623,0.4829826354980469
1.5225346088409424,2.222930431365967,0.33293282985687256
1.5174167156219482,2.253244638442993,0.34426653385162354
1.5330018997192383,2.311544179916382,0.35941335558891296
1.5076638460159302,2.3084805011749268,0.36499255895614624
1.5459173917770386,2.4070382118225098,0.38659000396728516
1.622605562210083,2.5680248737335205,0.418625146150589
1.587501049041748,2.5522570610046387,0.4218989312648773
3.0358850955963135,4.960719585418701,0.830838143825531
3.0091938972473145,5.001680850982666,0.848235011100769
2.971945285797119,5.021612167358398,0.8616933226585388
2.9612131118774414,5.083913803100586,0.8821795582771301
2.930396795272827,5.117269515991211,0.8976039886474609
2.9023067951202393,5.15761137008667,0.9138765931129456
2.8880774974823,5.220803260803223,0.9340757727622986
2.8691673278808594,5.273040294647217,0.9521198272705078
2.845520496368408,5.318700790405273,0.9689675569534302
2.8132169246673584,5.355486869812012,0.9839022755622864
2.79714035987854,5.422545433044434,1.0044101476669312
2.772357225418091,5.467799663543701,1.0205315351486206
2.759228229522705,5.537007808685303,1.0412592887878418
1.2373312711715698,2.5285191535949707,0.47885677218437195
1.221266269683838,2.5439343452453613,0.48506394028663635
1.1924654245376587,2.531151056289673,0.485811710357666
1.1777291297912598,2.5456581115722656,0.49165448546409607
1.1532992124557495,2.5390591621398926,0.49343711137771606
1.1596894264221191,2.602813959121704,0.5087167620658875
2.574474811553955,5.893963813781738,1.1582471132278442
2.545090436935425,5.946609020233154,1.1750366687774658
2.5223000049591064,6.008687496185303,1.1934401988983154
2.4914422035217285,6.052937984466553,1.208438515663147
2.4634714126586914,6.108138561248779,1.225350260734558
2.432335376739502,6.160145282745361,1.2412856817245483
2.406675100326538,6.230172634124756,1.2610987424850464
2.373087167739868,6.274145603179932,1.2754778861999512
2.3488168716430664,6.342947483062744,1.294979453086853
2.3119280338287354,6.379221439361572,1.3079700469970703
2.284367799758911,6.448598384857178,1.3269187211990356
2.251319169998169,6.507269382476807,1.3438752889633179
2.2198286056518555,6.569075107574463,1.361510992050171
2.188058853149414,6.626588344573975,1.3782200813293457
2.1438276767730713,6.647483825683594,1.3874180316925049
2.082815647125244,6.617118835449219,1.3857072591781616
2.0215084552764893,6.590607643127441,1.384150505065918
1.960446834564209,6.559670448303223,1.3816179037094116
1.8993562459945679,6.524405479431152,1.378149390220642
1.8410215377807617,6.492020606994629,1.3752087354660034
1.7892744541168213,6.481303691864014,1.3768914937973022
1.7284951210021973,6.437078475952148,1.3711650371551514
1.6686341762542725,6.400295257568359,1.3664289712905884
0.8107509613037109,3.20365047454834,0.685516357421875
1.5555568933486938,6.335887432098389,1.3588614463806152
0.7901276350021362,3.3178176879882812,0.7131983041763306
1.4616210460662842,6.332459449768066,1.364377498626709
1.4038071632385254,6.285699844360352,1.3573652505874634
1.3522840738296509,6.264798164367676,1.3551254272460938
1.2941855192184448,6.209808349609375,1.345543384552002
1.2497413158416748,6.2180047035217285,1.3496977090835571
1.1917569637298584,6.15069055557251,1.3374437093734741
1.1466941833496094,6.150594711303711,1.3398789167404175
1.0936888456344604,6.101179599761963,1.331567406654358
1.0478631258010864,6.093019962310791,1.3314776420593262
1.00148606300354,6.080793380737305,1.3304363489151
0.9398296475410461,5.970171928405762,1.3078988790512085
0.9022669792175293,6.010044574737549,1.3183826208114624
0.8576499223709106,5.996642112731934,1.3172069787979126
0.8127492070198059,5.979131698608398,1.3151805400848389
0.7635091543197632,5.927334308624268,1.3052767515182495
0.6004239320755005,4.935859680175781,1.0877909660339355
0.5794296860694885,5.06090784072876,1.1162751913070679
0.5471498370170593,5.102477073669434,1.126448631286621
0.4081602394580841,4.073230743408203,0.9000475406646729
0.3808673918247223,4.087057590484619,0.9039689898490906
0.3589697778224945,4.165307521820068,0.9222024083137512
0.32796111702919006,4.144703388214111,0.9180659651756287
0.2989307940006256,4.154361724853516,0.9205857515335083
0.2682875990867615,4.133338451385498,0.9163447618484497
0.24206607043743134,4.1806206703186035,0.9272921085357666
0.3945147395133972,7.747025012969971,1.7192881107330322
0.33892297744750977,7.711147308349609,1.7123454809188843
0.2833845019340515,7.6902055740356445,1.7085561752319336
0.22873109579086304,7.6576032638549805,1.7013241052627563
0.1745443195104599,7.628429412841797,1.6949362754821777
0.1207762360572815,7.598873615264893,1.6885453462600708
0.06770851463079453,7.580379962921143,1.6846922636032104
0.014102199114859104,7.557703495025635,1.6799954175949097
-0.03813495486974716,7.51940393447876,1.6718978881835938
-0.09004329890012741,7.492314338684082,1.665755271911621
-0.1417756974697113,7.476419925689697,1.6616371870040894
-0.1930941641330719,7.452544689178467,1.6558281183242798
-0.24433839321136475,7.435940265655518,1.6517168283462524
-0.2968357801437378,7.434192657470703,1.650981068611145
-0.25290098786354065,5.3940911293029785,1.1977266073226929
-0.2907635271549225,5.399938106536865,1.1988924741744995
-0.3267555236816406,5.37521505355835,1.1926500797271729
-0.36283543705940247,5.357898712158203,1.1879700422286987
-0.3993116617202759,5.340297698974609,1.1832754611968994
-0.4359966516494751,5.333889007568359,1.181131362915039
-0.4083329439163208,4.601470470428467,1.0183669328689575
-0.44219058752059937,4.6177520751953125,1.0214378833770752
-0.4707319140434265,4.580686092376709,1.0126595497131348
-0.5028178691864014,4.577676773071289,1.010842204093933
-0.534306526184082,4.574501991271973,1.0090574026107788
-0.5629628896713257,4.5483880043029785,1.002265453338623
-0.5915448665618896,4.522060871124268,0.9954761862754822
-0.6230199337005615,4.518225193023682,0.9936880469322205
-0.6511521935462952,4.487658977508545,0.9860602617263794
-0.6821357607841492,4.483520030975342,0.9839397072792053
-0.7104231119155884,4.46419095993042,0.978223979473114
-0.7372761368751526,4.437139987945557,0.9708718657493591
-0.7677516937255859,4.432493209838867,0.9684727191925049
-0.7958874106407166,4.412536144256592,0.9627614617347717
-0.8257384300231934,4.399813175201416,0.9586591124534607
-0.7124186158180237,3.6558191776275635,0.7955067157745361
-0.7373552918434143,3.6514196395874023,0.7929873466491699
-0.7575738430023193,3.6244056224823,0.7856031060218811
-0.9340795278549194,4.321964263916016,0.9350308775901794
-0.9695300459861755,4.338320732116699,0.9367754459381104
-0.9980893731117249,4.324657440185547,0.932094395160675
-1.022961974143982,4.295924663543701,0.9242226481437683
-1.0524691343307495,4.289518356323242,0.92084139585495
-1.0779259204864502,4.268191814422607,0.9140403270721436
-1.1074490547180176,4.261413097381592,0.9103702306747437
-1.1327943801879883,4.239686012268066,0.9035714864730835
-1.1573359966278076,4.214000225067139,0.8959558010101318
-1.1888933181762695,4.213943004608154,0.8938353061676025
-1.2201777696609497,4.213780403137207,0.8915333151817322
-1.2448583841323853,4.191493034362793,0.8841257095336914
-1.2665760517120361,4.16185998916626,0.8752783536911011
-1.2950050830841064,4.153992652893066,0.8710425496101379
-1.3194197416305542,4.131128311157227,0.8636500239372253
-1.3531490564346313,4.137238025665283,0.8623536229133606
-1.3799476623535156,4.121242046356201,0.8562940955162048
-1.397896647453308,4.083794593811035,0.8454324007034302
-1.422954797744751,4.068004131317139,0.8391247987747192
-1.4468178749084473,4.0483622550964355,0.8320477604866028
-1.4673067331314087,4.017508506774902,0.8226456642150879
-1.5008851289749146,4.02248477935791,0.8206221461296082
-1.5264272689819336,4.005715370178223,0.8139345049858093
-1.5589523315429688,4.0107502937316895,0.8113996982574463
-1.5887821912765503,4.008391380310059,0.8073868155479431
-1.613438367843628,3.991367816925049,0.8003862500190735
-1.6414815187454224,3.9810569286346436,0.7946959733963013
-1.6520838737487793,3.927849054336548,0.7804568409919739
-1.6908890008926392,3.9459526538848877,0.7801129817962646
-1.711209774017334,3.9216129779815674,0.7712501287460327
-1.7437653541564941,3.9252758026123047,0.7679293751716614
-1.7650381326675415,3.900123119354248,0.7588123083114624
-1.7833949327468872,3.8676204681396484,0.7482531666755676
-1.8102500438690186,3.8563783168792725,0.7417600154876709
-1.845992088317871,3.8663060665130615,0.7389893531799316
-1.8651587963104248,3.8412790298461914,0.7295560836791992
-1.8884918689727783,3.8226075172424316,0.7212059497833252
-1.9160866737365723,3.810224771499634,0.7139107584953308
-1.9497644901275635,3.811779499053955,0.7092242240905762
-1.9574614763259888,3.765838623046875,0.6953588724136353
-1.9970383644104004,3.781303882598877,0.6928731799125671
-2.0087547302246094,3.7415387630462646,0.6800817251205444
-2.0537431240081787,3.762493371963501,0.6782512664794922
-1.7169371843338013,3.094717264175415,0.5529913306236267
-1.7336223125457764,3.0777626037597656,0.5449503660202026
-0.8396468758583069,1.468316912651062,0.25757721066474915
-0.8501022458076477,1.4629048109054565,0.2540534436702728
-0.8565787076950073,1.4507628679275513,0.24938839673995972
-0.8743744492530823,1.4587926864624023,0.2479807436466217
-0.883995771408081,1.4535996913909912,0.24433767795562744
-0.8819333910942078,1.428289532661438,0.23720701038837433
-0.8880115151405334,1.4160351753234863,0.23224139213562012
-0.9017213582992554,1.4171712398529053,0.2293660044670105
-0.8943806886672974,1.3857389688491821,0.22116635739803314
-0.8912766575813293,1.360695719718933,0.2139710932970047
-0.9138702750205994,1.3742903470993042,0.21276959776878357
-2.378920793533325,3.5281877517700195,0.5372950434684753
-2.434666156768799,3.562309741973877,0.5333526134490967
-1.2977029085159302,1.8703606128692627,0.2746340334415436
-1.4960110187530518,2.125563383102417,0.3059449791908264
-1.3873807191848755,2.21762752532959,-0.21892523765563965
-1.3237687349319458,2.150930404663086,-0.2194364070892334
-1.2335095405578613,2.0365772247314453,-0.21423080563545227
-1.197043776512146,2.007812261581421,-0.21740730106830597
-0.8270978927612305,1.4346013069152832,-0.1641102135181427
-0.847531259059906,1.4939908981323242,-0.1752144694328308
-1.0144975185394287,1.8184764385223389,-0.21846602857112885
-0.9897797703742981,1.8047915697097778,-0.2219400554895401
-0.9344722032546997,1.732512354850769,-0.21775980293750763
-0.890922486782074,1.6802749633789062,-0.2157975137233734
-0.883902907371521,1.6964367628097534,-0.2223777025938034
-0.8520954847335815,1.6641556024551392,-0.22249126434326172
-0.8228338956832886,1.63485586643219,-0.22272168099880219
-0.7921384572982788,1.601853847503662,-0.22224712371826172
-0.766676127910614,1.579140305519104,-0.22307899594306946
-0.7336349487304688,1.5385074615478516,-0.2210794985294342
-0.7226772308349609,1.5430548191070557,-0.22543448209762573
-0.701782763004303,1.5265095233917236,-0.22661520540714264
-0.6715518236160278,1.488616704940796,-0.22446486353874207
-0.6499395370483398,1.4680017232894897,-0.2247098684310913
-0.6300716400146484,1.4507594108581543,-0.22541649639606476
-0.6104925870895386,1.4333339929580688,-0.22586973011493683
-0.5896782875061035,1.4121592044830322,-0.2256290167570114
-0.5766857862472534,1.4085884094238281,-0.22809097170829773
-0.5609143972396851,1.3977280855178833,-0.22933194041252136
0.5899771451950073,1.3956445455551147,-0.22097434103488922
0.6136236190795898,1.423952579498291,-0.22238188982009888
0.6391423344612122,1.4556101560592651,-0.22411203384399414
0.6555665731430054,1.465848445892334,-0.22241012752056122
0.6772943139076233,1.4863698482513428,-0.22208864986896515
0.7041190266609192,1.5172486305236816,-0.22322522103786469
0.7246331572532654,1.5339124202728271,-0.22209644317626953
0.7386061549186707,1.5364477634429932,-0.2188398689031601
0.7647557854652405,1.563146710395813,-0.21887938678264618
0.786420464515686,1.5790257453918457,-0.21718934178352356
0.8149160146713257,1.608735203742981,-0.21728916466236115
0.8597651124000549,1.669219732284546,-0.2212963104248047
0.8913624286651611,1.7015634775161743,-0.22122260928153992
0.9143613576889038,1.7164133787155151,-0.21872293949127197
0.9445995092391968,1.7449052333831787,-0.21778051555156708
0.9961446523666382,1.8103660345077515,-0.22107332944869995
1.0298599004745483,1.8412277698516846,-0.2197895050048828
1.073488712310791,1.8887038230895996,-0.22023113071918488
1.1077483892440796,1.9190541505813599,-0.21841496229171753
1.1663657426834106,1.989127278327942,-0.2206842452287674
1.204608678817749,2.021481990814209,-0.21823647618293762
1.2647249698638916,2.090482473373413,-0.21948958933353424
1.313558578491211,2.1389260292053223,-0.21816644072532654
1.3451870679855347,2.156733751296997,-0.21320484578609467
1.366343379020691,2.157977819442749,-0.20650067925453186
1.3768608570098877,2.1427648067474365,-0.19809590280056
1.3961354494094849,2.140292167663574,-0.19068536162376404
1.400324821472168,2.1149349212646484,-0.1811920702457428
1.8054754734039307,2.6885886192321777,-0.22107873857021332
1.8109211921691895,2.6575231552124023,-0.20892126858234406
1.9117566347122192,2.76411771774292,-0.20686028897762299
1.9074889421463013,2.720383882522583,-0.19342629611492157
1.9127999544143677,2.6887900829315186,-0.18045182526111603
1.449560523033142,2.00885009765625,-0.1265721321105957
1.4626249074935913,1.9998984336853027,-0.11773168295621872
1.481367588043213,1.9963281154632568,-0.10847839713096619
2.334214448928833,3.2790751457214355,0.4894900619983673
1.532986044883728,2.18681263923645,0.33387476205825806
1.5526840686798096,2.2519619464874268,0.35123932361602783
1.544753074645996,2.274848222732544,0.3616062104701996
1.5366308689117432,2.297682762145996,0.37187331914901733
1.5097969770431519,2.295576810836792,0.37788453698158264
1.504645824432373,2.3253467082977295,0.3889915645122528
1.6312519311904907,2.5598857402801514,0.4345669150352478
1.6076059341430664,2.564321994781494,0.441419780254364
3.057335376739502,4.9601731300354,0.8653590679168701
2.9908902645111084,4.930398941040039,0.8708212971687317
2.9963457584381104,5.019252300262451,0.8973044157028198
2.975491523742676,5.069502830505371,0.9164037704467773
2.936086893081665,5.089944839477539,0.9300869703292847
2.914156675338745,5.135679721832275,0.9478892683982849
2.8887126445770264,5.174201011657715,0.9643022418022156
2.8698952198028564,5.230703830718994,0.9839388132095337
2.8554680347442627,5.297621250152588,1.005274772644043
2.82317852973938,5.330032825469971,1.019999384880066
2.7974603176116943,5.371741771697998,1.0362783670425415
2.7798938751220703,5.430530071258545,1.055955171585083
2.767263889312744,5.508042812347412,1.0788553953170776
2.738976240158081,5.554258823394775,1.0956835746765137
1.2185920476913452,2.515960693359375,0.49968722462654114
1.1973940134048462,2.516646385192871,0.503129243850708
1.1825230121612549,2.5312018394470215,0.5092821717262268
1.179537296295166,2.57399582862854,0.5209020376205444
1.166162133216858,2.595980167388916,0.528454601764679
1.1381608247756958,2.582315683364868,0.5285962820053101
2.5580663681030273,5.915172100067139,1.217451572418213
2.535400867462158,5.977110862731934,1.2368214130401611
2.5085501670837402,6.036378860473633,1.2549779415130615
2.4787275791168213,6.09226655960083,1.2726844549179077
2.445751428604126,6.1366801261901855,1.2878919839859009
2.4177751541137695,6.191152095794678,1.3051639795303345
2.393193244934082,6.256255149841309,1.3248348236083984
2.3571081161499023,6.296759605407715,1.3387720584869385
2.3257534503936768,6.355557918548584,1.3565046787261963
2.2983040809631348,6.424766540527344,1.3765270709991455
2.2729508876800537,6.496947288513184,1.3971569538116455
2.2382168769836426,6.543637275695801,1.4124245643615723
2.2041969299316406,6.593748569488525,1.4285378456115723
2.1705307960510254,6.65559196472168,1.446394681930542
2.1137988567352295,6.644108295440674,1.4483262300491333
2.042760133743286,6.584643363952637,1.4397960901260376
1.9842524528503418,6.557031631469727,1.4380794763565063
1.93170964717865,6.5472493171691895,1.4402962923049927
1.8718591928482056,6.511411666870117,1.4366986751556396
1.8115092515945435,6.4795002937316895,1.4331289529800415
1.755581259727478,6.457921504974365,1.4318170547485352
1.6933013200759888,6.410019397735596,1.4246885776519775
0.8289757966995239,3.228701114654541,0.7193429470062256
1.5757668018341064,6.319387435913086,1.4113918542861938
0.8003653883934021,3.3092660903930664,0.740973711013794
1.487089991569519,6.346329689025879,1.4235800504684448
1.4263153076171875,6.288787364959717,1.4132972955703735
1.3755028247833252,6.271699905395508,1.4121356010437012
1.3187979459762573,6.220458507537842,1.4032632112503052
1.2699038982391357,6.2062273025512695,1.4028129577636719
1.219825267791748,6.180264472961426,1.3997076749801636
1.1688417196273804,6.15042781829834,1.3950793743133545
1.1201248168945312,6.131552219390869,1.3926843404769897
1.067128300666809,6.0860185623168945,1.3842805624008179
1.01961350440979,6.07016658782959,1.3826873302459717
0.9718098044395447,6.042486667633057,1.3783917427062988
0.9261781573295593,6.025741100311279,1.3766388893127441
0.8734915852546692,5.9597249031066895,1.3634389638900757
0.832263171672821,5.972746849060059,1.3676493167877197
0.7882753610610962,5.970449447631836,1.3684401512145996
0.6511563658714294,5.215641498565674,1.1966266632080078
0.59561687707901,5.056927680969238,1.1614048480987549
0.5724986791610718,5.1702470779418945,1.1887052059173584
0.528978705406189,5.101666450500488,1.1742507219314575
0.39765143394470215,4.115743637084961,0.9479871988296509
0.367448091506958,4.110658645629883,0.94731205701828
0.34228670597076416,4.15842866897583,0.9588602185249329
0.3137129843235016,4.168072700500488,0.9616695046424866
0.28158625960350037,4.124339580535889,0.9522005319595337
0.2559536099433899,4.175346374511719,0.9646505117416382
0.4190208911895752,7.730322360992432,1.7873258590698242
0.36463889479637146,7.725276947021484,1.7863484621047974
0.30964571237564087,7.704641342163086,1.7818527221679688
0.25454461574554443,7.668399333953857,1.7738314867019653
0.20044393837451935,7.643176555633545,1.7684407234191895
0.14582768082618713,7.61378288269043,1.7621756792068481
0.09280754625797272,7.606823921203613,1.7611777782440186
0.03975416719913483,7.557709693908691,1.750172734260559
