X,Y,Z
-1.1835763454437256,2.4463918209075928,-0.30186155438423157
-1.185701608657837,2.496291160583496,-0.313039094209671
-1.1644889116287231,2.4969513416290283,-0.31804922223091125
-1.1839576959609985,2.5855050086975098,-0.3343444764614105
-1.1652255058288574,2.5932345390319824,-0.34024080634117126
-1.1573235988616943,2.6256837844848633,-0.3494272232055664
-1.1121625900268555,2.572697877883911,-0.34717682003974915
-1.1696629524230957,2.758110523223877,-0.37720608711242676
-1.2806633710861206,3.0805039405822754,-0.42668071389198303
-1.2832906246185303,3.1497249603271484,-0.44176334142684937
-1.2809944152832031,3.2081871032714844,-0.4554760754108429
-1.2691584825515747,3.245204210281372,-0.4663732945919037
-1.2610108852386475,3.2930798530578613,-0.4786103367805481
-1.2454200983047485,3.322859287261963,-0.488347589969635
-1.2244969606399536,3.337912082672119,-0.4959104657173157
-1.2061538696289062,3.3600621223449707,-0.5045599937438965
-1.1816632747650146,3.367797374725342,-0.5108981728553772
-1.1424708366394043,3.3313446044921875,-0.5103852152824402
-1.0979843139648438,3.276118278503418,-0.5068063735961914
-1.0581079721450806,3.231426239013672,-0.5046778917312622
-1.0198520421981812,3.1901514530181885,-0.5026925206184387
-0.9772067070007324,3.1338977813720703,-0.4982236623764038
-0.9325379133224487,3.0660130977630615,-0.4916466474533081
-0.8944539427757263,3.016169548034668,-0.48779183626174927
-0.8462993502616882,2.928955554962158,-0.47750189900398254
-0.811882734298706,2.885868549346924,-0.474113404750824
-0.7791813015937805,2.8461711406707764,-0.4711809456348419
-0.7400326132774353,2.780111312866211,-0.46378087997436523
-0.7108320593833923,2.747227430343628,-0.46161088347435
-0.6886143088340759,2.74031400680542,-0.46353816986083984
-0.6583314538002014,2.699523687362671,-0.45969119668006897
-0.629603922367096,2.662198066711426,-0.45634979009628296
-0.60026615858078,2.6209287643432617,-0.45227891206741333
-0.5750921964645386,2.5944557189941406,-0.4503075182437897
-0.5462865233421326,2.548943519592285,-0.4449746012687683
-0.5221489071846008,2.5220065116882324,-0.44281280040740967
-0.4992266297340393,2.498631477355957,-0.44123291969299316
-0.4770257771015167,2.4789562225341797,-0.44003191590309143
-0.45821431279182434,2.4742050170898438,-0.4413352310657501
-0.43410006165504456,2.439014196395874,-0.4371909499168396
-0.41379493474960327,2.4225685596466064,-0.43637144565582275
-0.39184141159057617,2.3946118354797363,-0.4333013892173767
-0.3735635280609131,2.3893511295318604,-0.434112548828125
-0.3545198142528534,2.376314163208008,-0.43348726630210876
-0.3341456651687622,2.3517045974731445,-0.43073180317878723
-0.3177299499511719,2.353595733642578,-0.43281930685043335
-0.29639407992362976,2.317331314086914,-0.4274933934211731
-0.2755981683731079,2.280892848968506,-0.42211025953292847
-0.2585376501083374,2.2748470306396484,-0.4223678708076477
-0.2398538887500763,2.249551773071289,-0.41902458667755127
-0.22190171480178833,2.22798490524292,-0.41609862446784973
-0.2092273235321045,2.259840488433838,-0.4230251908302307
-0.19151929020881653,2.2380599975585938,-0.4199361801147461
-0.17625465989112854,2.246785879135132,-0.4226028621196747
-0.16005423665046692,2.2400925159454346,-0.42226511240005493
-0.14493024349212646,2.2486648559570312,-0.4245094656944275
-0.1288309246301651,2.2418036460876465,-0.4238601326942444
-0.11360834538936615,2.250162124633789,-0.4261089563369751
-0.09701685607433319,2.2354185581207275,-0.4240127205848694
-0.08230596035718918,2.2589681148529053,-0.4288163483142853
-0.0663495659828186,2.251742124557495,-0.42773860692977905
-0.05016963928937912,2.229058027267456,-0.42374056577682495
-0.03476860746741295,2.2369561195373535,-0.42557492852211
-0.018917791545391083,2.237109661102295,-0.42576509714126587
-0.0033855284564197063,2.267894983291626,-0.4315619170665741
0.012406612746417522,2.2678723335266113,-0.4315163195133209
0.02806810662150383,2.260065793991089,-0.43001070618629456
0.04391888156533241,2.2675013542175293,-0.43140944838523865
0.060074370354413986,2.282575845718384,-0.43385663628578186
0.0762115865945816,2.2821853160858154,-0.43337559700012207
0.09223799407482147,2.285524845123291,-0.43362993001937866
0.10996527969837189,2.3232545852661133,-0.4404231011867523
0.12570178508758545,2.3149120807647705,-0.4382149577140808
0.14226394891738892,2.321817636489868,-0.4387502372264862
0.16080370545387268,2.351566791534424,-0.4435969591140747
0.1786135882139206,2.369706869125366,-0.44627270102500916
0.19573397934436798,2.3762545585632324,-0.4466736316680908
0.21430811285972595,2.398040771484375,-0.44960546493530273
0.23319460451602936,2.4196865558624268,-0.45251065492630005
0.251920223236084,2.4335200786590576,-0.4539375305175781
0.2697086036205292,2.4396045207977295,-0.4539504051208496
0.29250630736351013,2.487597942352295,-0.4613771140575409
0.3098221719264984,2.485849142074585,-0.4594963490962982
0.33112215995788574,2.514458656311035,-0.4632323682308197
0.35159987211227417,2.5314362049102783,-0.46478694677352905
0.3758707642555237,2.5749566555023193,-0.47102469205856323
0.40250667929649353,2.6297175884246826,-0.47901788353919983
0.42444950342178345,2.6500768661499023,-0.4807066023349762
0.45181211829185486,2.7006001472473145,-0.48782822489738464
0.4726458787918091,2.709205150604248,-0.4873256981372833
0.500066876411438,2.75175404548645,-0.4924386739730835
0.5285071730613708,2.7978949546813965,-0.49817347526550293
0.5554136037826538,2.8324532508850098,-0.5017892122268677
0.5836594700813293,2.8705427646636963,-0.5059757232666016
0.6179312467575073,2.9348275661468506,-0.5143992900848389
0.6510250568389893,2.9874653816223145,-0.520486056804657
0.6879326105117798,3.0548970699310303,-0.5290935039520264
0.7258824110031128,3.1219675540924072,-0.5375074148178101
0.7638826370239258,3.184964179992676,-0.544941246509552
0.8017861843109131,3.2439329624176025,-0.5512723326683044
0.8504596948623657,3.3398194313049316,-0.5636470317840576
0.8924251794815063,3.4054415225982666,-0.5707877278327942
0.9263105392456055,3.437152624130249,-0.5721317529678345
0.9872866272926331,3.565340518951416,-0.588923454284668
1.0468955039978027,3.681772232055664,-0.6034803986549377
1.105550765991211,3.7863199710845947,-0.6157086491584778
1.1786878108978271,3.9347317218780518,-0.6348198056221008
1.2174406051635742,3.9643735885620117,-0.6342167854309082
1.2913681268692017,4.104238986968994,-0.6509125232696533
1.3496482372283936,4.188137531280518,-0.6584076881408691
1.3819694519042969,4.186862945556641,-0.6522778272628784
1.4087331295013428,4.170921325683594,-0.6437637805938721
1.4401769638061523,4.169513702392578,-0.637317955493927
1.4717258214950562,4.167842388153076,-0.6308276057243347
1.4958043098449707,4.143977642059326,-0.620941162109375
1.5154324769973755,4.109145641326904,-0.6093975901603699
1.2906490564346313,3.4259400367736816,-0.5024866461753845
1.308834433555603,3.4034230709075928,-0.4937264621257782
1.3271079063415527,3.380678415298462,-0.4849243462085724
1.3537334203720093,3.3794162273406982,-0.47918298840522766
1.374146819114685,3.3637819290161133,-0.4712182581424713
1.397788405418396,3.3550121784210205,-0.4641498923301697
1.4153079986572266,3.3317947387695312,-0.4551306664943695
1.4417942762374878,3.329831838607788,-0.4490138292312622
1.4678573608398438,3.327876091003418,-0.4427071511745453
1.4875985383987427,3.3115577697753906,-0.43451085686683655
1.5177135467529297,3.3159210681915283,-0.42881089448928833
1.5376931428909302,3.299102783203125,-0.42044565081596375
1.5786128044128418,3.3279998302459717,-0.4177076518535614
1.6014539003372192,3.3180267810821533,-0.41002970933914185
1.624807357788086,3.3076205253601074,-0.40215322375297546
1.6084176301956177,3.2170119285583496,-0.3845418095588684
1.6251420974731445,3.196451187133789,-0.37552449107170105
1.6363615989685059,3.1654064655303955,-0.3653385043144226
1.6406258344650269,3.120262384414673,-0.35346537828445435
1.715429425239563,3.209097385406494,-0.3565950393676758
1.7372815608978271,3.1982243061065674,-0.3483904004096985
1.731560468673706,3.1357548236846924,-0.3344701826572418
1.7308080196380615,3.083627223968506,-0.32185986638069153
1.7845430374145508,3.130080223083496,-0.31945422291755676
1.3279407024383545,2.2936182022094727,-0.22873397171497345
1.3104485273361206,2.227842092514038,-0.2167559415102005
0.9566846489906311,1.6008509397506714,-0.15173089504241943
0.9654214382171631,1.5914708375930786,-0.146871417760849
0.9763219952583313,1.5852296352386475,-0.14223818480968475
0.9874948263168335,1.5787163972854614,-0.1374676525592804
0.9980308413505554,1.5724855661392212,-0.13271217048168182
1.0087851285934448,1.5660141706466675,-0.12783171236515045
1.0219472646713257,1.562520980834961,-0.12305957823991776
1.0259292125701904,1.5462807416915894,-0.11730387806892395
1.0427136421203613,1.5495060682296753,-0.11300832033157349
1.042638897895813,1.526381254196167,-0.10652739554643631
2.5479843616485596,3.6772897243499756,-0.24477927386760712
2.5768918991088867,3.667473554611206,-0.2322341948747635
2.6071858406066895,3.6564390659332275,-0.21885769069194794
2.612495183944702,3.614993095397949,-0.20377115905284882
2.6230385303497314,3.5791335105895996,-0.18857958912849426
2.6704492568969727,3.593400478363037,-0.1754215955734253
2.6411280632019043,3.712557077407837,0.447873055934906
2.6073668003082275,3.725184917449951,0.4608584940433502
2.600268602371216,3.7757375240325928,0.47827357053756714
1.0532499551773071,1.5524301528930664,0.20083044469356537
1.045406699180603,1.5664128065109253,0.20669907331466675
1.0501748323440552,1.5998337268829346,0.21516963839530945
1.025894284248352,1.587224006652832,0.21719282865524292
1.0180689096450806,1.6008360385894775,0.22261366248130798
1.0137943029403687,1.6212419271469116,0.22897416353225708
0.9937319755554199,1.6148269176483154,0.23136013746261597
0.9862034916877747,1.6279137134552002,0.23644007742404938
0.9694672226905823,1.6283228397369385,0.2395724654197693
0.9568964838981628,1.6351466178894043,0.24360187351703644
1.341342568397522,2.3295366764068604,0.3510577380657196
1.8265844583511353,3.2244231700897217,0.4913587272167206
1.7623709440231323,3.1661574840545654,0.4875018298625946
1.7618836164474487,3.222799301147461,0.5014074444770813
1.7716484069824219,3.2956979274749756,0.5176510810852051
2.4063637256622314,4.551981449127197,0.7216307520866394
2.375826597213745,4.5753092765808105,0.7315509915351868
2.348324775695801,4.605443000793457,0.74256432056427
2.3103439807891846,4.614554405212402,0.7501980066299438
2.2709012031555176,4.6155266761779785,0.7561719417572021
2.2443132400512695,4.644356727600098,0.7665560245513916
2.2096035480499268,4.659674644470215,0.7743885517120361
2.1780428886413574,4.681726932525635,0.7833914160728455
2.144345760345459,4.695990562438965,0.7909455895423889
2.1200225353240967,4.731138706207275,0.8020814061164856
2.0763494968414307,4.723959922790527,0.8056783676147461
2.0413103103637695,4.738017559051514,0.8126372694969177
1.7465479373931885,4.136965751647949,0.7135515213012695
1.72280752658844,4.162599563598633,0.7218757271766663
1.690012812614441,4.166678428649902,0.7265155911445618
1.659954309463501,4.177767276763916,0.7321144938468933
1.6347352266311646,4.203304767608643,0.7400158047676086
1.6092274188995361,4.22868537902832,0.7479528188705444
1.5761009454727173,4.2319865226745605,0.7519482374191284
1.548487901687622,4.249438285827637,0.7584736943244934
1.523675799369812,4.273848533630371,0.7661641836166382
1.4949921369552612,4.291280746459961,0.772171139717102
1.463695764541626,4.301209449768066,0.7768699526786804
1.4360169172286987,4.321853160858154,0.7835486531257629
1.4027397632598877,4.323837757110596,0.786834716796875
1.3770407438278198,4.347416877746582,0.794041097164154
1.341414451599121,4.341655254364014,0.7956122756004333
1.3066000938415527,4.339468002319336,0.7976172566413879
1.2848765850067139,4.381297588348389,0.8077671527862549
1.2534756660461426,4.389644622802734,0.811776340007782
1.2262746095657349,4.412548542022705,0.8185166120529175
1.1973521709442139,4.427720069885254,0.823832094669342
1.1695396900177002,4.450393199920654,0.8301249742507935
1.14127516746521,4.472956657409668,0.8363267183303833
1.1118223667144775,4.491605758666992,0.8418514728546143
1.0793265104293823,4.498878002166748,0.8453019857406616
1.0495754480361938,4.513174057006836,0.850050151348114
1.017988681793213,4.519773006439209,0.8533938527107239
0.9923391938209534,4.556385040283203,0.8619495034217834
0.9581391215324402,4.555319309234619,0.8633291125297546
0.7815075516700745,3.854048252105713,0.731817901134491
0.7490612864494324,3.8326573371887207,0.7291389107704163
0.7244312763214111,3.8486740589141846,0.7335878610610962
0.8357068300247192,4.616280555725098,0.8816199898719788
0.8031124472618103,4.621615886688232,0.8839587569236755
0.7728481292724609,4.645806789398193,0.889796793460846
0.7446520924568176,4.6810832023620605,0.8977961540222168
0.7103883624076843,4.67822265625,0.8985260725021362
0.6810644268989563,4.705432891845703,0.9050620198249817
0.65040123462677,4.724847316741943,0.9101507067680359
0.6176672577857971,4.736605167388916,0.9135444760322571
0.5851871967315674,4.7481560707092285,0.9165841341018677
0.5534063577651978,4.767108917236328,0.921103835105896
0.5210249423980713,4.7820281982421875,0.9248934388160706
0.49000295996665955,4.808138847351074,0.9308893084526062
0.45724689960479736,4.818765640258789,0.9339373111724854
0.4244108498096466,4.836872100830078,0.9384351968765259
0.391047865152359,4.847194671630859,0.9408674240112305
0.3586869537830353,4.872584819793701,0.9462737441062927
0.324460506439209,4.87479829788208,0.9472278952598572
0.2910696864128113,4.888245582580566,0.9504103064537048
0.2584698498249054,4.92828893661499,0.9588243961334229
0.22413690388202667,4.929783821105957,0.9597804546356201
0.19063536822795868,4.954113483428955,0.9647848010063171
0.15663334727287292,4.974424839019775,0.9688308238983154
0.12201867252588272,4.98300313949585,0.9706398844718933
0.08712537586688995,5.0143513679504395,0.976936399936676
0.052273668348789215,5.014773845672607,0.9772525429725647
0.017443086951971054,5.037959098815918,0.9820535182952881
-0.017648719251155853,5.060924053192139,0.9867366552352905
-0.05298947915434837,5.072248935699463,0.9886276125907898
-0.08886339515447617,5.071816921234131,0.9882702231407166
-0.12410156428813934,5.071145534515381,0.9879190921783447
-0.16156074404716492,5.139210224151611,1.0010037422180176
-0.19732464849948883,5.138031005859375,1.0006471872329712
-0.23371675610542297,5.151926517486572,1.0032750368118286
-0.2716536223888397,5.192461967468262,1.0106580257415771
-0.30637896060943604,5.160003662109375,1.0036426782608032
-0.2900359034538269,4.373554229736328,0.8501346111297607
-0.3144386410713196,4.291293144226074,0.8336529731750488
-0.34609511494636536,4.312108993530273,0.8372413516044617
-0.3774379789829254,4.325047492980957,0.8393359184265137
-0.40292099118232727,4.2690110206604,0.827963650226593
-0.4272752106189728,4.216801643371582,0.8169364333152771
-0.44969093799591064,4.153013229370117,0.8037278652191162
-0.4726121723651886,4.10053825378418,0.7927679419517517
-0.49631842970848083,4.059354782104492,0.7840429544448853
-0.5196138620376587,4.014155387878418,0.7745787501335144
-0.5412875413894653,3.965085983276367,0.7644338607788086
-0.5647470355033875,3.9350085258483887,0.7576045393943787
-0.5837734341621399,3.8782591819763184,0.7455706000328064
-0.6049907803535461,3.8403878211975098,0.7372274398803711
-0.6243480443954468,3.7909646034240723,0.7267038822174072
-0.6422701478004456,3.7376885414123535,0.7155070304870605
-0.6682739853858948,3.7334635257720947,0.7137479782104492
-0.6842269897460938,3.676283836364746,0.7017245888710022
-0.7013174295425415,3.6304709911346436,0.6916368007659912
-0.7230919599533081,3.6109447479248047,0.6866099238395691
-0.7364781498908997,3.5498404502868652,0.6737129092216492
-0.754693865776062,3.515000104904175,0.6658639907836914
-0.7667087316513062,3.453805685043335,0.6530810594558716
-0.7950479984283447,3.467512369155884,0.6544480919837952
-0.814243733882904,3.4437966346740723,0.6483839750289917
-0.8308570981025696,3.408676862716675,0.6401965022087097
-0.841916024684906,3.3549439907073975,0.6286075115203857
-0.8632041811943054,3.3420610427856445,0.6247041821479797
-0.8845301270484924,3.3289973735809326,0.6207925081253052
-0.8996365666389465,3.293541669845581,0.6127515435218811
-0.9098756909370422,3.2433700561523438,0.601586639881134
-0.9244173765182495,3.2117760181427,0.5939618945121765
-0.9505488872528076,3.2207062244415283,0.593864917755127
-0.9638381004333496,3.1851420402526855,0.5855705142021179
-0.974725604057312,3.142094850540161,0.5759391188621521
-0.9935458898544312,3.124617099761963,0.5710076093673706
-1.0099033117294312,3.1037657260894775,0.5651471614837646
-1.026023030281067,3.0828278064727783,0.5593161582946777
-1.03449285030365,3.0399270057678223,0.549556314945221
-1.04923415184021,3.0150694847106934,0.5430737137794495
-1.0677615404129028,3.000962734222412,0.538550853729248
-1.0889326333999634,2.993945598602295,0.5352039933204651
-1.0930089950561523,2.9438180923461914,0.5239607691764832
-1.1155741214752197,2.9442036151885986,0.521760106086731
-1.141028642654419,2.951587438583374,0.5208004713058472
-1.1263360977172852,2.8544998168945312,0.5014082789421082
-1.1438416242599487,2.8398499488830566,0.49655574560165405
-1.1485157012939453,2.796963930130005,0.48663246631622314
-1.1285896301269531,2.697310447692871,0.4668535590171814
-1.1315796375274658,2.6547956466674805,0.4571012854576111
-1.1375781297683716,2.6192400455474854,0.4485646188259125
-1.1562796831130981,2.611684799194336,0.44478487968444824
-1.1902178525924683,2.639448404312134,0.44694629311561584
-1.2078555822372437,2.6321003437042236,0.4429462254047394
-1.235249400138855,2.6456263065338135,0.44245678186416626
-1.2715132236480713,2.676201581954956,0.44472190737724304
-1.2553699016571045,2.594684600830078,0.42827287316322327
-1.2990115880966187,2.6385891437530518,0.43255317211151123
-1.2733265161514282,2.544184446334839,0.41399312019348145
-1.318314790725708,2.591480255126953,0.4185474216938019
-1.3058370351791382,2.5247278213500977,0.4046209752559662
-1.320067048072815,2.5093154907226562,0.3989212214946747
-1.3194248676300049,2.4666128158569336,0.38878005743026733
-1.3320950269699097,2.451730489730835,0.3829948306083679
-1.3409005403518677,2.4299895763397217,0.37617993354797363
-1.3483643531799316,2.4044435024261475,0.3686695694923401
-1.3576905727386475,2.3821322917938232,0.3616672158241272
-1.3738192319869995,2.3736462593078613,0.35651928186416626
-1.3855363130569458,2.35860276222229,0.3504466712474823
-1.3856736421585083,2.3232643604278564,0.34131231904029846
-1.3981389999389648,2.3075127601623535,0.33495426177978516
-1.4056096076965332,2.2855677604675293,0.3276059329509735
-1.4496195316314697,2.3229691982269287,0.32855284214019775
-1.4486829042434692,2.2877063751220703,0.31915563344955444
-1.4607521295547485,2.271627187728882,0.3122732639312744
-1.4759193658828735,2.262627601623535,0.3062344193458557
-1.4713599681854248,2.2246339321136475,0.2962757349014282
-1.493390440940857,2.2248051166534424,0.2910955548286438
-1.5068806409835815,2.2118496894836426,0.284076988697052
-1.4813815355300903,2.1453769207000732,0.2701857089996338
-1.5221810340881348,2.174633264541626,0.2683115601539612
-1.4970879554748535,2.1075925827026367,0.2541636824607849
-1.5041638612747192,2.0890517234802246,0.24581928551197052
-1.5129293203353882,2.0739219188690186,0.23795221745967865
-1.5277363061904907,2.0639421939849854,0.22998391091823578
-1.490892767906189,2.089724540710449,-0.1296023279428482
-1.4755761623382568,2.100013256072998,-0.13829387724399567
-1.4748469591140747,2.133204460144043,-0.14860376715660095
-1.4596067667007446,2.143080234527588,-0.15675675868988037
-1.4869463443756104,2.2180938720703125,-0.16986560821533203
-1.470266580581665,2.228538751602173,-0.1781483292579651
-1.4583609104156494,2.244997501373291,-0.1866694986820221
-1.4413779973983765,2.255269765853882,-0.19458524882793427
-1.4287694692611694,2.2718067169189453,-0.20292870700359344
-1.4228922128677368,2.2977521419525146,-0.21188291907310486
-1.4138295650482178,2.320892572402954,-0.22065164148807526
-1.412326693534851,2.3574485778808594,-0.23086796700954437
-1.3679015636444092,2.3197546005249023,-0.23338505625724792
-1.3508061170578003,2.329028367996216,-0.24048744142055511
-1.337316632270813,2.345018148422241,-0.2483062446117401
-1.3072798252105713,2.330002784729004,-0.2525502145290375
-1.2713673114776611,2.3047420978546143,-0.2556071877479553
-1.2617316246032715,2.3269922733306885,-0.26376429200172424
-1.2412192821502686,2.3284506797790527,-0.2694781720638275
-1.2391228675842285,2.3639719486236572,-0.2790834903717041
-1.2271500825881958,2.3825628757476807,-0.2867153584957123
-1.2093390226364136,2.390861749649048,-0.2932387590408325
-1.2130718231201172,2.440335273742676,-0.3046509921550751
-1.1956186294555664,2.4481449127197266,-0.3109270930290222
-1.184454083442688,2.4699926376342773,-0.3189580738544464
-1.1698083877563477,2.4847302436828613,-0.32610780000686646
-1.1798402070999146,2.551990270614624,-0.34018266201019287
-1.177179217338562,2.595004081726074,-0.35125723481178284
-1.155148983001709,2.5955584049224854,-0.35649195313453674
-1.1798415184020996,2.7023918628692627,-0.3764793872833252
-1.3101449012756348,3.0587642192840576,-0.43203145265579224
-1.3091328144073486,3.117096185684204,-0.4461486339569092
-1.3053127527236938,3.172163963317871,-0.46002429723739624
-1.2825706005096436,3.1804022789001465,-0.46705856919288635
-1.2771562337875366,3.2315359115600586,-0.48041269183158875
-1.2694048881530762,3.2792317867279053,-0.4932534098625183
-1.2458215951919556,3.287224292755127,-0.5001326203346252
-1.2098472118377686,3.2624876499176025,-0.5020585656166077
-1.1736302375793457,3.2335708141326904,-0.5030895471572876
-1.1324743032455444,3.189861536026001,-0.5015110373497009
-1.0931662321090698,3.14945387840271,-0.5002002716064453
-1.0421531200408936,3.072075605392456,-0.49281761050224304
-0.9921642541885376,2.9942145347595215,-0.48514342308044434
-0.9435681700706482,2.91580867767334,-0.4768942594528198
-0.9134792685508728,2.892155408859253,-0.4772949516773224
-0.8610745072364807,2.7944931983947754,-0.46530571579933167
-0.8302637338638306,2.7627265453338623,-0.46406686305999756
-0.8063883781433105,2.752915859222412,-0.4663506746292114
-0.7663729786872864,2.6874587535858154,-0.4589543640613556
-0.7318015694618225,2.6363778114318848,-0.45379966497421265
-0.703228771686554,2.6035168170928955,-0.45163729786872864
-0.6702829003334045,2.551776647567749,-0.44605040550231934
-0.6446312069892883,2.5259299278259277,-0.4446054697036743
-0.6153554916381836,2.4849798679351807,-0.4404885172843933
-0.5916008353233337,2.4623899459838867,-0.4394892454147339
-0.5656107664108276,2.428349494934082,-0.4363836944103241
-0.5408817529678345,2.3979077339172363,-0.43355441093444824
-0.5157946348190308,2.3635029792785645,-0.4298977255821228
-0.49014317989349365,2.325167417526245,-0.4255051910877228
-0.46769458055496216,2.297849416732788,-0.42301955819129944
-0.4500625431537628,2.293015480041504,-0.42443907260894775
-0.42819783091545105,2.2654292583465576,-0.42147523164749146
-0.40952587127685547,2.252774477005005,-0.4212627112865448
-0.3888680636882782,2.228651285171509,-0.41891446709632874
-0.3694644272327423,2.208130121231079,-0.4170750379562378
-0.3503386080265045,2.187509775161743,-0.4149171710014343
-0.3350032866001129,2.1895055770874023,-0.4170512557029724
-0.3208150565624237,2.198981523513794,-0.4206309914588928
-0.3015148639678955,2.1741795539855957,-0.4176879823207855
-0.2833079695701599,2.1530747413635254,-0.41503027081489563
-0.26542577147483826,2.1318306922912598,-0.4123137593269348
-0.2496435046195984,2.1256868839263916,-0.41251808404922485
-0.23397591710090637,2.1194262504577637,-0.4127083122730255
-0.2199758142232895,2.1283555030822754,-0.41563308238983154
-0.20486198365688324,2.1296091079711914,-0.416934996843338
-0.1848929226398468,2.073457717895508,-0.40697216987609863
-0.17108461260795593,2.0820908546447754,-0.40971800684928894
-0.15658825635910034,2.083005428314209,-0.4108654260635376
-0.1410379409790039,2.0685830116271973,-0.40869343280792236
-0.1254619061946869,2.0540595054626465,-0.40652263164520264
-0.1103309616446495,2.039412260055542,-0.4043254256248474
-0.0964922085404396,2.0476207733154297,-0.40667659044265747
-0.08284911513328552,2.0634636878967285,-0.41018563508987427
-0.06898970901966095,2.0792222023010254,-0.41365984082221985
-0.05426042154431343,2.079571485519409,-0.41409751772880554
-0.03978254273533821,2.079813241958618,-0.41452762484550476
-0.025319939479231834,2.0799992084503174,-0.41473037004470825
-0.010940597392618656,2.099275588989258,-0.41856634616851807
0.003649749793112278,2.0954668521881104,-0.4178195595741272
0.018508456647396088,2.099215507507324,-0.41860076785087585
0.03310370445251465,2.0990493297576904,-0.4185353219509125
0.047695569694042206,2.098848581314087,-0.41813305020332336
0.062172576785087585,2.094716787338257,-0.416968435049057
0.07715557515621185,2.105800151824951,-0.4188515245914459
0.09279637038707733,2.1282598972320557,-0.4230126440525055
0.10784792900085449,2.1277031898498535,-0.422242671251297
0.12217993289232254,2.1194159984588623,-0.4198985695838928
0.13790085911750793,2.1339762210845947,-0.42209818959236145
0.15439391136169434,2.1560659408569336,-0.425794780254364
0.1711835414171219,2.1780717372894287,-0.4292786419391632
0.18757116794586182,2.1885180473327637,-0.4302434027194977
0.20420153439044952,2.2026803493499756,-0.4319654107093811
0.21954956650733948,2.2014553546905518,-0.4306810796260834
0.23812848329544067,2.230638265609741,-0.4353010952472687
0.25799718499183655,2.2673680782318115,-0.44098997116088867
0.27404555678367615,2.2658305168151855,-0.43920883536338806
0.29424571990966797,2.298450231552124,-0.4440692067146301
0.31131836771965027,2.304287910461426,-0.4437503218650818
0.3306272327899933,2.3252625465393066,-0.44601303339004517
0.351955771446228,2.357490062713623,-0.45031386613845825
0.3734283447265625,2.3857133388519287,-0.4537900984287262
0.39752450585365295,2.4289534091949463,-0.4601157307624817
0.41899195313453674,2.4530951976776123,-0.4625970423221588
0.4455045759677887,2.50358247756958,-0.4697575867176056
0.4664466977119446,2.5198357105255127,-0.4704497754573822
0.49420619010925293,2.5698792934417725,-0.4774015545845032
0.525254487991333,2.63093900680542,-0.4862208068370819
0.5451293587684631,2.6353745460510254,-0.4841916859149933
0.5771650671958923,2.6960625648498535,-0.4924444854259491
0.6059779524803162,2.7376668453216553,-0.49710896611213684
0.646589457988739,2.827760696411133,-0.5104478597640991
0.6701990365982056,2.838815450668335,-0.5090296864509583
0.7036470770835876,2.8909080028533936,-0.514879584312439
0.7416203618049622,2.957625389099121,-0.5232023000717163
0.7825743556022644,3.0314178466796875,-0.5326071977615356
0.8225286602973938,3.0974252223968506,-0.5402814745903015
0.8658045530319214,3.1704444885253906,-0.5487233400344849
0.9118486046791077,3.2505526542663574,-0.5582724809646606
0.9634919762611389,3.3449819087982178,-0.5700293779373169
1.0120818614959717,3.424128293991089,-0.5788620710372925
1.0750871896743774,3.5471878051757812,-0.5945245623588562
1.1197080612182617,3.603154182434082,-0.5985985398292542
1.196540355682373,3.758040189743042,-0.6188580393791199
1.2696706056594849,3.8937366008758545,-0.6355243921279907
1.338323950767517,4.01051664352417,-0.6483162045478821
1.3949652910232544,4.086371421813965,-0.6541907787322998
1.4452370405197144,4.139734268188477,-0.6562337875366211
1.4852722883224487,4.1596574783325195,-0.6527217030525208
1.5115536451339722,4.14324951171875,-0.64328533411026
1.5403376817703247,4.1339287757873535,-0.634919285774231
1.5664881467819214,4.117103099822998,-0.6254003643989563
1.5745294094085693,4.053124904632568,-0.6087892651557922
1.3436567783355713,3.388476848602295,-0.5029018521308899
1.3700683116912842,3.38731050491333,-0.4966837763786316
1.3819034099578857,3.3500871658325195,-0.4852040708065033
1.4085323810577393,3.348442316055298,-0.4788784086704254
1.425761342048645,3.325355291366577,-0.46937429904937744
1.4522556066513062,3.3234059810638428,-0.4626981317996979
1.4722259044647217,3.3071765899658203,-0.45412614941596985
1.495558500289917,3.297741413116455,-0.4464343786239624
1.5249651670455933,3.30238938331604,-0.44052064418792725
1.541100263595581,3.278799057006836,-0.43079331517219543
1.564318299293518,3.2688398361206055,-0.4227173328399658
1.604393482208252,3.2936198711395264,-0.41910216212272644
1.6305960416793823,3.290432929992676,-0.4117549657821655
1.6129672527313232,3.2004306316375732,-0.3936825394630432
1.635292410850525,3.1900830268859863,-0.3854791224002838
1.639875888824463,3.1449756622314453,-0.37307846546173096
1.679988980293274,3.1687772274017334,-0.3686354458332062
1.7292888164520264,3.209498405456543,-0.3661035895347595
1.7518439292907715,3.198235511779785,-0.35733169317245483
1.7382619380950928,3.1223132610321045,-0.341444194316864
1.7690110206604004,3.1282958984375,-0.33459410071372986
1.8102177381515503,3.150534152984619,-0.3291563093662262
1.343950867652893,2.301853656768799,-0.2346717268228531
0.9785836935043335,1.6504836082458496,-0.16404570639133453
0.9555939435958862,1.5876047611236572,-0.15371039509773254
0.9666850566864014,1.5813395977020264,-0.14886429905891418
0.9839888215065002,1.5848630666732788,-0.1448003351688385
0.992504894733429,1.5753839015960693,-0.1396028846502304
1.0033173561096191,1.568959355354309,-0.1345725804567337
1.010082483291626,1.55576491355896,-0.1288563758134842
1.0247019529342651,1.555936336517334,-0.12424778193235397
1.0311014652252197,1.5427531003952026,-0.11839701980352402
1.048500895500183,1.5455483198165894,-0.11365807056427002
1.052027702331543,1.5293630361557007,-0.10752610862255096
2.5643954277038574,3.675320863723755,-0.24609068036079407
2.585397481918335,3.6519386768341064,-0.23165343701839447
2.6095223426818848,3.6356146335601807,-0.2174854576587677
2.606909990310669,3.580575942993164,-0.20062878727912903
2.6586992740631104,3.6014862060546875,-0.1876586377620697
2.6326704025268555,3.7334253787994385,0.48282667994499207
2.5955138206481934,3.7386536598205566,0.4949815571308136
2.5635011196136475,3.7495291233062744,0.5071963667869568
1.0543652772903442,1.5685362815856934,0.21660950779914856
1.0510731935501099,1.588671326637268,0.22354640066623688
1.035388708114624,1.5889952182769775,0.22751018404960632
1.010357141494751,1.5767791271209717,0.22946390509605408
1.0063754320144653,1.596990942955017,0.23609431087970734
1.002911925315857,1.616775631904602,0.2425050586462021
0.9989356994628906,1.6367595195770264,0.24885879456996918
0.9822555780410767,1.6371368169784546,0.25217166543006897
0.9660276174545288,1.6371347904205322,0.2553115487098694
1.3527944087982178,2.3294808864593506,0.36751651763916016
1.8722031116485596,3.279670238494873,0.5232336521148682
1.8073463439941406,3.2218103408813477,0.5194553136825562
1.758981466293335,3.190001964569092,0.5195874571800232
1.786016821861267,3.2930662631988525,0.5415406227111816
1.7509912252426147,3.2844254970550537,0.5450757145881653
2.395810604095459,4.57701301574707,0.7662782073020935
2.357511043548584,4.586603164672852,0.7744736075401306
2.328446865081787,4.6086039543151855,0.7843737006187439
2.295786142349243,4.623471736907959,0.7931011319160461
2.261202573776245,4.639049053192139,0.8014525175094604
2.229118824005127,4.66163969039917,0.8111379146575928
2.1980478763580322,4.683467388153076,0.8205532431602478
2.168090343475342,4.704521179199219,0.8296776413917542
2.134481906890869,4.718482494354248,0.8375019431114197
2.0961825847625732,4.72586727142334,0.8436752557754517
2.0671088695526123,4.754146099090576,0.8536326885223389
2.004537343978882,4.704227924346924,0.849539041519165
1.741095781326294,4.166006088256836,0.7564442157745361
1.7115437984466553,4.177125453948975,0.7625419497489929
1.6835695505142212,4.195735454559326,0.7695583701133728
1.6554516553878784,4.21413516998291,0.7765855193138123
1.6240224838256836,4.225279808044434,0.7823677659034729
1.5942705869674683,4.235583305358887,0.7878271341323853
1.5670716762542725,4.25290584564209,0.7946419715881348
1.5401009321212769,4.274063587188721,0.801769495010376
1.5087615251541138,4.284287452697754,0.8067741394042969
1.4755865335464478,4.290802001953125,0.8111725449562073
1.448715090751648,4.31119966506958,0.8181020021438599
1.4184625148773193,4.32033634185791,0.8228998184204102
1.3902206420898438,4.336684703826904,0.8289899826049805
1.3655811548233032,4.367844104766846,0.8375129103660583
1.3265810012817383,4.354912757873535,0.8376703858375549
1.2928005456924438,4.356220245361328,0.8405454754829407
1.2707315683364868,4.3938984870910645,0.850411057472229
1.2399133443832397,4.401885986328125,0.8545855283737183
1.2085936069488525,4.409822940826416,0.8585251569747925
1.1846718788146973,4.447388172149658,0.8679524660110474
1.155806303024292,4.470107555389404,0.8745906949043274
1.1246329545974731,4.481293201446533,0.8789761066436768
1.095078706741333,4.495805740356445,0.8840076923370361
1.0636118650436401,4.502650737762451,0.8875786066055298
1.0334926843643188,4.516880512237549,0.8923489451408386
1.0005719661712646,4.523683071136475,0.8954050540924072
0.9729584455490112,4.552638530731201,0.9028726816177368
0.9326862096786499,4.521318435668945,0.8984214067459106
0.7619180679321289,3.827759265899658,0.7620952129364014
0.7344415187835693,3.828731060028076,0.7638142704963684
0.8482232689857483,4.598587989807129,0.919069230556488
0.819531261920929,4.626672744750977,0.9259512424468994
0.7897892594337463,4.6508049964904785,0.9321026802062988
0.7579526901245117,4.663388729095459,0.9359920620918274
0.7276725172996521,4.683250427246094,0.9413738250732422
0.6966814994812012,4.702974319458008,0.9468040466308594
0.664867103099823,4.714850902557373,0.9506375193595886
0.6325275897979736,4.72667932510376,0.95389324426651
0.6019787192344666,4.753483772277832,0.9602245092391968
0.5683028101921082,4.757277011871338,0.9619615077972412
0.5370628237724304,4.779825210571289,0.9675334095954895
0.5048093795776367,4.798388481140137,0.9723638296127319
0.4721137285232544,4.809061527252197,0.9756312966346741
0.4398183226585388,4.827241897583008,0.9800047874450684
0.40718379616737366,4.8452558517456055,0.9841743111610413
0.37514394521713257,4.874502182006836,0.9906796216964722
0.33981239795684814,4.869194984436035,0.9902228116989136
0.30684417486190796,4.886508464813232,0.9944010972976685
0.2741336524486542,4.911238193511963,1.0001411437988281
0.24068604409694672,4.928128242492676,1.004201889038086
0.20761922001838684,4.964026927947998,1.0116336345672607
0.17229582369327545,4.9652910232543945,1.0120607614517212
0.13780082762241364,4.973940372467041,1.014040231704712
0.10356742888689041,4.997656345367432,1.0191419124603271
0.06901908665895462,5.013477802276611,1.0226845741271973
0.03435995802283287,5.044369220733643,1.0293538570404053
-0.0013721688883379102,5.0636305809021,1.0332201719284058
-0.03660457953810692,5.063552379608154,1.0329580307006836
-0.07216174900531769,5.086190700531006,1.037379264831543
-0.10809408128261566,5.108578205108643,1.0417977571487427
-0.1435794085264206,5.107757091522217,1.0415337085723877
-0.18059279024600983,5.14876651763916,1.049849033355713
-0.21682190895080566,5.143611431121826,1.0487048625946045
-0.2533392310142517,5.161299705505371,1.0516424179077148
-0.2903847098350525,5.182547569274902,1.055349588394165
-0.2778763473033905,4.412688732147217,0.8980928063392639
-0.3023577928543091,4.322986602783203,0.8794002532958984
-0.33295053243637085,4.320906162261963,0.8785758018493652
-0.3636295795440674,4.3262810707092285,0.8793166875839233
-0.3894307613372803,4.27813720703125,0.8688673973083496
-0.41592133045196533,4.245145320892334,0.8613049983978271
-0.4391784071922302,4.185330390930176,0.8483584523200989
-0.46299538016319275,4.132950305938721,0.8369661569595337
-0.48537003993988037,4.076664924621582,0.8248496651649475
-0.509426474571228,4.039257049560547,0.8166067600250244
-0.5314344167709351,3.990333080291748,0.8060365915298462
-0.5529367327690125,3.945236921310425,0.7957839369773865
-0.573808491230011,3.896167755126953,0.7847711443901062
-0.5970553755760193,3.869777202606201,0.7784023880958557
-0.6170434951782227,3.824314594268799,0.7682465314865112
-0.6385527849197388,3.790057897567749,0.7603893280029297
-0.6582893133163452,3.7481324672698975,0.7510475516319275
-0.6764764189720154,3.702458381652832,0.740673840045929
-0.6950647234916687,3.6604549884796143,0.7308992743492126
-0.7163699269294739,3.6372485160827637,0.7249572277069092
-0.7335577607154846,3.5951335430145264,0.7153001427650452
-0.7419500350952148,3.5115859508514404,0.6974504590034485
-0.7614960074424744,3.4842777252197266,0.6908397078514099
-0.7826162576675415,3.464329481124878,0.6855509877204895
-0.8035956621170044,3.4482150077819824,0.6807738542556763
-0.8180823922157288,3.4058661460876465,0.6708733439445496
-0.8431231379508972,3.4081578254699707,0.6698082685470581
-0.8535497188568115,3.3506550788879395,0.6570126414299011
-0.872474193572998,3.326450824737549,0.6507786512374878
-0.8855808973312378,3.2837517261505127,0.6409436464309692
-0.9078789353370667,3.278225898742676,0.6380278468132019
-0.9196102023124695,3.2356183528900146,0.6279476284980774
-0.9383617639541626,3.218790292739868,0.6229231357574463
-0.9544573426246643,3.190582275390625,0.6156778335571289
-0.9700032472610474,3.1623542308807373,0.6084991693496704
-0.9828473329544067,3.1267480850219727,0.5999081134796143
-1.0040383338928223,3.1206328868865967,0.5966476798057556
-1.0119391679763794,3.07421875,0.5857394337654114
-1.0282423496246338,3.0532052516937256,0.579695463180542
-1.0444250106811523,3.032066822052002,0.573663055896759
-1.0605145692825317,3.010793447494507,0.5676378607749939
-1.0722384452819824,2.978668451309204,0.5595170259475708
-1.0949690341949463,2.9792592525482178,0.557288408279419
-1.104210376739502,2.943657875061035,0.5483353137969971
-1.1243977546691895,2.9366793632507324,0.5447190403938293
-1.124000906944275,2.8756022453308105,0.5310821533203125
-1.135640025138855,2.846837282180786,0.5234994292259216
-1.1435233354568481,2.8111422061920166,0.5144779682159424
-1.1344029903411865,2.7364718914031982,0.49830174446105957
-1.1306475400924683,2.676089286804199,0.4848169982433319
-1.1307857036590576,2.6264383792877197,0.4733751714229584
-1.161628246307373,2.6473402976989746,0.4746357500553131
-1.1706136465072632,2.6187584400177,0.46696579456329346
-1.1913220882415771,2.6186020374298096,0.464150607585907
-1.228611707687378,2.653148651123047,0.4674033522605896
-1.2466180324554443,2.645474433898926,0.4632052779197693
-1.25192129611969,2.609529733657837,0.4539993703365326
-1.2635042667388916,2.5875229835510254,0.44726088643074036
-1.2807575464248657,2.579808473587036,0.44272905588150024
-1.2843616008758545,2.544243812561035,0.4334126114845276
-1.298056721687317,2.529376983642578,0.42769747972488403
-1.3105976581573486,2.510633945465088,0.42122405767440796
-1.3172698020935059,2.481713056564331,0.4130536615848541
-1.333762288093567,2.4736969470977783,0.40818360447883606
-1.3353440761566162,2.4384329319000244,0.3988742232322693
-1.3411067724227905,2.409569025039673,0.3905181884765625
-1.3581430912017822,2.400830030441284,0.38543280959129333
-1.3647843599319458,2.3756003379821777,0.37758150696754456
-1.37264084815979,2.3539884090423584,0.3702636957168579
-1.3803691864013672,2.332303762435913,0.3629691004753113
-1.397274374961853,2.3230950832366943,0.3572949767112732
-1.4214930534362793,2.3273932933807373,0.35369211435317993
-1.4123388528823853,2.279299259185791,0.3420215845108032
-1.4232170581817627,2.2642133235931396,0.3354119658470154
-1.4685022830963135,2.300671100616455,0.33602574467658997
-1.463566541671753,2.2586567401885986,0.32499903440475464
-1.4505674839019775,2.207812786102295,0.3128066658973694
-1.4565924406051636,2.1860904693603516,0.30478331446647644
-1.5091805458068848,2.2311809062957764,0.3055950403213501
-1.5043396949768066,2.19313645362854,0.2948189675807953
-1.4877430200576782,2.139449119567871,0.28197792172431946
-1.4936368465423584,2.1172871589660645,0.27315065264701843
-1.5080968141555786,2.107950210571289,0.26581454277038574
-1.5100852251052856,2.083486318588257,0.25651419162750244
-1.5196999311447144,2.0677967071533203,0.2479054033756256
-1.524532437324524,2.04583740234375,0.23823492228984833
-1.4878450632095337,2.1009464263916016,-0.1380920708179474
-1.4805164337158203,2.124539613723755,-0.14812523126602173
-1.4891217947006226,2.1701085567474365,-0.15947175025939941
-1.49482262134552,2.2127304077148438,-0.17069163918495178
-1.4606882333755493,2.1973817348480225,-0.17734041810035706
-1.4619481563568115,2.2332236766815186,-0.18768323957920074
-1.4454246759414673,2.2432522773742676,-0.19588832557201385
-1.4429899454116821,2.276432514190674,-0.20620398223400116
-1.4264585971832275,2.286097288131714,-0.21415165066719055
-1.4137723445892334,2.30236554145813,-0.22258397936820984
-1.420671820640564,2.3520801067352295,-0.2343941330909729
-1.3759269714355469,2.314612627029419,-0.2372308224439621
-1.3630554676055908,2.3304636478424072,-0.24535830318927765
-1.3162747621536255,2.289346218109131,-0.24747277796268463
-1.2843419313430786,2.270972728729248,-0.2515600621700287
-1.2719731330871582,2.286058187484741,-0.25917163491249084
-1.2588146924972534,2.301408052444458,-0.26681870222091675
-1.2492287158966064,2.3234822750091553,-0.27529171109199524
-1.2433364391326904,2.3522233963012695,-0.2845425605773926
-1.2334827184677124,2.3741073608398438,-0.29292032122612
-1.2248526811599731,2.3995487689971924,-0.30179980397224426
-1.2144557237625122,2.4213640689849854,-0.3102201819419861
-1.2040740251541138,2.443007707595825,-0.31861087679862976
-1.1858896017074585,2.4510107040405273,-0.3252755105495453
-1.1778969764709473,2.4797677993774414,-0.3346518278121948
-1.1847474575042725,2.5399343967437744,-0.34830722212791443
-1.1859647035598755,2.5897014141082764,-0.3607112169265747
-1.157554268836975,2.576148748397827,-0.3642427921295166
-1.1715744733810425,2.658010244369507,-0.3813961446285248
-1.1877585649490356,2.747161865234375,-0.39987653493881226
-1.3238434791564941,3.121612548828125,-0.46065378189086914
-1.3102320432662964,3.151416778564453,-0.47121480107307434
-1.2933335304260254,3.1739909648895264,-0.48078909516334534
-1.2737109661102295,3.189134359359741,-0.48919403553009033
-1.2590439319610596,3.218737840652466,-0.4999094605445862
-1.2164781093597412,3.176079273223877,-0.4991074800491333
-1.1651602983474731,3.107652425765991,-0.49403321743011475
-1.1152565479278564,3.0385777950286865,-0.4885087013244629
-1.0689259767532349,2.976303815841675,-0.48375028371810913
-1.022951364517212,2.91377854347229,-0.4786343276500702
-0.9757890701293945,2.843377113342285,-0.47191309928894043
-0.9311527609825134,2.77608323097229,-0.4654185473918915
-0.8982776403427124,2.7413527965545654,-0.464150995016098
-0.8540289402008057,2.6696829795837402,-0.45622360706329346
-0.8128167390823364,2.6050124168395996,-0.44935643672943115
-0.7831718921661377,2.5729761123657227,-0.44786104559898376
-0.7485657334327698,2.5222015380859375,-0.4429515600204468
-0.7156509757041931,2.474883794784546,-0.4382150173187256
-0.6886618137359619,2.44578218460083,-0.43660303950309753
-0.6551076173782349,2.390430212020874,-0.4301707148551941
-0.6350030899047852,2.383145570755005,-0.4323592185974121
-0.6084815859794617,2.349644184112549,-0.4293919503688812
-0.5805949568748474,2.3084521293640137,-0.4248901903629303
-0.5542828440666199,2.270730495452881,-0.42092639207839966
-0.5276948809623718,2.2290234565734863,-0.4161224365234375
-0.5091426372528076,2.220883846282959,-0.4173569679260254
-0.4901594817638397,2.20881986618042,-0.4176748991012573
-0.46816396713256836,2.1815810203552246,-0.4150884449481964
-0.44819870591163635,2.16166353225708,-0.41384267807006836
-0.42776405811309814,2.137848138809204,-0.4116733968257904
-0.40812939405441284,2.1177172660827637,-0.4100005328655243
-0.3862568140029907,2.082296848297119,-0.4052885174751282
-0.37168073654174805,2.0844459533691406,-0.40786296129226685
-0.35579633712768555,2.078939437866211,-0.40890562534332275
-0.3399702310562134,2.07338285446167,-0.40960729122161865
-0.3210389018058777,2.0488028526306152,-0.40657007694244385
-0.3033004105091095,2.027827501296997,-0.4041922092437744
-0.2891131639480591,2.029473304748535,-0.40632298588752747
-0.27182537317276,2.008303642272949,-0.4035622477531433
-0.2558205723762512,1.9946097135543823,-0.4022337794303894
-0.24189336597919464,1.9959992170333862,-0.40395280718803406
-0.2272849678993225,1.9935073852539062,-0.40492841601371765
-0.21175357699394226,1.9795111417770386,-0.40332645177841187
-0.19947081804275513,1.9959070682525635,-0.4077545702457428
-0.17988742887973785,1.9360015392303467,-0.3965889811515808
-0.1628151535987854,1.8950011730194092,-0.3892556428909302
-0.15059377253055573,1.911122441291809,-0.39357873797416687
-0.13619115948677063,1.8966790437698364,-0.39130353927612305
-0.12348169088363647,1.905037522315979,-0.39374879002571106
-0.11022067070007324,1.9056707620620728,-0.39461928606033325
-0.09579097479581833,1.8832908868789673,-0.39073434472084045
-0.08245572447776794,1.8838160037994385,-0.39124399423599243
-0.0699068233370781,1.899533748626709,-0.39489614963531494
-0.056230682879686356,1.8845840692520142,-0.3921917974948883
-0.04382985830307007,1.9154163599014282,-0.3990370035171509
-0.030014261603355408,1.8850384950637817,-0.39289021492004395
-0.01661727949976921,1.8775396347045898,-0.3913731873035431
-0.003582021687179804,1.8928900957107544,-0.394637793302536
0.009704786352813244,1.9157969951629639,-0.39949849247932434
0.023079795762896538,1.919518232345581,-0.40024101734161377
0.036593448370695114,1.9270274639129639,-0.40150049328804016
0.05039668828248978,1.9420878887176514,-0.4043496251106262
0.064394012093544,1.9493987560272217,-0.40559694170951843
0.07917924970388412,1.9795478582382202,-0.4116068482398987
0.09331213682889938,1.9867461919784546,-0.41244298219680786
0.1063128337264061,1.9709264039993286,-0.40852296352386475
0.1225719079375267,2.012296676635742,-0.4164692759513855
0.13629870116710663,2.0039048194885254,-0.4141150712966919
0.152516171336174,2.033651113510132,-0.419351726770401
0.16727657616138458,2.0404152870178223,-0.4197275638580322
0.18351054191589355,2.0623202323913574,-0.4232221245765686
0.19787850975990295,2.0612401962280273,-0.42200803756713867
0.21327358484268188,2.067688226699829,-0.42215946316719055
0.23060132563114166,2.0931241512298584,-0.42595571279525757
0.24429717659950256,2.0841939449310303,-0.42276477813720703
0.2616421580314636,2.1055781841278076,-0.42573511600494385
0.2733111083507538,2.0812597274780273,-0.41944563388824463
0.2891009449958801,2.087277889251709,-0.41889840364456177
0.31024205684661865,2.131129264831543,-0.4259525239467621
0.3361220061779022,2.2013144493103027,-0.43818730115890503
0.3605775237083435,2.2561230659484863,-0.4472781717777252
0.37571078538894653,2.250269651412964,-0.4439837634563446
0.39602071046829224,2.2745554447174072,-0.4465538561344147
0.41903531551361084,2.309955596923828,-0.4512244164943695
0.4401922821998596,2.3338825702667236,-0.453647255897522
