X,Y,Z
-1.5873215198516846,3.993105173110962,0.17955628037452698
-1.6177836656570435,3.989360809326172,0.17820385098457336
-1.637010931968689,3.960479736328125,0.1756426841020584
-1.6543768644332886,3.927936315536499,0.17294122278690338
-1.6567139625549316,3.8591601848602295,0.1686430275440216
-1.6901944875717163,3.8617422580718994,0.16745083034038544
-1.7387112379074097,3.9001290798187256,0.1677655130624771
-1.7581537961959839,3.8743462562561035,0.1652418076992035
-1.7839068174362183,3.8626372814178467,0.16332921385765076
-1.794169306755066,3.814872980117798,0.1598469316959381
-1.8447641134262085,3.8514351844787598,0.15987570583820343
-1.8704402446746826,3.8391172885894775,0.15780194103717804
-1.892364740371704,3.8197319507598877,0.15543577075004578
-1.9008492231369019,3.771940231323242,0.1518891155719757
-1.9146095514297485,3.7343780994415283,0.14875568449497223
-1.9416579008102417,3.7248759269714355,0.14670813083648682
-1.9665724039077759,3.7118711471557617,0.1444457471370697
-2.0062835216522217,3.726156711578369,0.1432333141565323
-1.7059717178344727,3.1163246631622314,0.11825443059206009
-1.719555377960205,3.09106707572937,0.11574006080627441
-1.7358988523483276,3.073029041290283,0.11346696317195892
-0.8433961868286133,1.4696627855300903,0.05346745252609253
-0.8575242161750793,1.4705480337142944,0.052679888904094696
-0.8594523072242737,1.4513373374938965,0.051166288554668427
-0.8768996596336365,1.459151268005371,0.05059349164366722
-0.8826603889465332,1.446570634841919,0.049278125166893005
-0.8887679576873779,1.4336845874786377,0.04791959002614021
-0.9022853374481201,1.4344879388809204,0.04701261594891548
-0.8632227778434753,1.3529555797576904,0.043447915464639664
-0.8409624695777893,1.2790504693984985,0.03922157734632492
-2.3725478649139404,3.5057859420776367,0.10204213857650757
-1.2931575775146484,1.8833072185516357,0.05326434224843979
-1.4723210334777832,2.1155683994293213,0.058056414127349854
-1.640762209892273,2.3648228645324707,-0.06010402366518974
-1.1913204193115234,1.744872808456421,-0.046172626316547394
-1.446541428565979,2.1521077156066895,-0.05907471477985382
-1.5175045728683472,2.292475938796997,-0.06507816910743713
-1.329358696937561,2.042210340499878,-0.05990099161863327
-1.1525754928588867,1.7983850240707397,-0.05430084839463234
-0.8487533926963806,1.412352204322815,-0.04717369005084038
-0.7786287665367126,1.3177402019500732,-0.0449959859251976
-76.87106323242188,134.38873291015625,-4.777431964874268
-0.8957082629203796,1.5926142930984497,-0.057683639228343964
-1.6316499710083008,2.9523682594299316,-0.10892073810100555
-2.0790276527404785,3.824547052383423,-0.14349517226219177
-2.0206217765808105,3.7805228233337402,-0.14418695867061615
-2.0127856731414795,3.833162546157837,-0.14850805699825287
-1.9404410123825073,3.76068377494812,-0.14791278541088104
-1.917281985282898,3.781191825866699,-0.1509045660495758
-1.8902983665466309,3.794647693634033,-0.1535496562719345
-1.8797607421875,3.8432743549346924,-0.15761251747608185
-1.8558025360107422,3.8634567260742188,-0.1604873687028885
-1.818818211555481,3.8550186157226562,-0.16213758289813995
-1.8093215227127075,3.9067490100860596,-0.16627724468708038
-1.7562121152877808,3.8665871620178223,-0.16650106012821198
-1.526979684829712,3.426060676574707,-0.1491715908050537
-1.5578410625457764,3.5616743564605713,-0.1567486822605133
-1.644877552986145,3.8343780040740967,-0.17050427198410034
-1.648940920829773,3.9215993881225586,-0.17612221837043762
-1.3573440313339233,3.2946228981018066,-0.14943057298660278
-1.3796740770339966,3.416093587875366,-0.15640076994895935
-1.3341416120529175,3.371166944503784,-0.15576234459877014
-1.3479527235031128,3.4788358211517334,-0.16211898624897003
-1.5540482997894287,4.0976996421813965,-0.1925858110189438
-1.4774219989776611,3.9804697036743164,-0.1886385977268219
-1.4243406057357788,3.9208812713623047,-0.1873278021812439
-1.3911054134368896,3.916144371032715,-0.18851464986801147
-1.3950176239013672,4.018074989318848,-0.19484925270080566
-1.327789545059204,3.913167953491211,-0.1911335587501526
-1.2558813095092773,3.789034128189087,-0.18640589714050293
-1.11396062374115,3.441272258758545,-0.1704581081867218
-1.1822532415390015,3.7429816722869873,-0.18657360970973969
-1.146364450454712,3.721400260925293,-0.18666613101959229
-1.1114225387573242,3.699327230453491,-0.1866990178823471
-1.0713913440704346,3.658219575881958,-0.1857547014951706
-1.0365890264511108,3.635713815689087,-0.18567438423633575
-0.9992495775222778,3.60156512260437,-0.1849183440208435
-0.9788312911987305,3.627307653427124,-0.1872357875108719
-0.9307727813720703,3.5471746921539307,-0.18406349420547485
-0.9079757332801819,3.561063766479492,-0.18575745820999146
-0.8720207214355469,3.525784969329834,-0.1847788244485855
-0.8397274017333984,3.501469135284424,-0.18432804942131042
-0.8062651753425598,3.4692273139953613,-0.18344615399837494
-0.7692794799804688,3.417603015899658,-0.18151703476905823
-0.7438433170318604,3.415186882019043,-0.18219514191150665
-0.7144888639450073,3.3974835872650146,-0.18193262815475464
-0.6920364499092102,3.410038471221924,-0.18328174948692322
-0.6613816022872925,3.380300283432007,-0.18235637247562408
-0.6263249516487122,3.3234317302703857,-0.17995133996009827
-0.6031852960586548,3.3276607990264893,-0.18084754049777985
-0.5780192017555237,3.3241641521453857,-0.1812024712562561
-0.5539551377296448,3.324263095855713,-0.18175186216831207
-0.5257652401924133,3.297201633453369,-0.18081609904766083
-0.4980676770210266,3.2698981761932373,-0.1798635572195053
-0.4775266945362091,3.288686752319336,-0.18144898116588593
-0.4480932056903839,3.249488115310669,-0.1796971559524536
-0.4267238676548004,3.264132261276245,-0.18092080950737
-0.40244507789611816,3.2553927898406982,-0.18085460364818573
-0.3780020773410797,3.2425830364227295,-0.18056491017341614
-0.3511801064014435,3.2063326835632324,-0.1789720207452774
-0.32714036107063293,3.193169355392456,-0.1785205602645874
-0.3025265038013458,3.175983190536499,-0.17784805595874786
-0.28031185269355774,3.1779985427856445,-0.17825235426425934
-0.2563320994377136,3.156522512435913,-0.17734365165233612
-0.23609986901283264,3.1815433502197266,-0.1790562868118286
-0.21021386981010437,3.1286211013793945,-0.17625823616981506
-0.18844398856163025,3.137808084487915,-0.1769435703754425
-0.16529741883277893,3.1156656742095947,-0.17586709558963776
-0.14434804022312164,3.1323094367980957,-0.1769874095916748
-0.12256540358066559,3.1332242488861084,-0.1772283911705017
-0.10020895302295685,3.1184027194976807,-0.1764860302209854
-0.07771272957324982,3.1034340858459473,-0.1757003366947174
-0.05586625635623932,3.0921969413757324,-0.17513293027877808
-0.03436579182744026,3.0925052165985107,-0.17522746324539185
-0.012896194122731686,3.1004638671875,-0.17576415836811066
0.008608944714069366,3.0926780700683594,-0.17533597350120544
0.030574655160307884,3.100342273712158,-0.17572066187858582
0.050945643335580826,3.0298683643341064,-0.17168687283992767
0.07182113081216812,3.02164626121521,-0.17118988931179047
0.09237232804298401,3.005483627319336,-0.17025145888328552
0.11383390426635742,3.02036452293396,-0.17102494835853577
0.1348094940185547,3.019512891769409,-0.1708194464445114
0.15572884678840637,3.010707378387451,-0.17017018795013428
0.1780075579881668,3.0329248905181885,-0.171284481883049
0.1995801478624344,3.0394105911254883,-0.17151713371276855
0.13281166553497314,1.8282240629196167,-0.10307545214891434
0.24230755865573883,3.044160842895508,-0.17136648297309875
0.26302585005760193,3.0346314907073975,-0.17057092487812042
0.2826508581638336,3.0172178745269775,-0.16934536397457123
0.30832594633102417,3.06176495552063,-0.17160290479660034
0.3262709081172943,3.0285446643829346,-0.1695007085800171
0.35165855288505554,3.0649917125701904,-0.17116136848926544
0.37226250767707825,3.0547282695770264,-0.17021171748638153
0.39241471886634827,3.044368267059326,-0.1692725121974945
0.4167262315750122,3.0647833347320557,-0.17004944384098053
0.43805351853370667,3.0618362426757812,-0.16953518986701965
0.45913946628570557,3.0587806701660156,-0.16889749467372894
0.4805421829223633,3.055527448654175,-0.1682415008544922
0.503577709197998,3.0637104511260986,-0.1682269275188446
0.5261983871459961,3.0678577423095703,-0.16799360513687134
0.5530176758766174,3.094877004623413,-0.16901516914367676
0.5714592337608337,3.075699806213379,-0.16739213466644287
0.5984964370727539,3.102383852005005,-0.16825106739997864
0.6217954158782959,3.105799674987793,-0.16783618927001953
0.6449823379516602,3.1090803146362305,-0.16742445528507233
0.6706745028495789,3.1236352920532227,-0.16762368381023407
0.6955064535140991,3.1342358589172363,-0.1674973964691162
0.723953366279602,3.1598641872406006,-0.16815245151519775
0.7460930943489075,3.1547627449035645,-0.16715741157531738
0.7661862373352051,3.14196515083313,-0.1657697558403015
0.7956433296203613,3.1668763160705566,-0.1663745790719986
0.8173157572746277,3.1614108085632324,-0.16526608169078827
0.8409196734428406,3.163347005844116,-0.1645384132862091
0.8651480078697205,3.1649563312530518,-0.1637762486934662
0.8924446702003479,3.1776938438415527,-0.16359706223011017
0.9296424984931946,3.223956823348999,-0.16512861847877502
0.9538293480873108,3.225088119506836,-0.16421927511692047
0.9859988689422607,3.252175807952881,-0.16462695598602295
1.0203893184661865,3.2825000286102295,-0.165156751871109
1.0479570627212524,3.2902543544769287,-0.16455136239528656
1.0126222372055054,3.1049344539642334,-0.15431541204452515
1.0361716747283936,3.105452060699463,-0.15329080820083618
1.1631062030792236,3.408616304397583,-0.16710525751113892
1.1970256567001343,3.4300103187561035,-0.16697447001934052
1.2239270210266113,3.4288697242736816,-0.16571751236915588
1.2393683195114136,3.398486375808716,-0.1630181223154068
1.2746258974075317,3.4230031967163086,-0.16291458904743195
1.31182062625885,3.45078444480896,-0.16293901205062866
1.3499162197113037,3.4780380725860596,-0.16289329528808594
1.3845092058181763,3.493898868560791,-0.16226927936077118
1.44166898727417,3.56779408454895,-0.16422230005264282
1.459723711013794,3.5436553955078125,-0.16164346039295197
1.5113836526870728,3.598342180252075,-0.16260813176631927
1.5624979734420776,3.648824691772461,-0.16332682967185974
1.1443732976913452,2.6220781803131104,-0.11617036908864975
1.1476962566375732,2.582298755645752,-0.11321771889925003
1.1653021574020386,2.5744693279266357,-0.11166641861200333
1.1734063625335693,2.5450875759124756,-0.10917112976312637
1.2008193731307983,2.5582327842712402,-0.10848639905452728
1.2333449125289917,2.581770658493042,-0.10816401988267899
1.23542058467865,2.541841983795166,-0.10519570112228394
1.9661920070648193,3.9748106002807617,-0.1624070107936859
1.1986045837402344,2.38163423538208,-0.09603869915008545
1.2393442392349243,2.4223134517669678,-0.09633830189704895
1.248401165008545,2.400136709213257,-0.0941108912229538
1.2689718008041382,2.3982303142547607,-0.09261894971132278
1.2779515981674194,2.3758068084716797,-0.09035259485244751
1.2861195802688599,2.3536808490753174,-0.08808239549398422
1.290529489517212,2.3245744705200195,-0.08555089682340622
1.3009365797042847,2.3053932189941406,-0.08335423469543457
1.3187131881713867,2.299839496612549,-0.08161436766386032
1.316137671470642,2.2608087062835693,-0.07871690392494202
1.3235948085784912,2.2383904457092285,-0.07637393474578857
1.3350965976715088,2.222508192062378,-0.07424401491880417
1.3455760478973389,2.207101583480835,-0.07211384922266006
1.3562792539596558,2.191425085067749,-0.06993820518255234
1.3631709814071655,2.1687817573547363,-0.06750254333019257
1.3860175609588623,2.1728649139404297,-0.06588798016309738
1.3958288431167603,2.1573398113250732,-0.06366388499736786
1.4150261878967285,2.1542110443115234,-0.061687178909778595
1.4167630672454834,2.1250267028808594,-0.05892960727214813
1.4281917810440063,2.1127090454101562,-0.0566917359828949
1.4449759721755981,2.1060640811920166,-0.054461993277072906
1.4522817134857178,2.0868337154388428,-0.05189007893204689
1.4566372632980347,2.0647637844085693,-0.04924573749303818
1.471121907234192,2.05452823638916,-0.04669685661792755
1.4749562740325928,2.0325613021850586,-0.043929994106292725
1.4698442220687866,1.9976534843444824,-0.04078838229179382
2.1073408126831055,2.9720325469970703,0.09351497888565063
2.085334062576294,2.987391471862793,0.09736116230487823
2.597261667251587,3.77742075920105,0.12707731127738953
3.1558961868286133,4.6676225662231445,0.16191399097442627
3.1465063095092773,4.725463390350342,0.16836562752723694
3.112412929534912,4.747803688049316,0.17348994314670563
3.101569652557373,4.810546398162842,0.180085688829422
1.6341801881790161,2.5742998123168945,0.09849370270967484
1.627877116203308,2.6058526039123535,0.10183131694793701
1.5958904027938843,2.5980138778686523,0.10355586558580399
2.897927761077881,4.794310092926025,0.19463978707790375
2.800593614578247,4.706846237182617,0.1944417655467987
2.749887466430664,4.700334072113037,0.19739863276481628
1.3970541954040527,2.42976450920105,0.10371118038892746
2.4679839611053467,4.362320899963379,0.18895547091960907
2.461644172668457,4.423912048339844,0.1943795084953308
2.4174716472625732,4.4213786125183105,0.19692257046699524
2.400019407272339,4.46620512008667,0.2015344798564911
2.417470932006836,4.5761637687683105,0.2091020792722702
2.460303544998169,4.738624095916748,0.21912027895450592
2.4252262115478516,4.756516933441162,0.2224612534046173
2.3505313396453857,4.693535804748535,0.2219397872686386
2.314335346221924,4.702643871307373,0.22470180690288544
1.2345093488693237,2.5545036792755127,0.12332602590322495
1.2040483951568604,2.538722276687622,0.12374494969844818
1.1888028383255005,2.554429769515991,0.12569090723991394
1.1758358478546143,2.573225736618042,0.1277513951063156
1.156295657157898,2.5777125358581543,0.12910951673984528
1.1454358100891113,2.6038119792938232,0.13147898018360138
2.07144832611084,4.805087089538574,0.24460679292678833
2.046478271484375,4.841067790985107,0.24833916127681732
2.0246472358703613,4.883912086486816,0.2524246871471405
2.003342628479004,4.930481433868408,0.2566860616207123
1.9819438457489014,4.981008052825928,0.2610766291618347
2.028641700744629,5.209872722625732,0.27494969964027405
2.0005548000335693,5.245649337768555,0.2786296010017395
1.9843943119049072,5.314162731170654,0.28408586978912354
1.962652564048767,5.371969223022461,0.2888987362384796
1.9290181398391724,5.400583267211914,0.29208099842071533
1.8868331909179688,5.407071113586426,0.2941063940525055
1.8857104778289795,5.527007579803467,0.3022621273994446
1.848408818244934,5.543578147888184,0.30481424927711487
1.8912005424499512,5.808640956878662,0.32098525762557983
1.8966543674468994,5.970664024353027,0.3314969539642334
1.8634366989135742,6.017744541168213,0.33571574091911316
1.8462800979614258,6.112604141235352,0.34257471561431885
1.8091598749160767,6.143897533416748,0.34591376781463623
1.7787247896194458,6.201363563537598,0.3506408631801605
1.7479188442230225,6.262657642364502,0.3554922342300415
1.7153042554855347,6.320060729980469,0.360161691904068
1.685239315032959,6.388548374176025,0.3654947578907013
1.6523456573486328,6.445343971252441,0.37016940116882324
0.814923882484436,3.2737274169921875,0.18872036039829254
1.5420359373092651,6.388175964355469,0.3694157600402832
0.787761926651001,3.3684399127960205,0.19540899991989136
1.43332839012146,6.333285331726074,0.36859074234962463
1.3767446279525757,6.285852909088135,0.3669855296611786
1.3297172784805298,6.2799248695373535,0.3678094744682312
1.2704795598983765,6.216477870941162,0.36505722999572754
1.2203092575073242,6.194642066955566,0.3646893799304962
1.1618038415908813,6.130397796630859,0.36184316873550415
1.116317868232727,6.1229071617126465,0.36231836676597595
1.079005241394043,6.161184787750244,0.36552315950393677
1.0223795175552368,6.087733268737793,0.3620430529117584
0.9731400012969971,6.056240558624268,0.3608570992946625
0.9330765008926392,6.086146354675293,0.3633589446544647
0.8796259760856628,6.019169330596924,0.3600710332393646
0.8275743126869202,5.951689720153809,0.3567460775375366
0.7877274751663208,5.968830585479736,0.35850319266319275
0.7405655384063721,5.931588649749756,0.35683563351631165
0.6085911393165588,5.169837951660156,0.3114243745803833
0.5596269965171814,5.065496921539307,0.30556684732437134
0.5354935526847839,5.177838325500488,0.312785267829895
0.39764752984046936,4.125716686248779,0.24959124624729156
0.15721967816352844,1.7593070268630981,0.1065913587808609
0.14966540038585663,1.8186477422714233,0.11028147488832474
0.13727059960365295,1.827436089515686,0.1109086126089096
0.12815777957439423,1.8828058242797852,0.11437004059553146
0.11316206306219101,1.8525073528289795,0.11263344436883926
0.09859395027160645,1.82209312915802,0.1108916699886322
0.08244490623474121,1.7487260103225708,0.10652322322130203
0.07033101469278336,1.757055401802063,0.10706468671560287
0.05986244976520538,1.812056303024292,0.11045607179403305
0.04641367122530937,1.781243920326233,0.10862234979867935
0.03501526266336441,1.832196831703186,0.11178046464920044
0.022845108062028885,1.879176378250122,0.11470447480678558
0.009211764670908451,1.8130066394805908,0.1106957197189331
-0.014224307611584663,7.583526611328125,0.4629264175891876
-0.06679884344339371,7.571554183959961,0.46212154626846313
-0.11885374784469604,7.53192663192749,0.4596514105796814
-0.17071515321731567,7.507534503936768,0.45813366770744324
-0.2223985195159912,7.490584850311279,0.45709228515625
-0.27403584122657776,7.453775405883789,0.4546758532524109
-0.3256447911262512,7.451725006103516,0.45424512028694153
-0.27396175265312195,5.408832550048828,0.3295072019100189
-0.3132587969303131,5.437963008880615,0.3310900032520294
-0.34956520795822144,5.412325859069824,0.3293534219264984
-0.3861292600631714,5.386405944824219,0.32761451601982117
-0.4218183159828186,5.364202976226807,0.32593831419944763
-0.45914721488952637,5.365084171295166,0.32561352849006653
-0.48398637771606445,5.22981071472168,0.3170490562915802
-0.45957860350608826,4.617204666137695,0.2796098291873932
-0.49055448174476624,4.598361492156982,0.27817633748054504
-0.5198081731796265,4.571630001068115,0.2762869596481323
-0.5512643456459045,4.5679850578308105,0.27561068534851074
-0.5816447138786316,4.556395530700684,0.2744581997394562
-0.6108962893486023,4.536869525909424,0.27284225821495056
-0.640760064125061,4.517037391662598,0.27121224999427795
-0.6715161800384521,4.508666515350342,0.2702934443950653
-0.7027415633201599,4.50394868850708,0.2695632576942444
-0.7298199534416199,4.475989818572998,0.26729288697242737
-0.7591200470924377,4.463255405426025,0.2659492492675781
-0.7884546518325806,4.450299263000488,0.26460355520248413
-0.8142720460891724,4.41398286819458,0.2618705928325653
-0.8420367240905762,4.392941474914551,0.26007217168807983
-0.7285275459289551,3.6642041206359863,0.21638955175876617
-0.7543501257896423,3.6630101203918457,0.21571096777915955
-0.7785298228263855,3.654013156890869,0.21458379924297333
-0.9502635598182678,4.311176300048828,0.2524605989456177
-0.9871020317077637,4.334958553314209,0.25315290689468384
-1.0171780586242676,4.32806396484375,0.25206103920936584
-1.046586275100708,4.321120262145996,0.25080057978630066
-1.0646001100540161,4.268571376800537,0.24690762162208557
-1.0835148096084595,4.219603538513184,0.24323326349258423
-1.1257506608963013,4.2610697746276855,0.244781032204628
-1.1491882801055908,4.230637073516846,0.24220502376556396
-1.1803157329559326,4.230236053466797,0.24126815795898438
-1.2089293003082275,4.222230911254883,0.23981329798698425
-1.2357929944992065,4.206400394439697,0.2379094511270523
-1.2591966390609741,4.179172515869141,0.23537583649158478
-1.2859277725219727,4.162944316864014,0.23347267508506775
-1.3100073337554932,4.139151096343994,0.23113591969013214
-1.337883710861206,4.130315780639648,0.2295113354921341
-1.368669867515564,4.128528118133545,0.22826609015464783
-1.3969148397445679,4.1191487312316895,0.22661267220973969
-1.417864203453064,4.087309837341309,0.22372299432754517
-1.443618655204773,4.070098400115967,0.22165440022945404
-1.470955491065979,4.060396194458008,0.21986058354377747
-1.490107774734497,4.0285563468933105,0.21687769889831543
-1.5179977416992188,4.018228530883789,0.21503134071826935
-1.5430766344070435,4.000401973724365,0.21279308199882507
-1.573732852935791,3.99692702293396,0.2113269865512848
-1.603422999382019,3.9936232566833496,0.20973443984985352
-1.6271592378616333,3.975684642791748,0.2073730081319809
-1.6516789197921753,3.9572129249572754,0.20494768023490906
-1.674622893333435,3.934946060180664,0.20233535766601562
-1.6987824440002441,3.9161767959594727,0.19990690052509308
-1.72171950340271,3.8977272510528564,0.1973879188299179
-1.757258415222168,3.9076290130615234,0.1963096261024475
-1.7812780141830444,3.8882689476013184,0.1936875879764557
-1.7983596324920654,3.8546881675720215,0.19038796424865723
-1.8279145956039429,3.849515914916992,0.1884440779685974
-1.8533406257629395,3.837454080581665,0.18609416484832764
-1.875447392463684,3.8181190490722656,0.18338888883590698
-1.8815325498580933,3.7629549503326416,0.17888298630714417
-1.9077104330062866,3.7498672008514404,0.17643801867961884
-1.9324285984039307,3.73730731010437,0.17392081022262573
-1.9606945514678955,3.7314932346343994,0.17172154784202576
-1.9863286018371582,3.718031406402588,0.16909287869930267
-2.027013063430786,3.7317025661468506,0.16767239570617676
-1.7013087272644043,3.0824458599090576,0.13670551776885986
-1.7252362966537476,3.0781705379486084,0.13472755253314972
-0.8422272205352783,1.4789233207702637,0.06382685154676437
-0.8603519797325134,1.4865726232528687,0.06322655081748962
-0.8503829836845398,1.4472472667694092,0.060614556074142456
-0.8679679036140442,1.4550325870513916,0.05996612086892128
-0.8739509582519531,1.4423772096633911,0.058433812111616135
-0.8961964249610901,1.4562896490097046,0.05796040967106819
-0.8931702971458435,1.430657148361206,0.05588536337018013
-0.8942177891731262,1.4116007089614868,0.05407227575778961
-0.8999765515327454,1.3987126350402832,0.052431754767894745
-0.9220318794250488,1.41238534450531,0.051781363785266876
-0.948298990726471,1.432548999786377,0.05132262408733368
-2.3976433277130127,3.568263530731201,0.12459076195955276
-1.3986705541610718,2.023726463317871,0.0668279230594635
-1.3565031290054321,1.9342104196548462,0.061862412840127945
-1.5284992456436157,2.1858460903167725,-0.06183672323822975
-1.4787384271621704,2.148986339569092,-0.06346950680017471
-1.3217748403549194,1.9815971851348877,-0.0630786269903183
-1.1760820150375366,1.7923064231872559,-0.05902041494846344
-1.4961304664611816,2.3153717517852783,-0.07859563082456589
-1.5402506589889526,2.421497344970703,-0.08460187911987305
-0.8093863725662231,1.3582947254180908,-0.052461013197898865
-0.8394989371299744,1.4805997610092163,-0.06083500012755394
-2.107966184616089,3.7812581062316895,-0.15830527245998383
-1.6967662572860718,3.0940797328948975,-0.13183873891830444
-2.0394320487976074,3.782928943634033,-0.1639556586742401
-2.007478713989258,3.791001796722412,-0.16708020865917206
-1.9878898859024048,3.8187766075134277,-0.17093425989151
-1.9612513780593872,3.8323819637298584,-0.17413748800754547
-1.9264347553253174,3.8323917388916016,-0.1766483187675476
-1.8863681554794312,3.821683168411255,-0.17863765358924866
-1.862541913986206,3.8418848514556885,-0.18201079964637756
-1.8608983755111694,3.907477855682373,-0.18753087520599365
-1.8011188507080078,3.853555202484131,-0.18721754848957062
-1.586047649383545,3.45845627784729,-0.17005838453769684
-1.558717131614685,3.462179660797119,-0.17219436168670654
-1.4951368570327759,3.3835978507995605,-0.1701909750699997
-1.443912148475647,3.3334834575653076,-0.16949331760406494
-1.407615303993225,3.3149678707122803,-0.17032383382320404
-1.390374779701233,3.339034080505371,-0.1732897311449051
-1.3611927032470703,3.3340699672698975,-0.1747482270002365
-1.3591378927230835,3.39790940284729,-0.17975078523159027
-1.3541873693466187,3.4584946632385254,-0.18463650345802307
-1.342280626296997,3.50065016746521,-0.18853285908699036
-1.3397165536880493,3.5682692527770996,-0.19383451342582703
-1.3117954730987549,3.5702016353607178,-0.19554811716079712
-1.2504777908325195,3.4803059101104736,-0.19211922585964203
-1.2122230529785156,3.4523866176605225,-0.19207961857318878
-1.1717543601989746,3.4126529693603516,-0.19128920137882233
-1.1293871402740479,3.3651413917541504,-0.19003058969974518
-1.100598692893982,3.3581533432006836,-0.19092243909835815
-1.0671391487121582,3.3360912799835205,-0.19094125926494598
-1.0305109024047852,3.3025715351104736,-0.1902899146080017
-0.9983818531036377,3.279728651046753,-0.19020597636699677
-0.9709053635597229,3.2716052532196045,-0.19092252850532532
-0.9389289617538452,3.248373031616211,-0.1906539797782898
-0.8999654650688171,3.1985671520233154,-0.1888052374124527
-0.8755941390991211,3.1971540451049805,-0.1897796094417572
-0.8469008207321167,3.1805808544158936,-0.18987101316452026
-0.8225110173225403,3.178840398788452,-0.19074088335037231
-0.7952079772949219,3.1656041145324707,-0.1908664107322693
-0.7654438018798828,3.1407570838928223,-0.19028379023075104
-0.7399744987487793,3.1307551860809326,-0.19058354198932648
-0.7099618315696716,3.101630687713623,-0.1897295117378235
-0.6813631057739258,3.0760297775268555,-0.18893997371196747
-0.6596316695213318,3.0806989669799805,-0.1899835616350174
-0.6348158121109009,3.0699193477630615,-0.19007638096809387
-0.6019754409790039,3.016848087310791,-0.18753553926944733
-0.5835564732551575,3.0362842082977295,-0.1895129382610321
-0.5593277215957642,3.024927854537964,-0.18942025303840637
-0.5352436304092407,3.0133907794952393,-0.18931004405021667
-0.5101971626281738,2.9939522743225098,-0.18870042264461517
-0.4868609607219696,2.981982707977295,-0.18855831027030945
-0.4615255296230316,2.9583382606506348,-0.1876899003982544
-0.44189462065696716,2.9691755771636963,-0.1888454407453537
-0.4166625440120697,2.9412829875946045,-0.18754050135612488
-0.3908558189868927,2.9054505825042725,-0.18572615087032318
-0.3686293661594391,2.8925940990448,-0.18537838757038116
-0.34429702162742615,2.860214948654175,-0.1837795376777649
-0.32473495602607727,2.870316743850708,-0.184773251414299
-0.29676491022109985,2.7988412380218506,-0.1805044561624527
-0.2772064208984375,2.8008155822753906,-0.18097104132175446
-0.2584479749202728,2.810408353805542,-0.18193784356117249
-0.23890960216522217,2.8121063709259033,-0.1824033558368683
-0.21921315789222717,2.817598819732666,-0.1829846054315567
-0.20006728172302246,2.8268187046051025,-0.18379899859428406
-0.17859600484371185,2.8008952140808105,-0.1823354959487915
-0.15867553651332855,2.7942657470703125,-0.18213322758674622
-0.1392686516046524,2.795280694961548,-0.18243707716464996
-0.11976762115955353,2.8039748668670654,-0.18312673270702362
-0.10023782402276993,2.804731607437134,-0.18327631056308746
-0.07978183776140213,2.774181842803955,-0.1813880056142807
-0.060825202614068985,2.790248155593872,-0.18255558609962463
-0.041392624378204346,2.7905941009521484,-0.18270431458950043
-0.02156146429479122,2.7830193042755127,-0.1822325736284256
-0.0021509730722755194,2.7675108909606934,-0.18120433390140533
0.017306940630078316,2.7986419200897217,-0.1832386553287506
0.03632890433073044,2.7672739028930664,-0.18118970096111298
0.05541016161441803,2.7591609954833984,-0.18067198991775513
0.07499440014362335,2.7743022441864014,-0.1815899759531021
0.09483654052019119,2.7815067768096924,-0.18192586302757263
0.11350148916244507,2.76521372795105,-0.1807362586259842
0.13234321773052216,2.756582260131836,-0.18005701899528503
0.15152303874492645,2.755605697631836,-0.17988669872283936
0.17114530503749847,2.7622833251953125,-0.18015216290950775
0.12886513769626617,1.8666118383407593,-0.12156922370195389
0.20857097208499908,2.7441158294677734,-0.17848427593708038
0.22635211050510406,2.727081775665283,-0.17715029418468475
0.24670198559761047,2.740993022918701,-0.17783506214618683
0.2641791105270386,2.7237226963043213,-0.17645291984081268
0.2788885533809662,2.679178476333618,-0.17321841418743134
0.29911455512046814,2.6927151679992676,-0.17375710606575012
0.3187219500541687,2.698345899581909,-0.17378945648670197
0.33750119805336,2.696091651916504,-0.17332053184509277
0.363863468170166,2.7516889572143555,-0.17652970552444458
0.38424548506736755,2.7568304538726807,-0.17638170719146729
0.40327325463294983,2.7541518211364746,-0.17574825882911682
0.4223787486553192,2.7513272762298584,-0.17511160671710968
0.44643521308898926,2.779160261154175,-0.17642900347709656
0.4644230902194977,2.76834774017334,-0.17526313662528992
0.4867998957633972,2.784342050552368,-0.17568987607955933
0.5055924654006958,2.7770791053771973,-0.17464333772659302
0.5313642621040344,2.8080334663391113,-0.17600813508033752
0.5554330348968506,2.8272674083709717,-0.17663201689720154
0.5750387907028198,2.8233981132507324,-0.1757803112268448
0.6008569598197937,2.8499624729156494,-0.17670926451683044
0.6207634210586548,2.8457541465759277,-0.17571832239627838
0.6404944062232971,2.8414390087127686,-0.17473463714122772
0.6646876931190491,2.855959177017212,-0.17491023242473602
0.6844387054443359,2.851353645324707,-0.17387792468070984
0.7114508748054504,2.876948356628418,-0.1745944619178772
0.7334127426147461,2.879546880722046,-0.17389816045761108
0.7622934579849243,2.908402681350708,-0.17478686571121216
0.7886391282081604,2.925680637359619,-0.17496849596500397
0.8109006285667419,2.9277567863464355,-0.17417962849140167
0.8373114466667175,2.9447262287139893,-0.17419904470443726
0.8577783703804016,2.938908576965332,-0.17285452783107758
0.8782287836074829,2.9329416751861572,-0.17150838673114777
0.913494884967804,2.975308895111084,-0.17298178374767303
0.9338876605033875,2.969055414199829,-0.17153184115886688
0.9588496088981628,2.9775688648223877,-0.17089760303497314
0.9820341467857361,2.9783060550689697,-0.16978861391544342
1.0102640390396118,2.993647575378418,-0.16950903832912445
1.0158389806747437,2.942371129989624,-0.16547349095344543
1.0293083190917969,2.917102813720703,-0.1628187894821167
1.053087592124939,2.9211363792419434,-0.1618088036775589
1.0732009410858154,2.913898229598999,-0.16016021370887756
1.1844820976257324,3.147301435470581,-0.17160755395889282
1.2186720371246338,3.171964168548584,-0.17153401672840118
1.2457810640335083,3.1782867908477783,-0.17038977146148682
1.2788972854614258,3.1988489627838135,-0.16999126970767975
1.326202154159546,3.251383066177368,-0.1712159514427185
1.355190396308899,3.2564282417297363,-0.16988573968410492
1.4030265808105469,3.3083901405334473,-0.170887753367424
1.1250789165496826,2.604069709777832,-0.13316002488136292
1.1430577039718628,2.596318483352661,-0.13138435781002045
1.1563256978988647,2.5777015686035156,-0.1290605366230011
1.1757538318634033,2.5732812881469727,-0.12738345563411713
1.1930145025253296,2.565415382385254,-0.12554003298282623
1.2172479629516602,2.5713794231414795,-0.12434159964323044
1.2419127225875854,2.5769906044006348,-0.12309067696332932
1.7869688272476196,3.6443259716033936,-0.17186520993709564
1.822182297706604,3.6531693935394287,-0.1699734777212143
1.9141024351119995,3.773083448410034,-0.17316031455993652
1.954571008682251,3.787590503692627,-0.17136745154857635
1.3818204402923584,2.6337637901306152,-0.11741205304861069
1.3882415294647217,2.603971004486084,-0.11431282013654709
1.3594145774841309,2.5087740421295166,-0.10837797075510025
1.3225021362304688,2.4000399112701416,-0.1019236147403717
1.31380033493042,2.3469135761260986,-0.09794300049543381
1.3080470561981201,2.30094313621521,-0.09431011974811554
1.319932460784912,2.2852210998535156,-0.09188351780176163
1.3358187675476074,2.2760581970214844,-0.08970586955547333
1.3310003280639648,2.233638048171997,-0.0861833468079567
1.3539271354675293,2.2381715774536133,-0.08449798822402954
1.3531129360198975,2.202172040939331,-0.08121486008167267
1.3678572177886963,2.1931278705596924,-0.07893632352352142
1.3695725202560425,2.1644647121429443,-0.07596302032470703
1.3931903839111328,2.1680123805999756,-0.0739731565117836
1.392971158027649,2.1356749534606934,-0.07078041881322861
1.413204312324524,2.136478900909424,-0.06868443638086319
1.416862964630127,2.11065936088562,-0.06562415510416031
1.4311323165893555,2.1010890007019043,-0.06304507702589035
1.435853362083435,2.078986406326294,-0.06005868315696716
1.4546095132827759,2.0755298137664795,-0.05747790262103081
1.472890019416809,2.072263240814209,-0.05485379323363304
1.4724855422973633,2.0438120365142822,-0.051539093255996704
1.4774497747421265,2.0209813117980957,-0.04819810017943382
1.4714691638946533,1.9866595268249512,-0.04462117329239845
2.108340263366699,2.951721429824829,0.10585536807775497
2.087639808654785,2.9662399291992188,0.11018754541873932
2.6003599166870117,3.7556729316711426,0.14424671232700348
2.5904927253723145,3.800144910812378,0.15040338039398193
3.1400575637817383,4.6772236824035645,0.19029617309570312
3.1363589763641357,4.749787330627441,0.19838812947273254
3.106027841567993,4.778747081756592,0.20445819199085236
1.6559796333312988,2.5876121520996094,0.11320379376411438
1.6363312005996704,2.5999505519866943,0.11618692427873611
1.613429307937622,2.6049180030822754,0.11872418969869614
3.0420174598693848,4.988742351531982,0.2316439300775528
2.9838433265686035,4.978057384490967,0.23534035682678223
2.9765913486480713,5.050230026245117,0.2428339421749115
2.937378406524658,5.0638837814331055,0.24732168018817902
2.819793224334717,4.942195892333984,0.24503973126411438
2.7313199043273926,4.870955944061279,0.24500851333141327
2.6823675632476807,4.866692543029785,0.24821588397026062
2.6185896396636963,4.830186367034912,0.24957473576068878
2.5560219287872314,4.797152042388916,0.2509676516056061
2.516805410385132,4.808825969696045,0.2546118497848511
2.434170961380005,4.732809066772461,0.25346094369888306
2.384669780731201,4.7184295654296875,0.2555277645587921
2.336801528930664,4.707301139831543,0.25760650634765625
1.2458935976028442,2.5567402839660645,0.14133089780807495
1.2241244316101074,2.558483600616455,0.14280550181865692
1.2062841653823853,2.5668420791625977,0.14460991322994232
1.1832596063613892,2.5645530223846436,0.1457921713590622
1.1657710075378418,2.5767319202423096,0.14775270223617554
1.1564528942108154,2.6064541339874268,0.1507144570350647
1.1351362466812134,2.6072051525115967,0.1519612967967987
2.063791275024414,4.831757545471191,0.2838500738143921
2.03798246383667,4.8679070472717285,0.2880697548389435
2.01222825050354,4.907954216003418,0.2925381362438202
1.9916046857833862,4.958242893218994,0.29758647084236145
1.9927198886871338,5.062557220458984,0.30589044094085693
2.016298294067383,5.228987693786621,0.31805601716041565
1.997672438621521,5.294358253479004,0.3239561915397644
1.9734975099563599,5.348989486694336,0.32928264141082764
1.9461684226989746,5.392002105712891,0.3338606655597687
1.908513069152832,5.405274868011475,0.3365955650806427
1.892264723777771,5.480993270874023,0.34323230385780334
1.8688874244689941,5.542370319366455,0.34880998730659485
1.8354798555374146,5.5779924392700195,0.35283800959587097
1.9105069637298584,5.9470391273498535,0.37802648544311523
1.8806986808776855,5.997238636016846,0.3830614984035492
1.8536922931671143,6.05849552154541,0.38884472846984863
1.8269001245498657,6.127523422241211,0.39488449692726135
1.8002992868423462,6.200215816497803,0.40121132135391235
1.7608534097671509,6.231631278991699,0.40491732954978943
1.7319303750991821,6.296200275421143,0.4107578694820404
1.7092480659484863,6.387023448944092,0.4183657765388489
1.669758677482605,6.421483993530273,0.422103613615036
0.8205451965332031,3.250560760498047,0.21438679099082947
1.5559393167495728,6.35745096206665,0.4207407534122467
0.7967599034309387,3.35657000541687,0.22288137674331665
1.456749677658081,6.332642078399658,0.4219091236591339
1.3928405046463013,6.2550554275512695,0.41804108023643494
1.3433771133422852,6.24182653427124,0.4182613790035248
1.3013685941696167,6.266525745391846,0.42106184363365173
1.2366855144500732,6.172199726104736,0.41583600640296936
1.195181965827942,6.188195705413818,0.41803663969039917
1.138553500175476,6.123442649841309,0.4147905111312866
1.0891563892364502,6.0966949462890625,0.413865864276886
1.0426195859909058,6.0889153480529785,0.4141959547996521
1.0020203590393066,6.111435413360596,0.41659384965896606
0.9534918665885925,6.079656600952148,0.4152916371822357
0.904816746711731,6.043655872344971,0.4137107729911804
0.8561066389083862,6.003424644470215,0.4117968678474426
0.8030955791473389,5.935962200164795,0.407779723405838
0.767713725566864,5.991654396057129,0.4122299253940582
0.6287171244621277,5.195961952209473,0.35804226994514465
0.5713534951210022,5.01429557800293,0.34607237577438354
0.5492751598358154,5.138218402862549,0.35520344972610474
0.5126301050186157,5.134120941162109,0.35539373755455017
0.1628362089395523,1.7578085660934448,0.12179561704397202
0.15746083855628967,1.8404335975646973,0.12764687836170197
0.14245003461837769,1.8142809867858887,0.1259630024433136
0.13066557049751282,1.8268744945526123,0.126973494887352
0.11794132739305496,1.827726125717163,0.12717510759830475
0.10248666256666183,1.785713791847229,0.12433630973100662
0.0884135514497757,1.7552452087402344,0.12226961553096771
0.07578489929437637,1.7480279207229614,0.12182734161615372
0.06531629711389542,1.7952369451522827,0.1251853108406067
0.0523972287774086,1.7800594568252563,0.12419994920492172
0.0401729941368103,1.7959610223770142,0.12539055943489075
0.028328871354460716,1.8390549421310425,0.12840722501277924
0.015934042632579803,1.885966420173645,0.1316796988248825
0.011272888630628586,7.544124126434326,0.5267502069473267
-0.04133983701467514,7.571295261383057,0.5286864042282104
-0.09450128674507141,7.54353666305542,0.5268136858940125
-0.14657780528068542,7.527112007141113,0.5257565975189209
-0.1979202777147293,7.494776725769043,0.5232271552085876
-0.24850372970104218,7.450407981872559,0.5198678374290466
-0.3004448711872101,7.456319332122803,0.5200435519218445
-0.3539198040962219,7.489109039306641,0.522117018699646
-0.2950667440891266,5.428058624267578,0.3782881498336792
-0.3327692151069641,5.42589807510376,0.3779934346675873
-0.3687340319156647,5.400175094604492,0.3758280575275421
-0.4037194550037384,5.3664469718933105,0.3731277287006378
-0.43990659713745117,5.351909160614014,0.3717818260192871
-0.47147029638290405,5.278838634490967,0.36638620495796204
-0.4453474283218384,4.623797416687012,0.320662260055542
-0.4773688316345215,4.620638370513916,0.32013389468193054
-0.5074388980865479,4.601799964904785,0.3183462917804718
-0.5363649129867554,4.57502555847168,0.3160287141799927
-0.5675108432769775,4.563462734222412,0.31477090716362
-0.5971847176551819,4.54400110244751,0.3129905164241791
-0.6255917549133301,4.5166215896606445,0.3106828033924103
-0.6567869186401367,4.512246131896973,0.30987370014190674
-0.6871434450149536,4.503844738006592,0.3086812496185303
-0.716107189655304,4.483608245849609,0.30668455362319946
-0.7445117235183716,4.463238716125488,0.30470362305641174
-0.7755173444747925,4.458019733428955,0.3037703335285187
-0.8023184537887573,4.429574489593506,0.3012719750404358
-0.8312709927558899,4.416375160217285,0.2996574640274048
-0.8501793146133423,4.353297233581543,0.29461830854415894
-0.7411936521530151,3.6597228050231934,0.2470383197069168
-0.7665407061576843,3.6545636653900146,0.24606288969516754
-0.9324523210525513,4.296777725219727,0.288575679063797
-0.970782458782196,4.328314781188965,0.28995779156684875
-1.0037039518356323,4.336895942687988,0.2896104156970978
-1.0337475538253784,4.329926013946533,0.2882169485092163
-1.057742714881897,4.300136089324951,0.28533557057380676
-1.0856575965881348,4.285223007202148,0.2834475040435791
-1.1094820499420166,4.255040168762207,0.2805693745613098
-1.1365609169006348,4.239913463592529,0.2785949110984802
-1.1678324937820435,4.23960018157959,0.2774849832057953
-1.1890926361083984,4.2054362297058105,0.27419620752334595
-1.2202681303024292,4.204720497131348,0.2730855345726013
-1.2450495958328247,4.1812849044799805,0.2705056965351105
-1.2672045230865479,4.150275230407715,0.2674398124217987
-1.298021674156189,4.149027347564697,0.26612216234207153
-1.330808401107788,4.155119895935059,0.2653007209300995
-1.3591798543930054,4.146041393280029,0.2635055184364319
-1.3830149173736572,4.121818542480469,0.2607438862323761
-1.4065417051315308,4.097477436065674,0.25799763202667236
-1.4342294931411743,4.087991237640381,0.25604158639907837
-1.4542585611343384,4.056188583374023,0.25264972448349
-1.48708176612854,4.061009883880615,0.25156599283218384
-1.5071213245391846,4.028769016265869,0.2481634020805359
-1.5379537343978882,4.025576591491699,0.24656550586223602
-1.5652015209197998,4.015192031860352,0.24441933631896973
-1.5839451551437378,3.982797384262085,0.2408769130706787
-1.6108134984970093,3.9721391201019287,0.238686203956604
-1.641394019126892,3.9681785106658936,0.236859992146492
-1.6689316034317017,3.956810474395752,0.23460209369659424
-1.6985889673233032,3.9528024196624756,0.23265103995800018
-1.71126127243042,3.909184217453003,0.22832417488098145
-1.7376846075057983,3.8976516723632812,0.22589845955371857
-1.7551050186157227,3.864290714263916,0.2221778780221939
-1.7851808071136475,3.859229564666748,0.2200942188501358
-1.8007994890213013,3.8262598514556885,0.21630196273326874
-1.8299778699874878,3.8211917877197266,0.21407045423984528
-1.8459078073501587,3.7876484394073486,0.2102298140525818
-1.8722119331359863,3.774864673614502,0.20753592252731323
-1.8906477689743042,3.7483439445495605,0.2040323168039322
-1.9295334815979004,3.7637383937835693,0.20274542272090912
-1.940292477607727,3.723191499710083,0.19841645658016205
-1.9648692607879639,3.706023693084717,0.19523215293884277
-1.9921954870224,3.695995330810547,0.19244450330734253
-1.7016106843948364,3.107940673828125,0.1598384529352188
-1.7145863771438599,3.0830841064453125,0.15656521916389465
-1.7244971990585327,3.050819158554077,0.15284407138824463
-0.8437569737434387,1.4686373472213745,0.07254520803689957
-0.853320300579071,1.4631664752960205,0.07122272998094559
-0.8669371008872986,1.4642833471298218,0.07020658254623413
-0.8771100640296936,1.458280086517334,0.06878872215747833
-0.886983335018158,1.4523626565933228,0.06736422330141068
-0.8800593018531799,1.4200268983840942,0.06469306349754333
-0.9020630717277527,1.4339652061462402,0.06411028653383255
-0.8952435255050659,1.4013820886611938,0.06141041964292526
-0.8810288906097412,1.3595330715179443,0.058335915207862854
-0.9048250317573547,1.3766981363296509,0.057791903614997864
-0.9773997068405151,1.4644949436187744,0.05997784435749054
-2.372511625289917,3.504503011703491,0.13993018865585327
-1.309991717338562,1.9089654684066772,0.07423298060894012
-1.2630014419555664,1.813391923904419,0.06842289865016937
-1.3373124599456787,1.9285237789154053,-0.06229519471526146
-1.332138180732727,1.9509468078613281,-0.06566749513149261
-1.4292943477630615,2.1255598068237305,-0.07429478317499161
-1.2322099208831787,1.862668752670288,-0.06749177724123001
-1.2806603908538818,1.9662100076675415,-0.07360228151082993
-1.2410566806793213,1.9359211921691895,-0.07471220940351486
-1.2785567045211792,2.027635097503662,-0.08056717365980148
-1.2684645652770996,2.0430591106414795,-0.0833391472697258
-0.8369944095611572,1.4637680053710938,-0.06693192571401596
-2.1102757453918457,3.752347707748413,-0.17493949830532074
-1.6963541507720947,3.0669047832489014,-0.14569413661956787
-2.035642385482788,3.744187355041504,-0.1810431182384491
-2.0283899307250977,3.7966737747192383,-0.18676607310771942
-2.0018181800842285,3.8105669021606445,-0.19048449397087097
-1.9677913188934326,3.810504198074341,-0.19348318874835968
-1.9394158124923706,3.8248353004455566,-0.19718284904956818
-1.875268816947937,3.7651798725128174,-0.19693374633789062
-1.8558486700057983,3.791994571685791,-0.20107898116111755
-1.5145424604415894,3.150792121887207,-0.16932137310504913
-1.5016130208969116,3.182727813720703,-0.1732424944639206
-1.5198147296905518,3.281733274459839,-0.18086360394954681
-1.6111783981323242,3.544407844543457,-0.19772124290466309
-1.4367235898971558,3.220640182495117,-0.18174509704113007
-1.3915717601776123,3.1807355880737305,-0.18148338794708252
-1.4072850942611694,3.2800607681274414,-0.18917891383171082
-1.3843246698379517,3.2896697521209717,-0.19172276556491852
-1.3756039142608643,3.335407018661499,-0.19640742242336273
-1.3398441076278687,3.316157102584839,-0.19714829325675964
-1.313093900680542,3.318307399749756,-0.1991472691297531
-1.2603294849395752,3.2508740425109863,-0.1968769133090973
-1.219669222831726,3.212033271789551,-0.19627827405929565
-1.1799452304840088,3.176828622817993,-0.1957825869321823
-1.1504751443862915,3.16675066947937,-0.1967780441045761
-1.117787480354309,3.14521861076355,-0.197012260556221
-1.085654377937317,3.1233198642730713,-0.19718977808952332
-1.0560872554779053,3.108619213104248,-0.19773422181606293
-1.0249242782592773,3.0901687145233154,-0.19798345863819122
-0.9909741878509521,3.0601470470428467,-0.19744132459163666
-0.9590175151824951,3.033414840698242,-0.19706766307353973
-0.9263331890106201,3.0026636123657227,-0.19641098380088806
-0.8981978893280029,2.986675262451172,-0.1965627372264862
-0.8724967241287231,2.9779322147369385,-0.19718511402606964
-0.843733549118042,2.9577362537384033,-0.19704389572143555
-0.8127034902572632,2.9258716106414795,-0.1960793286561966
-0.7861003875732422,2.908811330795288,-0.19604238867759705
-0.7625018358230591,2.9029042720794678,-0.19665631651878357
-0.7284276485443115,2.855264902114868,-0.19443044066429138
-0.7081578969955444,2.860267400741577,-0.19578170776367188
-0.6781989932060242,2.8233537673950195,-0.19424106180667877
-0.6609975695610046,2.8393523693084717,-0.19624754786491394
-0.6331948041915894,2.8096566200256348,-0.1950381100177765
-0.6150223016738892,2.8215882778167725,-0.19671806693077087
-0.5886105895042419,2.7952823638916016,-0.19573800265789032
-0.5644841194152832,2.7763190269470215,-0.19525110721588135
-0.5427306294441223,2.7686715126037598,-0.19543051719665527
-0.5159745812416077,2.7340688705444336,-0.19366852939128876
-0.49121803045272827,2.7068817615509033,-0.19242089986801147
-0.4746840000152588,2.7255859375,-0.19444884359836578
-0.45053794980049133,2.69801664352417,-0.19316929578781128
-0.4248013198375702,2.6587369441986084,-0.19089975953102112
-0.40723374485969543,2.669314384460449,-0.192194864153862
-0.38741183280944824,2.6643357276916504,-0.192376047372818
-0.36427175998687744,2.6360816955566406,-0.1908842921257019
-0.34493014216423035,2.6307711601257324,-0.1910451203584671
-0.3255428373813629,2.625347375869751,-0.19105282425880432
-0.3039547801017761,2.6004371643066406,-0.1896369755268097
-0.28322523832321167,2.579221248626709,-0.18849052488803864
-0.2644675076007843,2.5733392238616943,-0.18846754729747772
-0.24326570332050323,2.5440821647644043,-0.18674279749393463
-0.22476652264595032,2.537933111190796,-0.1865570843219757
-0.20699235796928406,2.539417028427124,-0.18693120777606964
-0.19043318927288055,2.5563113689422607,-0.18844948709011078
-0.17211942374706268,2.5497729778289795,-0.1882496327161789
-0.1540844589471817,2.550898551940918,-0.1886286437511444
-0.1362954080104828,2.551894426345825,-0.18885189294815063
-0.11795185506343842,2.541093349456787,-0.18819555640220642
