X,Y,Z
0.398155152797699,2.1506314277648926,-0.18882325291633606
0.4159844219684601,2.163191795349121,-0.18921613693237305
0.43283140659332275,2.167907476425171,-0.1889081746339798
0.4526519477367401,2.187793254852295,-0.18992382287979126
0.4611889123916626,2.1542720794677734,-0.1861753761768341
0.4717910885810852,2.132140636444092,-0.18344026803970337
0.5125902891159058,2.2427566051483154,-0.19209136068820953
0.5356073379516602,2.2694833278656006,-0.1934933066368103
0.5550171732902527,2.2809479236602783,-0.1935591697692871
0.5649775862693787,2.2545406818389893,-0.19030901789665222
0.5804167985916138,2.2507266998291016,-0.18898633122444153
0.6020607352256775,2.269324541091919,-0.18952883780002594
0.6181414127349854,2.2651124000549316,-0.18814626336097717
0.6453313827514648,2.302151918411255,-0.19012239575386047
0.6632382273674011,2.3052878379821777,-0.18921545147895813
0.6856833696365356,2.3232100009918213,-0.18951180577278137
0.704119086265564,2.325956344604492,-0.18854761123657227
0.7275273203849792,2.343350648880005,-0.18874415755271912
0.7471036314964294,2.3495843410491943,-0.18793301284313202
0.7776251435279846,2.3890035152435303,-0.1897338330745697
0.7940996885299683,2.3837192058563232,-0.18795549869537354
0.8182297945022583,2.400393009185791,-0.18789249658584595
0.8412395715713501,2.413208484649658,-0.18747642636299133
0.8631780743598938,2.4221527576446533,-0.1866258680820465
0.8903104066848755,2.445659875869751,-0.18690603971481323
0.9127698540687561,2.4541568756103516,-0.18598371744155884
0.9506303668022156,2.5025217533111572,-0.18804560601711273
0.9733172655105591,2.510673999786377,-0.18695251643657684
0.9935051202774048,2.5113048553466797,-0.18523845076560974
1.0414419174194336,2.5804505348205566,-0.18853063881397247
1.0653729438781738,2.5877015590667725,-0.18722453713417053
1.096737265586853,2.612826108932495,-0.1871378868818283
1.1236112117767334,2.627017021179199,-0.1861705332994461
1.1418241262435913,2.6193337440490723,-0.18359626829624176
1.147417664527893,2.582979202270508,-0.17903272807598114
1.1749345064163208,2.596454620361328,-0.17791540920734406
1.1809935569763184,2.5638678073883057,-0.17357003688812256
1.2065629959106445,2.5736613273620605,-0.17210307717323303
1.2348906993865967,2.586327075958252,-0.1706942319869995
1.34829843044281,2.7742695808410645,-0.18070346117019653
1.4429086446762085,2.919187545776367,-0.18753720819950104
1.4730231761932373,2.930528163909912,-0.185633584856987
1.5236061811447144,2.9794325828552246,-0.18594840168952942
1.477609395980835,2.840989828109741,-0.17463473975658417
1.4348552227020264,2.7138664722442627,-0.16413478553295135
1.4457019567489624,2.6905980110168457,-0.16007407009601593
1.4494590759277344,2.6532645225524902,-0.15513081848621368
1.463842511177063,2.636627674102783,-0.15142016112804413
1.4525487422943115,2.5760750770568848,-0.1452237069606781
1.4295920133590698,2.495065450668335,-0.13789646327495575
1.4391101598739624,2.471726179122925,-0.13383254408836365
1.4755178689956665,2.495786190032959,-0.1322784274816513
1.4758855104446411,2.459406852722168,-0.1275072991847992
1.450265884399414,2.379304885864258,-0.12044291198253632
1.394895315170288,2.253181219100952,-0.11121521890163422
1.3826173543930054,2.2012014389038086,-0.10587622970342636
1.384960651397705,2.172161817550659,-0.10161612927913666
1.404287338256836,2.169180393218994,-0.0985197126865387
1.3990612030029297,2.1308000087738037,-0.09383316338062286
1.4200869798660278,2.1310863494873047,-0.0907244086265564
1.4283241033554077,2.111600399017334,-0.08671486377716064
1.4374396800994873,2.0960888862609863,-0.08287829160690308
1.4515074491500854,2.086516857147217,-0.07913710176944733
1.4432610273361206,2.044762372970581,-0.07410159707069397
1.4655462503433228,2.048222780227661,-0.07067769765853882
1.4612655639648438,2.0129401683807373,-0.06571368128061295
1.4581341743469238,1.9815012216567993,-0.060916606336832047
2.105963945388794,2.9703919887542725,0.15586860477924347
2.0788676738739014,2.9795892238616943,0.1614939421415329
2.602193832397461,3.7892231941223145,0.21154604852199554
3.167436361312866,4.683217525482178,0.26867976784706116
3.137681484222412,4.716786861419678,0.2775614857673645
3.1159322261810303,4.758718013763428,0.2866274118423462
3.107887029647827,4.819311141967773,0.2966356873512268
1.635797142982483,2.57932186126709,0.16205251216888428
1.6163921356201172,2.5912749767303467,0.1660330891609192
1.5818945169448853,2.575692892074585,0.16800880432128906
2.990614652633667,4.950437068939209,0.3284585177898407
2.9770636558532715,5.012639045715332,0.338112473487854
2.955526351928711,5.056567192077637,0.3462420403957367
2.8609619140625,4.9757232666015625,0.3458012640476227
2.7794976234436035,4.918502330780029,0.3465493619441986
2.7127792835235596,4.883950710296631,0.348725825548172
2.658007860183716,4.864757537841797,0.3516831398010254
2.597607374191284,4.835005760192871,0.3537728190422058
2.54093074798584,4.816198825836182,0.3564929664134979
2.4642386436462402,4.754744529724121,0.35585758090019226
2.4132320880889893,4.736762046813965,0.3582148849964142
2.357156276702881,4.707950115203857,0.35969021916389465
2.3050832748413086,4.689918518066406,0.36172693967819214
1.2305009365081787,2.5516858100891113,0.19869482517242432
1.2092697620391846,2.5530073642730713,0.2005530297756195
1.1897833347320557,2.557661294937134,0.20266962051391602
1.1760846376419067,2.576658010482788,0.20583941042423248
1.1523839235305786,2.574361801147461,0.20727819204330444
1.147956371307373,2.6144938468933105,0.21212419867515564
2.069255828857422,4.804728984832764,0.3927581310272217
2.0476584434509277,4.847487926483154,0.39913585782051086
2.0227060317993164,4.8871564865112305,0.4050580561161041
2.004598617553711,4.94475793838501,0.4125252962112427
1.9638371467590332,4.944014549255371,0.4150821268558502
2.403008460998535,6.176965236663818,0.521896243095398
2.350980281829834,6.171573162078857,0.5245921015739441
2.2883801460266113,6.140699863433838,0.524850606918335
2.243739128112793,6.15678596496582,0.5291245579719543
1.9192790985107422,5.383592128753662,0.46514227986335754
2.124532461166382,6.095235824584961,0.5294556021690369
2.0640716552734375,6.058080196380615,0.5289137363433838
1.9847338199615479,5.96535587310791,0.5231748819351196
1.938044548034668,5.968095779418945,0.5257918834686279
1.9017161130905151,5.999879360198975,0.530948281288147
1.887860655784607,6.105866432189941,0.5427511930465698
1.8845850229263306,6.248982906341553,0.5579280853271484
1.8287087678909302,6.224719524383545,0.5578245520591736
1.7860552072525024,6.244898796081543,0.5617237687110901
1.758294701576233,6.317139148712158,0.570334792137146
1.7335052490234375,6.400333404541016,0.5799665451049805
1.6969869136810303,6.446038246154785,0.5863003134727478
1.6406875848770142,6.416155815124512,0.5854926705360413
1.585439920425415,6.3896942138671875,0.5848273038864136
0.8016952276229858,3.332709312438965,0.3059578239917755
0.7818942070007324,3.353262424468994,0.30876821279525757
1.420296549797058,6.29212760925293,0.581156849861145
1.3631080389022827,6.240822792053223,0.578156590461731
1.3131183385849,6.2234978675842285,0.5779017806053162
1.2672615051269531,6.224852085113525,0.5794051885604858
1.2089060544967651,6.160940647125244,0.5748390555381775
1.1565736532211304,6.123278617858887,0.5727241039276123
1.1098016500473022,6.108011245727539,0.5726903080940247
1.0643197298049927,6.100122451782227,0.573217511177063
1.0211080312728882,6.107344627380371,0.5749147534370422
0.9760670065879822,6.102729320526123,0.5755229592323303
0.9288843870162964,6.086321830749512,0.5750544667243958
0.2374514490365982,1.6318455934524536,0.15447014570236206
0.22927671670913696,1.6565325260162354,0.1571071743965149
0.22171549499034882,1.6889090538024902,0.1604219526052475
0.20883703231811523,1.6826802492141724,0.1600276529788971
0.19607482850551605,1.6763523817062378,0.1596297174692154
0.1790485978126526,1.6312857866287231,0.15554620325565338
0.1708841472864151,1.6634072065353394,0.15882357954978943
0.1500549465417862,1.5677489042282104,0.1498991996049881
0.1384003609418869,1.5609904527664185,0.14939458668231964
0.12743216753005981,1.5619049072265625,0.14959584176540375
0.12033507972955704,1.617043137550354,0.15500405430793762
0.11455030739307404,1.699296236038208,0.16302712261676788
0.1031869575381279,1.7077943086624146,0.16398930549621582
0.41257160902023315,7.719085693359375,0.7419159412384033
0.3617965877056122,7.787749290466309,0.7488527297973633
0.30429038405418396,7.735686302185059,0.744070291519165
0.24938784539699554,7.710376262664795,0.7418913245201111
0.1951131820678711,7.688561916351318,0.7400820851325989
0.14072485268115997,7.643040657043457,0.7360240817070007
0.08738044649362564,7.632129669189453,0.7353320717811584
0.03318749740719795,7.617002964019775,0.7338482141494751
-0.01966165564954281,7.562626361846924,0.7284740805625916
-0.07227769494056702,7.554542064666748,0.7275954484939575
-0.12425324320793152,7.5188798904418945,0.7240962386131287
-0.17603537440299988,7.502300262451172,0.7224704623222351
-0.22684448957443237,7.458157539367676,0.7182250022888184
-0.2788052558898926,7.440881729125977,0.7162111401557922
-0.3315357565879822,7.466026306152344,0.7181797027587891
-0.275703489780426,5.370542526245117,0.5163088440895081
-0.3157176673412323,5.415125370025635,0.520315945148468
-0.3523118495941162,5.3973259925842285,0.5183525085449219
-0.3899098038673401,5.386989116668701,0.5171278715133667
-0.4258963167667389,5.368732929229736,0.5148871541023254
-0.4612466096878052,5.346378326416016,0.5121799111366272
-0.43061554431915283,4.619115352630615,0.44204235076904297
-0.46149539947509766,4.604478359222412,0.4401947855949402
-0.49322688579559326,4.5934367179870605,0.43870583176612854
-0.5259753465652466,4.597701072692871,0.4387083649635315
-0.5557790994644165,4.578617095947266,0.43626075983047485
-0.5842732191085815,4.551643371582031,0.43301188945770264
-0.6134661436080933,4.532203197479248,0.4305057227611542
-0.6421090364456177,4.504765033721924,0.4272500276565552
-0.6716628074645996,4.488755226135254,0.42511337995529175
-0.7028319835662842,4.484079360961914,0.4240722060203552
-0.7323682904243469,4.471590995788574,0.42204585671424866
-0.7603380680084229,4.451264381408691,0.41925475001335144
-0.7907882332801819,4.44608211517334,0.4179127812385559
-0.8150647282600403,4.402272701263428,0.4129413664340973
-0.8419952392578125,4.377524375915527,0.4098012447357178
-0.7300681471824646,3.6583316326141357,0.3418048024177551
-0.7541943788528442,3.6495890617370605,0.3400861620903015
-0.77989661693573,3.6482884883880615,0.33907485008239746
-0.9605863094329834,4.345656871795654,0.4028247892856598
-0.9838536381721497,4.308682918548584,0.3983585834503174
-1.017362356185913,4.317037105560303,0.398106187582016
-1.0397958755493164,4.27982234954834,0.39360153675079346
-1.0726301670074463,4.287932872772217,0.39306414127349854
-1.1022406816482544,4.28059720993042,0.3911028504371643
-1.1275681257247925,4.258073329925537,0.38778769969940186
-1.1510045528411865,4.227783679962158,0.3837771713733673
-1.1845570802688599,4.234848976135254,0.3831784129142761
-1.2091777324676514,4.211883068084717,0.37971314787864685
-1.230421781539917,4.177535533905029,0.3751285672187805
-1.2609049081802368,4.176763534545898,0.3736075460910797
-1.289801836013794,4.1681318283081055,0.3713639974594116
-1.318757176399231,4.159261226654053,0.36911121010780334
-1.3403491973876953,4.1280083656311035,0.3648580312728882
-1.3686410188674927,4.1189374923706055,0.36232903599739075
-1.401354432106018,4.1245903968811035,0.3611380159854889
-1.4218829870224,4.09306001663208,0.3566836416721344
-1.447777509689331,4.075933456420898,0.353482186794281
-1.4735020399093628,4.058643341064453,0.3502897620201111
-1.4981883764266968,4.0415263175964355,0.34693554043769836
-1.5340921878814697,4.0532660484313965,0.3459864854812622
-1.5530685186386108,4.02123498916626,0.3413395285606384
-1.5781317949295044,4.0033369064331055,0.3378700911998749
-1.6030210256576538,3.9852821826934814,0.33441072702407837
-1.635839581489563,3.989016532897949,0.3326354920864105
-1.6658958196640015,3.985260486602783,0.3301287591457367
-1.686514973640442,3.9599032402038574,0.3258761167526245
-1.7048304080963135,3.926847457885742,0.32093843817710876
-1.7321895360946655,3.915114402770996,0.31777387857437134
-1.7505298852920532,3.8858611583709717,0.3130429983139038
-1.7768211364746094,3.874182939529419,0.3096504807472229
-1.7864904403686523,3.82704758644104,0.3034663498401642
-1.8165292739868164,3.8217854499816895,0.3005538880825043
-1.8431503772735596,3.809290885925293,0.2970776855945587
-1.864944338798523,3.790264844894409,0.2929275929927826
-1.8904871940612793,3.777872085571289,0.28926196694374084
-1.9234793186187744,3.77896785736084,0.28658315539360046
-1.9318329095840454,3.731154203414917,0.2801874876022339
-1.964211106300354,3.732125997543335,0.27738264203071594
-1.984987735748291,3.712568759918213,0.27296432852745056
-2.0172626972198486,3.7131786346435547,0.2699730694293976
-1.7118817567825317,3.098426580429077,0.22257040441036224
-1.7255327701568604,3.0732243061065674,0.21807077527046204
-0.8419423699378967,1.4768434762954712,0.10344694554805756
-0.8439284563064575,1.457836627960205,0.10076369345188141
-0.8698696494102478,1.4789427518844604,0.10078059881925583
-0.8800954222679138,1.4730085134506226,0.09889265149831772
-0.877471387386322,1.4474014043807983,0.09569494426250458
-0.8788996338844299,1.428373098373413,0.09292902052402496
-0.8847346901893616,1.415703296661377,0.09052391350269318
-0.8983687162399292,1.4164645671844482,0.0889495238661766
-0.8865218162536621,1.3778691291809082,0.08488767594099045
-0.9087741374969482,1.3914673328399658,0.08397839218378067
-0.9054727554321289,1.3657464981079102,0.08065950125455856
-2.3964827060699463,3.5652811527252197,0.20581775903701782
-1.52581787109375,2.204301357269287,0.12087398022413254
-1.2483429908752441,1.7795110940933228,0.09488765150308609
-1.6010959148406982,2.2913453578948975,-0.09347695857286453
-1.3459161520004272,1.9550400972366333,-0.08338169753551483
-1.2434775829315186,1.8357386589050293,-0.08172104507684708
-1.3468610048294067,2.020052194595337,-0.09347052872180939
-1.1977014541625977,1.82371985912323,-0.08740008622407913
-1.1267496347427368,1.744009256362915,-0.08643094450235367
-1.170680046081543,1.84085214138031,-0.09409166872501373
-1.184377908706665,1.8920261859893799,-0.09958582371473312
-1.1354411840438843,1.8441543579101562,-0.09978046268224716
-2.0859968662261963,3.5571882724761963,-0.20710790157318115
-0.8911963105201721,1.5708787441253662,-0.0955013781785965
-1.7331141233444214,3.106541872024536,-0.19266001880168915
-1.710216999053955,3.118922472000122,-0.19719569385051727
-1.6974605321884155,3.1477787494659424,-0.2026437222957611
-1.6548831462860107,3.121614933013916,-0.20456300675868988
-1.6283891201019287,3.1264469623565674,-0.20833846926689148
-1.5790698528289795,3.0858066082000732,-0.20899274945259094
-1.515426516532898,3.0128979682922363,-0.2072107493877411
-1.4750466346740723,2.9848451614379883,-0.20836415886878967
-1.4392951726913452,2.9673573970794678,-0.21018926799297333
-1.389553427696228,2.9174818992614746,-0.20953822135925293
-1.344338297843933,2.8739190101623535,-0.20917971432209015
-1.294604778289795,2.819397449493408,-0.20786896347999573
-1.2629510164260864,2.803581953048706,-0.20928320288658142
-1.2271873950958252,2.776627779006958,-0.20978081226348877
-1.1872811317443848,2.738560914993286,-0.20936794579029083
-1.1464954614639282,2.6964776515960693,-0.20847861468791962
-1.107559323310852,2.6576900482177734,-0.20770329236984253
-1.0768202543258667,2.6364376544952393,-0.20822101831436157
-1.04535973072052,2.61112642288208,-0.20833535492420197
-1.0181045532226562,2.5965702533721924,-0.20927366614341736
-0.9785031080245972,2.549060583114624,-0.2073759287595749
-0.9438412189483643,2.512028694152832,-0.20625676214694977
-0.9182199239730835,2.4964287281036377,-0.20681613683700562
-0.8915618658065796,2.4769253730773926,-0.20702515542507172
-0.8606167435646057,2.446417808532715,-0.20617210865020752
-0.8304557800292969,2.415499210357666,-0.20521293580532074
-0.8160156607627869,2.4284536838531494,-0.20793698728084564
-0.7881518602371216,2.4006083011627197,-0.20715326070785522
-0.7617214918136597,2.376270294189453,-0.20655858516693115
-0.7375489473342896,2.359255313873291,-0.2065453976392746
-0.7163243889808655,2.349349021911621,-0.2071082592010498
-0.6876614689826965,2.313103437423706,-0.20531263947486877
-0.6627687215805054,2.2878000736236572,-0.2044435441493988
-0.6422281861305237,2.277333974838257,-0.20473897457122803
-0.6187998652458191,2.255429744720459,-0.20399272441864014
-0.602699339389801,2.259639263153076,-0.20560725033283234
-0.5791059136390686,2.233513593673706,-0.20442891120910645
-0.561491847038269,2.229846954345703,-0.20521840453147888
-0.5401632189750671,2.2109575271606445,-0.20452183485031128
-0.5164582133293152,2.1805202960968018,-0.20273920893669128
-0.49578458070755005,2.161245584487915,-0.20198006927967072
-0.48240333795547485,2.172116994857788,-0.20402412116527557
-0.4638502597808838,2.160130739212036,-0.20378811657428741
-0.44703537225723267,2.1556193828582764,-0.20422883331775665
-0.4265632629394531,2.1318960189819336,-0.20284150540828705
-0.39452868700027466,2.0469188690185547,-0.1955975741147995
-0.3809622824192047,2.053340435028076,-0.19703444838523865
-0.36925458908081055,2.0711917877197266,-0.1994331330060959
-0.3572971224784851,2.088980197906494,-0.2018466740846634
-0.34144094586372375,2.0836598873138428,-0.20203474164009094
-0.32424601912498474,2.0705718994140625,-0.20148280262947083
-0.3069038987159729,2.053473949432373,-0.20047515630722046
-0.29248911142349243,2.055504083633423,-0.20121662318706512
-0.27491942048072815,2.034317970275879,-0.19968977570533752
-0.2627197504043579,2.051536798477173,-0.20193584263324738
-0.24750906229019165,2.0455236434936523,-0.20190630853176117
-0.23033735156059265,2.02398943901062,-0.20027309656143188
-0.21536006033420563,2.0177652835845947,-0.20004795491695404
-0.2004639059305191,2.0114328861236572,-0.19981934130191803
-0.18790403008460999,2.028208017349243,-0.201895073056221
-0.16813869774341583,1.963573694229126,-0.19586685299873352
-0.15299274027347565,1.9491736888885498,-0.19474677741527557
-0.14353065192699432,2.0083160400390625,-0.20090843737125397
-0.124249666929245,1.927778959274292,-0.19310325384140015
-0.11131066828966141,1.9363219738006592,-0.19421935081481934
-0.09785017371177673,1.9370145797729492,-0.19455879926681519
-0.08615155518054962,1.9842326641082764,-0.1994725912809372
-0.07090669125318527,1.945926547050476,-0.19573839008808136
-0.05642889440059662,1.9152768850326538,-0.19277949631214142
-0.04398826137185097,1.9544621706008911,-0.1968594640493393
-0.030642904341220856,1.9702479839324951,-0.19859592616558075
-0.01662050001323223,1.962639331817627,-0.19784633815288544
-0.0028986006509512663,1.9160703420639038,-0.1931317299604416
0.010572110302746296,1.9393643140792847,-0.1954687088727951
0.023675184696912766,1.908155083656311,-0.19232167303562164
0.03741471841931343,1.9312602281570435,-0.19465836882591248
0.05185767263174057,1.9698216915130615,-0.1984182894229889
0.06449884176254272,1.9305801391601562,-0.19431622326374054
0.07728415727615356,1.9145698547363281,-0.19256874918937683
0.09058511257171631,1.914005160331726,-0.19238516688346863
0.10389839112758636,1.9133471250534058,-0.1922013759613037
0.11668173968791962,1.9048562049865723,-0.19108173251152039
0.13222560286521912,1.935045838356018,-0.19382408261299133
0.14391201734542847,1.9108612537384033,-0.1911323368549347
0.1616622656583786,1.9640854597091675,-0.1961880922317505
0.17739325761795044,1.9861810207366943,-0.19813351333141327
0.1836867332458496,1.9075732231140137,-0.1898868829011917
0.19513089954853058,1.8869507312774658,-0.18743056058883667
0.20651337504386902,1.8701472282409668,-0.1853763908147812
0.22042500972747803,1.876438856124878,-0.18562111258506775
0.23154500126838684,1.8594822883605957,-0.18356354534626007
0.24996906518936157,1.9003046751022339,-0.18705986440181732
0.26227080821990967,1.8908652067184448,-0.1855981945991516
0.2765042185783386,1.8967629671096802,-0.18565870821475983
0.2920556664466858,1.910233974456787,-0.18646135926246643
0.3053104281425476,1.9082320928573608,-0.18572506308555603
0.3197444975376129,1.9138354063034058,-0.18560855090618134
0.33828985691070557,1.9423139095306396,-0.1877053678035736
0.3534085750579834,1.9476120471954346,-0.18754199147224426
0.3684057295322418,1.9528323411941528,-0.18738548457622528
0.39466455578804016,2.0152018070220947,-0.19263404607772827
0.4147290289402008,2.0430312156677246,-0.19445377588272095
0.43119534850120544,2.0516490936279297,-0.1944369673728943
0.4440760314464569,2.041046380996704,-0.19258251786231995
0.46683305501937866,2.0759568214416504,-0.19503355026245117
0.4776664972305298,2.0576343536376953,-0.19239026308059692
0.4972356855869293,2.0771214962005615,-0.1932273954153061
0.5115558505058289,2.073761463165283,-0.19193395972251892
0.533912181854248,2.100372552871704,-0.19338259100914001
0.5554243922233582,2.1230742931365967,-0.1944713294506073
0.5679786205291748,2.1118266582489014,-0.19231678545475006
0.5907412171363831,2.1380231380462646,-0.1935509592294693
0.6140117049217224,2.1639750003814697,-0.19473028182983398
0.6293470859527588,2.1597063541412354,-0.193153515458107
0.6543635725975037,2.1889865398406982,-0.1945556104183197
0.6693384051322937,2.1846060752868652,-0.19284175336360931
0.6889464855194092,2.1949779987335205,-0.19243015348911285
0.7137386202812195,2.2199318408966064,-0.19325745105743408
0.7343421578407288,2.2297604084014893,-0.19272381067276
0.7558834552764893,2.2432644367218018,-0.19243215024471283
0.778796374797821,2.260303020477295,-0.1923782378435135
0.8021003603935242,2.2770912647247314,-0.19227033853530884
0.8311803936958313,2.308241367340088,-0.1933218091726303
0.8485718965530396,2.306227684020996,-0.19155828654766083
0.8782535195350647,2.3369250297546387,-0.1923501342535019
0.9080953598022461,2.3674371242523193,-0.19311416149139404
0.9316727519035339,2.379373073577881,-0.19229057431221008
0.9598142504692078,2.40194034576416,-0.19229793548583984
0.9850305914878845,2.4171626567840576,-0.19159762561321259
1.0211225748062134,2.4572765827178955,-0.19276519119739532
1.0441343784332275,2.4647216796875,-0.1913290172815323
1.070568323135376,2.4790432453155518,-0.1903846710920334
1.1236788034439087,2.5538675785064697,-0.19394837319850922
1.137740969657898,2.5393078327178955,-0.1906089186668396
1.1731796264648438,2.570547342300415,-0.19062349200248718
1.19437575340271,2.569582939147949,-0.18821007013320923
1.2120351791381836,2.561516523361206,-0.18524549901485443
1.252899408340454,2.6027016639709473,-0.1857384741306305
1.3357404470443726,2.7273786067962646,-0.1919916272163391
1.3724892139434814,2.7529456615448,-0.19099445641040802
1.4284487962722778,2.81669020652771,-0.19256550073623657
1.466976284980774,2.845404624938965,-0.19157841801643372
1.4356129169464111,2.73889422416687,-0.18151713907718658
1.4400089979171753,2.70151948928833,-0.17610551416873932
1.415681004524231,2.6129932403564453,-0.16744716465473175
1.3938664197921753,2.5318093299865723,-0.1593446433544159
1.4226051568984985,2.5428450107574463,-0.15708254277706146
1.4210621118545532,2.4991519451141357,-0.15140362083911896
1.4221729040145874,2.462761163711548,-0.1462097316980362
1.4424127340316772,2.4602205753326416,-0.14304715394973755
1.451858639717102,2.4367284774780273,-0.13846702873706818
1.4847124814987183,2.453620433807373,-0.13621163368225098
1.484512209892273,2.417391538619995,-0.13097703456878662
1.4616713523864746,2.344541549682617,-0.1237870380282402
1.3986306190490723,2.2092132568359375,-0.11348921805620193
1.3879474401474,2.160667657852173,-0.10781168192625046
1.406596302986145,2.158079147338867,-0.10445117205381393
1.4022690057754517,2.119077444076538,-0.0992131382226944
1.4204990863800049,2.1164846420288086,-0.0957072377204895
1.4345148801803589,2.1071836948394775,-0.09180723130702972
1.4405517578125,2.0842843055725098,-0.08710001409053802
1.449438214302063,2.068753480911255,-0.0827888622879982
1.458749771118164,2.0527920722961426,-0.07830830663442612
1.4589847326278687,2.023977279663086,-0.0732342079281807
1.4625217914581299,2.002265453338623,-0.06847790628671646
1.4764487743377686,1.9921754598617554,-0.06372927874326706
2.111330986022949,2.9562599658966064,0.16891153156757355
2.0840206146240234,2.96565580368042,0.1752275824546814
2.4629311561584473,3.55719256401062,0.21643760800361633
2.389551877975464,3.507761001586914,0.2194419652223587
2.3720927238464355,3.537961483001709,0.22707340121269226
2.3558263778686523,3.5671074390411377,0.23436275124549866
3.1012277603149414,4.7754621505737305,0.32091155648231506
1.6483418941497803,2.579629898071289,0.17698723077774048
1.6385291814804077,2.6040306091308594,0.1821054071187973
1.5944958925247192,2.5760624408721924,0.18346011638641357
3.0140178203582764,4.952434539794922,0.3589598834514618
2.9946467876434326,5.000020503997803,0.3683193624019623
2.9628467559814453,5.027442455291748,0.3760920464992523
2.905359983444214,5.015347480773926,0.38070565462112427
2.820350170135498,4.951281547546387,0.3811124861240387
2.7494421005249023,4.905792236328125,0.3825814425945282
2.6908340454101562,4.884355068206787,0.38580232858657837
2.6227636337280273,4.84555721282959,0.38735896348953247
2.563833236694336,4.819218158721924,0.3896954357624054
2.5156092643737793,4.808955669403076,0.39313778281211853
2.4400811195373535,4.746728897094727,0.39215734601020813
2.377873659133911,4.7123823165893555,0.3933049440383911
2.3261685371398926,4.694246768951416,0.3956194818019867
1.2276314496994019,2.5213255882263184,0.21446092426776886
1.218267560005188,2.547238349914551,0.21863611042499542
1.1994692087173462,2.5559215545654297,0.2212243527173996
1.1806291341781616,2.5644543170928955,0.22380957007408142
1.1622536182403564,2.5726146697998047,0.2263226956129074
1.1537344455718994,2.6018054485321045,0.2306685745716095
1.124184489250183,2.5848045349121094,0.23083706200122833
2.0441360473632812,4.795140743255615,0.4312085211277008
2.481981039047241,5.940886974334717,0.5379088521003723
2.464812755584717,6.019128799438477,0.5486367344856262
2.450235605239868,6.104369163513184,0.5600503087043762
2.423257350921631,6.164885997772217,0.5689679980278015
2.396467447280884,6.229135990142822,0.5782222151756287
2.365316390991211,6.282177925109863,0.5864697694778442
2.3326892852783203,6.3312506675720215,0.5943760275840759
1.942634105682373,5.387948036193848,0.5086098909378052
2.2698748111724854,6.4398674964904785,0.6109268665313721
2.240893602371216,6.507218837738037,0.6202914118766785
2.20645809173584,6.55960750579834,0.6282793283462524
2.1755776405334473,6.622739315032959,0.6373320817947388
2.142399787902832,6.678073406219482,0.6456510424613953
2.08443284034729,6.65932035446167,0.6465505957603455
2.0205581188201904,6.621686935424805,0.6454141139984131
1.9562249183654785,6.579756736755371,0.6438511610031128
1.8993231058120728,6.555558681488037,0.643949568271637
1.8411134481430054,6.527336597442627,0.6436920166015625
1.782914638519287,6.4947381019592285,0.6428600549697876
1.723289132118225,6.458186626434326,0.6412749290466309
1.6662306785583496,6.428645610809326,0.6403905153274536
0.8227110505104065,3.268989086151123,0.32668107748031616
1.553856611251831,6.364084720611572,0.6380398869514465
0.7946295738220215,3.355562925338745,0.3374937176704407
1.4426488876342773,6.289950847625732,0.6343491077423096
1.3877217769622803,6.2542619705200195,0.6323285102844238
1.339896559715271,6.248521327972412,0.6333524584770203
1.2867701053619385,6.215761184692383,0.6316526532173157
1.2327622175216675,6.170962333679199,0.6287035942077637
1.1802380084991455,6.129523277282715,0.6260982751846313
1.1367840766906738,6.137524604797363,0.6281190514564514
1.0850321054458618,6.099313735961914,0.6254276037216187
1.0326071977615356,6.0569539070129395,0.6223408579826355
0.9972351789474487,6.105996131896973,0.6286354064941406
0.9468996524810791,6.062675476074219,0.625447690486908
0.254351407289505,1.7065306901931763,0.1763942539691925
0.23137551546096802,1.6312936544418335,0.16885122656822205
0.2206616848707199,1.6405768394470215,0.1700599640607834
0.2120635211467743,1.6651737689971924,0.17286360263824463
0.19584493339061737,1.6279875040054321,0.16925637423992157
0.18452632427215576,1.6292681694030762,0.1696506291627884
0.17397084832191467,1.6382064819335938,0.17081575095653534
0.16476580500602722,1.6625577211380005,0.1735060214996338
0.15288199484348297,1.6636635065078735,0.17378397285938263
0.13565129041671753,1.5988519191741943,0.16717490553855896
0.12512852251529694,1.6074765920639038,0.16824564337730408
0.29181617498397827,4.1195268630981445,0.4316220283508301
0.2655731439590454,4.160171985626221,0.4362613260746002
0.2392181158065796,4.220102787017822,0.44272854924201965
0.385924369096756,7.772004127502441,0.8157274723052979
0.33035317063331604,7.743387699127197,0.8131311535835266
0.2755013704299927,7.718252182006836,0.8109354972839355
0.2212081104516983,7.696611404418945,0.8091424107551575
0.16613882780075073,7.666859149932861,0.8063636422157288
0.11213856935501099,7.625095844268799,0.8019223213195801
0.0589383989572525,7.610147476196289,0.8003402948379517
0.005939599126577377,7.579289436340332,0.7971236705780029
-0.046594928950071335,7.555833339691162,0.7947238087654114
-0.09991218149662018,7.543655872344971,0.7935504913330078
-0.15184803307056427,7.519484519958496,0.7910141348838806
-0.2029629498720169,7.479470729827881,0.7864089608192444
-0.25432389974594116,7.462406158447266,0.7842572927474976
-0.3046616017818451,7.425581932067871,0.7800690531730652
-0.35867545008659363,7.473785877227783,0.7848498821258545
-0.2984538972377777,5.419083595275879,0.5688973665237427
-0.33649083971977234,5.424687385559082,0.5692616701126099
-0.37236487865448,5.399059772491455,0.5660354495048523
-0.4072563946247101,5.365452766418457,0.5620055794715881
-0.4430410861968994,5.347104549407959,0.5596044063568115
-0.4704322814941406,5.227829933166504,0.5466681718826294
-0.4482514262199402,4.6212382316589355,0.4828670620918274
-0.47911953926086426,4.606497287750244,0.48092886805534363
-0.5082461833953857,4.580026626586914,0.4774829149246216
-0.5406721234321594,4.5842437744140625,0.47726118564605713
-0.5699419975280762,4.55731201171875,0.47380900382995605
-0.6005670428276062,4.545645713806152,0.47197800874710083
-0.6300331354141235,4.5260701179504395,0.46935075521469116
-0.6591893434524536,4.506319046020508,0.4666784405708313
-0.68833327293396,4.490305423736572,0.4641314446926117
-0.719685435295105,4.485529899597168,0.4627548158168793
-0.7479314804077148,4.465285301208496,0.45982152223587036
-0.776252031326294,4.444809913635254,0.45688340067863464
-0.8001532554626465,4.401212215423584,0.45160049200057983
-0.827684760093689,4.380443096160889,0.4486118257045746
-0.8552968502044678,4.363424777984619,0.445780485868454
-0.7454513311386108,3.668117046356201,0.373830109834671
-0.7673984169960022,3.6478443145751953,0.370879203081131
-0.9374408721923828,4.307258129119873,0.4368802607059479
-0.972478985786438,4.3235626220703125,0.43750765919685364
-1.0022820234298706,4.316934108734131,0.4356984496116638
-1.0303521156311035,4.302529335021973,0.4329209327697754
-1.0503153800964355,4.257864952087402,0.42715519666671753
-1.0814931392669678,4.258275032043457,0.4259275794029236
-1.1130194664001465,4.258382320404053,0.4246729612350464
-1.1364827156066895,4.228226661682129,0.42042696475982666
-1.1637444496154785,4.2129597663879395,0.4174397587776184
-1.1985459327697754,4.22767448425293,0.41737601161003113
-1.2227797508239746,4.2047576904296875,0.4136112630367279
-1.2518864870071411,4.196413993835449,0.41126880049705505
-1.2730928659439087,4.161797523498535,0.40637436509132385
-1.3047338724136353,4.160375595092773,0.4046779274940491
-1.3303991556167603,4.144321918487549,0.40136441588401794
-1.3559070825576782,4.128109455108643,0.39806002378463745
-1.3791218996047974,4.104251384735107,0.39402469992637634
-1.4127229452133179,4.109521865844727,0.39277154207229614
-1.441301703453064,4.0998406410217285,0.3901021182537079
-1.466892957687378,4.082761287689209,0.38651207089424133
-1.4942879676818848,4.073090076446533,0.3835996091365814
-1.521654725074768,4.063220024108887,0.38068312406539917
-1.5444133281707764,4.038245677947998,0.37630265951156616
-1.5640299320220947,4.005911827087402,0.3712756931781769
-1.586081624031067,3.9807705879211426,0.36678311228752136
-1.624444603919983,3.999194383621216,0.3662225604057312
-1.6348011493682861,3.9489636421203613,0.35940033197402954
-1.669786810874939,3.9557347297668457,0.35770878195762634
-1.700362205505371,3.951467275619507,0.35501882433891296
-1.7214890718460083,3.9256231784820557,0.3502526581287384
-1.7396615743637085,3.896606922149658,0.3451574742794037
-1.755911946296692,3.8639729022979736,0.3397822678089142
-1.7893587350845337,3.8660895824432373,0.33736616373062134
-1.8097003698349,3.8397152423858643,0.3324741721153259
-1.8225561380386353,3.799433469772339,0.32622605562210083
-1.8511247634887695,3.7945916652679443,0.3230219781398773
-1.8697350025177002,3.768399477005005,0.3179740905761719
-1.9065672159194946,3.7764370441436768,0.31571903824806213
-1.932807207107544,3.763411045074463,0.31168535351753235
-1.946824073791504,3.730175495147705,0.30580851435661316
-1.968197226524353,3.7104690074920654,0.3010253310203552
-1.9975254535675049,3.703970193862915,0.2972334027290344
-1.7048407793045044,3.1094107627868652,0.24674949049949646
-1.7179163694381714,3.084672451019287,0.24191603064537048
-1.7227210998535156,3.0465166568756104,0.23604071140289307
-0.8466660976409912,1.4734636545181274,0.1126781776547432
-0.8569725751876831,1.4676412343978882,0.11073370277881622
-0.8588080406188965,1.4486169815063477,0.10776709020137787
-0.8682351112365723,1.4431318044662476,0.10580321401357651
-0.8780894875526428,1.437307357788086,0.10374204814434052
-0.8800752758979797,1.4179216623306274,0.10065647214651108
-0.8976419568061829,1.4254831075668335,0.09946397691965103
-0.894235372543335,1.400084137916565,0.09597701579332352
-0.8997948169708252,1.3873852491378784,0.09324906766414642
-0.889941394329071,1.352043628692627,0.08903446793556213
-0.9528869390487671,1.4274624586105347,0.091971755027771
-2.388878583908081,3.526972532272339,0.22199437022209167
-1.3326438665390015,1.9385898113250732,0.11900889128446579
-1.2155308723449707,1.7446612119674683,0.10432353615760803
-1.306107759475708,1.8827401399612427,-0.08412843197584152
-1.3272024393081665,1.9438409805297852,-0.09082172811031342
-1.5088841915130615,2.2448501586914062,-0.10924451798200607
-1.2409141063690186,1.8744782209396362,-0.09467373043298721
-1.1859780550003052,1.821642518043518,-0.09538647532463074
-1.2571566104888916,1.961295485496521,-0.10604965686798096
-1.1349129676818848,1.7983801364898682,-0.1002190113067627
-1.0988210439682007,1.770146131515503,-0.1015399917960167
-0.8739299774169922,1.5532159805297852,-0.10271003842353821
-1.7020262479782104,3.078077554702759,-0.207743838429451
-1.658070683479309,3.0484979152679443,-0.20963682234287262
-1.6014193296432495,2.9945662021636963,-0.2096998393535614
-1.552215576171875,2.9541444778442383,-0.21052515506744385
-1.5006303787231445,2.9059841632843018,-0.21058699488639832
-1.462273120880127,2.8815228939056396,-0.21224579215049744
-1.411923885345459,2.8323795795440674,-0.21186791360378265
-1.3449900150299072,2.74778413772583,-0.20864179730415344
-1.3154271841049194,2.7358558177948,-0.21071870625019073
-1.2712903022766113,2.691861391067505,-0.21023038029670715
-1.2239859104156494,2.640592575073242,-0.20897597074508667
-1.1851160526275635,2.6067190170288086,-0.20903444290161133
-1.1509188413619995,2.5791356563568115,-0.20939385890960693
-1.1219267845153809,2.561880111694336,-0.21053147315979004
-1.088144302368164,2.533823013305664,-0.21062937378883362
-1.0471763610839844,2.4875099658966064,-0.20912380516529083
-1.0115323066711426,2.451491355895996,-0.2083844542503357
-0.9870671033859253,2.440214157104492,-0.2096504271030426
-0.9610154032707214,2.425246477127075,-0.2104744017124176
-0.9266826510429382,2.3882951736450195,-0.20931175351142883
-0.8945958018302917,2.3545196056365967,-0.2083328366279602
-0.8724067211151123,2.3460006713867188,-0.20956796407699585
-0.8398146033287048,2.3080060482025146,-0.20802457630634308
-0.8115569949150085,2.2807390689849854,-0.20732975006103516
-0.7876895070075989,2.2641780376434326,-0.20756292343139648
-0.7668635249137878,2.2546794414520264,-0.20839740335941315
-0.7421899437904358,2.234034776687622,-0.2081860601902008
-0.7166436314582825,2.2094712257385254,-0.20743344724178314
-0.69383305311203,2.19208025932312,-0.2073286771774292
-0.678537905216217,2.1966793537139893,-0.20926477015018463
-0.6486402750015259,2.1527469158172607,-0.20655286312103271
-0.6268777251243591,2.1347005367279053,-0.2061777114868164
-0.6050539612770081,2.11655855178833,-0.20575369894504547
-0.5859625935554504,2.1056151390075684,-0.20598562061786652
-0.5701883435249329,2.105748414993286,-0.20729243755340576
-0.5474720001220703,2.0794544219970703,-0.20595994591712952
-0.5288249254226685,2.0680761337280273,-0.20595833659172058
-0.5101162195205688,2.0566000938415527,-0.20596030354499817
-0.4902971684932709,2.0372848510742188,-0.20512694120407104
-0.4717051386833191,2.021571636199951,-0.20463982224464417
-0.4592503309249878,2.032274007797241,-0.20673541724681854
-0.43994659185409546,2.0125463008880615,-0.20566482841968536
-0.42233604192733765,2.0002994537353516,-0.20536555349826813
-0.4083888530731201,2.0030677318573,-0.20658662915229797
-0.3914240598678589,1.9904857873916626,-0.2062273770570755
-0.3730970025062561,1.9701660871505737,-0.20491094887256622
-0.3557370901107788,1.9535212516784668,-0.20395052433013916
-0.34181350469589233,1.9558972120285034,-0.20498774945735931
-0.32688280940055847,1.9504625797271729,-0.20519685745239258
-0.31079789996147156,1.9372483491897583,-0.20456255972385406
-0.2959960997104645,1.9316174983978271,-0.20457550883293152
-0.2801659405231476,1.9181867837905884,-0.2037651687860489
-0.2665480971336365,1.9200388193130493,-0.20458944141864777
-0.2501317262649536,1.8986542224884033,-0.20292837917804718
-0.23879943788051605,1.915692687034607,-0.20531634986400604
-0.22355668246746063,1.9018206596374512,-0.204288050532341
-0.20937295258045197,1.8955522775650024,-0.20408089458942413
-0.19420091807842255,1.8775780200958252,-0.2026127278804779
-0.18091462552547455,1.8788374662399292,-0.20323388278484344
-0.16642965376377106,1.8645247220993042,-0.20206862688064575
-0.15405213832855225,1.873335838317871,-0.20333252847194672
-0.14039462804794312,1.866573691368103,-0.2029159814119339
-0.12739917635917664,1.867459774017334,-0.2033386081457138
-0.11228138208389282,1.8372594118118286,-0.20038636028766632
-0.10030235350131989,1.8534762859344482,-0.20237202942371368
-0.08699318766593933,1.8463475704193115,-0.20176376402378082
-0.0738041028380394,1.8391231298446655,-0.2011532038450241
-0.0610242523252964,1.8395657539367676,-0.20138950645923615
-0.04800710454583168,1.8399251699447632,-0.20163017511367798
-0.03491401672363281,1.8246763944625854,-0.20000936090946198
-0.022222092375159264,1.8248696327209473,-0.20005804300308228
-0.009473147802054882,1.8172091245651245,-0.19925522804260254
0.0032088146544992924,1.8327574729919434,-0.2010072022676468
0.016121339052915573,1.8249176740646362,-0.20020504295825958
0.02894429676234722,1.8325401544570923,-0.20092931389808655
0.04134371131658554,1.8167814016342163,-0.19909118115901947
0.054432462900877,1.831990122795105,-0.2006564885377884
0.06688082218170166,1.8238215446472168,-0.19967049360275269
0.07921677827835083,1.8155697584152222,-0.19867528975009918
0.09182925522327423,1.811122179031372,-0.1979346126317978
0.10550935566425323,1.8298594951629639,-0.19973966479301453
0.11596305668354034,1.7942395210266113,-0.195622518658638
0.12953296303749084,1.8089183568954468,-0.19700133800506592
0.14239048957824707,1.8118847608566284,-0.19707779586315155
0.15349635481834412,1.791543960571289,-0.19447410106658936
0.16160465776920319,1.7440849542617798,-0.1889566332101822
0.17833583056926727,1.7893486022949219,-0.19349327683448792
0.1866687387228012,1.7494964599609375,-0.1888325959444046
0.20979610085487366,1.8446942567825317,-0.19868987798690796
0.22464711964130402,1.8586698770523071,-0.19965645670890808
0.23652806878089905,1.8494371175765991,-0.19814638793468475
0.2535337209701538,1.878618597984314,-0.20075328648090363
0.2655091881752014,1.8691909313201904,-0.19923695921897888
0.27157434821128845,1.8212814331054688,-0.1935586780309677
0.2843649387359619,1.8194196224212646,-0.19269925355911255
0.30319443345069885,1.855844497680664,-0.19590163230895996
0.3207075297832489,1.8805866241455078,-0.19785092771053314
0.32496747374534607,1.8286651372909546,-0.19175291061401367
0.34185928106307983,1.849399447441101,-0.19317667186260223
0.3575507700443268,1.8623679876327515,-0.19373175501823425
0.3729418218135834,1.8713469505310059,-0.193853497505188
0.3851923644542694,1.8650048971176147,-0.19240282475948334
0.3989977538585663,1.8661835193634033,-0.19173744320869446
0.41102099418640137,1.859715461730957,-0.19014579057693481
0.42470982670783997,1.8607481718063354,-0.18931913375854492
0.4378301501274109,1.8578308820724487,-0.18807700276374817
0.4562714695930481,1.8775256872177124,-0.1891339272260666
0.4844239056110382,1.934780240058899,-0.19390501081943512
0.4977220296859741,1.9315452575683594,-0.1924722045660019
0.5179553031921387,1.9545329809188843,-0.19364775717258453
0.5420265793800354,1.988478183746338,-0.1958460658788681
0.5537896156311035,1.9773057699203491,-0.1936112344264984
0.576037585735321,2.003488779067993,-0.19494307041168213
0.597476601600647,2.025763988494873,-0.19580699503421783
0.611430823802948,2.021759033203125,-0.19411709904670715
0.6372824907302856,2.054692506790161,-0.19592128694057465
0.6539530158042908,2.05777907371521,-0.19488102197647095
0.6752410531044006,2.075632095336914,-0.19509397447109222
0.6906586289405823,2.0748322010040283,-0.19354432821273804
0.7175809144973755,2.1070055961608887,-0.19503046572208405
0.739960789680481,2.1241745948791504,-0.19508451223373413
0.7600665092468262,2.1337881088256836,-0.19433236122131348
0.7839419841766357,2.154343366622925,-0.1945117563009262
0.8068428635597229,2.1710004806518555,-0.19430334866046906
0.8399454355239868,2.212825059890747,-0.19627098739147186
0.8581722378730774,2.2143757343292236,-0.19461789727210999
0.8935356140136719,2.2592811584472656,-0.19659146666526794
0.9030683040618896,2.2389140129089355,-0.19289648532867432
0.9408794641494751,2.286797285079956,-0.19500955939292908
0.959846019744873,2.2875683307647705,-0.19305625557899475
1.0014642477035522,2.3420674800872803,-0.19549445807933807
1.0269522666931152,2.356750965118408,-0.19447998702526093
1.0590461492538452,2.3854212760925293,-0.19456994533538818
1.0965396165847778,2.4243502616882324,-0.19540847837924957
1.1261391639709473,2.4453418254852295,-0.19466878473758698
1.164115071296692,2.483792781829834,-0.19521597027778625
1.2083446979522705,2.5320956707000732,-0.1963445246219635
1.2345209121704102,2.541372060775757,-0.1943865716457367
1.2432143688201904,2.515667676925659,-0.18971094489097595
1.3196138143539429,2.6259102821350098,-0.1951432228088379
1.3553752899169922,2.6517512798309326,-0.1940794438123703
1.4044450521469116,2.7012829780578613,-0.19460247457027435
1.4267224073410034,2.698685646057129,-0.19119365513324738
1.4133859872817993,2.630957841873169,-0.1832675039768219
1.3736028671264648,2.515307664871216,-0.1721096634864807
1.3665430545806885,2.461581230163574,-0.1653493493795395
1.3887046575546265,2.462836980819702,-0.16227756440639496
1.4247993230819702,2.487434148788452,-0.16061747074127197
1.430357575416565,2.4574570655822754,-0.15533484518527985
1.4432072639465332,2.4411232471466064,-0.15094225108623505
1.449266791343689,2.4150540828704834,-0.14595343172550201
1.4717953205108643,2.415351629257202,-0.1424635797739029
1.5053609609603882,2.4316139221191406,-0.1397176831960678
1.5213648080825806,2.4218740463256836,-0.1354786455631256
1.493444800376892,2.342806100845337,-0.12741144001483917
1.4207090139389038,2.194960594177246,-0.11577309668064117
1.4009881019592285,2.133490562438965,-0.10899145901203156
1.4195643663406372,2.130769968032837,-0.10518217086791992
1.4344159364700317,2.1210103034973145,-0.10085710138082504
1.4439572095870972,2.1052675247192383,-0.09625302255153656
1.4421640634536743,2.0734920501708984,-0.09088736772537231
1.4521089792251587,2.05718731880188,-0.08601341396570206
1.4564306735992432,2.0351455211639404,-0.0808621197938919
1.447158932685852,1.9938852787017822,-0.07488366961479187
1.4605203866958618,1.9842970371246338,-0.07000094652175903
2.108954429626465,2.9758758544921875,0.18997350335121155
2.1155970096588135,3.032743215560913,0.19963371753692627
2.3838133811950684,3.4727461338043213,0.23520146310329437
2.3764359951019287,3.515021800994873,0.24428558349609375
2.3712642192840576,3.5649333000183105,0.2537989020347595
3.1173861026763916,4.763111591339111,0.3468538224697113
3.104858636856079,4.817087650299072,0.35809776186943054
1.6303602457046509,2.5712242126464844,0.19492867588996887
1.6145122051239014,2.590036153793335,0.2001456618309021
1.5922595262527466,2.5943028926849365,0.2038862109184265
3.0121097564697266,4.987208843231201,0.3983916938304901
2.9703235626220703,5.002501487731934,0.4058883488178253
2.955536365509033,5.060319900512695,0.41664355993270874
2.8708345890045166,4.996192455291748,0.41721877455711365
2.8129868507385254,4.979220867156982,0.42132800817489624
2.7528178691864014,4.958733558654785,0.42498335242271423
2.760280132293701,5.056305885314941,0.4385484457015991
2.623521566390991,4.8861799240112305,0.4287034273147583
2.5725772380828857,4.877431392669678,0.43270808458328247
2.566692590713501,4.95464563369751,0.44421762228012085
2.48695969581604,4.885619163513184,0.442448228597641
2.4370288848876953,4.871037483215332,0.44542232155799866
2.4414172172546387,4.9682769775390625,0.45854151248931885
1.2205580472946167,2.5315654277801514,0.23574963212013245
1.210416316986084,2.5577120780944824,0.24023590981960297
1.1875863075256348,2.555264949798584,0.2419726699590683
1.1713110208511353,2.5667855739593506,0.24503852427005768
1.1524581909179688,2.575057029724121,0.24763335287570953
1.1428985595703125,2.6045782566070557,0.2523009479045868
2.546318292617798,5.9184112548828125,0.5774084329605103
2.521497964859009,5.974951267242432,0.5869305729866028
2.488063335418701,6.01366662979126,0.5946589112281799
2.4630091190338135,6.078033924102783,0.6046999096870422
2.435763120651245,6.138705730438232,0.6144556403160095
2.4099926948547363,6.202603340148926,0.6245530247688293
2.3776237964630127,6.247851371765137,0.6327571272850037
2.3468809127807617,6.3004536628723145,0.6416239142417908
1.9617112874984741,5.385191440582275,0.5511872172355652
2.285113573074341,6.417117118835449,0.6601316928863525
2.258240222930908,6.48789644241333,0.6707450151443481
2.2254738807678223,6.5397868156433105,0.6793955564498901
2.1979570388793945,6.6100640296936035,0.6899504065513611
2.1598427295684814,6.654850959777832,0.6975035071372986
2.111746072769165,6.6697998046875,0.7019821405410767
