X,Y,Z
-0.336380273103714,1.6460617780685425,-0.3806225061416626
-0.32038259506225586,1.6253029108047485,-0.3782723546028137
-0.2954593896865845,1.5557962656021118,-0.36445388197898865
-0.2845318615436554,1.5572432279586792,-0.3669608235359192
-0.26488596200942993,1.5099513530731201,-0.3578367829322815
-0.2662889361381531,1.5824716091156006,-0.37712088227272034
-0.2515581548213959,1.5612056255340576,-0.3741396367549896
-0.23946674168109894,1.5548882484436035,-0.37453147768974304
-0.22031117975711823,1.4996572732925415,-0.3629128932952881
-0.20648124814033508,1.4781383275985718,-0.3594125211238861
-0.19166947901248932,1.4452037811279297,-0.3530566096305847
-0.18206064403057098,1.4498482942581177,-0.35570764541625977
-0.17152263224124908,1.4469352960586548,-0.35631194710731506
-0.14102032780647278,1.4491127729415894,-0.3608120083808899
0.10250107198953629,1.4550062417984009,-0.366311639547348
0.11997625231742859,1.5489959716796875,-0.38887012004852295
0.12619000673294067,1.4917713403701782,-0.3734263479709625
0.13589780032634735,1.4836034774780273,-0.3703477084636688
0.14325468242168427,1.4527299404144287,-0.3616461157798767
0.16057564318180084,1.5199532508850098,-0.3769906759262085
0.1720491349697113,1.5267289876937866,-0.37725380063056946
0.18199391663074493,1.5183357000350952,-0.37376436591148376
0.2098052203655243,1.6529710292816162,-0.40541088581085205
0.21180391311645508,1.5804704427719116,-0.38587915897369385
0.228722482919693,1.6208115816116333,-0.39388301968574524
0.24787601828575134,1.6722896099090576,-0.404508113861084
0.25745150446891785,1.6559929847717285,-0.3986864686012268
0.26786741614341736,1.6472223997116089,-0.39445436000823975
0.283261775970459,1.6683937311172485,-0.3972993791103363
0.30160561203956604,1.7044267654418945,-0.40362584590911865
0.31355249881744385,1.7028833627700806,-0.40102866291999817
0.334827721118927,1.7499094009399414,-0.4095710217952728
0.3428979516029358,1.725775957107544,-0.40126752853393555
0.3611881136894226,1.7538681030273438,-0.40516260266304016
0.37988948822021484,1.7818055152893066,-0.4089524745941162
0.40310537815093994,1.8282452821731567,-0.41668829321861267
0.42701664566993713,1.8745098114013672,-0.42408278584480286
0.44570469856262207,1.894519329071045,-0.42538800835609436
0.46627792716026306,1.9218292236328125,-0.428318589925766
0.48354101181030273,1.934175729751587,-0.42770031094551086
0.5000651478767395,1.9427149295806885,-0.4260246455669403
0.5255252718925476,1.9843791723251343,-0.43153664469718933
0.5609085559844971,2.0589654445648193,-0.44393816590309143
0.5909151434898376,2.1111855506896973,-0.451240211725235
0.6121563911437988,2.130061626434326,-0.45108044147491455
0.6401896476745605,2.1707913875579834,-0.4554409384727478
0.6744195818901062,2.229585647583008,-0.4633916914463043
0.709794282913208,2.2879984378814697,-0.47087106108665466
0.7503385543823242,2.360816478729248,-0.48090922832489014
0.7860054969787598,2.4149959087371826,-0.4868912696838379
0.8286082744598389,2.48701810836792,-0.49619150161743164
0.8672907948493958,2.544095516204834,-0.5021867752075195
0.9118040204048157,2.6153769493103027,-0.5104515552520752
0.9654150009155273,2.7078464031219482,-0.5223930478096008
1.0254571437835693,2.8142690658569336,-0.5366435050964355
1.0830224752426147,2.9092588424682617,-0.5482206344604492
1.1431519985198975,3.0073652267456055,-0.5597002506256104
1.2158725261688232,3.1335582733154297,-0.5758742094039917
1.289583683013916,3.255211591720581,-0.5904389023780823
1.3704874515533447,3.390496253967285,-0.6069435477256775
1.4677830934524536,3.5607059001922607,-0.6287075281143188
1.5794833898544312,3.7583060264587402,-0.6543972492218018
1.6730287075042725,3.904926061630249,-0.6702584028244019
1.8047677278518677,4.131711483001709,-0.6986963152885437
1.8933348655700684,4.255112171173096,-0.708686113357544
1.9486207962036133,4.300152778625488,-0.7051721215248108
1.9484689235687256,4.221612453460693,-0.681260347366333
1.5491942167282104,3.296403646469116,-0.5232774019241333
1.5592721700668335,3.2590248584747314,-0.5084513425827026
1.5888149738311768,3.2635321617126465,-0.5003774166107178
1.6086605787277222,3.246751070022583,-0.48885810375213623
1.6350655555725098,3.243776321411133,-0.47940459847450256
1.636406421661377,3.1924901008605957,-0.46284493803977966
1.6085633039474487,3.086233139038086,-0.4386768043041229
1.6273306608200073,3.0690934658050537,-0.42715203762054443
1.6451189517974854,3.0522189140319824,-0.415833979845047
1.6941930055618286,3.0931875705718994,-0.4122476875782013
1.727249264717102,3.102950096130371,-0.40416455268859863
1.7264349460601807,3.05139422416687,-0.3880324363708496
1.3510013818740845,2.350321054458618,-0.291425496339798
1.3299322128295898,2.278243064880371,-0.2753453850746155
0.9655011296272278,1.6279051303863525,-0.19142574071884155
0.8846136331558228,1.4686145782470703,-0.1678522229194641
0.8824528455734253,1.443248987197876,-0.16016805171966553
0.9214227795600891,1.4838200807571411,-0.1595155894756317
0.9838435053825378,1.5601329803466797,-0.16223686933517456
1.0048860311508179,1.5704485177993774,-0.1577555537223816
1.009263277053833,1.5543488264083862,-0.15054067969322205
1.0202815532684326,1.5477540493011475,-0.14407803118228912
1.0352247953414917,1.547780156135559,-0.13811327517032623
1.0368590354919434,1.5284538269042969,-0.13052229583263397
1.0632089376449585,1.5440601110458374,-0.12551385164260864
2.542236089706421,3.6405599117279053,-0.2809039056301117
2.5936362743377686,3.6628546714782715,-0.2672213017940521
2.611006259918213,3.632570743560791,-0.24834848940372467
2.586630344390869,3.550246000289917,-0.2266043722629547
2.640738010406494,3.574551820755005,-0.2112540751695633
2.633587121963501,3.740450620651245,0.6540294885635376
2.602893829345703,3.758899450302124,0.6709133982658386
2.571042776107788,3.768707752227783,0.6847960352897644
1.0523372888565063,1.5675756931304932,0.2898094356060028
1.0397181510925293,1.5748379230499268,0.2959197163581848
1.032012701034546,1.588021159172058,0.3028906583786011
1.0245906114578247,1.6009180545806885,0.3096921741962433
1.0282995700836182,1.6340157985687256,0.3202565014362335
0.9948346018791199,1.608384609222412,0.3193858563899994
0.9830884337425232,1.6145966053009033,0.324375182390213
0.9712496995925903,1.6207526922225952,0.32930052280426025
0.9702730178833008,1.6471959352493286,0.3381924033164978
1.3638291358947754,2.3558058738708496,0.4887024164199829
1.3425254821777344,2.3578035831451416,0.4938788414001465
1.821209192276001,3.2508187294006348,0.6872931122779846
1.7721186876296997,3.2191905975341797,0.6864063143730164
1.7892506122589111,3.308628559112549,0.711405873298645
1.764496088027954,3.320122003555298,0.7196422815322876
2.400804042816162,4.595639228820801,1.0039117336273193
2.36698055267334,4.610810279846191,1.0146112442016602
2.338700532913208,4.640097141265869,1.0280367136001587
2.299909830093384,4.648589134216309,1.0369244813919067
2.2660205364227295,4.662981986999512,1.0468673706054688
2.232118844985962,4.6770758628845215,1.0567817687988281
2.210620641708374,4.7189555168151855,1.0725387334823608
2.1590211391448975,4.698631286621094,1.0738213062286377
2.139260768890381,4.74752950668335,1.0909855365753174
2.1017508506774902,4.753860950469971,1.0982270240783691
2.0709729194641113,4.773672580718994,1.108532190322876
2.020897150039673,4.751609802246094,1.1089534759521484
1.74314546585083,4.183172702789307,0.980648398399353
1.7177189588546753,4.208521366119385,0.9910075664520264
1.6839745044708252,4.212282657623291,0.996279776096344
1.656838297843933,4.229635238647461,1.0046741962432861
1.6290279626846313,4.246968746185303,1.0132027864456177
1.6030889749526978,4.271633148193359,1.0228314399719238
1.5688414573669434,4.274737358093262,1.0272735357284546
1.5423511266708374,4.299079418182373,1.036881923675537
1.5039664506912231,4.287009239196777,1.0376399755477905
1.4731957912445068,4.296238422393799,1.0435937643051147
1.4499459266662598,4.326829433441162,1.0546343326568604
1.4206315279006958,4.343267917633057,1.0616601705551147
1.3888392448425293,4.352251052856445,1.0669254064559937
1.3603792190551758,4.371889114379883,1.0748674869537354
1.323300838470459,4.3621134757995605,1.0755877494812012
1.3001192808151245,4.395583152770996,1.0869553089141846
1.2774165868759155,4.432647705078125,1.0991734266281128
1.2452281713485718,4.44069242477417,1.103629469871521
1.216985821723938,4.463156700134277,1.111735463142395
1.1884815692901611,4.4854326248168945,1.1198698282241821
1.1541906595230103,4.4854254722595215,1.1224913597106934
1.1245378255844116,4.499691963195801,1.1286685466766357
1.096529245376587,4.521130561828613,1.1367133855819702
1.0648643970489502,4.531670093536377,1.141304612159729
1.0356067419052124,4.553089141845703,1.1486825942993164
1.0054707527160645,4.574431896209717,1.1561533212661743
0.9729711413383484,4.580538749694824,1.159774661064148
0.8037684559822083,3.9178764820098877,0.9937871694564819
0.7623646259307861,3.851984739303589,0.9788824319839478
0.7350823879241943,3.8566126823425293,0.9815236926078796
0.8511064052581787,4.647630214691162,1.1843570470809937
0.8192349076271057,4.660313129425049,1.1891422271728516
0.7872254848480225,4.672773838043213,1.1939361095428467
0.7563347220420837,4.688657760620117,1.199639081954956
0.7247374653816223,4.700583457946777,1.204391598701477
0.6935368776321411,4.71986722946167,1.2110801935195923
0.6621644496917725,4.7391276359558105,1.2170099020004272
0.6286202073097229,4.743159294128418,1.2190914154052734
0.5987619161605835,4.777002811431885,1.2289049625396729
0.5664039850234985,4.791842460632324,1.2338954210281372
0.5346803665161133,4.810183525085449,1.2398402690887451
0.5037260055541992,4.843413352966309,1.249717116355896
0.46911853551864624,4.838825702667236,1.2495553493499756
0.43709084391593933,4.864283561706543,1.2566745281219482
0.40285569429397583,4.86690616607666,1.257959246635437
0.36917632818222046,4.876832008361816,1.2611945867538452
0.33244165778160095,4.848808765411377,1.2546828985214233
0.30308693647384644,4.922400951385498,1.2745188474655151
0.26804035902023315,4.908952236175537,1.271887183189392
0.23326094448566437,4.899163246154785,1.2697488069534302
0.16797088086605072,4.137319087982178,1.0724010467529297
0.13850869238376617,4.138302803039551,1.0728158950805664
0.11098599433898926,4.191984176635742,1.086944818496704
0.08186239749193192,4.196328639984131,1.0883362293243408
0.05268637463450432,4.196689605712891,1.0887469053268433
0.023551644757390022,4.204410076141357,1.0911202430725098
-0.006242777686566114,4.24231481552124,1.1008050441741943
-0.03533049672842026,4.193089008331299,1.087772250175476
-0.06501320749521255,4.226840972900391,1.096319317817688
-0.0950826033949852,4.256601810455322,1.1038813591003418
-0.12490466982126236,4.26347017288208,1.10555899143219
-0.1546037793159485,4.262569904327393,1.1052751541137695
-0.18688395619392395,4.310556888580322,1.1177219152450562
-0.21673841774463654,4.309403896331787,1.1167773008346558
-0.24749335646629333,4.323156356811523,1.1196967363357544
-0.2699175179004669,4.204591751098633,1.0884145498275757
-0.30628058314323425,4.304737091064453,1.1138038635253906
-0.3361658453941345,4.295180320739746,1.1108404397964478
-0.3592645525932312,4.213845729827881,1.0893855094909668
-0.3906061351299286,4.234119415283203,1.0941888093948364
-0.42203763127326965,4.2543463706970215,1.0983493328094482
-0.44812455773353577,4.2216715812683105,1.0889075994491577
-0.46959227323532104,4.14742374420166,1.0688024759292603
-0.49462684988975525,4.114443778991699,1.0594189167022705
-0.5123002529144287,4.024963855743408,1.0355552434921265
-0.5327831506729126,3.965435266494751,1.0194765329360962
-0.5539336204528809,3.9171175956726074,1.0061447620391846
-0.5846270322799683,3.936196804046631,1.0096728801727295
-0.605842113494873,3.895235300064087,0.9978753328323364
-0.623483419418335,3.8354668617248535,0.981337308883667
-0.6392403841018677,3.76813006401062,0.9629389643669128
-0.662841796875,3.7492125034332275,0.9569770693778992
-0.6759275197982788,3.6742477416992188,0.9367807507514954
-0.700227677822113,3.6626110076904297,0.9324032068252563
-0.7178831696510315,3.6212379932403564,0.9202864170074463
-0.7388176918029785,3.5983479022979736,0.9129341840744019
-0.7508062720298767,3.5345358848571777,0.8952747583389282
-0.7721162438392639,3.515078067779541,0.8888993859291077
-0.7895506620407104,3.4768826961517334,0.877816379070282
-0.8068737983703613,3.4423961639404297,0.8677645921707153
-0.8267672657966614,3.422844171524048,0.8609410524368286
-0.841850757598877,3.3847568035125732,0.8495216369628906
-0.8573563694953918,3.350292682647705,0.839087724685669
-0.8788607120513916,3.337646007537842,0.8341284990310669
-0.893318235874176,3.299187660217285,0.8227779269218445
-0.9062606692314148,3.257014274597168,0.8105778098106384
-0.916195273399353,3.207669258117676,0.7963665723800659
-0.9422956705093384,3.2168099880218506,0.7964863181114197
-0.956916332244873,3.1855998039245605,0.7866227626800537
-0.9629438519477844,3.1289870738983154,0.7706102132797241
-0.9894320964813232,3.13753604888916,0.7706484794616699
-1.0067321062088013,3.116910457611084,0.7635583877563477
-1.017598032951355,3.0782244205474854,0.7519607543945312
-1.0314937829971313,3.050471544265747,0.7427006959915161
-1.0471609830856323,3.0299668312072754,0.7353140115737915
-1.0600601434707642,3.002195119857788,0.726225733757019
-1.0720218420028687,2.970571517944336,0.7161977291107178
-1.0876691341400146,2.949594497680664,0.7087892889976501
-1.0974746942520142,2.914367198944092,0.6979148983955383
-1.1120648384094238,2.8935470581054688,0.6901331543922424
-1.1260708570480347,2.8727664947509766,0.6824691295623779
-1.1327643394470215,2.834200382232666,0.6706543564796448
-1.1440958976745605,2.8059709072113037,0.6612580418586731
-1.1273139715194702,2.7106971740722656,0.6361892819404602
-1.1240884065628052,2.6509695053100586,0.6193965673446655
-1.1298884153366089,2.6162941455841064,0.6083728671073914
-1.1567790508270264,2.630618095397949,0.6087832450866699
-1.1716428995132446,2.616706609725952,0.6026344895362854
-1.199738621711731,2.630267858505249,0.602715015411377
-1.2364739179611206,2.6607816219329834,0.6065888404846191
-1.2446831464767456,2.6327340602874756,0.5967905521392822
-1.2590951919555664,2.6185312271118164,0.5901461839675903
-1.2683217525482178,2.593918800354004,0.5812143683433533
-1.2763842344284058,2.5654940605163574,0.5713464021682739
-1.2915154695510864,2.5505192279815674,0.564445972442627
-1.301999807357788,2.52915096282959,0.5559948086738586
-1.308318018913269,2.5011610984802246,0.5460050106048584
-1.3196933269500732,2.4833462238311768,0.5383128523826599
-1.337140440940857,2.4752347469329834,0.532585084438324
-1.340043067932129,2.4399254322052,0.5210080146789551
-1.3495696783065796,2.418370008468628,0.5121458768844604
-1.3581624031066895,2.3971619606018066,0.5033729076385498
-1.3741917610168457,2.3892524242401123,0.4974389672279358
-1.3776788711547852,2.3574280738830566,0.48630133271217346
-1.3906503915786743,2.342151403427124,0.4786442816257477
-1.4025120735168457,2.327428102493286,0.4707099199295044
-1.40994131565094,2.3062047958374023,0.461601585149765
-1.4177725315093994,2.2846202850341797,0.45229825377464294
-1.4260551929473877,2.2626309394836426,0.4427756071090698
-1.4622595310211182,2.2866814136505127,0.4420240521430969
-1.4420270919799805,2.223123788833618,0.4242090880870819
-1.472091794013977,2.237119197845459,0.4212193191051483
-1.492499828338623,2.234292507171631,0.4147079586982727
-1.5118719339370728,2.2320103645324707,0.4080643355846405
-1.4849358797073364,2.1629488468170166,0.3892879784107208
-1.4870182275772095,2.1347920894622803,0.3776082396507263
-1.497941255569458,2.119163751602173,0.36803555488586426
-1.502798318862915,2.0981802940368652,0.35735708475112915
-1.5122426748275757,2.083284616470337,0.34765663743019104
-1.5274009704589844,2.073756456375122,0.3382296562194824
-1.5294556617736816,2.049642562866211,0.32628121972084045
-1.490101933479309,2.1074724197387695,-0.15883445739746094
-1.4813684225082397,2.12705659866333,-0.1702805906534195
-1.4699475765228271,2.1435558795928955,-0.1813550442457199
-1.4880650043487549,2.2056782245635986,-0.19673261046409607
-1.485196590423584,2.2347981929779053,-0.20865370333194733
-1.4684499502182007,2.2448620796203613,-0.21889835596084595
-1.430348515510559,2.2221713066101074,-0.2257988452911377
-1.4102293252944946,2.2248027324676514,-0.234630286693573
-1.3768724203109741,2.207977056503296,-0.2414507269859314
-1.3377870321273804,2.1808111667633057,-0.2467697709798813
-1.3221139907836914,2.189338207244873,-0.2555779814720154
-1.3099713325500488,2.204624891281128,-0.26520201563835144
-1.301255226135254,2.226712703704834,-0.2757258713245392
-1.2866963148117065,2.238534688949585,-0.28494301438331604
-1.289616346359253,2.2804479598999023,-0.29787999391555786
-1.276386022567749,2.2956159114837646,-0.3074609339237213
-1.259443759918213,2.3037900924682617,-0.31606611609458923
-1.2539262771606445,2.332080364227295,-0.32730385661125183
-1.267281174659729,2.3983967304229736,-0.3442361056804657
-1.3691132068634033,2.63678240776062,-0.38663250207901
-1.4450639486312866,2.8314812183380127,-0.4237361550331116
-1.4281456470489502,2.8472366333007812,-0.43458500504493713
-1.4140208959579468,2.8700368404388428,-0.44650036096572876
-1.2426562309265137,2.5691404342651367,-0.4073467552661896
-1.219249963760376,2.5661392211914062,-0.41417089104652405
-1.1974296569824219,2.566498041152954,-0.4214615225791931
-1.1786155700683594,2.5738096237182617,-0.4298241138458252
-1.1440497636795044,2.545703887939453,-0.43215033411979675
-1.1491883993148804,2.605393886566162,-0.4493290185928345
-1.126961588859558,2.605246067047119,-0.4563721716403961
-1.0733833312988281,2.5303218364715576,-0.44990605115890503
-1.0136501789093018,2.4370062351226807,-0.4396802484989166
-0.9671303629875183,2.371525287628174,-0.433987021446228
-0.9200318455696106,2.302065849304199,-0.4270864427089691
-0.8820387721061707,2.2537453174591064,-0.42384177446365356
-0.8424244523048401,2.1977384090423584,-0.41875365376472473
-0.8037462830543518,2.141305923461914,-0.4132719933986664
-0.7777413725852966,2.1170082092285156,-0.4136427938938141
-0.7442889213562012,2.0708072185516357,-0.4095053970813751
-0.7050148248672485,2.0062153339385986,-0.4015228748321533
-0.6819986701011658,1.984682321548462,-0.40184682607650757
-0.6556000113487244,1.9520845413208008,-0.3996456563472748
-0.6296749711036682,1.9192595481872559,-0.3971906006336212
-0.6136270761489868,1.9153730869293213,-0.40063896775245667
-0.5803336501121521,1.8565773963928223,-0.3925267159938812
-0.5603833794593811,1.837723970413208,-0.39245012402534485
-0.5418071746826172,1.8223809003829956,-0.39297670125961304
-0.5086052417755127,1.7554562091827393,-0.38220855593681335
-0.499252587556839,1.769127607345581,-0.3888741135597229
-0.4715102016925812,1.71647047996521,-0.3807164132595062
-0.4571254849433899,1.7115787267684937,-0.38300225138664246
-0.42868292331695557,1.6511178016662598,-0.37267249822616577
-0.41326892375946045,1.638476014137268,-0.37299787998199463
-0.40168794989585876,1.6405534744262695,-0.3765011429786682
-0.383058100938797,1.6129074096679688,-0.37301579117774963
-0.36720436811447144,1.5962715148925781,-0.37205934524536133
-0.3426736295223236,1.538596749305725,-0.3613726496696472
-0.3502589762210846,1.6258348226547241,-0.38462337851524353
-0.34190523624420166,1.6424440145492554,-0.3911815583705902
-0.2973785698413849,1.4800490140914917,-0.3548855185508728
-0.2838881015777588,1.4665443897247314,-0.354061484336853
-0.2721884548664093,1.4604088068008423,-0.3548215627670288
-0.26194724440574646,1.461700677871704,-0.35720255970954895
-0.2639205753803253,1.5340063571929932,-0.3770584762096405
-0.24142807722091675,1.4640599489212036,-0.36196663975715637
0.14785704016685486,1.4493974447250366,-0.37298715114593506
0.16813001036643982,1.4479775428771973,-0.36990177631378174
0.18101443350315094,1.4697257280349731,-0.3740575909614563
0.18936482071876526,1.4538843631744385,-0.36831361055374146
0.20077167451381683,1.4604976177215576,-0.3682560622692108
0.21424345672130585,1.4820526838302612,-0.3719837963581085
0.22690393030643463,1.4960098266601562,-0.3737427890300751
0.2499181628227234,1.5736403465270996,-0.3909568786621094
0.26783251762390137,1.6136339902877808,-0.3986717760562897
0.2746163606643677,1.5861481428146362,-0.3897225558757782
0.28460150957107544,1.5772911310195923,-0.3853585422039032
0.3174257278442383,1.6916998624801636,-0.4106501340866089
0.32498660683631897,1.66776442527771,-0.40222999453544617
0.34803247451782227,1.7220603227615356,-0.41264837980270386
0.35470762848854065,1.6942349672317505,-0.40336230397224426
0.3652794659137726,1.6850125789642334,-0.3981761932373047
0.3896735906600952,1.7389140129089355,-0.40788862109184265
0.4105389714241028,1.7740429639816284,-0.4130597710609436
0.43102017045021057,1.805285096168518,-0.41722801327705383
0.4528965651988983,1.8401151895523071,-0.42180442810058594
0.47082820534706116,1.8562284708023071,-0.42191535234451294
0.4839622676372528,1.853768229484558,-0.41785141825675964
0.5198433995246887,1.9360257387161255,-0.4327482283115387
0.5436992049217224,1.9701263904571533,-0.4363947808742523
0.5732870101928711,2.0224056243896484,-0.4438475966453552
0.5985506772994995,2.0559959411621094,-0.44696104526519775
0.6317469477653503,2.1150665283203125,-0.4555021822452545
0.6579270958900452,2.1482622623443604,-0.4580470621585846
0.6880554556846619,2.1921913623809814,-0.4626449644565582
0.7258710861206055,2.257721185684204,-0.471570760011673
0.7637661695480347,2.3191592693328857,-0.4792753756046295
0.8009938597679138,2.3767268657684326,-0.4858044683933258
0.8540703654289246,2.477480173110962,-0.5007126927375793
0.8933297991752625,2.5342392921447754,-0.5063596367835999
0.9361284375190735,2.5978121757507324,-0.513063907623291
0.9877457618713379,2.6826581954956055,-0.5234431624412537
1.0517208576202393,2.795698642730713,-0.5386335253715515
1.1088000535964966,2.8866097927093506,-0.5491563081741333
1.1715142726898193,2.987650156021118,-0.5611089468002319
1.2527213096618652,3.131012439727783,-0.5802400708198547
1.3286365270614624,3.2557315826416016,-0.5951403975486755
1.429103136062622,3.4328267574310303,-0.6186527609825134
1.513848066329956,3.5663139820098877,-0.6335833072662354
1.6247832775115967,3.7556629180908203,-0.6574311852455139
1.7461247444152832,3.9615132808685303,-0.6830126643180847
1.8769270181655884,4.180048942565918,-0.7095744609832764
1.9265320301055908,4.210693836212158,-0.7032668590545654
1.974082350730896,4.237768650054932,-0.6962108016014099
1.9971266984939575,4.212066650390625,-0.6803779006004333
1.5798609256744385,3.273632764816284,-0.5196463465690613
1.5964432954788208,3.250044584274292,-0.5066981911659241
1.6265230178833008,3.254115581512451,-0.49781733751296997
1.645727515220642,3.2374110221862793,-0.48590582609176636
1.6028642654418945,3.099977731704712,-0.45614081621170044
1.6123319864273071,3.066006898880005,-0.4419950544834137
1.644567847251892,3.0767579078674316,-0.4342540204524994
1.6159310340881348,2.9747512340545654,-0.41083618998527527
1.7200517654418945,3.1138198375701904,-0.42011454701423645
1.6906816959381104,3.0117456912994385,-0.39682716131210327
1.4864583015441895,2.6068503856658936,-0.3351741135120392
1.3255726099014282,2.288454532623291,-0.28681668639183044
0.9793365597724915,1.6639562845230103,-0.2029966562986374
0.9551054835319519,1.597769856452942,-0.1894650161266327
0.8894003033638,1.4656072854995728,-0.16883967816829681
0.8997994065284729,1.4599062204360962,-0.1630323976278305
0.957481324672699,1.5300426483154297,-0.1653946191072464
0.9929075241088867,1.5635576248168945,-0.16339461505413055
1.0082029104232788,1.5636847019195557,-0.15750032663345337
1.0149657726287842,1.5506579875946045,-0.1502658724784851
1.0253827571868896,1.5444124937057495,-0.14372065663337708
1.0424926280975342,1.5476384162902832,-0.13790111243724823
1.0512926578521729,1.5375657081604004,-0.13063295185565948
2.534320116043091,3.654494524002075,-0.29499351978302
2.5861005783081055,3.676724672317505,-0.2809827923774719
2.6074604988098145,3.6533572673797607,-0.26265570521354675
2.604005813598633,3.599437952041626,-0.24238331615924835
2.617069721221924,3.5669734477996826,-0.22310782968997955
2.690402030944824,3.61580753326416,-0.20803770422935486
2.6447677612304688,3.7292628288269043,0.6725396513938904
2.6194517612457275,3.7533929347991943,0.6908608675003052
2.5831098556518555,3.7568416595458984,0.7043061256408691
1.0527081489562988,1.5564684867858887,0.29685503244400024
1.0443737506866455,1.5701173543930054,0.3044864237308502
1.0244606733322144,1.5636602640151978,0.30772656202316284
1.0248900651931763,1.5898032188415527,0.31738075613975525
1.0286999940872192,1.6227855682373047,0.32832401990890503
1.0121222734451294,1.6229820251464844,0.33255910873413086
0.9882420897483826,1.6095384359359741,0.333718478679657
0.9958213567733765,1.648879885673523,0.34569641947746277
0.982622504234314,1.6556822061538696,0.35091423988342285
0.9506267309188843,1.628883957862854,0.34878358244895935
1.3270198106765747,2.310561180114746,0.499506413936615
1.8419674634933472,3.261302947998047,0.7114880681037903
1.7701258659362793,3.1896848678588867,0.7018766403198242
1.7670167684555054,3.241971492767334,0.7195844650268555
1.7744410037994385,3.3102149963378906,0.7405245900154114
1.7505970001220703,3.321040630340576,0.7487581372261047
2.3835906982421875,4.604330062866211,1.0453840494155884
2.351763963699341,4.6267876625061035,1.0577929019927979
2.31980562210083,4.648964881896973,1.0702036619186401
2.283087968826294,4.656243324279785,1.078792691230774
2.2527735233306885,4.677131652832031,1.0904873609542847
2.2205820083618164,4.698715686798096,1.101698398590088
2.181758403778076,4.706195831298828,1.1096652746200562
2.156214475631714,4.740909576416016,1.1240242719650269
2.118685722351074,4.747252941131592,1.1315851211547852
2.0909433364868164,4.774043083190918,1.1439834833145142
2.043222188949585,4.759451866149902,1.145674705505371
1.7636419534683228,4.192702770233154,1.013837218284607
1.726474404335022,4.189882278442383,1.0177652835845947
1.7018159627914429,4.214670658111572,1.0283125638961792
1.6718708276748657,4.224934101104736,1.0352959632873535
1.6412087678909302,4.2353057861328125,1.0419560670852661
1.6125012636184692,4.252889156341553,1.0500977039337158
1.5836199522018433,4.270265579223633,1.0582586526870728
1.5441936254501343,4.258826732635498,1.0593234300613403
1.519102692604065,4.282465934753418,1.0689913034439087
1.4862762689590454,4.284398078918457,1.0733001232147217
1.4647630453109741,4.322510719299316,1.086122751235962
1.4354242086410522,4.338965892791748,1.0934295654296875
1.406475305557251,4.358997344970703,1.1017718315124512
1.3796736001968384,4.382112503051758,1.1108472347259521
1.3509984016418457,4.397632598876953,1.1180057525634766
1.317814588546753,4.3984150886535645,1.1214730739593506
1.292356252670288,4.428464889526367,1.1318196058273315
1.2559932470321655,4.421952724456787,1.132751226425171
1.2272764444351196,4.444530487060547,1.1412445306777954
1.2032681703567505,4.481316089630127,1.1533863544464111
1.1717889308929443,4.4884819984436035,1.1579254865646362
1.1420801877975464,4.50277853012085,1.164370059967041
1.1099313497543335,4.509753227233887,1.1684589385986328
1.0812488794326782,4.535179138183594,1.177126407623291
1.05197274684906,4.556610107421875,1.184798240661621
1.0191946029663086,4.56305456161499,1.1886383295059204
0.9872111082077026,4.569106101989746,1.1923800706863403
0.9482831954956055,4.541581630706787,1.1873981952667236
0.7768421173095703,3.8574235439300537,1.0102996826171875
0.7557238340377808,3.895644426345825,1.021579384803772
0.8611271381378174,4.614147663116455,1.2115561962127686
0.8348498344421387,4.656612873077393,1.2243382930755615
0.8039048910140991,4.6727800369262695,1.2302658557891846
0.7743984460830688,4.699957370758057,1.2391773462295532
0.7415650486946106,4.704465389251709,1.2421523332595825
0.7117125391960144,4.731358528137207,1.2505300045013428
0.6760401725769043,4.7207350730896,1.2487809658050537
0.6455895304679871,4.7472920417785645,1.2569342851638794
0.6094103455543518,4.736238956451416,1.2552145719528198
0.579956591129303,4.769803524017334,1.265348196029663
0.5514662861824036,4.814423084259033,1.2784909009933472
0.5146558284759521,4.787526607513428,1.2727090120315552
0.48391807079315186,4.820716381072998,1.282124400138855
0.4513839781284332,4.8386664390563965,1.287534475326538
0.34966811537742615,4.062709331512451,1.0816559791564941
0.32493793964385986,4.113680839538574,1.0958757400512695
0.2968243360519409,4.123058319091797,1.099070429801941
0.26663702726364136,4.102107048034668,1.0942310094833374
0.2389104813337326,4.118655681610107,1.0993152856826782
0.20955361425876617,4.120119094848633,1.0998196601867676
0.18068327009677887,4.121353626251221,1.1003156900405884
0.15236146748065948,4.137472629547119,1.1048402786254883
0.12347228080034256,4.138302803039551,1.105336308479309
0.09485099464654922,4.146475315093994,1.107846736907959
0.0655035600066185,4.146908283233643,1.108350396156311
0.037011634558439255,4.188702583312988,1.1197116374969482
0.007859562523663044,4.196462154388428,1.1215206384658813
-0.02151402458548546,4.226661205291748,1.1293787956237793
-0.05112583562731743,4.2415595054626465,1.1332013607025146
-0.08116916567087173,4.241148471832275,1.1329867839813232
-0.11163268238306046,4.278264999389648,1.1428542137145996
-0.14067262411117554,4.254809379577637,1.1365954875946045
-0.1721561998128891,4.302895545959473,1.1491644382476807
-0.20270510017871857,4.316931247711182,1.1522456407546997
-0.22792036831378937,4.2289862632751465,1.1281728744506836
-0.2586759924888611,4.242595672607422,1.1312469244003296
-0.2870781421661377,4.225882053375244,1.1262997388839722
-0.31361907720565796,4.186385631561279,1.1153392791748047
-0.34979531168937683,4.270897388458252,1.137467384338379
-0.3749842047691345,4.219834804534912,1.1231322288513184
-0.3998631536960602,4.168675899505615,1.1084890365600586
-0.42973756790161133,4.177517890930176,1.109880805015564
-0.4634637236595154,4.219936847686768,1.1202335357666016
-0.478221595287323,4.093247890472412,1.0857590436935425
-0.4988195300102234,4.026506423950195,1.0672721862792969
-0.5243827700614929,4.000818252563477,1.059723138809204
-0.5452437400817871,3.9489827156066895,1.0448247194290161
-0.5679731965065002,3.9158077239990234,1.0347367525100708
-0.5897505283355713,3.8787548542022705,1.0236917734146118
-0.6152023077011108,3.8677120208740234,1.0195727348327637
-0.6307997107505798,3.792978286743164,0.9987018704414368
-0.6482082009315491,3.736886978149414,0.9828429818153381
-0.6654937267303467,3.6844518184661865,0.9680240750312805
-0.6837641000747681,3.6433193683624268,0.9556320905685425
-0.7087069153785706,3.6392436027526855,0.9529854655265808
-0.7336256504058838,3.634995460510254,0.9503381848335266
-0.7412070035934448,3.545278549194336,0.9253966808319092
-0.7611767053604126,3.5184988975524902,0.9169731140136719
-0.7733317017555237,3.4583585262298584,0.8999333381652832
-0.8007403016090393,3.4683756828308105,0.901027500629425
-0.8191052675247192,3.441540241241455,0.8921679854393005
-0.8276734948158264,3.374032497406006,0.8728165626525879
-0.8525213599205017,3.3764469623565674,0.8716604113578796
-0.8721013069152832,3.356583595275879,0.8647691607475281
-0.8770268559455872,3.2816033363342285,0.8437439799308777
-0.8979827165603638,3.2688543796539307,0.8388035297393799
-0.9207285046577454,3.263421058654785,0.8352949023246765
-0.9365819692611694,3.236123561859131,0.8261635303497314
-0.942425012588501,3.175995349884033,0.8087357878684998
-0.9663687348365784,3.177616596221924,0.8070906400680542
-0.9773753881454468,3.135410785675049,0.7943195104598999
-0.9928313493728638,3.1075515747070312,0.7852258086204529
-1.007208228111267,3.0798938274383545,0.7760272026062012
-1.0268971920013428,3.070371389389038,0.7711793184280396
-1.0354341268539429,3.0283477306365967,0.7582347989082336
-1.0509707927703857,3.007859468460083,0.750757098197937
-1.06956148147583,2.994224786758423,0.7449591159820557
-1.081895351409912,2.962470054626465,0.7346699833869934
-1.0971393585205078,2.941640853881836,0.7270129919052124
-1.108918309211731,2.9138731956481934,0.7173869013786316
-1.1121007204055786,2.8647613525390625,0.702599287033081
-1.1314918994903564,2.8582065105438232,0.6983214616775513
-1.1449238061904907,2.8334238529205322,0.6894739866256714
-1.1358946561813354,2.7558481693267822,0.6679514050483704
-1.1195183992385864,2.664635181427002,0.6430783867835999
-1.1285234689712524,2.6370534896850586,0.6334742307662964
-1.1463502645492554,2.630436897277832,0.6289588809013367
-1.1584768295288086,2.6095330715179443,0.6209847927093506
-1.1895740032196045,2.630190849304199,0.6228618621826172
-1.2226170301437378,2.6540231704711914,0.6254539489746094
-1.237363338470459,2.6399424076080322,0.6187332272529602
-1.2551460266113281,2.6327335834503174,0.6136083602905273
-1.2665002346038818,2.6115126609802246,0.6052078008651733
-1.269680380821228,2.572862386703491,0.5927553176879883
-1.2811713218688965,2.551269292831421,0.5842821002006531
-1.295299768447876,2.5367796421051025,0.5772665143013
-1.3052853345870972,2.5156753063201904,0.5686125159263611
-1.3221873044967651,2.5080864429473877,0.56305992603302
-1.331010341644287,2.4830095767974854,0.553402304649353
-1.3378089666366577,2.4544897079467773,0.5430415272712708
-1.3436659574508667,2.4263267517089844,0.5326455235481262
-1.3561862707138062,2.411871910095215,0.5251438021659851
-1.3685657978057861,2.3973402976989746,0.5176730751991272
-1.3723528385162354,2.3655288219451904,0.5062340497970581
-1.3815218210220337,2.3437187671661377,0.4970529079437256
-1.3933764696121216,2.329108476638794,0.4891682267189026
-1.4048992395401,2.3145480155944824,0.48127543926239014
-1.4166120290756226,2.299741744995117,0.47327688336372375
-1.42122220993042,2.2711567878723145,0.46214261651039124
-1.432859182357788,2.2561404705047607,0.45379143953323364
-1.4373770952224731,2.231806755065918,0.4434563219547272
-1.448070764541626,2.217089891433716,0.43506157398223877
-1.4556154012680054,2.195162534713745,0.42485591769218445
-1.4754929542541504,2.192673921585083,0.41821929812431335
-1.5095232725143433,2.2130587100982666,0.41580280661582947
-1.4827885627746582,2.1439244747161865,0.3964991867542267
-1.4983863830566406,2.1346163749694824,0.3879915475845337
-1.5037732124328613,2.1134209632873535,0.3771613538265228
-1.5087957382202148,2.092334270477295,0.36625078320503235
-1.5238081216812134,2.0830495357513428,0.35690397024154663
-1.5336532592773438,2.067802906036377,0.34628981351852417
-1.4976005554199219,2.102618455886841,-0.15251614153385162
-1.4777331352233887,2.1063027381896973,-0.16285735368728638
-1.4952850341796875,2.164472818374634,-0.1773851215839386
-1.4786782264709473,2.174941062927246,-0.18822352588176727
-1.476095199584961,2.203981399536133,-0.20009951293468475
-1.4788110256195068,2.243300437927246,-0.21314631402492523
-1.4509148597717285,2.2372634410858154,-0.2220437228679657
-1.4223231077194214,2.2269175052642822,-0.22969946265220642
-1.393288254737854,2.2166686058044434,-0.23722751438617706
-1.3724499940872192,2.219451904296875,-0.24606257677078247
-1.3221155405044556,2.1717734336853027,-0.24867556989192963
-1.325740933418274,2.2139317989349365,-0.26164090633392334
-1.3090779781341553,2.2227463722229004,-0.2706538438796997
-1.289035677909851,2.224386215209961,-0.2785056233406067
-1.2825254201889038,2.2494311332702637,-0.2892310619354248
-1.284718632698059,2.2916452884674072,-0.3023325204849243
-1.2750601768493652,2.3135926723480225,-0.3129551112651825
-1.2621654272079468,2.3283209800720215,-0.32236194610595703
-1.2523397207260132,2.35001802444458,-0.33276936411857605
-1.3176556825637817,2.515864849090576,-0.3641250431537628
-1.4412914514541626,2.799484968185425,-0.41370171308517456
-1.457420825958252,2.8810439109802246,-0.43457260727882385
-1.4292800426483154,2.8763208389282227,-0.44239872694015503
-1.3538674116134644,2.7739555835723877,-0.4348229169845581
-1.233720064163208,2.57291579246521,-0.4106667935848236
-1.2036187648773193,2.555901527404785,-0.4151764512062073
-1.181694746017456,2.5562353134155273,-0.4223810136318207
-1.16600501537323,2.570510149002075,-0.43198660016059875
-1.150712490081787,2.5844566822052,-0.44138839840888977
-1.135063886642456,2.5983924865722656,-0.4507385790348053
-1.0978974103927612,2.5626401901245117,-0.451341450214386
-1.0330801010131836,2.4589486122131348,-0.43954747915267944
-0.996084451675415,2.4187252521514893,-0.43876051902770996
-0.9396731853485107,2.3281333446502686,-0.4282309412956238
-0.9072167277336121,2.294235944747925,-0.42776885628700256
-0.8629327416419983,2.2276880741119385,-0.42091256380081177
-0.8292854428291321,2.1858270168304443,-0.4184151291847229
-0.790535569190979,2.1293795108795166,-0.4127972424030304
-0.7594541311264038,2.090528726577759,-0.4102323353290558
-0.7251986861228943,2.0404980182647705,-0.4052340090274811
-0.695516049861908,2.0009961128234863,-0.40210241079330444
-0.6700564622879028,1.9721688032150269,-0.40076589584350586
-0.6435806751251221,1.9395384788513184,-0.3985580801963806
-0.616733968257904,1.9029357433319092,-0.3952859342098236
-0.5939726233482361,1.8770214319229126,-0.39407816529273987
-0.5670549273490906,1.836321234703064,-0.38942113518714905
-0.5462398529052734,1.8137065172195435,-0.38842734694480896
-0.5225533246994019,1.7798941135406494,-0.384920597076416
-0.5033614039421082,1.7606152296066284,-0.38451728224754333
-0.47956687211990356,1.7227617502212524,-0.3796689808368683
-0.4613109529018402,1.7031434774398804,-0.3786705434322357
-0.4492143988609314,1.7055128812789917,-0.38252997398376465
-0.4229493737220764,1.6523339748382568,-0.3738311231136322
-0.4073726534843445,1.6397132873535156,-0.37404540181159973
-0.3939996659755707,1.6343574523925781,-0.3757454752922058
-0.3824436366558075,1.6363182067871094,-0.37913617491722107
-0.36414992809295654,1.6084728240966797,-0.3755861222743988
-0.3511742949485779,1.6028273105621338,-0.3769736588001251
-0.34126436710357666,1.6120274066925049,-0.3817875385284424
-0.30553194880485535,1.4944181442260742,-0.3563607335090637
-0.31340545415878296,1.5891221761703491,-0.3815387487411499
-0.28450536727905273,1.4972676038742065,-0.3617664575576782
-0.27127310633659363,1.483676552772522,-0.36060625314712524
-0.26790469884872437,1.5261120796203613,-0.3731594383716583
-0.2464834749698639,1.4636967182159424,-0.3600231409072876
-0.23260456323623657,1.4423524141311646,-0.35671934485435486
-0.22253534197807312,1.4434337615966797,-0.3587631583213806
0.13226792216300964,1.446897029876709,-0.3728189170360565
0.14275456964969635,1.4500865936279297,-0.372295618057251
0.15368923544883728,1.4569652080535889,-0.37272730469703674
0.16470623016357422,1.4637655019760132,-0.37314608693122864
0.17512130737304688,1.4629665613174438,-0.3715329170227051
0.18729782104492188,1.4772119522094727,-0.37345555424690247
0.210245281457901,1.5702534914016724,-0.3951931595802307
0.21117398142814636,1.4979194402694702,-0.37530967593193054
0.22277364134788513,1.5044013261795044,-0.37520283460617065
0.23703695833683014,1.525842308998108,-0.3784468472003937
0.2605506181716919,1.6033837795257568,-0.39552509784698486
0.27879154682159424,1.643291711807251,-0.403183251619339
0.2916577160358429,1.6493958234786987,-0.40245965123176575
0.30192098021507263,1.6405235528945923,-0.39776238799095154
0.32205814123153687,1.6838496923446655,-0.4056863486766815
0.3407839834690094,1.7157882452011108,-0.41072729229927063
0.35593608021736145,1.728971004486084,-0.41124844551086426
0.36814019083976746,1.7272146940231323,-0.4078705608844757
0.3885452449321747,1.7625486850738525,-0.4132051467895508
0.40518537163734436,1.779143214225769,-0.41408440470695496
0.4353848397731781,1.851210355758667,-0.4276845455169678
0.4502519965171814,1.8564112186431885,-0.4254193902015686
0.4753861427307129,1.902202844619751,-0.43236979842185974
0.49453026056289673,1.9218963384628296,-0.433278888463974
0.5208282470703125,1.9672600030899048,-0.43986308574676514
0.5390057563781738,1.9792262315750122,-0.4385182857513428
0.5766863226890564,2.061025619506836,-0.4525068700313568
0.5997406840324402,2.0873329639434814,-0.4540971517562866
0.6329310536384583,2.1464569568634033,-0.46266576647758484
0.6592081785202026,2.179682731628418,-0.4652111530303955
0.694191038608551,2.238217353820801,-0.47283124923706055
0.7297810912132263,2.296476364135742,-0.48022714257240295
0.7686000466346741,2.3616809844970703,-0.4888187646865845
0.8059132099151611,2.419288396835327,-0.4953431189060211
0.850226879119873,2.4947164058685303,-0.505153238773346
0.8919249176979065,2.5588109493255615,-0.5123341083526611
0.9426851272583008,2.6440885066986084,-0.5232995748519897
1.0008594989776611,2.747061252593994,-0.5372340679168701
1.059147596359253,2.845864772796631,-0.5497913956642151
1.1134730577468872,2.929671049118042,-0.558995246887207
1.1830798387527466,3.048748016357422,-0.5743988752365112
1.2589037418365479,3.177795886993408,-0.5907642245292664
1.3390172719955444,3.3133554458618164,-0.6077274680137634
1.4476443529129028,3.512139081954956,-0.6354033946990967
1.5533277988433838,3.6954638957977295,-0.6592605710029602
1.640177607536316,3.828136920928955,-0.6730805039405823
1.764822244644165,4.041094779968262,-0.6998458504676819
1.868719220161438,4.199885368347168,-0.7163472175598145
1.9481085538864136,4.297651290893555,-0.7216454744338989
1.9524389505386353,4.229950904846191,-0.6988786458969116
1.9771270751953125,4.2078537940979,-0.6838048100471497
1.5652223825454712,3.2714600563049316,-0.5224770307540894
1.5852298736572266,3.254894971847534,-0.5107549428939819
1.6114319562911987,3.2523066997528076,-0.5011404752731323
1.6306358575820923,3.235692024230957,-0.4893750250339508
1.639459252357483,3.1980843544006348,-0.474399596452713
1.6049119234085083,3.0779800415039062,-0.44754403829574585
1.6339101791381836,3.0817904472351074,-0.43877455592155457
1.6221818923950195,3.010418176651001,-0.41962745785713196
1.708908200263977,3.119264841079712,-0.42516887187957764
1.7006640434265137,3.0543951988220215,-0.4068331718444824
1.744640588760376,3.084562063217163,-0.4011998176574707
1.2983304262161255,2.2588508129119873,-0.28646621108055115
0.9873256683349609,1.6904301643371582,-0.2088312953710556
0.965293288230896,1.6275229454040527,-0.1956789195537567
0.8761902451515198,1.4550971984863281,-0.17011311650276184
0.8824688792228699,1.4428454637527466,-0.16367661952972412
0.948141872882843,1.5263676643371582,-0.1677076667547226
0.9875548481941223,1.566605806350708,-0.1666044145822525
1.0089621543884277,1.5767250061035156,-0.16193386912345886
1.0052595138549805,1.547350287437439,-0.15311546623706818
1.0242407321929932,1.55416738986969,-0.14793303608894348
1.035071611404419,1.5476022958755493,-0.14121794700622559
1.0373115539550781,1.5279127359390259,-0.1332325041294098
2.530308961868286,3.675438165664673,-0.3055282533168793
2.5641720294952393,3.6722819805145264,-0.2898902893066406
2.5945420265197754,3.6617932319641113,-0.27291056513786316
2.6098506450653076,3.6329843997955322,-0.2543712258338928
2.5863871574401855,3.5500731468200684,-0.23201973736286163
2.65946888923645,3.5992307662963867,-0.21763336658477783
2.6262524127960205,3.7319016456604004,0.6496511697769165
2.5984342098236084,3.748537063598633,0.665543258190155
2.5763442516326904,3.775024175643921,0.6827523112297058
1.0477992296218872,1.5615262985229492,0.28751295804977417
1.0444309711456299,1.5812097787857056,0.2958779036998749
1.032861590385437,1.5877089500427246,0.30163100361824036
1.016037940979004,1.588305950164795,0.3060199022293091
1.0156760215759277,1.6148289442062378,0.31545841693878174
0.999679446220398,1.6146949529647827,0.3194282650947571
0.9996951818466187,1.6407794952392578,0.32849064469337463
0.974933385848999,1.6277391910552979,0.32955050468444824
0.9660822749137878,1.6409269571304321,0.33590009808540344
1.3494274616241455,2.32894229888916,0.4815388023853302
1.3549230098724365,2.3776063919067383,0.49651068449020386
1.824543833732605,3.258211612701416,0.686555027961731
1.7678288221359253,3.213178873062134,0.6831251978874207
1.7972229719161987,3.322216510772705,0.7122364640235901
1.784140706062317,3.35359525680542,0.7248308658599854
2.3978936672210693,4.589145660400391,0.9994953274726868
2.366215467453003,4.611827850341797,1.0117645263671875
2.3311593532562256,4.627296447753906,1.0224608182907104
2.3014135360717773,4.648481845855713,1.0340667963027954
2.268083095550537,4.66258430480957,1.0441690683364868
2.2322497367858887,4.677667140960693,1.0538846254348755
2.1967763900756836,4.692282199859619,1.063412070274353
2.16479229927063,4.713405609130859,1.0744142532348633
2.143815279006958,4.754512786865234,1.0897605419158936
2.106931209564209,4.760550498962402,1.0971418619155884
2.068531036376953,4.767081260681152,1.1039786338806152
2.0143380165100098,4.738500595092773,1.1026623249053955
1.7426003217697144,4.183961868286133,0.9782456755638123
1.7126951217651367,4.194661617279053,0.9852162003517151
1.6857224702835083,4.212165355682373,0.9938176274299622
1.6579525470733643,4.229793548583984,1.0021690130233765
1.6314574480056763,4.254885196685791,1.0120429992675781
1.5998916625976562,4.265334129333496,1.018433690071106
1.566115140914917,4.268230438232422,1.0230097770690918
1.541069507598877,4.292072296142578,1.0325441360473633
1.510669469833374,4.301395416259766,1.0386552810668945
1.476225733757019,4.303912162780762,1.042607069015503
1.4554606676101685,4.345794677734375,1.0559779405593872
1.4200160503387451,4.3441572189331055,1.0588420629501343
1.3911019563674927,4.360177516937256,1.0659961700439453
1.3603737354278564,4.368569374084473,1.0712814331054688
1.330138921737671,4.380523681640625,1.0775563716888428
1.3026423454284668,4.403487205505371,1.0858279466629028
1.2727067470550537,4.418997764587402,1.092279314994812
1.242564082145691,4.43430757522583,1.0987517833709717
1.2168974876403809,4.463913917541504,1.108788013458252
1.1894183158874512,4.485907554626465,1.116969108581543
1.1536154747009277,4.478418827056885,1.1179076433181763
1.1214722394943237,4.485583305358887,1.121882677078247
1.0927367210388184,4.5073347091674805,1.1294077634811401
1.066296935081482,4.5399885177612305,1.1397452354431152
1.0354944467544556,4.553930759429932,1.1454432010650635
1.0013902187347412,4.552820682525635,1.1474061012268066
0.9758074879646301,4.588446617126465,1.1586560010910034
0.9356616139411926,4.557229042053223,1.1527142524719238
0.7676204442977905,3.878767490386963,0.9824354648590088
0.733475923538208,3.849993944168091,0.9765167236328125
0.8479725122451782,4.633693218231201,1.177032709121704
0.8194534182548523,4.661141395568848,1.185739278793335
0.7888091206550598,4.67718505859375,1.1916090250015259
0.7561683654785156,4.681802749633789,1.1946303844451904
0.7252820730209351,4.701432228088379,1.2007476091384888
0.6902231574058533,4.698461055755615,1.2011444568634033
0.662135899066925,4.740157604217529,1.2130085229873657
0.6316146850585938,4.766654014587402,1.221055030822754
0.5983738899230957,4.770362377166748,1.2233128547668457
0.5651120543479919,4.773837566375732,1.225570559501648
0.534633994102478,4.8034892082214355,1.23434579372406
0.5016903877258301,4.821870803833008,1.2397366762161255
