X,Y,Z
1.1531505584716797,4.985774040222168,0.6318355202674866
1.1228184700012207,5.016180515289307,0.6374760866165161
1.0876384973526,5.023591995239258,0.6401016116142273
1.0613223314285278,5.0764546394348145,0.6481980681419373
1.014439582824707,5.030394077301025,0.6436918377876282
0.980145275592804,5.044794082641602,0.6469402313232422
2.0710794925689697,11.077858924865723,1.4237568378448486
1.978158950805664,11.00365161895752,1.4173461198806763
0.9027722477912903,5.23147439956665,0.6752015352249146
1.8230478763580322,11.029332160949707,1.425711989402771
1.7308911085128784,10.953457832336426,1.4181666374206543
1.6411751508712769,10.892316818237305,1.4125981330871582
1.5487780570983887,10.787943840026855,1.401379942893982
1.4531997442245483,10.648282051086426,1.3855875730514526
1.3588368892669678,10.504067420959473,1.3688831329345703
1.265923261642456,10.359236717224121,1.3514430522918701
1.1817622184753418,10.27135944366455,1.3414649963378906
1.0960431098937988,10.167539596557617,1.3294669389724731
1.0206334590911865,10.128341674804688,1.3259131908416748
0.17716088891029358,1.8896828889846802,0.24768535792827606
0.37449607253074646,4.3180060386657715,0.5666009187698364
0.34112295508384705,4.281831741333008,0.562179684638977
0.31276533007621765,4.314977169036865,0.5668938159942627
0.28451526165008545,4.347898483276367,0.5716054439544678
0.3288266658782959,5.62559700012207,0.7401123642921448
0.28992578387260437,5.631504058837891,0.7414563298225403
0.2520937919616699,5.664231300354004,0.7463434338569641
0.21210108697414398,5.673580169677734,0.747678816318512
0.1731991320848465,5.6981072425842285,0.7510502934455872
0.13471828401088715,5.757213592529297,0.75901859998703
0.09465404599905014,5.757970333099365,0.7593321800231934
0.054868798702955246,5.78168249130249,0.7627103924751282
0.014093593694269657,5.816737651824951,0.7676298022270203
-0.0492984913289547,10.893755912780762,1.4373458623886108
-0.1244586706161499,10.84674072265625,1.4307674169540405
-0.15939655900001526,8.646334648132324,1.1402729749679565
-0.21839070320129395,8.60247802734375,1.1343014240264893
-0.2772517800331116,8.569831848144531,1.129863977432251
-0.24007755517959595,6.087170124053955,0.8024888038635254
-0.278134822845459,5.996460437774658,0.790153443813324
-0.19037185609340668,3.5696256160736084,0.47003981471061707
-0.21464453637599945,3.560551643371582,0.4685385227203369
-0.23880058526992798,3.5513134002685547,0.4670393466949463
-0.5818952918052673,7.825336933135986,1.0285356044769287
-0.3115111291408539,3.829554796218872,0.5030859708786011
-0.3366791605949402,3.8119590282440186,0.5003908276557922
-0.3596528172492981,3.774958372116089,0.4949645698070526
-0.3817383050918579,3.7339677810668945,0.4890494644641876
-0.4071190357208252,3.723606824874878,0.48716655373573303
-0.4289599359035492,3.6861701011657715,0.48177623748779297
-0.4489157497882843,3.637070894241333,0.4748946726322174
-0.4731087386608124,3.6263105869293213,0.4729677736759186
-0.49327561259269714,3.5885844230651855,0.46728435158729553
-0.5116969347000122,3.5391907691955566,0.4601082503795624
-0.533653974533081,3.52042293548584,0.45696184039115906
-0.5581034421920776,3.5167810916900635,0.4557952284812927
-0.5806634426116943,3.501495361328125,0.45314261317253113
-1.098986029624939,6.353597164154053,0.8209933638572693
-1.1499252319335938,6.388237953186035,0.8237283825874329
-1.2029043436050415,6.426146030426025,0.8268684148788452
-1.2579426765441895,6.475179195404053,0.8314805030822754
-1.3112576007843018,6.508446216583252,0.8340585827827454
-1.364438533782959,6.537464618682861,0.8361068367958069
-1.4220892190933228,6.585029125213623,0.8404881954193115
-1.4600569009780884,6.541416168212891,0.8326795697212219
-1.4958895444869995,6.493971824645996,0.8244827389717102
-1.5301817655563354,6.442580699920654,0.8158525228500366
-0.6906609535217285,2.820683479309082,0.35626721382141113
-0.7007856369018555,2.7784035205841064,0.35002651810646057
-0.7203710675239563,2.7735862731933594,0.34846803545951843
-0.7391883134841919,2.7688465118408203,0.34674742817878723
-0.7579742074012756,2.7639784812927246,0.3450267016887665
-0.7746530175209045,2.751507520675659,0.34237420558929443
-1.7675021886825562,6.114806652069092,0.7584062218666077
-1.8108147382736206,6.102614879608154,0.7544165849685669
-1.1414690017700195,3.7522940635681152,0.46224260330200195
-1.1691242456436157,3.7522318363189697,0.46043601632118225
-1.1968300342559814,3.7519664764404297,0.4586184322834015
-1.2224658727645874,3.7440295219421387,0.455860435962677
-1.2588660717010498,3.7650458812713623,0.4565676152706146
-1.983552098274231,5.798179626464844,0.7003359198570251
-2.0139060020446777,5.759502410888672,0.6925243735313416
-2.0396058559417725,5.709822177886963,0.6833726763725281
-2.067387819290161,5.667342662811279,0.6751502752304077
-2.0986061096191406,5.631584644317627,0.667689323425293
-2.1316938400268555,5.598962306976318,0.6605834364891052
-2.1701109409332275,5.584775924682617,0.6555679440498352
-2.2204174995422363,5.603196144104004,0.6540996432304382
-2.2870194911956787,5.660824775695801,0.6571751832962036
-2.3421471118927,5.685113906860352,0.6562454104423523
-2.366082191467285,5.6295318603515625,0.6459875106811523
-2.395972490310669,5.592174053192139,0.6378782987594604
-2.444188117980957,5.6016316413879395,0.6347705125808716
-2.5210800170898438,5.674592018127441,0.6387969255447388
-2.5085337162017822,5.5446295738220215,0.6199422478675842
-2.551128387451172,5.534424781799316,0.61441969871521
-2.5728509426116943,5.4821457862854,0.6042717695236206
-2.5840001106262207,5.4130682945251465,0.5920377373695374
-4.479053974151611,9.22617244720459,1.0011967420578003
-2.686053991317749,5.438406467437744,0.5853538513183594
-2.698564291000366,5.367751121520996,0.5728104114532471
-2.713963270187378,5.308355331420898,0.5614987015724182
-2.729295492172241,5.253059387207031,0.5505024194717407
-2.7731082439422607,5.252796173095703,0.5453118681907654
-2.8097245693206787,5.234065532684326,0.5379313826560974
-1.170593023300171,2.144744634628296,0.21818606555461884
-1.2057340145111084,2.1745877265930176,0.21876665949821472
-2.523958683013916,4.4831085205078125,0.4459981322288513
-2.539114475250244,4.439387798309326,0.4364592134952545
-2.544827461242676,4.378368854522705,0.4251830577850342
-2.5977578163146973,4.4021897315979,0.42197293043136597
-1.2444418668746948,2.0775368213653564,0.19643624126911163
-2.628340244293213,4.321717262268066,0.40284264087677
-2.6750195026397705,4.330355644226074,0.3976213037967682
-2.9642493724823,4.729091167449951,0.42740529775619507
-2.9948604106903076,4.710537433624268,0.41881415247917175
-3.0403356552124023,4.7099785804748535,0.41128402948379517
-3.0323832035064697,4.627650260925293,0.39665159583091736
-3.0489823818206787,4.589473724365234,0.38574492931365967
-3.083268642425537,4.5766987800598145,0.3768424093723297
-3.086789846420288,4.513897895812988,0.36330312490463257
-3.116706371307373,4.494115352630615,0.3530014157295227
-2.891967535018921,4.114526271820068,0.3152018189430237
-2.850724935531616,3.9964070320129395,0.297508180141449
-2.8903822898864746,3.9974751472473145,0.2887551784515381
-2.867504596710205,3.9135661125183105,0.2737560570240021
-2.911201238632202,3.916020154953003,0.2640340328216553
-2.4651854038238525,3.476957082748413,-0.17084194719791412
-2.435025691986084,3.48811411857605,-0.18076859414577484
-2.418626546859741,3.5179450511932373,-0.19124825298786163
-2.345280170440674,3.4682233333587646,-0.1974240392446518
-2.275357246398926,3.4159605503082275,-0.2023012936115265
-2.2116479873657227,3.3733677864074707,-0.20743554830551147
-2.1673176288604736,3.3597865104675293,-0.21408888697624207
-2.135310411453247,3.361238956451416,-0.2211577594280243
-2.1183483600616455,3.389824867248535,-0.23011502623558044
-1.2701586484909058,2.0662083625793457,-0.1444331705570221
-2.0691075325012207,3.419034242630005,-0.24548815190792084
-2.0401408672332764,3.426783800125122,-0.25247722864151
-2.0185141563415527,3.4480466842651367,-0.2604576051235199
-1.9937026500701904,3.461901903152466,-0.26767805218696594
-1.2024993896484375,2.122591733932495,-0.1677863895893097
-1.1716315746307373,2.1038334369659424,-0.1698913276195526
-1.9536226987838745,3.5676357746124268,-0.2940004765987396
-2.5306291580200195,4.698859214782715,-0.39478832483291626
-2.5102758407592773,4.744278430938721,-0.40620970726013184
-2.478922128677368,4.768744468688965,-0.41577017307281494
-2.457679033279419,4.809603214263916,-0.4265150725841522
-2.4340755939483643,4.846981048583984,-0.4369836449623108
-2.398648977279663,4.863837718963623,-0.4455016255378723
-2.379727602005005,4.915614128112793,-0.45735812187194824
-2.3569188117980957,4.956004619598389,-0.4679204225540161
-1.5675424337387085,3.3568685054779053,-0.32147470116615295
-1.5399448871612549,3.360532522201538,-0.3262617588043213
-1.5126111507415771,3.3638665676116943,-0.33097198605537415
-1.4921115636825562,3.380993604660034,-0.33696073293685913
-1.4830589294433594,3.4268646240234375,-0.3458835482597351
-1.4491550922393799,3.4154789447784424,-0.34888386726379395
-1.433633804321289,3.4467809200286865,-0.356224924325943
-1.4094576835632324,3.456214427947998,-0.361261248588562
-1.3850231170654297,3.465557336807251,-0.3662267327308655
-1.363908052444458,3.4859225749969482,-0.3723243474960327
-1.3528484106063843,3.5313611030578613,-0.3810873329639435
-1.767566204071045,4.711826324462891,-0.5135897994041443
-2.0383942127227783,5.551422595977783,-0.6110619306564331
-1.977623462677002,5.5065693855285645,-0.6117057204246521
-1.6196725368499756,4.614690780639648,-0.5174004435539246
-1.5897835493087769,4.632635116577148,-0.5240253210067749
-1.5659663677215576,4.668765068054199,-0.532755970954895
-1.878416895866394,5.734550476074219,-0.6596779227256775
-0.9695894718170166,3.032533884048462,-0.3516329824924469
-0.9535866975784302,3.057528257369995,-0.3573618531227112
-0.8090347647666931,2.6589269638061523,-0.31317684054374695
-0.7649002075195312,2.5786328315734863,-0.30593985319137573
-0.7508912086486816,2.598585367202759,-0.3104405105113983
-0.7545219659805298,2.6819570064544678,-0.32260751724243164
-0.7460177540779114,2.7242484092712402,-0.329912006855011
-0.7186286449432373,2.6991519927978516,-0.32910242676734924
-0.7121387124061584,2.7526798248291016,-0.33762824535369873
-0.6860054135322571,2.7310056686401367,-0.3369655907154083
-0.6631648540496826,2.7203643321990967,-0.3376304507255554
-0.653998076915741,2.766120195388794,-0.34531939029693604
-1.4293514490127563,6.24383544921875,-0.7837725877761841
-1.3744152784347534,6.203902721405029,-0.7826729416847229
-1.3306670188903809,6.212792873382568,-0.7877405285835266
-1.274695873260498,6.1605610847473145,-0.7850222587585449
-1.2286250591278076,6.153470993041992,-0.7880464196205139
-1.1779437065124512,6.127292633056641,-0.7880642414093018
-1.1242433786392212,6.0777177810668945,-0.784965455532074
-1.0761927366256714,6.054380893707275,-0.7852354645729065
-0.9629644751548767,5.644888401031494,-0.7351982593536377
-0.9697133898735046,5.933932781219482,-0.7758859395980835
-0.9333030581474304,5.978524684906006,-0.7843821048736572
-0.4678981304168701,3.141660690307617,-0.41358160972595215
-0.441625714302063,3.113931894302368,-0.41132259368896484
-0.41578802466392517,3.085991621017456,-0.4090263545513153
-0.3961709439754486,3.103987216949463,-0.4125840663909912
-0.38091689348220825,3.160324811935425,-0.42115318775177
-0.358854204416275,3.1666104793548584,-0.4231109321117401
-0.3425372838973999,3.2227470874786377,-0.43174609541893005
-0.32160505652427673,3.2402737140655518,-0.4352555274963379
-0.3021615445613861,3.276996612548828,-0.4409823715686798
-0.2818884551525116,3.309746026992798,-0.44619619846343994
-0.2590065002441406,3.3192358016967773,-0.4483185112476349
-0.2381172776222229,3.3517043590545654,-0.4535595774650574
-0.21603287756443024,3.3724637031555176,-0.4571477472782135
-0.1960531771183014,3.4356319904327393,-0.46619483828544617
-0.17288021743297577,3.4522876739501953,-0.4689641296863556
-0.14958128333091736,3.480402946472168,-0.4733283817768097
-0.12674596905708313,3.519948720932007,-0.47927120327949524
-0.10346566140651703,3.563241720199585,-0.4855263829231262
-0.07934793084859848,3.594799041748047,-0.48998212814331055
-0.0546489916741848,3.618452310562134,-0.49338698387145996
-0.02938733622431755,3.661288261413574,-0.4994382858276367
-0.003961747046560049,3.6845932006835938,-0.5028499364852905
0.021987702697515488,3.742602586746216,-0.5106537938117981
0.048394884914159775,3.7733523845672607,-0.514641523361206
0.07519901543855667,3.803915500640869,-0.5186257362365723
0.10256491601467133,3.838155508041382,-0.5231330990791321
0.13154499232769012,3.891524076461792,-0.5302625298500061
0.15934504568576813,3.9099550247192383,-0.5321558713912964
0.18943630158901215,3.970716953277588,-0.5398237705230713
0.22016748785972595,4.027384281158447,-0.546943187713623
0.25101378560066223,4.072223663330078,-0.5524672865867615
0.28033027052879333,4.078196048736572,-0.5525918006896973
0.30859673023223877,4.076329231262207,-0.5513048768043518
0.33557477593421936,4.05883264541626,-0.5479345321655273
0.3651917278766632,4.071997165679932,-0.5487263202667236
0.3946353793144226,4.081092357635498,-0.5489898324012756
0.42507049441337585,4.093819618225098,-0.5494689345359802
0.1949397325515747,1.758791446685791,-0.23544475436210632
0.47774019837379456,4.053403854370117,-0.5412150025367737
0.5049688220024109,4.042537689208984,-0.5383851528167725
0.5280154347419739,4.0007710456848145,-0.5314815044403076
0.5583457946777344,4.012585163116455,-0.5313143134117126
0.5849811434745789,4.001259803771973,-0.52803635597229
0.6080301403999329,3.9667725563049316,-0.5217399001121521
0.6368933320045471,3.9703848361968994,-0.5204817652702332
0.6619433164596558,3.9508752822875977,-0.5161788463592529
0.6872385144233704,3.935107946395874,-0.5119823217391968
0.710776150226593,3.907653331756592,-0.5062688589096069
0.7364622950553894,3.895355224609375,-0.5025898814201355
0.7606134414672852,3.875262498855591,-0.4979345202445984
0.7805244326591492,3.8360769748687744,-0.49069944024086
0.8006274104118347,3.800638437271118,-0.48376622796058655
0.8339435458183289,3.825608968734741,-0.484503835439682
0.8571460843086243,3.8049733638763428,-0.4795043468475342
0.8871279954910278,3.8144078254699707,-0.4783177673816681
0.9216029644012451,3.8425509929656982,-0.4791480600833893
1.1481119394302368,4.646018028259277,-0.5759952664375305
1.1674283742904663,4.585725784301758,-0.5651671290397644
1.1964777708053589,4.566726207733154,-0.5595328211784363
1.230271816253662,4.566304683685303,-0.5561079978942871
1.2596536874771118,4.550803184509277,-0.5505335330963135
1.2888786792755127,4.5351080894470215,-0.5449738502502441
1.3144865036010742,4.5040740966796875,-0.5375179052352905
1.3436774015426636,4.487907886505127,-0.5319453477859497
1.3678134679794312,4.456837177276611,-0.5243872404098511
1.3961325883865356,4.440498352050781,-0.5184940099716187
1.4243927001953125,4.423943519592285,-0.5125998854637146
1.4558442831039429,4.414291858673096,-0.5074176788330078
1.4778196811676025,4.3788933753967285,-0.4993135929107666
1.5078587532043457,4.369253635406494,-0.4939225912094116
1.2444815635681152,3.527817964553833,-0.39534056186676025
1.2875361442565918,3.5707037448883057,-0.39658716320991516
1.3098082542419434,3.5548126697540283,-0.3912734091281891
1.6029539108276367,4.258937835693359,-0.46418213844299316
1.636266827583313,4.2593607902526855,-0.4596714377403259
1.6657823324203491,4.248525142669678,-0.4538964331150055
1.694063663482666,4.233761787414551,-0.4476831555366516
1.7232496738433838,4.222592353820801,-0.4417409598827362
1.7496025562286377,4.203960418701172,-0.43484359979629517
1.7693666219711304,4.1709699630737305,-0.42657238245010376
1.7985007762908936,4.159115791320801,-0.4204261600971222
1.8209803104400635,4.132950782775879,-0.4127857983112335
1.842666745185852,4.10690450668335,-0.4050641655921936
1.8711835145950317,4.09462308883667,-0.39861980080604553
1.8965611457824707,4.074976444244385,-0.3914444148540497
1.9281563758850098,4.069361209869385,-0.3855820298194885
1.9557180404663086,4.056814193725586,-0.3789353668689728
1.9799039363861084,4.037014961242676,-0.3716109097003937
2.0086755752563477,4.023416042327881,-0.3646261990070343
2.029482126235962,3.9961206912994385,-0.35648220777511597
2.056431293487549,3.9829351902008057,-0.3495401442050934
2.0708794593811035,3.9452860355377197,-0.34044647216796875
2.098491668701172,3.9312822818756104,-0.33328261971473694
2.121713638305664,3.9105417728424072,-0.3255126476287842
2.1484038829803467,3.8965494632720947,-0.3181605339050293
2.1351206302642822,3.8109076023101807,-0.3050588071346283
2.1695096492767334,3.809973955154419,-0.29871582984924316
2.1833760738372803,3.77563214302063,-0.28971219062805176
2.2006359100341797,3.748091459274292,-0.2812803387641907
2.2352521419525146,3.7463085651397705,-0.27437180280685425
2.2529399394989014,3.7180402278900146,-0.2656046152114868
2.269432783126831,3.6902480125427246,-0.2568807303905487
2.306967258453369,3.6950652599334717,-0.250240683555603
2.3118932247161865,3.646435499191284,-0.2398390918970108
2.3531112670898438,3.6576738357543945,-0.23322752118110657
2.381857395172119,3.6488678455352783,-0.22525855898857117
2.394463300704956,3.613090991973877,-0.21532145142555237
2.42256236076355,3.6042277812957764,-0.20699375867843628
2.450885057449341,3.594980001449585,-0.19846677780151367
2.4675920009613037,3.5650806427001953,-0.18824076652526855
2.4861292839050293,3.543126106262207,-0.1786421537399292
2.5234005451202393,3.545938491821289,-0.16993331909179688
2.538475513458252,3.5163934230804443,-0.1592610627412796
2.569976568222046,3.513245105743408,-0.1497938483953476
2.1870508193969727,2.9471633434295654,-0.11705958843231201
2.80537748336792,3.935793876647949,0.31827306747436523
2.7657952308654785,3.94374418258667,0.3287103474140167
2.733426094055176,3.955900192260742,0.33859536051750183
2.6983580589294434,3.9695868492126465,0.34842565655708313
2.668246030807495,3.9890024662017822,0.3584419786930084
2.631467819213867,3.993870496749878,0.36658361554145813
2.6088802814483643,4.026366233825684,0.377193808555603
2.5906691551208496,4.064976692199707,0.3881879150867462
2.5660927295684814,4.088916778564453,0.39729389548301697
2.535963535308838,4.106849193572998,0.4056977927684784
2.500467538833618,4.118625640869141,0.4133704602718353
2.4660136699676514,4.129473686218262,0.4207303822040558
2.4526331424713135,4.172794342041016,0.43116486072540283
2.423145294189453,4.193694114685059,0.43908873200416565
2.3893704414367676,4.207762241363525,0.4462876319885254
2.3593623638153076,4.22390604019165,0.45337802171707153
2.284153461456299,4.158108234405518,0.451619029045105
2.2437403202056885,4.1572489738464355,0.4564192295074463
2.221580743789673,4.190413951873779,0.46496567130088806
2.198777437210083,4.2192583084106445,0.4728565216064453
2.165529489517212,4.226982593536377,0.4783361554145813
2.137432336807251,4.249258518218994,0.4853212237358093
2.1160480976104736,4.28527307510376,0.49375981092453003
2.074608325958252,4.2789130210876465,0.49724820256233215
2.0512259006500244,4.306725978851318,0.5045698881149292
2.0304794311523438,4.3416242599487305,0.5126991271972656
1.9918235540390015,4.341763019561768,0.516480028629303
1.962308406829834,4.363039970397949,0.5228594541549683
1.9971352815628052,4.525418281555176,0.5460909008979797
1.9623156785964966,4.531520366668701,0.5505591630935669
1.9510804414749146,4.5948381423950195,0.561849057674408
1.8935199975967407,4.551050186157227,0.5598426461219788
1.8858368396759033,4.6291303634643555,0.5729308128356934
1.8560611009597778,4.648903846740723,0.5786886811256409
1.8276805877685547,4.672031402587891,0.5848885774612427
1.7970879077911377,4.691606521606445,0.5904886722564697
1.7600724697113037,4.696764945983887,0.5940831303596497
1.342244267463684,3.6638600826263428,0.46578213572502136
1.313679575920105,3.665527820587158,0.46824660897254944
1.2879981994628906,3.674201488494873,0.471600741147995
1.6593060493469238,4.841880798339844,0.6243462562561035
1.6167707443237305,4.831206798553467,0.6255059242248535
1.5955736637115479,4.886683940887451,0.6353169679641724
1.5629332065582275,4.904840469360352,0.6402605175971985
1.52171790599823,4.89292573928833,0.641243040561676
1.4920446872711182,4.917750835418701,0.6470644474029541
1.4436169862747192,4.883243083953857,0.6447263360023499
1.4191151857376099,4.930302619934082,0.6530869603157043
1.4069395065307617,5.025929927825928,0.6680094599723816
1.3635096549987793,5.005313873291016,0.6674423217773438
1.2869027853012085,4.856967926025391,0.6497814059257507
1.2624750137329102,4.902955055236816,0.6580260396003723
1.2254785299301147,4.903963565826416,0.6598781943321228
1.1997278928756714,4.953781604766846,0.6683772206306458
1.1625847816467285,4.954286098480225,0.6702315807342529
1.1383286714553833,5.007203102111816,0.6791817545890808
1.1083977222442627,5.037321090698242,0.6850968599319458
1.0785760879516602,5.071140289306641,0.6913853883743286
1.0394643545150757,5.06711483001709,0.692251443862915
0.9988522529602051,5.051275730133057,0.6915047764778137
0.9796753525733948,5.145374298095703,0.7058554887771606
1.9525341987609863,10.657607078552246,1.4650895595550537
1.8729244470596313,10.639776229858398,1.46574866771698
1.7994920015335083,10.667525291442871,1.4723351001739502
1.7072646617889404,10.576308250427246,1.4618839025497437
1.6345876455307007,10.602926254272461,1.4677790403366089
0.26278385519981384,1.788088083267212,0.247910737991333
1.4746367931365967,10.543266296386719,1.4640765190124512
1.3957808017730713,10.522246360778809,1.4635614156723022
1.3139575719833374,10.466023445129395,1.4577646255493164
1.2324137687683105,10.40933609008789,1.451298713684082
1.1357945203781128,10.20975399017334,1.424945592880249
1.0603045225143433,10.182502746582031,1.4226751327514648
0.993611752986908,10.231633186340332,1.4311281442642212
0.390713095664978,4.342597484588623,0.608128011226654
0.3553459644317627,4.283388614654541,0.6004626154899597
0.3252667188644409,4.285688400268555,0.6011001467704773
0.2978767156600952,4.326367378234863,0.6071527004241943
0.10716143250465393,1.7336201667785645,0.24344325065612793
0.30808180570602417,5.631645202636719,0.7913569808006287
0.27001696825027466,5.656717777252197,0.7954457402229309
0.2316182404756546,5.68153190612793,0.7995412349700928
0.19371142983436584,5.733227729797363,0.8068859577178955
0.15451303124427795,5.765336036682129,0.8115119338035583
0.11387328058481216,5.781717777252197,0.813967764377594
0.07391754537820816,5.8094072341918945,0.8180538415908813
0.03373143449425697,5.840686321258545,0.8226863741874695
-0.006977483630180359,5.894892692565918,0.8305923342704773
-0.04893273487687111,6.018498420715332,0.8478712439537048
-0.09140916168689728,6.010313034057617,0.8464500904083252
-0.13407869637012482,6.048249244689941,0.8515691757202148
-0.17845238745212555,6.128414630889893,0.8626716732978821
-0.22310948371887207,6.18505859375,0.8705009818077087
-0.26008111238479614,6.044280052185059,0.8505874276161194
-0.1774422824382782,3.5504984855651855,0.4994514584541321
-0.20462475717067719,3.587860345840454,0.5043289661407471
-0.22647397220134735,3.540109395980835,0.4972737729549408
-0.5556379556655884,7.833391189575195,1.099636197090149
-0.6061608195304871,7.779368877410889,1.0913993120193481
-0.5604525804519653,6.599414825439453,0.9253478050231934
-0.606375515460968,6.587748050689697,0.9230978488922119
-0.6342036128044128,6.406546592712402,0.8966317176818848
-0.6759395599365234,6.3791632652282715,0.8917677998542786
-0.7216010689735413,6.389962196350098,0.8922867774963379
-0.43785420060157776,3.6496806144714355,0.5090897083282471
-0.46373337507247925,3.6466166973114014,0.5081287622451782
-0.4824257493019104,3.5935726165771484,0.5002449750900269
-0.5027897357940674,3.559694528579712,0.49471190571784973
-0.5272471308708191,3.5563302040100098,0.49344557523727417
-0.5439620018005371,3.5030808448791504,0.48529186844825745
-0.5624206066131592,3.46113657951355,0.47872820496559143
-1.075892448425293,6.342219829559326,0.8759028911590576
-1.1260088682174683,6.369209289550781,0.8783431053161621
-1.179389476776123,6.415038585662842,0.8828689455986023
-1.2325924634933472,6.456674098968506,0.8867242932319641
-1.2856664657592773,6.494086742401123,0.890013575553894
-1.3430116176605225,6.542187690734863,0.89472496509552
-1.3990033864974976,6.582330226898193,0.8983811736106873
-1.4464056491851807,6.5804266929626465,0.8963291645050049
-1.4802935123443604,6.521758079528809,0.8861050009727478
-1.5141096115112305,6.466767311096191,0.8763117790222168
-0.6753897070884705,2.7972359657287598,0.37804606556892395
-0.6965380907058716,2.800243616104126,0.3774649202823639
-0.7083213925361633,2.765526056289673,0.3718157708644867
-0.7236039638519287,2.745759963989258,0.36821046471595764
-0.7503750324249268,2.7709271907806396,0.3704189360141754
-0.7756659388542175,2.7883427143096924,0.37152209877967834
-1.7465029954910278,6.117980480194092,0.8125505447387695
-1.785567045211792,6.095137596130371,0.8068807125091553
-1.1432641744613647,3.8042399883270264,0.5019679665565491
-1.1560500860214233,3.7520833015441895,0.4934723377227783
-1.1865289211273193,3.7592098712921143,0.4924320876598358
-1.2095725536346436,3.744096517562866,0.4885307550430298
-1.2421984672546387,3.7582881450653076,0.4884680509567261
-1.278321623802185,3.779308795928955,0.48923224210739136
-2.00447154045105,5.793478488922119,0.7469772100448608
-2.032597780227661,5.7472944259643555,0.7378543615341187
-2.0613152980804443,5.704746723175049,0.7289069294929504
-2.0889108180999756,5.662289142608643,0.7200967669487
-2.1153416633605957,5.615832805633545,0.7107876539230347
-2.151761770248413,5.594330787658691,0.7046258449554443
-2.1978566646575928,5.597887992858887,0.7016528844833374
-2.261997699737549,5.648310661315918,0.7039728164672852
-2.321836471557617,5.687617778778076,0.7049162983894348
-2.351247787475586,5.65103006362915,0.6964364051818848
-2.3801610469818115,5.610149383544922,0.687347412109375
-2.4301888942718506,5.619013786315918,0.6843869090080261
-2.540728807449341,5.766409397125244,0.6977332234382629
-2.5712480545043945,5.732390880584717,0.6890029311180115
-2.5563607215881348,5.599255561828613,0.6684865951538086
-2.582472562789917,5.553818702697754,0.6583771109580994
-2.5764403343200684,5.441595554351807,0.6404920816421509
-2.6338775157928467,5.466643810272217,0.6384052634239197
-2.6377203464508057,5.383518218994141,0.6237263679504395
-2.703298568725586,5.425602912902832,0.6235396265983582
-2.7148773670196533,5.35538387298584,0.6102573871612549
-2.7379512786865234,5.30949068069458,0.5998456478118896
-2.783747434616089,5.312819480895996,0.5946201682090759
-2.7809760570526123,5.2228102684021,0.5789328813552856
-1.1474024057388306,2.120096206665039,0.23267586529254913
-1.1772834062576294,2.1395840644836426,0.23239387571811676
-2.5201714038848877,4.508245944976807,0.4843693971633911
-2.5229125022888184,4.444965839385986,0.4721827208995819
-2.53175687789917,4.39138126373291,0.4609639644622803
-6.047306060791016,10.323089599609375,1.0701932907104492
-1.249418020248413,2.1001389026641846,0.21492724120616913
-1.2389419078826904,2.05234694480896,0.2072068452835083
-2.7225162982940674,4.444092750549316,0.4424380660057068
-2.7543234825134277,4.42530632019043,0.4337892532348633
-2.9839565753936768,4.72330379486084,0.455719530582428
-2.9955968856811523,4.6752471923828125,0.4436686635017395
-3.0312106609344482,4.662428855895996,0.43473726511001587
-3.0468533039093018,4.6158576011657715,0.422334760427475
-3.068779945373535,4.583494663238525,0.41096535325050354
-3.0850279331207275,4.545240879058838,0.3992338180541992
-3.092576265335083,4.489104270935059,0.3852708339691162
-3.1268997192382812,4.475700378417969,0.3749253749847412
-2.844353437423706,4.017750263214111,0.3281517028808594
-2.863571882247925,3.9857776165008545,0.3161441683769226
-2.919800281524658,4.0085129737854,0.30833011865615845
-2.891667366027832,3.9187779426574707,0.2918342053890228
-2.986473560333252,4.178921699523926,-0.20883896946907043
-2.4472928047180176,3.479341745376587,-0.18413858115673065
-2.4482061862945557,3.535226821899414,-0.19695843756198883
-2.3787806034088135,3.4876673221588135,-0.2034885138273239
-2.306488513946533,3.437056303024292,-0.20951257646083832
-2.2281785011291504,3.371462345123291,-0.21367649734020233
-2.183864116668701,3.357948064804077,-0.22092950344085693
-2.150041103363037,3.360602378845215,-0.2289966642856598
-2.126370668411255,3.3750557899475098,-0.23730339109897614
-1.2614450454711914,2.0345823764801025,-0.14742352068424225
-1.2543244361877441,2.056898355484009,-0.15341819822788239
-2.043747901916504,3.4057488441467285,-0.26095956563949585
-2.0309977531433105,3.439943790435791,-0.27036985754966736
-2.0229568481445312,3.4846644401550293,-0.2806874215602875
-1.1902800798416138,2.0841708183288574,-0.17176836729049683
-1.1984435319900513,2.1329028606414795,-0.17966878414154053
-2.575742721557617,4.664768218994141,-0.40143609046936035
-2.5491673946380615,4.696228981018066,-0.41240251064300537
-2.5197365283966064,4.720078468322754,-0.42248350381851196
-2.5001730918884277,4.7648234367370605,-0.4344201385974884
-2.4687392711639404,4.789078712463379,-0.4445098638534546
-2.4498016834259033,4.837220191955566,-0.45680975914001465
-2.41931414604187,4.8603715896606445,-0.46657678484916687
-2.3908708095550537,4.8908867835998535,-0.4769498407840729
-2.370417594909668,4.938817024230957,-0.4890882074832916
-1.5691553354263306,3.3288402557373047,-0.3345262408256531
-1.5424233675003052,3.332146167755127,-0.3396906852722168
-1.5210124254226685,3.3499183654785156,-0.34627026319503784
-1.4966850280761719,3.360259532928467,-0.35202792286872864
-1.4792293310165405,3.384370803833008,-0.35912778973579407
-2.051227331161499,4.783932209014893,-0.5140673518180847
-1.4563668966293335,3.4648735523223877,-0.37679001688957214
-1.424957036972046,3.460488796234131,-0.38084280490875244
-1.406430959701538,3.4842331409454346,-0.38781261444091797
-1.3876510858535767,3.5078704357147217,-0.3948160409927368
-1.3596194982528687,3.509913682937622,-0.3991856575012207
-1.331627607345581,3.511730909347534,-0.4035331606864929
-1.7604082822799683,4.743860721588135,-0.5506929159164429
-2.012101650238037,5.539929389953613,-0.6494811773300171
-1.9219236373901367,5.410551071166992,-0.6401954293251038
-1.6132829189300537,4.645898342132568,-0.5547170639038086
-1.589178204536438,4.682153224945068,-0.5640289187431335
-1.9051090478897095,5.746011734008789,-0.6983537673950195
-0.9453808069229126,2.919821262359619,-0.3578168451786041
-0.9175806045532227,2.903831958770752,-0.3586823046207428
-0.8135438561439514,2.6392312049865723,-0.32856640219688416
-0.7715960144996643,2.566466808319092,-0.3219776749610901
-0.7600887417793274,2.593766689300537,-0.3278663754463196
-0.7476875185966492,2.6211941242218018,-0.33366841077804565
-0.7466678619384766,2.68957257270813,-0.3447355329990387
-0.7338529825210571,2.716815710067749,-0.350591242313385
-0.7148271799087524,2.721498489379883,-0.3535670340061188
-0.6984521746635437,2.737384796142578,-0.35782045125961304
-0.6740728616714478,2.723173141479492,-0.358112633228302
-0.6611964702606201,2.7538726329803467,-0.3642895519733429
-0.6437057852745056,2.7656121253967285,-0.367983341217041
-1.4301395416259766,6.3442277908325195,-0.8488985896110535
-0.6163663864135742,2.826683759689331,-0.3801229000091553
-0.5976820588111877,2.8382740020751953,-0.3836299180984497
-0.5778219103813171,2.842055320739746,-0.3860577642917633
-0.5676679015159607,2.89507794380188,-0.3952224850654602
-0.5444511771202087,2.8834707736968994,-0.39537250995635986
-0.5338461995124817,2.9402568340301514,-0.40483614802360535
-0.5115016102790833,2.936066150665283,-0.40597742795944214
-0.4980548918247223,2.9812510013580322,-0.4139431118965149
-0.48215654492378235,3.014923095703125,-0.4203330874443054
-0.4645039439201355,3.040926933288574,-0.4253641963005066
-0.4443050026893616,3.0515072345733643,-0.42827126383781433
-0.4284294545650482,3.096482276916504,-0.4360724091529846
-0.4078635275363922,3.1068007946014404,-0.43900763988494873
-0.38996145129203796,3.140047788619995,-0.4450300633907318
-0.3702109158039093,3.161700487136841,-0.44923704862594604
-0.3505990207195282,3.1870710849761963,-0.4540097117424011
-0.33159923553466797,3.219996213912964,-0.45989227294921875
-0.31102263927459717,3.245140552520752,-0.4647275507450104
-0.29144391417503357,3.2817323207855225,-0.47085875272750854
-0.2716979682445526,3.322068214416504,-0.4774884283542633
-0.24912409484386444,3.3314335346221924,-0.4797006845474243
-0.22881370782852173,3.3753604888916016,-0.48692500591278076
-0.20586571097373962,3.392177104949951,-0.4902241826057434
-0.18386635184288025,3.4243199825286865,-0.4953477382659912
-0.16163738071918488,3.4601778984069824,-0.50104159116745
-0.13937829434871674,3.507477283477783,-0.508428692817688
-0.11601980030536652,3.539172887802124,-0.5135893225669861
-0.09164778888225555,3.566887855529785,-0.5179935693740845
-0.06724309176206589,3.59060001373291,-0.5215659141540527
-0.04295174404978752,3.6489319801330566,-0.5301955342292786
-0.017543073743581772,3.6491122245788574,-0.5304039716720581
0.007985513657331467,3.718696117401123,-0.5407297015190125
0.03454389050602913,3.745631217956543,-0.5444826483726501
0.06145390868186951,3.7994585037231445,-0.5520319938659668
0.08848819136619568,3.826038360595703,-0.5556434988975525
0.11674044281244278,3.879472494125366,-0.5631767511367798
0.14456208050251007,3.901796817779541,-0.5661935806274414
0.17423339188098907,3.9587559700012207,-0.5737247467041016
0.2039802521467209,3.9923040866851807,-0.5778624415397644
0.23442070186138153,4.037233829498291,-0.5836731791496277
0.2651778757572174,4.078080177307129,-0.5889081954956055
0.2931879758834839,4.072442531585693,-0.587261438369751
0.32077792286872864,4.062813758850098,-0.5847070217132568
0.349374920129776,4.060664653778076,-0.5832411050796509
0.38371679186820984,4.123800277709961,-0.5911757946014404
0.4108676016330719,4.105848789215088,-0.5875007510185242
0.19230179488658905,1.7958521842956543,-0.25633853673934937
0.2003841996192932,1.756170392036438,-0.24998965859413147
0.488873690366745,4.031899452209473,-0.5723662972450256
0.5188683271408081,4.044030666351318,-0.5725611448287964
0.5376057028770447,3.971604824066162,-0.5608334541320801
0.567259669303894,3.983454942703247,-0.5605425238609314
0.5925251841545105,3.9644737243652344,-0.5559305548667908
0.6205263733863831,3.960538864135742,-0.5534226894378662
0.6437692046165466,3.929724931716919,-0.5472235083580017
0.6736941933631897,3.9407758712768555,-0.5467233657836914
0.6969274282455444,3.913555860519409,-0.5406115055084229
0.7240453958511353,3.9090347290039062,-0.5376747846603394
0.7468704581260681,3.88149094581604,-0.5316001772880554
0.7713291049003601,3.861321210861206,-0.5265446901321411
0.7910259366035461,3.822192907333374,-0.518677830696106
0.8158323764801025,3.8095054626464844,-0.5143251419067383
0.8438795804977417,3.8117733001708984,-0.51201331615448
0.860089898109436,3.7609307765960693,-0.5026001334190369
0.8796039819717407,3.7250351905822754,-0.4951638877391815
0.9126166105270386,3.749481439590454,-0.4954604506492615
0.9403836727142334,3.7510948181152344,-0.4927302300930023
0.9548654556274414,3.6999168395996094,-0.48309534788131714
0.9807015657424927,3.6936376094818115,-0.47937193512916565
1.0057251453399658,3.6834025382995605,-0.4748907685279846
1.0290379524230957,3.6694302558898926,-0.469853937625885
1.0501163005828857,3.6478381156921387,-0.46387630701065063
1.0877082347869873,3.6818296909332275,-0.46492999792099
1.1133928298950195,3.674671173095703,-0.46074843406677246
1.3865588903427124,4.463774681091309,-0.5552593469619751
1.4066979885101318,4.421518325805664,-0.5457050800323486
1.4374734163284302,4.4122819900512695,-0.5402367115020752
1.4682881832122803,4.4027934074401855,-0.534749448299408
1.4911991357803345,4.371181964874268,-0.5263732671737671
1.5135284662246704,4.339537620544434,-0.5179440975189209
1.2714803218841553,3.5652406215667725,-0.4216446876525879
1.296435832977295,3.5568137168884277,-0.41679316759109497
1.3184400796890259,3.541003942489624,-0.411028116941452
1.622827172279358,4.269453525543213,-0.4906488060951233
1.654915690422058,4.26615571975708,-0.48533183336257935
1.6824170351028442,4.247752666473389,-0.4781336486339569
1.7077504396438599,4.225764274597168,-0.47065138816833496
1.7307103872299194,4.200325012207031,-0.46257612109184265
1.7563785314559937,4.1819353103637695,-0.4553312659263611
1.7885963916778564,4.177431106567383,-0.4495091438293457
1.8152461051940918,4.158159255981445,-0.44200414419174194
1.8278602361679077,4.110827922821045,-0.4314925968647003
1.8590806722640991,4.106049060821533,-0.42547035217285156
1.8908367156982422,4.10080099105835,-0.4192977249622345
1.9096951484680176,4.066991329193115,-0.41018199920654297
1.93796706199646,4.054316520690918,-0.40300002694129944
1.968922734260559,4.048731803894043,-0.39658498764038086
1.984877347946167,4.011265754699707,-0.38697999715805054
2.0094523429870605,3.9909965991973877,-0.37903499603271484
2.0329625606536865,3.971021890640259,-0.3710268437862396
2.0687437057495117,3.97514271736145,-0.36524033546447754
2.09684157371521,3.9611010551452637,-0.3574807047843933
2.111616373062134,3.9230005741119385,-0.34766262769699097
2.1342403888702393,3.9025402069091797,-0.33935651183128357
2.1642701625823975,3.8955469131469727,-0.3322308361530304
2.128373146057129,3.768972873687744,-0.31482601165771484
2.1703295707702637,3.7816154956817627,-0.30905666947364807
2.199559450149536,3.774355173110962,-0.30166515707969666
2.2213845252990723,3.753138303756714,-0.2930254340171814
2.2477049827575684,3.738077402114868,-0.2847095727920532
2.2808048725128174,3.7368814945220947,-0.2773946523666382
2.2855749130249023,3.688800096511841,-0.2664894163608551
2.315622091293335,3.6798551082611084,-0.25820526480674744
2.3405871391296387,3.664632797241211,-0.24945580959320068
2.347752809524536,3.623507499694824,-0.23899723589420319
2.3857197761535645,3.627263307571411,-0.23111750185489655
2.4194676876068115,3.624209403991699,-0.2225027233362198
2.421177864074707,3.576604127883911,-0.21134264767169952
2.4458563327789307,3.560337781906128,-0.2016148716211319
2.4832005500793457,3.56351637840271,-0.19282713532447815
2.497148036956787,3.5351812839508057,-0.18231910467147827
2.5267868041992188,3.524212598800659,-0.17180505394935608
2.568091869354248,3.533413887023926,-0.1623287796974182
2.5775160789489746,3.4979851245880127,-0.15041610598564148
2.7837653160095215,3.938969850540161,0.3485087454319
2.7551889419555664,3.958001136779785,0.35979750752449036
2.7037317752838135,3.9451959133148193,0.3677980303764343
2.6721880435943604,3.9655869007110596,0.37886935472488403
2.6610755920410156,4.009532928466797,0.3912959396839142
2.6399896144866943,4.041090965270996,0.40243250131607056
2.5875420570373535,4.027708053588867,0.4089248776435852
2.562410831451416,4.052022457122803,0.41871464252471924
2.5453758239746094,4.089329242706299,0.4298158586025238
2.5261237621307373,4.127708435058594,0.4407302141189575
2.5130040645599365,4.175685405731201,0.4526554346084595
2.4617137908935547,4.155595779418945,0.4567800760269165
2.43733549118042,4.182560443878174,0.4659267067909241
2.408870220184326,4.207077503204346,0.4747602939605713
2.3853650093078613,4.237422943115234,0.4840482771396637
2.3234262466430664,4.195484161376953,0.4847814440727234
2.261306047439575,4.153393745422363,0.4852215647697449
2.23363995552063,4.17633056640625,0.4930356740951538
2.2039453983306885,4.195633888244629,0.5004615187644958
2.177961587905884,4.2171406745910645,0.5078489184379578
2.144432544708252,4.224794864654541,0.5135161280632019
2.1233043670654297,4.2607316970825195,0.5223641991615295
2.098308801651001,4.289613246917725,0.5304177403450012
2.0605828762054443,4.289882183074951,0.5348175764083862
2.0436105728149414,4.331603527069092,0.544316291809082
2.00553297996521,4.331533432006836,0.5483375787734985
1.9830513000488281,4.366732597351074,0.5567240118980408
2.007736921310425,4.508047103881836,0.5787750482559204
1.9884834289550781,4.549743175506592,0.5880231261253357
1.9590140581130981,4.570211887359619,0.5946550965309143
1.9255765676498413,4.583706378936768,0.5999801754951477
1.9036405086517334,4.625730514526367,0.6090357899665833
1.8830193281173706,4.67111349105835,0.6185732483863831
1.820349097251892,4.607795238494873,0.6135866045951843
1.7902897596359253,4.627190589904785,0.6196522116661072
3.9993345737457275,10.561881065368652,1.421412467956543
1.3540605306625366,3.6557581424713135,0.49436575174331665
1.3247954845428467,3.6577305793762207,0.49701738357543945
1.3043413162231445,3.6810436248779297,0.5025083422660828
1.2806326150894165,3.6970715522766113,0.5070845484733582
1.6230404376983643,4.795337200164795,0.6605231761932373
1.585788607597351,4.799058437347412,0.6636360883712769
1.558075189590454,4.831975936889648,0.6708293557167053
1.5273382663726807,4.853397369384766,0.6764145493507385
1.5177689790725708,4.945000648498535,0.69187992811203
1.4632084369659424,4.888158321380615,0.6865441203117371
1.463712453842163,5.020706653594971,0.7073930501937866
1.407485842704773,4.959841251373291,0.7010469436645508
1.36147940158844,4.932019233703613,0.6993588209152222
1.3159340620040894,4.89980936050415,0.6969847083091736
1.2791587114334106,4.9010419845581055,0.6994158625602722
1.2350434064865112,4.87197208404541,0.6973171830177307
1.219517707824707,4.959167957305908,0.7115786075592041
1.1839176416397095,4.967357635498047,0.7145711779594421
1.1537929773330688,4.997836589813232,0.7207989692687988
1.1250330209732056,5.035671234130859,0.7281407713890076
1.0898889303207397,5.042968273162842,0.7310811281204224
1.0558903217315674,5.057708740234375,0.7348653078079224
1.012203335762024,5.026837348937988,0.7317884564399719
0.9822638034820557,5.063934803009033,0.7386415600776672
1.9072986841201782,10.224628448486328,1.4944247007369995
1.8359519243240356,10.236976623535156,1.499238133430481
1.7684612274169922,10.271684646606445,1.5074057579040527
1.688731074333191,10.237451553344727,1.5049582719802856
1.6136888265609741,10.233342170715332,1.5064738988876343
1.5364280939102173,10.221210479736328,1.5069141387939453
1.463704228401184,10.227422714233398,1.5100821256637573
1.3851889371871948,10.183204650878906,1.5058335065841675
1.3103258609771729,10.161392211914062,1.5049524307250977
1.242024540901184,10.192848205566406,1.511593222618103
1.1692875623703003,10.193284034729004,1.5130513906478882
1.0953826904296875,10.19332504272461,1.514549970626831
1.0251866579055786,10.215773582458496,1.5194274187088013
0.4079142212867737,4.3705339431762695,0.6507279276847839
0.37117886543273926,4.299961090087891,0.6409227848052979
0.339983195066452,4.28688907623291,0.6396177411079407
0.3116125166416168,4.319939613342285,0.644855797290802
0.28231000900268555,4.33734655380249,0.6477887630462646
0.3277837634086609,5.646648406982422,0.8438114523887634
0.2896665632724762,5.671821117401123,0.8480889797210693
0.25121477246284485,5.6967339515686035,0.8523731827735901
0.21130986511707306,5.709826946258545,0.8549441695213318
0.17283231019973755,5.757460594177246,0.8621477484703064
0.13268548250198364,5.758492469787598,0.862371027469635
0.09364748746156693,5.832635879516602,0.8735870122909546
0.053119271993637085,5.848565101623535,0.8761278986930847
0.011744622141122818,5.841033935546875,0.8752002120018005
-0.02921370044350624,5.9143385887146,0.8864266872406006
-0.07178762555122375,6.033764362335205,0.9042136073112488
-0.1149250790476799,6.098843574523926,0.9136397838592529
-0.1570773422718048,6.090237140655518,0.9120684862136841
-0.20171195268630981,6.158559799194336,0.9220592379570007
-0.23953492939472198,6.014216899871826,0.9002533555030823
-0.1684928834438324,3.6005334854125977,0.5388664603233337
-0.19391033053398132,3.6070451736450195,0.5396655797958374
-0.2160147875547409,3.5594370365142822,0.5321188569068909
-0.5302897691726685,7.8405961990356445,1.1712520122528076
-0.5831713676452637,7.806053638458252,1.165257215499878
-0.536748468875885,6.5697126388549805,0.9800544381141663
-0.5881429314613342,6.631429195404053,0.9886565208435059
-0.6257692575454712,6.538886547088623,0.9743089079856873
-0.6526627540588379,6.35786771774292,0.9461819529533386
-0.7018482685089111,6.395659923553467,0.9506526589393616
-0.7467249035835266,6.398622989654541,0.9500044584274292
-0.7849050164222717,6.3436994552612305,0.9408055543899536
-0.8239314556121826,6.300039768218994,0.9333350658416748
-0.859750509262085,6.236998558044434,0.9230530261993408
-0.9012051224708557,6.215857028961182,0.9185275435447693
-0.5348920822143555,3.5195765495300293,0.5192322731018066
-0.5577726364135742,3.5083954334259033,0.5167467594146729
-0.5857786536216736,3.5275444984436035,0.5187429189682007
-1.1038986444473267,6.372921466827393,0.9357087016105652
-1.1565173864364624,6.411101341247559,0.9398872256278992
-1.2093958854675293,6.445042610168457,0.9430831074714661
-1.2638068199157715,6.4902215003967285,0.9476509094238281
-1.3181265592575073,6.53117036819458,0.9516136050224304
-1.3748548030853271,6.579212665557861,0.9566128849983215
-1.4271411895751953,6.600210666656494,0.9576750993728638
-1.462895393371582,6.54135799407959,0.9471680521965027
-1.5009604692459106,6.501494407653809,0.9392118453979492
-1.5317128896713257,6.435253143310547,0.9271461963653564
-0.6900668740272522,2.814332962036133,0.40439319610595703
-0.7092835903167725,2.809797763824463,0.4026775360107422
-0.7214035987854004,2.7749927043914795,0.39661523699760437
-0.7386965751647949,2.7626755237579346,0.39382117986679077
-0.7658863067626953,2.7876462936401367,0.3962191343307495
-0.7805712819099426,2.767771005630493,0.3921114206314087
-1.77293062210083,6.127753734588623,0.8653114438056946
-1.1248072385787964,3.7890360355377197,0.5332918167114258
-1.1467312574386597,3.7666687965393066,0.5284030437469482
-1.1821999549865723,3.788540840148926,0.5297418832778931
-1.1903915405273438,3.725468635559082,0.5189834833145142
-1.2215709686279297,3.736173629760742,0.5184170603752136
-1.259528636932373,3.7648556232452393,0.5203033089637756
-1.288014531135559,3.763841390609741,0.5180767774581909
-2.020742654800415,5.773558616638184,0.7914892435073853
-2.0466818809509277,5.719863414764404,0.7809471487998962
-2.0771875381469727,5.684858798980713,0.7724888920783997
-2.1073129177093506,5.649693012237549,0.7640721201896667
-2.1337063312530518,5.603219985961914,0.7541211247444153
-2.170013904571533,5.581697940826416,0.7475312352180481
-2.233288288116455,5.628398418426514,0.7500790953636169
-2.299243927001953,5.682116508483887,0.7531958818435669
-2.3372154235839844,5.667420864105225,0.7470194101333618
-2.3727951049804688,5.64503288269043,0.7397893071174622
-2.4026694297790527,5.607908725738525,0.7306175231933594
-2.454223394393921,5.620253562927246,0.7278814911842346
-3.91810941696167,8.808493614196777,1.133712887763977
-2.5268378257751465,5.5811991691589355,0.7135454416275024
-2.571118116378784,5.578922748565674,0.7083820700645447
-2.5716378688812256,5.481135845184326,0.6910979747772217
-2.57831072807312,5.397274971008301,0.6756450533866882
-2.6544554233551025,5.460588455200195,0.6784558296203613
-2.666613817214966,5.395018100738525,0.6649706959724426
