X,Y,Z
0.09345123171806335,2.5030970573425293,-0.18575190007686615
0.11084984242916107,2.502401828765869,-0.18554823100566864
0.13011649250984192,2.5326993465423584,-0.1875990331172943
0.14679966866970062,2.5161969661712646,-0.18619436025619507
0.16378983855247498,2.507359027862549,-0.18536731600761414
0.18122614920139313,2.5061776638031006,-0.185115784406662
0.1986032873392105,2.5048868656158447,-0.18475894629955292
0.21558083593845367,2.4956936836242676,-0.18376509845256805
0.23213276267051697,2.4864134788513184,-0.1827811747789383
0.250210165977478,2.492520809173584,-0.18293577432632446
0.26919394731521606,2.506246566772461,-0.1836560070514679
0.28653913736343384,2.5043601989746094,-0.18314433097839355
0.3003695607185364,2.4713869094848633,-0.180301696062088
0.31543993949890137,2.4538381099700928,-0.17860855162143707
0.3325044810771942,2.4516255855560303,-0.1780397742986679
0.34957483410835266,2.449291229248047,-0.17747025191783905
0.3676731586456299,2.4545671939849854,-0.17737044394016266
0.3945528566837311,2.513568639755249,-0.1810709834098816
0.4125271737575531,2.514683246612549,-0.18060459196567535
0.4300086498260498,2.5118067264556885,-0.1798553466796875
0.44543904066085815,2.4972963333129883,-0.17828354239463806
0.4662550687789917,2.513371706008911,-0.17881566286087036
0.48354801535606384,2.5101654529571533,-0.17792201042175293
0.5041746497154236,2.522066354751587,-0.17809215188026428
0.528045117855072,2.5490875244140625,-0.17933061718940735
0.5359752178192139,2.499687910079956,-0.17520539462566376
0.5548900365829468,2.5036115646362305,-0.17473743855953217
0.5842382907867432,2.5530030727386475,-0.1773846298456192
0.6173295378684998,2.613407850265503,-0.1807527244091034
0.635501503944397,2.6091253757476807,-0.17964012920856476
0.6555631160736084,2.612271308898926,-0.17904436588287354
0.6754341125488281,2.615339994430542,-0.17833754420280457
0.7043253183364868,2.6521806716918945,-0.17989864945411682
0.7270101308822632,2.662306547164917,-0.17961297929286957
0.7560784816741943,2.694794178009033,-0.18083137273788452
0.7726543545722961,2.6820647716522217,-0.1790114939212799
0.8009097576141357,2.7104644775390625,-0.17979449033737183
0.8239375948905945,2.7199485301971436,-0.17931115627288818
0.8546261191368103,2.751413583755493,-0.1802307367324829
0.8761348128318787,2.7529239654541016,-0.1791902631521225
0.90846186876297,2.7876710891723633,-0.18026022613048553
0.9298900365829468,2.7889256477355957,-0.17906853556632996
0.9639838933944702,2.826913833618164,-0.1802186816930771
0.9836161136627197,2.820253372192383,-0.17848515510559082
1.0062028169631958,2.820667266845703,-0.1771792620420456
1.0228004455566406,2.8065059185028076,-0.17490077018737793
1.0622090101242065,2.854443073272705,-0.17644350230693817
1.1080787181854248,2.9164741039276123,-0.17878586053848267
1.1340137720108032,2.9233481884002686,-0.1776888221502304
1.1660712957382202,2.9444189071655273,-0.17738699913024902
1.2049323320388794,2.983611583709717,-0.17808204889297485
1.2429126501083374,3.018798351287842,-0.17849376797676086
1.2804876565933228,3.049773693084717,-0.17857088148593903
1.2955502271652222,3.0265731811523438,-0.1754680573940277
1.1401151418685913,2.6136879920959473,-0.14991575479507446
1.1481801271438599,2.5846803188323975,-0.14666472375392914
1.169180989265442,2.5839319229125977,-0.14499495923519135
1.1790199279785156,2.5581119060516357,-0.14191146194934845
1.2113569974899292,2.5819151401519775,-0.1415293961763382
1.2356919050216675,2.5877835750579834,-0.14007914066314697
1.5995484590530396,3.29178524017334,-0.17592261731624603
1.6760319471359253,3.389155387878418,-0.17874933779239655
1.7165946960449219,3.412686824798584,-0.17753900587558746
1.7961636781692505,3.5125021934509277,-0.18015246093273163
1.8488658666610718,3.55574107170105,-0.17969152331352234
1.41417396068573,2.673430919647217,-0.13300178945064545
1.447039246559143,2.6914141178131104,-0.1317686289548874
1.4573886394500732,2.6681766510009766,-0.12848934531211853
1.439653754234314,2.593416929244995,-0.12272942066192627
1.4174171686172485,2.5120596885681152,-0.11674173921346664
1.3664780855178833,2.3839938640594482,-0.10867621004581451
1.35664963722229,2.3311843872070312,-0.10422084480524063
1.3390793800354004,2.2646725177764893,-0.09913448989391327
1.350540041923523,2.248863935470581,-0.09632448852062225
1.3794810771942139,2.263399362564087,-0.09477505832910538
1.3683191537857056,2.2108075618743896,-0.0903322696685791
1.3711769580841064,2.181525230407715,-0.08689004927873611
1.3854097127914429,2.1726181507110596,-0.08425584435462952
1.3912575244903564,2.1504034996032715,-0.08107919991016388
1.4062397480010986,2.1407406330108643,-0.07826260477304459
1.4140733480453491,2.121614456176758,-0.07506030052900314
1.4235854148864746,2.1059226989746094,-0.07200120389461517
1.4426429271697998,2.1024930477142334,-0.06920731067657471
1.4518009424209595,2.0867700576782227,-0.06599811464548111
1.4565150737762451,2.064490795135498,-0.06251617521047592
1.4527382850646973,2.028944253921509,-0.058486197143793106
1.4608649015426636,2.0135486125946045,-0.055131394416093826
1.4699296951293945,1.9973424673080444,-0.051525041460990906
2.1127254962921143,2.9814579486846924,0.12434542924165726
2.089252471923828,2.9929912090301514,0.12900090217590332
2.608731746673584,3.7963643074035645,0.1687447875738144
3.167325973510742,4.686086177825928,0.21450141072273254
3.1388556957244873,4.714280128479004,0.221393421292305
3.0907559394836426,4.717670440673828,0.22703880071640015
3.0912320613861084,4.796175003051758,0.2362162321805954
1.6376042366027832,2.580002546310425,0.1297508180141449
1.6307002305984497,2.6118505001068115,0.1340535283088684
1.58231520652771,2.577382802963257,0.13485723733901978
3.0234744548797607,5.002842426300049,0.2663649916648865
2.9818344116210938,5.013854026794434,0.27149075269699097
2.985433578491211,5.106549263000488,0.2809733748435974
2.86784291267395,4.989503860473633,0.2788071036338806
2.796440839767456,4.944594860076904,0.2802751362323761
2.7245283126831055,4.89965295791626,0.2815524935722351
2.652406930923462,4.854487895965576,0.28266409039497375
2.589992046356201,4.821480751037598,0.28425687551498413
2.537461042404175,4.804993629455566,0.28675827383995056
2.4791910648345947,4.777999401092529,0.28839680552482605
2.418959617614746,4.747308254241943,0.2897000014781952
2.355319023132324,4.70491886138916,0.29012253880500793
2.3086369037628174,4.693009376525879,0.2923174798488617
1.2279245853424072,2.542619228363037,0.15993423759937286
1.214200735092163,2.562025785446167,0.16264492273330688
1.1874264478683472,2.5529277324676514,0.16352511942386627
1.1728099584579468,2.5681276321411133,0.1659144014120102
1.1595637798309326,2.5868356227874756,0.16853909194469452
1.1500065326690674,2.6165525913238525,0.17180556058883667
2.071324586868286,4.809346675872803,0.3182721436023712
2.0526282787323,4.859489440917969,0.32396653294563293
2.0246598720550537,4.887872695922852,0.3282310962677002
1.9972355365753174,4.919970512390137,0.3326675593852997
1.9787026643753052,4.977618217468262,0.3387531340122223
2.0225603580474854,5.198919773101807,0.35613447427749634
2.008549451828003,5.270933151245117,0.3632963299751282
1.9813225269317627,5.310141086578369,0.3682529628276825
1.9621853828430176,5.375160217285156,0.37488463521003723
1.928582787513733,5.403655529022217,0.37891441583633423
1.900551676750183,5.450527667999268,0.38429901003837585
1.882659912109375,5.522452354431152,0.3914037048816681
1.9093855619430542,5.7312092781066895,0.408322274684906
1.9289240837097168,5.929718494415283,0.4244867265224457
1.8955916166305542,5.972968578338623,0.42950597405433655
1.8667703866958618,6.034876823425293,0.4359472692012787
1.8426618576049805,6.107232093811035,0.44310450553894043
1.81439208984375,6.168305397033691,0.4494963586330414
1.7794678211212158,6.210702896118164,0.45445239543914795
1.7568861246109009,6.301927089691162,0.4628353714942932
1.7208532094955444,6.3480095863342285,0.4679572880268097
1.6833784580230713,6.390093803405762,0.472821444272995
1.6445571184158325,6.424137115478516,0.47708627581596375
0.8149083256721497,3.2781221866607666,0.24434255063533783
1.540968894958496,6.393318176269531,0.4779459536075592
0.7857638597488403,3.3651230335235596,0.25231561064720154
1.4259034395217896,6.311834335327148,0.4747002422809601
1.3644983768463135,6.24151611328125,0.4708040952682495
1.3169686794281006,6.231651782989502,0.4714706838130951
1.2715966701507568,6.23297119140625,0.47281983494758606
1.2152787446975708,6.180553436279297,0.4699409008026123
1.1554205417633057,6.108654022216797,0.4655977189540863
1.1140766143798828,6.124117851257324,0.46788763999938965
1.0674521923065186,6.10856294631958,0.4678211808204651
1.0230292081832886,6.10418176651001,0.4686267077922821
0.9762177467346191,6.088069915771484,0.4682244062423706
0.9289397597312927,6.071718215942383,0.4677937626838684
0.8764983415603638,6.012502670288086,0.464057981967926
0.8292844295501709,5.979778289794922,0.46236342191696167
0.7830768823623657,5.950551986694336,0.46095144748687744
0.7396460175514221,5.94031286239624,0.460970401763916
0.5870364904403687,5.00147819519043,0.3885788023471832
0.5593061447143555,5.079044818878174,0.3951021134853363
0.53282630443573,5.171886920928955,0.4028395414352417
0.39709389209747314,4.136447906494141,0.3226124942302704
0.3634747564792633,4.084752559661865,0.31901368498802185
0.34292149543762207,4.184181213378906,0.3271518349647522
0.3131018579006195,4.186485290527344,0.3275696933269501
0.282423734664917,4.169118404388428,0.326459676027298
0.25374215841293335,4.178732872009277,0.3274770677089691
0.22699302434921265,4.22313928604126,0.33123868703842163
0.36387017369270325,7.776185989379883,0.6104657649993896
0.3075218200683594,7.7473978996276855,0.6085481643676758
0.2523250877857208,7.714303493499756,0.6060753464698792
0.19790562987327576,7.692495346069336,0.6045177578926086
0.14373566210269928,7.662517547607422,0.6023459434509277
0.09020943194627762,7.643840312957764,0.601090133190155
0.03595203906297684,7.613111972808838,0.5989187359809875
-0.016901036724448204,7.566446781158447,0.5952527523040771
-0.06950172781944275,7.562264442443848,0.5947888493537903
-0.12173065543174744,7.538248062133789,0.5927939414978027
-0.17301185429096222,7.490514755249023,0.5889637470245361
-0.2243776023387909,7.46968412399292,0.5872778296470642
-0.27660515904426575,7.452357292175293,0.585895836353302
-0.32788988947868347,7.442519187927246,0.5848000049591064
-0.27501726150512695,5.394381999969482,0.42354780435562134
-0.3145962059497833,5.431263446807861,0.42614248394966125
-0.35128054022789,5.413440227508545,0.4244631826877594
-0.3878934979438782,5.387550354003906,0.4221689999103546
-0.42349717020988464,5.3614654541015625,0.41988691687583923
-0.21643096208572388,2.5182065963745117,0.19700130820274353
-0.22947929799556732,2.4701478481292725,0.1930115818977356
-0.23916594684123993,2.3949027061462402,0.1869177520275116
-0.2610240876674652,2.439652681350708,0.19019624590873718
-0.2744472622871399,2.4068498611450195,0.18743954598903656
-0.29536035656929016,2.439711093902588,0.18980573117733002
-0.31411877274513245,2.453111171722412,0.1905268132686615
-0.3252168595790863,2.408478260040283,0.18674130737781525
-0.6408084630966187,4.507737159729004,0.34891462326049805
-0.6726741790771484,4.507101058959961,0.34829291701316833
-0.7009517550468445,4.483150482177734,0.34588822722435
-0.7320258617401123,4.4782538414001465,0.3449476659297943
-0.7600709199905396,4.457865238189697,0.3425997495651245
-0.786465048789978,4.429638862609863,0.33967334032058716
-0.8187819719314575,4.431792259216309,0.3390800952911377
-0.8385522961616516,4.368701457977295,0.3335229158401489
-0.7311832904815674,3.671370267868042,0.2796843945980072
-0.7565125823020935,3.6663143634796143,0.27863752841949463
-0.7798680663108826,3.65354061126709,0.2768869400024414
-0.9554799795150757,4.329067707061768,0.32715553045272827
-0.9887354969978333,4.337684154510498,0.32689735293388367
-1.0170557498931885,4.3232340812683105,0.32490724325180054
-1.0415910482406616,4.293445587158203,0.3217850625514984
-1.069022297859192,4.278783798217773,0.3196510076522827
-1.0946969985961914,4.256321430206299,0.3168669641017914
-1.125564694404602,4.256444931030273,0.3158009946346283
-1.1591365337371826,4.263701915740967,0.3152509033679962
-1.1751233339309692,4.2068772315979,0.309983491897583
-1.204156517982483,4.1987833976745605,0.3082926273345947
-1.228628158569336,4.175582408905029,0.3052963614463806
-1.2545491456985474,4.15986442565918,0.3028925657272339
-1.282999038696289,4.151314735412598,0.3010098934173584
-1.3095359802246094,4.134984016418457,0.2985575199127197
-1.3383126258850098,4.125898361206055,0.29664501547813416
-1.3667964935302734,4.116700172424316,0.29455238580703735
-1.394522786140442,4.107540607452393,0.2924624979496002
-1.4248900413513184,4.105506420135498,0.2908831536769867
-1.4481360912322998,4.080977916717529,0.28769221901893616
-1.4711099863052368,4.0563225746154785,0.28451669216156006
-1.5040863752365112,4.060999393463135,0.28329458832740784
-1.5152015686035156,4.007059097290039,0.27788975834846497
-1.5532336235046387,4.0260748863220215,0.27759256958961487
-1.5754984617233276,4.000825881958008,0.2741880416870117
-1.6062430143356323,3.997150182723999,0.2722763121128082
-1.6305550336837769,3.979039192199707,0.2692890763282776
-1.6575775146484375,3.9680352210998535,0.2666696310043335
-1.6779900789260864,3.942675828933716,0.26313403248786926
-1.7085554599761963,3.938206672668457,0.2609308958053589
-1.7281343936920166,3.908524990081787,0.2570728063583374
-1.7513564825057983,3.889803886413574,0.25385403633117676
-1.7744834423065186,3.8709158897399902,0.2505481541156769
-1.7840591669082642,3.8237040042877197,0.24545766413211823
-1.8139090538024902,3.818455934524536,0.2430274784564972
-1.847188949584961,3.8199868202209473,0.2410256266593933
-1.865477204322815,3.7939023971557617,0.23713140189647675
-1.887416124343872,3.7745070457458496,0.23363974690437317
-1.9062358140945435,3.747734785079956,0.2296612411737442
-1.9359241724014282,3.741464614868164,0.22691869735717773
-1.9539140462875366,3.7146754264831543,0.22286194562911987
-1.978373408317566,3.7019011974334717,0.21960413455963135
-2.014444351196289,3.709251642227173,0.217481791973114
-1.7125362157821655,3.1008553504943848,0.17955060303211212
-1.7259398698806763,3.0757012367248535,0.17584063112735748
-0.8382300138473511,1.4712467193603516,0.08299637585878372
-0.8441281318664551,1.458943486213684,0.0811658576130867
-0.8622182011604309,1.4665443897247314,0.080387182533741
-0.8682988286018372,1.4539551734924316,0.07845917344093323
-0.8736859560012817,1.4416892528533936,0.07655762881040573
-0.879296064376831,1.4292031526565552,0.07461311668157578
-0.8892296552658081,1.4231289625167847,0.07297021895647049
-0.8901933431625366,1.404160976409912,0.0706513524055481
-0.8909189105033875,1.3852583169937134,0.0683300718665123
-0.8962588310241699,1.3725818395614624,0.06625344604253769
-0.9098462462425232,1.3730721473693848,0.0647992417216301
-2.390033483505249,3.557654619216919,0.1639861911535263
-1.4148502349853516,2.0449376106262207,0.08928857743740082
-1.3627465963363647,1.9433876276016235,0.08241016417741776
-1.3129287958145142,1.8787379264831543,-0.06532357633113861
-1.5300521850585938,2.2222092151641846,-0.08067088574171066
-1.2743076086044312,1.8813796043395996,-0.07119765877723694
-1.238961100578308,1.857978105545044,-0.07296815514564514
-1.3414641618728638,2.042825222015381,-0.08301636576652527
-1.2878690958023071,1.993742823600769,-0.08371205627918243
-1.302984595298767,2.0488436222076416,-0.08860889822244644
-1.1493762731552124,1.8363947868347168,-0.08171012252569199
-1.264540195465088,2.05422043800354,-0.09388245642185211
-2.151604413986206,3.6697628498077393,-0.18001806735992432
-0.8225675225257874,1.4267492294311523,-0.07152114808559418
-2.1393446922302246,3.770975112915039,-0.192863330245018
-1.7297921180725098,3.101205587387085,-0.16169893741607666
-1.706967830657959,3.1136314868927,-0.1654152125120163
-2.011138916015625,3.729722023010254,-0.20161917805671692
-2.0062525272369385,3.785191535949707,-0.20816676318645477
-1.9532872438430786,3.7510852813720703,-0.2096644788980484
-1.9102847576141357,3.7335398197174072,-0.2119695097208023
-1.8158226013183594,3.6106362342834473,-0.20806582272052765
-1.7468513250350952,3.535832643508911,-0.20670387148857117
-1.57426118850708,3.24660587310791,-0.19249117374420166
-1.4924652576446533,3.1342575550079346,-0.18831917643547058
-1.4689044952392578,3.140878438949585,-0.19116047024726868
-1.4480793476104736,3.154642105102539,-0.19438812136650085
-1.4476054906845093,3.2146499156951904,-0.20047548413276672
-1.4090081453323364,3.1889798641204834,-0.20119088888168335
-1.369296669960022,3.1593494415283203,-0.2016122192144394
-1.3254904747009277,3.118565559387207,-0.20116086304187775
-1.286496877670288,3.0882656574249268,-0.20127730071544647
-1.249779462814331,3.061060905456543,-0.20152752101421356
-1.215348243713379,3.0369627475738525,-0.20191112160682678
-1.1849913597106934,3.0236568450927734,-0.20297981798648834
-1.1436904668807983,2.9809730052948,-0.2019214779138565
-1.1100294589996338,2.956064224243164,-0.20201721787452698
-1.0786241292953491,2.934309959411621,-0.202259361743927
-1.0462344884872437,2.908604621887207,-0.20220421254634857
-1.0095192193984985,2.8718700408935547,-0.20124226808547974
-0.9788112640380859,2.8493874073028564,-0.20121966302394867
-0.9551028609275818,2.84494948387146,-0.20242689549922943
-0.9279729723930359,2.829174518585205,-0.20281101763248444
-0.8913742899894714,2.78354811668396,-0.20095065236091614
-0.8653920888900757,2.7711970806121826,-0.20142368972301483
-0.8389455080032349,2.7547574043273926,-0.20155943930149078
-0.8063848614692688,2.7155954837799072,-0.1999921351671219
-0.7820156216621399,2.7023119926452637,-0.20030854642391205
-0.7522294521331787,2.670182466506958,-0.19906623661518097
-0.722926914691925,2.6377744674682617,-0.1977759748697281
-0.7041107416152954,2.6427457332611084,-0.19928500056266785
-0.6847409605979919,2.64369535446167,-0.20047138631343842
-0.6567696928977966,2.610522747039795,-0.19901421666145325
-0.6346118450164795,2.5998618602752686,-0.19915388524532318
-0.6144530773162842,2.596595525741577,-0.19986045360565186
-0.5898916721343994,2.5742199420928955,-0.1991003006696701
-0.5668430328369141,2.5553624629974365,-0.19858674705028534
-0.5455871820449829,2.5439629554748535,-0.19855915009975433
-0.5228543877601624,2.524787425994873,-0.19784925878047943
-0.500441312789917,2.505415916442871,-0.1971185952425003
-0.4804932475090027,2.4973371028900146,-0.19727732241153717
-0.4631074368953705,2.5005369186401367,-0.1983197033405304
-0.4414829909801483,2.480642557144165,-0.19741423428058624
-0.4187779426574707,2.4529075622558594,-0.19583941996097565
-0.40031808614730835,2.4480276107788086,-0.19608676433563232
-0.38300326466560364,2.4507267475128174,-0.1969543695449829
-0.3636455833911896,2.4378581047058105,-0.19656617939472198
-0.34272855520248413,2.413302421569824,-0.19509351253509521
-0.32475271821022034,2.407874584197998,-0.19514550268650055
-0.3059246242046356,2.3945841789245605,-0.1945638507604599
-0.2804029583930969,2.323155164718628,-0.18924616277217865
-0.2714079022407532,2.3907954692840576,-0.19527456164360046
-0.25301066040992737,2.377110242843628,-0.19451329112052917
-0.23367555439472198,2.3516626358032227,-0.19277839362621307
-0.2190239131450653,2.3725826740264893,-0.19485239684581757
-0.20115521550178528,2.3584957122802734,-0.19406050443649292
-0.18411795794963837,2.3559417724609375,-0.1942305862903595
-0.1665157824754715,2.341613292694092,-0.1932651251554489
-0.14961788058280945,2.3349268436431885,-0.1929297000169754
-0.13153162598609924,2.304795980453491,-0.19066233932971954
-0.11629067361354828,2.3211822509765625,-0.19224970042705536
-0.09955872595310211,2.3141415119171143,-0.1919107735157013
-0.08343900740146637,2.314767360687256,-0.19205069541931152
-0.06754012405872345,2.323063850402832,-0.19282963871955872
-0.05120588093996048,2.3156824111938477,-0.1923164427280426
-0.03476175665855408,2.292617082595825,-0.1905084103345871
-0.018551241606473923,2.2927942276000977,-0.19064199924468994
-0.002621882827952504,2.3006558418273926,-0.19126032292842865
0.013346024788916111,2.2928361892700195,-0.190573588013649
0.029035767540335655,2.273228883743286,-0.18891669809818268
0.0448942631483078,2.2768678665161133,-0.18920107185840607
0.06113606318831444,2.292069673538208,-0.19045530259609222
0.07705966383218765,2.283815622329712,-0.18961390852928162
0.09288447350263596,2.2832441329956055,-0.18940523266792297
0.10948602855205536,2.2981152534484863,-0.19048523902893066
0.12546966969966888,2.2973155975341797,-0.19027432799339294
0.14049015939235687,2.2808620929718018,-0.18877702951431274
0.15711988508701324,2.2876110076904297,-0.18905749917030334
0.1747397929430008,2.3097898960113525,-0.19060219824314117
0.1894688457250595,2.293034553527832,-0.18894225358963013
0.2067941576242447,2.307204008102417,-0.18983891606330872
0.22430525720119476,2.321244955062866,-0.19073091447353363
0.2398347705602646,2.3119072914123535,-0.1895616501569748
0.2540750205516815,2.294762372970581,-0.187750905752182
0.27179139852523804,2.308457851409912,-0.18847103416919708
0.2888459861278534,2.3142786026000977,-0.18855080008506775
0.30292007327079773,2.2968149185180664,-0.18674443662166595
0.32016825675964355,2.302393674850464,-0.18666930496692657
0.3383229076862335,2.3155951499938965,-0.18720655143260956
0.35437676310539246,2.3132505416870117,-0.18649038672447205
0.37170684337615967,2.3184750080108643,-0.1863897740840912
0.38396155834198,2.2928481101989746,-0.18382196128368378
0.40512022376060486,2.32090425491333,-0.1854172945022583
0.4199881851673126,2.310415267944336,-0.1839141845703125
0.43885135650634766,2.322831630706787,-0.1842500865459442
0.457275927066803,2.3312530517578125,-0.1842656433582306
0.4781411588191986,2.350985527038574,-0.18517038226127625
0.4926902651786804,2.340102195739746,-0.18352006375789642
0.5074062347412109,2.3290672302246094,-0.18185734748840332
0.5303707122802734,2.3559787273406982,-0.18316735327243805
0.5449736714363098,2.344729423522949,-0.18150879442691803
0.5648691058158875,2.356126546859741,-0.1815815567970276
0.5968881845474243,2.416583299636841,-0.18529294431209564
0.6156426668167114,2.420011281967163,-0.1845962405204773
0.6363867521286011,2.4308478832244873,-0.18446804583072662
0.6624562740325928,2.460301160812378,-0.18573783338069916
0.6815510392189026,2.4632680416107178,-0.1849457174539566
0.7026886940002441,2.473635196685791,-0.18462441861629486
0.7199202179908752,2.468784809112549,-0.1831512600183487
0.7437988519668579,2.486217975616455,-0.18333137035369873
0.7633633613586426,2.4885430335998535,-0.18239426612854004
0.7897546291351318,2.51310658454895,-0.18298518657684326
0.812850296497345,2.526327133178711,-0.18269436061382294
0.8475637435913086,2.5725255012512207,-0.18473084270954132
0.8704668283462524,2.581446647644043,-0.18406865000724792
0.9023923277854919,2.615978479385376,-0.1852012723684311
0.9253733158111572,2.624607801437378,-0.18435819447040558
0.9537765979766846,2.6477210521698,-0.18451833724975586
0.972118616104126,2.64117693901062,-0.18257567286491394
1.0086665153503418,2.6817855834960938,-0.18384084105491638
1.0326238870620728,2.6895029544830322,-0.18277841806411743
1.0636537075042725,2.715244770050049,-0.18286675214767456
1.0966717004776,2.744253158569336,-0.18312817811965942
1.1334575414657593,2.7800071239471436,-0.18376509845256805
1.1575440168380737,2.782890558242798,-0.18215259909629822
1.194580316543579,2.818242073059082,-0.1825813502073288
1.1363141536712646,2.631256103515625,-0.16870322823524475
1.1514832973480225,2.6162822246551514,-0.16593320667743683
1.1601152420043945,2.5869884490966797,-0.162282794713974
1.1778671741485596,2.5791046619415283,-0.15987473726272583
1.1919076442718506,2.5641932487487793,-0.1570681482553482
1.2162808179855347,2.5701420307159424,-0.15548953413963318
1.2477102279663086,2.58986234664917,-0.15470339357852936
1.5020688772201538,3.0649077892303467,-0.1806604117155075
1.57687509059906,3.163008213043213,-0.18386979401111603
1.6021801233291626,3.159203290939331,-0.18103893101215363
1.654573917388916,3.2070844173431396,-0.18109501898288727
1.4188134670257568,2.7054266929626465,-0.15043368935585022
1.4257951974868774,2.6754136085510254,-0.14643482863903046
1.4591350555419922,2.6930947303771973,-0.14495714008808136
1.4631344079971313,2.655500888824463,-0.14044949412345886
1.4692713022232056,2.625469923019409,-0.13638079166412354
1.473210334777832,2.592041015625,-0.13217103481292725
1.4795454740524292,2.561581611633301,-0.1280418187379837
1.4773061275482178,2.5178797245025635,-0.12329280376434326
1.3803108930587769,2.3169379234313965,-0.11100294440984726
1.3616737127304077,2.2508742809295654,-0.10541407018899918
1.3650263547897339,2.221536159515381,-0.10157701373100281
1.3630837202072144,2.1861443519592285,-0.09749376028776169
1.381663203239441,2.183821678161621,-0.09487965703010559
1.388697862625122,2.1609508991241455,-0.09119516611099243
1.4116075038909912,2.164849281311035,-0.08867868781089783
1.4084601402282715,2.1296753883361816,-0.08456462621688843
1.4232540130615234,2.1199440956115723,-0.08131448924541473
1.4373036623001099,2.1105668544769287,-0.07806569337844849
1.4401085376739502,2.0850913524627686,-0.07415755838155746
1.4500987529754639,2.0687477588653564,-0.07044871896505356
1.4589101076126099,2.0530855655670166,-0.06678137183189392
1.481576681137085,2.056187391281128,-0.06357649713754654
1.4771630764007568,2.0209038257598877,-0.05901928246021271
1.4665510654449463,1.9803340435028076,-0.054405394941568375
2.1235620975494385,2.9731760025024414,0.13738128542900085
2.1020936965942383,2.9881365299224854,0.14285151660442352
2.6117684841156006,3.774449348449707,0.18637634813785553
2.5807573795318604,3.785966634750366,0.19227541983127594
3.146205186843872,4.6894073486328125,0.24461887776851654
3.1189138889312744,4.725918769836426,0.2528548240661621
3.095888614654541,4.763939380645752,0.2607857286930084
1.6502354145050049,2.580453395843506,0.14432790875434875
1.647169589996338,2.6191489696502686,0.14955087006092072
1.6000632047653198,2.583963394165039,0.1502966582775116
3.0149407386779785,4.947057723999023,0.2929432988166809
2.9849348068237305,4.983030319213867,0.30025598406791687
2.970592975616455,5.041088581085205,0.3086734414100647
2.929422378540039,5.051232814788818,0.3140319585800171
2.8207428455352783,4.946887493133545,0.3120100796222687
2.766437530517578,4.936900615692139,0.315762460231781
2.6933085918426514,4.887954235076904,0.31676867604255676
2.6275055408477783,4.848024845123291,0.3181617558002472
2.567854404449463,4.822192668914795,0.32022836804389954
2.506702184677124,4.792407989501953,0.3219572901725769
2.4425768852233887,4.750678539276123,0.322632372379303
2.387606620788574,4.725863456726074,0.32443490624427795
2.3339085578918457,4.704482555389404,0.3261864483356476
1.2510961294174194,2.569199323654175,0.1798686534166336
1.219346523284912,2.5497329235076904,0.1801576018333435
1.2015304565429688,2.5580201148986816,0.18236756324768066
1.1864794492721558,2.57346773147583,0.1850469708442688
1.1672762632369995,2.5820789337158203,0.18720872700214386
1.1579982042312622,2.611701726913452,0.19087572395801544
2.0788509845733643,4.778147220611572,0.3518897294998169
2.057640790939331,4.820960521697998,0.3577477037906647
2.0345568656921387,4.864293098449707,0.363462895154953
2.0057435035705566,4.897034645080566,0.36844971776008606
1.9853721857070923,4.947077751159668,0.3746767044067383
2.42716121673584,6.171652793884277,0.4704369902610779
2.364285707473755,6.13726806640625,0.47078168392181396
2.000941514968872,5.308125019073486,0.40951061248779297
1.9644286632537842,5.329780578613281,0.41357460618019104
1.937347173690796,5.372566223144531,0.4192114770412445
2.07353138923645,5.877950191497803,0.46115851402282715
2.0691847801208496,5.9988274574279785,0.4731707274913788
2.0109543800354004,5.969027519226074,0.4730378985404968
1.9562000036239624,5.950033664703369,0.4737943410873413
1.9093128442764282,5.9486236572265625,0.4758776128292084
1.8829416036605835,6.009846210479736,0.4829755127429962
1.859279990196228,6.082139492034912,0.4910231828689575
1.8200844526290894,6.109999179840088,0.49521175026893616
1.7881135940551758,6.163807392120361,0.5015290975570679
1.7561672925949097,6.221310615539551,0.5082162618637085
1.7281841039657593,6.289499759674072,0.5157626867294312
1.6953116655349731,6.342545032501221,0.5221232175827026
1.6728910207748413,6.440840721130371,0.5320294499397278
0.8233652114868164,3.265860080718994,0.2706194519996643
1.5427199602127075,6.3125996589660645,0.5247779488563538
0.7982361912727356,3.3679778575897217,0.2808646261692047
1.4432662725448608,6.28373908996582,0.5256698131561279
1.3909229040145874,6.25545072555542,0.5249280333518982
1.339103102684021,6.230738162994385,0.5241510272026062
1.2940177917480469,6.240077972412109,0.5262821912765503
1.2376443147659302,6.187819957733154,0.5232021808624268
1.1849559545516968,6.146422863006592,0.5210219621658325
1.1321334838867188,6.100780963897705,0.5184866189956665
1.080398440361023,6.058605194091797,0.5160572528839111
1.0451958179473877,6.115980625152588,0.521946907043457
1.0005422830581665,6.11541748046875,0.5229085087776184
0.9522942304611206,6.087525367736816,0.5215391516685486
0.9001324772834778,6.028427600860596,0.5174989104270935
0.8494479656219482,5.97274923324585,0.5137539505958557
0.8119239211082458,6.0171308517456055,0.5183653831481934
0.7601674795150757,5.949244499206543,0.5132167339324951
0.6231257915496826,5.16610860824585,0.4462883174419403
0.5704230666160583,5.02329158782959,0.4345758259296417
0.5502949953079224,5.166372776031494,0.4476167559623718
0.4022199809551239,4.043048858642578,0.3508262634277344
0.37727299332618713,4.088398456573486,0.35507526993751526
0.35251912474632263,4.137433052062988,0.3596409559249878
0.3268350064754486,4.182435035705566,0.3638801574707031
0.29716500639915466,4.176799297332764,0.3637317419052124
0.26788151264190674,4.174834251403809,0.36391907930374146
0.23989053070545197,4.203775882720947,0.3668166399002075
0.38885533809661865,7.7693634033203125,0.6781755089759827
0.33390453457832336,7.756296634674072,0.6772968769073486
0.27789339423179626,7.7078423500061035,0.6733587384223938
0.2240588665008545,7.701767921447754,0.673151969909668
0.16910097002983093,7.679773807525635,0.6715911030769348
0.11504001170396805,7.637927055358887,0.6682658195495605
0.0617949552834034,7.630764484405518,0.667538046836853
0.008628711104393005,7.599883079528809,0.6647681593894958
-0.04398058354854584,7.560850143432617,0.6613180637359619
-0.09725746512413025,7.548681259155273,0.6602498888969421
-0.14880846440792084,7.501139163970947,0.6561198234558105
-0.2006521373987198,7.492155075073242,0.6553289294242859
-0.2517586946487427,7.467294692993164,0.652781069278717
-0.3026885986328125,7.445974826812744,0.6505759954452515
-0.35600265860557556,7.478723526000977,0.6531252861022949
-0.296407014131546,5.420538425445557,0.47317466139793396
-0.33454012870788574,5.426148414611816,0.47348344326019287
-0.3694705069065094,5.384912967681885,0.4696650207042694
-0.40605294704437256,5.374536037445068,0.4682652950286865
-0.44186973571777344,5.35615348815918,0.4661925733089447
-0.4735984206199646,5.287085056304932,0.45972955226898193
-0.23834392428398132,2.467545986175537,0.2143629789352417
-0.2539229393005371,2.450371026992798,0.21268373727798462
-0.2670673131942749,2.4137685298919678,0.2092936933040619
-0.5391777753829956,4.5841827392578125,0.3968738317489624
-0.5674391388893127,4.549476146697998,0.3932683765888214
-0.6018972396850586,4.568679332733154,0.39435189962387085
-0.6255963444709778,4.506640434265137,0.38844263553619385
-0.657453715801239,4.506114959716797,0.38786083459854126
-0.6868200302124023,4.4900078773498535,0.38585302233695984
-0.716873824596405,4.477528095245361,0.3839821517467499
-0.7475312948226929,4.472614288330078,0.38279345631599426
-0.7756624221801758,4.452119827270508,0.3802875578403473
-0.8010352253913879,4.41608190536499,0.3764733672142029
-0.8273873925209045,4.387557506561279,0.37332671880722046
-0.8568194508552551,4.3780517578125,0.37166786193847656
-0.7424344420433044,3.658694267272949,0.30978304147720337
-0.7673946022987366,3.6536436080932617,0.3085666596889496
-0.9388981461524963,4.321728229522705,0.3640604019165039
-0.9723475575447083,4.330411434173584,0.3638690412044525
-0.9988856911659241,4.308505535125732,0.36112627387046814
-1.0287890434265137,4.30160665512085,0.3594217002391815
-1.059898018836975,4.302210330963135,0.3583335280418396
-1.07953679561615,4.257310390472412,0.3534812331199646
-1.1051653623580933,4.23477840423584,0.35049164295196533
-1.1406270265579224,4.249704360961914,0.3506171405315399
-1.1642286777496338,4.219217777252197,0.346932590007782
-1.1948825120925903,4.218896865844727,0.345568984746933
-1.2179793119430542,4.19217586517334,0.3420623242855072
-1.2422341108322144,4.1689629554748535,0.3388518989086151
-1.2689334154129028,4.152934551239014,0.3362288773059845
-1.291357159614563,4.121700763702393,0.33237603306770325
-1.3288511037826538,4.142675876617432,0.3325846791267395
-1.3543397188186646,4.126394748687744,0.3297536373138428
-1.3797063827514648,4.1099443435668945,0.3269274830818176
-1.4133260250091553,4.115166187286377,0.3257930278778076
-1.434138536453247,4.083376884460449,0.32174891233444214
-1.4572843313217163,4.058811664581299,0.3181751072406769
-1.4871933460235596,4.056442737579346,0.31626391410827637
-1.5143687725067139,4.046569347381592,0.3137810230255127
-1.5339523553848267,4.014369010925293,0.30953919887542725
-1.5674982070922852,4.018320083618164,0.308091938495636
-1.5955666303634644,4.007462024688721,0.305420845746994
-1.622322916984558,3.9969146251678467,0.30267179012298584
-1.6460633277893066,3.978971242904663,0.2993772327899933
-1.6674119234085083,3.9533722400665283,0.29547247290611267
-1.6918306350708008,3.934713840484619,0.2920920252799988
-1.7223858833312988,3.9301657676696777,0.2896617650985718
-1.7485063076019287,3.9188365936279297,0.28664425015449524
-1.7633002996444702,3.8824756145477295,0.28181973099708557
-1.780444622039795,3.849116802215576,0.277157723903656
-1.803977608680725,3.8297524452209473,0.2735229730606079
-1.8269693851470947,3.810425281524658,0.26976391673088074
-1.85905921459198,3.8124587535858154,0.2675016522407532
-1.8812435865402222,3.793090581893921,0.26370900869369507
-1.90409255027771,3.7731759548187256,0.2598191499710083
-1.9266151189804077,3.7531964778900146,0.25592997670173645
-1.9476490020751953,3.7337701320648193,0.25194358825683594
-1.9725942611694336,3.7208919525146484,0.24836787581443787
-2.0057716369628906,3.7210898399353027,0.2455659955739975
-1.6981122493743896,3.0984723567962646,0.20210881531238556
-1.714856505393982,3.0805203914642334,0.198468878865242
-1.7235212326049805,3.049032688140869,0.1939641833305359
-0.8471119403839111,1.4746098518371582,0.09252985566854477
-0.8612961769104004,1.4755133390426636,0.09130401164293289
-0.8630410432815552,1.4564878940582275,0.08881343901157379
-0.8724826574325562,1.4509525299072266,0.08714894950389862
-0.8824676871299744,1.445007085800171,0.08538156747817993
-0.8844672441482544,1.4255573749542236,0.08278951793909073
-0.8978099822998047,1.4265245199203491,0.08136901259422302
-0.9113520979881287,1.4272832870483398,0.07990191876888275
-0.8767536282539368,1.3522127866744995,0.07416143268346786
-0.8900726437568665,1.3529378175735474,0.07263043522834778
-0.9270376563072205,1.3894068002700806,0.07291212677955627
-2.3896493911743164,3.5288095474243164,0.18064793944358826
-1.2465448379516602,1.8143038749694824,0.09048320353031158
-1.5189718008041382,2.1812732219696045,0.10584333539009094
-1.4778841733932495,2.129931926727295,-0.08238739520311356
-1.1865005493164062,1.7378963232040405,-0.07022424042224884
-1.3219603300094604,1.9666404724121094,-0.08265659958124161
-1.243569016456604,1.9105491638183594,-0.0862504318356514
-1.2616641521453857,1.968418836593628,-0.09164842963218689
-1.1745954751968384,1.8617510795593262,-0.08926508575677872
-1.2120752334594727,1.9532506465911865,-0.09633146226406097
-2.1303508281707764,3.6630868911743164,-0.1988840401172638
-0.8894861340522766,1.5811837911605835,-0.08946675807237625
-1.702649474143982,3.0796124935150146,-0.17771723866462708
-1.9065896272659302,3.5058858394622803,-0.20602230727672577
-1.6735918521881104,3.1304702758789062,-0.1872175633907318
-1.632449984550476,3.107891082763672,-0.18905113637447357
-1.6819689273834229,3.2577743530273438,-0.20137803256511688
-1.6323590278625488,3.2172019481658936,-0.20202991366386414
-1.5986374616622925,3.2077314853668213,-0.20444199442863464
-1.5461055040359497,3.1594979763031006,-0.2043071687221527
-1.5036648511886597,3.127847909927368,-0.2050512284040451
-1.453460931777954,3.0781142711639404,-0.20452362298965454
-1.4065378904342651,3.035275936126709,-0.20425960421562195
-1.3582944869995117,2.9885575771331787,-0.2036946564912796
-1.3326220512390137,2.9870810508728027,-0.2060289829969406
-1.2898588180541992,2.9461002349853516,-0.20559681951999664
-1.2424302101135254,2.8942313194274902,-0.20421990752220154
-1.2033801078796387,2.8598029613494873,-0.20399881899356842
-1.1918925046920776,2.889723539352417,-0.2083345353603363
-1.1410233974456787,2.8218934535980225,-0.205547496676445
-1.1064802408218384,2.793553113937378,-0.20545461773872375
-1.0680745840072632,2.7540082931518555,-0.2044668048620224
-1.034816026687622,2.724853038787842,-0.20416635274887085
-1.003214716911316,2.699083089828491,-0.20409829914569855
-0.970781683921814,2.6693224906921387,-0.20358528196811676
-0.9464153051376343,2.661356210708618,-0.2046537846326828
-0.918560802936554,2.642076253890991,-0.20482094585895538
-0.8926289081573486,2.6261115074157715,-0.20519472658634186
-0.8641030788421631,2.6026551723480225,-0.2049710750579834
-0.8371525406837463,2.582648277282715,-0.20484298467636108
-0.7999381422996521,2.5289766788482666,-0.20200881361961365
-0.7787997126579285,2.523193836212158,-0.20294326543807983
-0.7611894011497498,2.5284152030944824,-0.20476339757442474
-0.7279819846153259,2.4812662601470947,-0.2022322416305542
-0.7078652381896973,2.47884464263916,-0.20329172909259796
-0.6861787438392639,2.4686391353607178,-0.2036808580160141
-0.6597884297370911,2.439405918121338,-0.20247183740139008
-0.6368269324302673,2.4212217330932617,-0.20215840637683868
-0.6215963959693909,2.4330968856811523,-0.20419682562351227
-0.5927953720092773,2.3920485973358154,-0.20180700719356537
-0.5742045044898987,2.388456344604492,-0.20253382623195648
-0.5513734221458435,2.3657429218292236,-0.20162832736968994
-0.5296476483345032,2.346653461456299,-0.20096951723098755
-0.5114001631736755,2.3426289558410645,-0.20149099826812744
-0.4856971204280853,2.3042502403259277,-0.1990656703710556
-0.4712156653404236,2.3151018619537354,-0.20086057484149933
-0.45362693071365356,2.3105814456939697,-0.20133043825626373
-0.43023577332496643,2.2753636837005615,-0.1990247517824173
-0.41424328088760376,2.2782461643218994,-0.19997604191303253
-0.3939478099346161,2.25805926322937,-0.19891703128814697
-0.375625342130661,2.2453160285949707,-0.19849459826946259
-0.3544232249259949,2.213216781616211,-0.19635498523712158
-0.33534833788871765,2.1925008296966553,-0.1950952559709549
-0.31879013776779175,2.1870391368865967,-0.19515137374401093
-0.3122428357601166,2.254713773727417,-0.20176611840724945
-0.2919822633266449,2.2220449447631836,-0.19940486550331116
-0.27651214599609375,2.223956346511841,-0.20014767348766327
-0.256405234336853,2.1871421337127686,-0.19725553691387177
-0.24107298254966736,2.1888346672058105,-0.19781585037708282
-0.22417178750038147,2.1749355792999268,-0.19697286188602448
-0.21024376153945923,2.191908836364746,-0.19894130527973175
-0.19327102601528168,2.1738922595977783,-0.19773514568805695
-0.17742690443992615,2.1674015522003174,-0.19741511344909668
-0.16227930784225464,2.1685538291931152,-0.1977919042110443
-0.1460900753736496,2.15407395362854,-0.19675017893314362
-0.12990742921829224,2.1394872665405273,-0.19570812582969666
-0.11503013968467712,2.1403050422668457,-0.1960754692554474
-0.098285011947155,2.102180242538452,-0.19270648062229156
-0.08329569548368454,2.0950241088867188,-0.19218316674232483
-0.06948539614677429,2.1188626289367676,-0.1945129632949829
-0.054124001413583755,2.1037280559539795,-0.1932772696018219
-0.03950683772563934,2.104036808013916,-0.1934584230184555
-0.024710407480597496,2.088700294494629,-0.1920456737279892
-0.010224716737866402,2.096599817276001,-0.19277864694595337
0.004329246003180742,2.084949016571045,-0.1917232871055603
0.01925741881132126,2.1043131351470947,-0.1935298591852188
0.03296610713005066,2.0457873344421387,-0.18816953897476196
0.04852740094065666,2.1038553714752197,-0.19337759912014008
0.06339821219444275,2.111257791519165,-0.19393371045589447
0.0767744928598404,2.0757954120635986,-0.1905633807182312
0.09205198287963867,2.0946569442749023,-0.1921902596950531
0.10586544871330261,2.0745456218719482,-0.19023309648036957
0.12181372940540314,2.1009762287139893,-0.1923995018005371
0.137377068400383,2.1156392097473145,-0.1934923231601715
0.1495589315891266,2.0797431468963623,-0.18997196853160858
0.16679294407367706,2.113584041595459,-0.192830428481102
0.18108832836151123,2.104631185531616,-0.19176505506038666
0.1985580027103424,2.134359121322632,-0.19408376514911652
0.21025314927101135,2.102008819580078,-0.19076666235923767
0.22651426494121552,2.1160154342651367,-0.19166778028011322
0.24474406242370605,2.145359516143799,-0.19395942986011505
0.2580163776874542,2.128178119659424,-0.19201385974884033
0.27270129323005676,2.1264071464538574,-0.19133815169334412
0.28947848081588745,2.139955520629883,-0.1920456886291504
0.30214276909828186,2.1225459575653076,-0.1899816393852234
0.31806617975234985,2.128147840499878,-0.18998713791370392
0.33432120084762573,2.133598804473877,-0.18993209302425385
0.3515576422214508,2.1466760635375977,-0.19044877588748932
0.3696458041667938,2.1634531021118164,-0.1912924200296402
0.38330039381980896,2.1532468795776367,-0.1897519826889038
0.39828476309776306,2.150601625442505,-0.18888776004314423
0.4205226004123688,2.1860907077789307,-0.1913125216960907
0.43582409620285034,2.183183431625366,-0.19026094675064087
0.44925472140312195,2.172600507736206,-0.18856661021709442
0.45215076208114624,2.1124179363250732,-0.1825900375843048
0.4778018593788147,2.1587092876434326,-0.1858276128768921
0.5109298229217529,2.2351419925689697,-0.19153699278831482
0.5283409953117371,2.2391977310180664,-0.19092947244644165
0.5419119596481323,2.2280454635620117,-0.18904893100261688
0.5706802606582642,2.277189254760742,-0.1922634392976761
0.5807051658630371,2.2506439685821533,-0.18908405303955078
0.604155421257019,2.2768197059631348,-0.19022783637046814
0.6179685592651367,2.2651588916778564,-0.18815761804580688
0.6388565897941589,2.2797014713287354,-0.18827801942825317
0.6655083894729614,2.3127334117889404,-0.1898973286151886
0.6793916821479797,2.3006949424743652,-0.1877983808517456
0.704138457775116,2.3259458541870117,-0.18860404193401337
0.7307168245315552,2.354595422744751,-0.18963631987571716
0.7434899210929871,2.338470220565796,-0.1870652437210083
0.7754442095756531,2.3815157413482666,-0.18921053409576416
0.7992417216300964,2.398423910140991,-0.18918731808662415
0.8243696093559265,2.418876886367798,-0.18935270607471466
0.8408970832824707,2.413328170776367,-0.18747098743915558
0.8685100674629211,2.4367947578430176,-0.18777614831924438
0.8961714506149292,2.4601080417633057,-0.18807098269462585
0.9224491715431213,2.4796559810638428,-0.1879369169473648
0.9503946304321289,2.502613067626953,-0.18802736699581146
0.9789450168609619,2.525209903717041,-0.1880369633436203
1.0154708623886108,2.5654776096343994,-0.18927696347236633
1.0418132543563843,2.58029842376709,-0.18856360018253326
1.0740845203399658,2.609403610229492,-0.18880347907543182
1.1054832935333252,2.634517192840576,-0.18869279325008392
1.1360769271850586,2.6556003093719482,-0.18822170794010162
1.142263650894165,2.619140148162842,-0.18362483382225037
1.147256851196289,2.5830488204956055,-0.17906011641025543
1.167897343635559,2.582519054412842,-0.17698350548744202
1.1859126091003418,2.574477434158325,-0.1743253618478775
1.2104679346084595,2.5804409980773926,-0.17260843515396118
1.2382028102874756,2.5933847427368164,-0.17120622098445892
1.3476423025131226,2.7745838165283203,-0.18077675998210907
1.4395108222961426,2.912163257598877,-0.18713749945163727
1.4790178537368774,2.9406075477600098,-0.18632668256759644
1.5341547727584839,3.0003182888031006,-0.18731281161308289
1.4768273830413818,2.841390371322632,-0.17473182082176208
1.4349778890609741,2.713799238204956,-0.1641763150691986
1.4500573873519897,2.697113275527954,-0.16050025820732117
1.4492956399917603,2.6533498764038086,-0.155196875333786
1.4633240699768066,2.6369102001190186,-0.1515149176120758
1.4644087553024292,2.5962610244750977,-0.1463913470506668
1.4338572025299072,2.501614570617676,-0.13828447461128235
1.450357437133789,2.4922642707824707,-0.135010227560997
1.4752888679504395,2.4959182739257812,-0.13233812153339386
1.4645344018936157,2.438913345336914,-0.12643511593341827
1.4379774332046509,2.359370231628418,-0.11947186291217804
1.394349455833435,2.2535147666931152,-0.11129867285490036
1.3705843687057495,2.1811063289642334,-0.10489490628242493
1.3810057640075684,2.1654255390167236,-0.10129901766777039
1.3993356227874756,2.163081407546997,-0.09831991791725159
1.4143307209014893,2.153463840484619,-0.09481680393218994
1.4139351844787598,2.1211135387420654,-0.09027354419231415
1.4276217222213745,2.1120715141296387,-0.08680256456136703
1.4333713054656982,2.0894126892089844,-0.0825778990983963
1.4472399950027466,2.079974412918091,-0.07887506484985352
1.4561103582382202,2.064363718032837,-0.07491160184144974
1.4525482654571533,2.0287179946899414,-0.06993460655212402
1.4609402418136597,2.013174533843994,-0.06576798111200333
1.4743417501449585,2.0035133361816406,-0.061597663909196854
2.1118252277374268,2.9805831909179688,0.1564616709947586
2.0834803581237793,2.9858908653259277,0.16177821159362793
2.6031486988067627,3.7885777950286865,0.21136023104190826
3.138988494873047,4.6459197998046875,0.2666586935520172
3.1278624534606934,4.6998982429504395,0.2764481008052826
3.1018426418304443,4.7353081703186035,0.28512778878211975
3.0885772705078125,4.794613838195801,0.2952469289302826
1.627733588218689,2.565962314605713,0.16118384897708893
1.6213876008987427,2.5973589420318604,0.1663592904806137
1.5812833309173584,2.576066255569458,0.16803273558616638
2.9982919692993164,4.964024543762207,0.32934215664863586
2.9833757877349854,5.0179762840271,0.3383373022079468
2.9557623863220215,5.056434154510498,0.3461633324623108
2.8626279830932617,4.983753204345703,0.346361368894577
2.793199062347412,4.94211483001709,0.3481347858905792
2.7185239791870117,4.889692783355713,0.3490225374698639
2.653918981552124,4.858112335205078,0.35111624002456665
2.588407039642334,4.822246074676514,0.35278722643852234
2.530346155166626,4.795345783233643,0.35488778352737427
2.4731996059417725,4.767668724060059,0.35677236318588257
2.4059231281280518,4.722992897033691,0.3571086823940277
2.351684331893921,4.701971054077148,0.3591710329055786
