X,Y,Z
-0.2813548445701599,5.43808126449585,0.619396448135376
-0.3175801634788513,5.412840843200684,0.6160271167755127
-0.35345369577407837,5.387364864349365,0.6126259565353394
-0.39135947823524475,5.38483190536499,0.6118566989898682
-0.42750149965286255,5.366594314575195,0.609340488910675
-0.4640793800354004,5.35584831237793,0.6077063083648682
-0.4332613945007324,4.626018524169922,0.5245621204376221
-0.4631911516189575,4.6037211418151855,0.5214093923568726
-0.49460840225219727,4.592762470245361,0.5194897651672363
-0.5244815945625305,4.573934078216553,0.516719400882721
-0.5543099641799927,4.55488920211792,0.5139496922492981
-0.5849385261535645,4.5433454513549805,0.5120532512664795
-0.6175231337547302,4.546982765197754,0.5118926167488098
-0.6438310146331787,4.504268169403076,0.5062394142150879
-0.6729535460472107,4.488387107849121,0.5035689473152161
-0.7055004835128784,4.495331287384033,0.5034830570220947
-0.730958104133606,4.456010341644287,0.4982345700263977
-0.761984646320343,4.45096492767334,0.4968441426753998
-0.7915667295455933,4.438066482543945,0.4946037232875824
-0.8154581785202026,4.394439220428467,0.4886624813079834
-0.8403457403182983,4.362259387969971,0.4839799404144287
-0.7355250120162964,3.682546377182007,0.4076523780822754
-0.7562682032585144,3.654712438583374,0.40366876125335693
-0.9239928126335144,4.314115047454834,0.47545087337493896
-0.9594807028770447,4.3304266929626465,0.4761981964111328
-0.9924352765083313,4.339156150817871,0.47582486271858215
-1.0111936330795288,4.287172317504883,0.46880099177360535
-1.0385079383850098,4.272866725921631,0.465933233499527
-1.0559306144714355,4.216779708862305,0.4585205614566803
-1.0896580219268799,4.22446870803833,0.4580516815185547
-1.12790846824646,4.250833034515381,0.45958808064460754
-1.1526312828063965,4.228348255157471,0.4555777311325073
-1.1833844184875488,4.2281718254089355,0.4539947509765625
-1.205810546875,4.1978373527526855,0.4491889178752899
-1.237763524055481,4.196896553039551,0.44749656319618225
-1.2692338228225708,4.195868492126465,0.4458395540714264
-1.2922359704971313,4.168777942657471,0.4412688910961151
-1.318034291267395,4.152827739715576,0.43775153160095215
-1.3437144756317139,4.136704444885254,0.43423986434936523
-1.3702452182769775,4.1200971603393555,0.43063923716545105
-1.4013471603393555,4.118128299713135,0.42860716581344604
-1.4248158931732178,4.093898296356201,0.42426684498786926
-1.447038173675537,4.069910526275635,0.41970565915107727
-1.4743469953536987,4.060410976409912,0.41666215658187866
-1.5018876791000366,4.0506205558776855,0.41358551383018494
-1.527819275856018,4.032922744750977,0.409633994102478
-1.5586752891540527,4.029757976531982,0.407217413187027
-1.574506402015686,3.990504741668701,0.4009716808795929
-1.6040804386138916,3.987433671951294,0.3983219265937805
-1.608731985092163,3.922905445098877,0.38956624269485474
-1.6425641775131226,3.926084041595459,0.38744693994522095
-1.689743995666504,3.9613988399505615,0.38852590322494507
-1.7134684324264526,3.943070888519287,0.3841620087623596
-1.7334058284759521,3.917696714401245,0.3790508508682251
-1.7484800815582275,3.8814969062805176,0.37291592359542847
-1.7792975902557373,3.876411199569702,0.36964279413223267
-1.796459674835205,3.843095302581787,0.36375489830970764
-1.812261700630188,3.8102025985717773,0.35776230692863464
-1.8409302234649658,3.805461883544922,0.35438627004623413
-1.8597835302352905,3.779318332672119,0.3489825129508972
-1.9005402326583862,3.7942514419555664,0.3472304046154022
-1.919777750968933,3.7674739360809326,0.3416859209537506
-1.9553278684616089,3.7758755683898926,0.33913734555244446
-1.9656826257705688,3.7357239723205566,0.33224865794181824
-1.99891197681427,3.736137628555298,0.3288227617740631
-2.0324912071228027,3.7361350059509277,0.325316846370697
-1.7036277055740356,3.081723928451538,0.2652490437030792
-1.7238540649414062,3.070800304412842,0.2612268626689911
-0.8376191854476929,1.4687573909759521,0.12341269105672836
-0.8478450775146484,1.4630497694015503,0.12136361747980118
-0.8734489679336548,1.4843670129776,0.12148875743150711
-0.8592706918716431,1.4385855197906494,0.11608371138572693
-0.8770967721939087,1.446224331855774,0.11498232930898666
-0.8831226229667664,1.4335827827453613,0.11220982670783997
-0.9050016403198242,1.4477064609527588,0.11146870255470276
-0.8934736251831055,1.409075379371643,0.10666612535715103
-0.8907126188278198,1.383264422416687,0.10274697095155716
-0.9002913236618042,1.3772276639938354,0.10032834112644196
-0.9134224653244019,1.3780964612960815,0.098354272544384
-2.404334306716919,3.576057195663452,0.2497088462114334
-1.3028894662857056,1.8826885223388672,0.12517167627811432
-1.74526846408844,2.487520694732666,0.1610512137413025
-1.2792810201644897,1.8299349546432495,-0.08491656929254532
-1.210503101348877,1.7586733102798462,-0.0855431854724884
-1.243100881576538,1.8634377717971802,-0.09851305186748505
-1.196954607963562,1.823560357093811,-0.10004326701164246
-1.255610704421997,1.9434527158737183,-0.11032261699438095
-1.2252223491668701,1.9256285429000854,-0.11280262470245361
-1.2229539155960083,1.9544955492019653,-0.11805180460214615
-1.885311245918274,3.1623520851135254,-0.20685245096683502
-0.8427481055259705,1.485348105430603,-0.1040385365486145
-1.6692339181900024,2.992892026901245,-0.214059516787529
-1.60126793384552,2.9187521934509277,-0.21285219490528107
-1.5528192520141602,2.8781917095184326,-0.21388781070709229
-1.4947712421417236,2.820474863052368,-0.21349787712097168
-1.4311928749084473,2.7478768825531006,-0.2116517424583435
-1.3941444158554077,2.7228193283081055,-0.21322128176689148
-1.3500676155090332,2.683685064315796,-0.2135469913482666
-1.294203519821167,2.619786262512207,-0.21172115206718445
-1.25315523147583,2.583174467086792,-0.21192851662635803
-1.2032191753387451,2.524754285812378,-0.21012425422668457
-1.181748390197754,2.5259759426116943,-0.21313327550888062
-1.1325420141220093,2.46692156791687,-0.2109590768814087
-1.099128007888794,2.4390487670898438,-0.21127012372016907
-1.0694310665130615,2.41790509223938,-0.21208535134792328
-1.031632423400879,2.378918409347534,-0.21120794117450714
-0.9992132782936096,2.3501949310302734,-0.21109801530838013
-0.9796503186225891,2.349714756011963,-0.21343229711055756
-0.9278439879417419,2.269772529602051,-0.20845049619674683
-0.9058387279510498,2.261627197265625,-0.20988613367080688
-0.8779021501541138,2.238952398300171,-0.2099463790655136
-0.8565047383308411,2.230311632156372,-0.2112146019935608
-0.8313624858856201,2.2104852199554443,-0.21137049794197083
-0.7996141910552979,2.1722471714019775,-0.2096485197544098
-0.7788136601448059,2.1630284786224365,-0.2106228470802307
-0.7541624903678894,2.1426684856414795,-0.2105061411857605
-0.7290178537368774,2.1182479858398438,-0.20990043878555298
-0.7066554427146912,2.1009860038757324,-0.20994317531585693
-0.6867755651473999,2.0909910202026367,-0.21057173609733582
-0.6563913822174072,2.0474982261657715,-0.20778866112232208
-0.6394930481910706,2.044485569000244,-0.2090739756822586
-0.6161013841629028,2.0189573764801025,-0.2080124318599701
-0.5951354503631592,2.000725030899048,-0.20754596590995789
-0.5754910111427307,1.9860512018203735,-0.20739871263504028
-0.5593923330307007,1.9823853969573975,-0.20837949216365814
-0.5373075604438782,1.956079363822937,-0.20695418119430542
-0.5213414430618286,1.9521716833114624,-0.207858607172966
-0.5036125779151917,1.9406012296676636,-0.2078108936548233
-0.48512405157089233,1.9251123666763306,-0.2073332518339157
-0.4716952443122864,1.928283452987671,-0.20884644985198975
-0.45464301109313965,1.9162447452545166,-0.2087145894765854
-0.43570587038993835,1.8965812921524048,-0.2076330929994583
-0.42231428623199463,1.8994632959365845,-0.2089521437883377
-0.40733301639556885,1.8946435451507568,-0.20942559838294983
-0.38700395822525024,1.8630743026733398,-0.20692335069179535
-0.3724822998046875,1.8579716682434082,-0.20733313262462616
-0.3576847016811371,1.8528437614440918,-0.20759879052639008
-0.3418048918247223,1.8399220705032349,-0.20697593688964844
-0.32621484994888306,1.8268557786941528,-0.2063274383544922
-0.314788818359375,1.8366165161132812,-0.20826174318790436
-0.2969106137752533,1.808013916015625,-0.20577651262283325
-0.28399330377578735,1.809985637664795,-0.206673726439476
-0.26898953318595886,1.796478033065796,-0.20579631626605988
-0.25482606887817383,1.7866815328598022,-0.20533932745456696
-0.24030561745166779,1.7729287147521973,-0.20442670583724976
-0.2288883477449417,1.782179594039917,-0.2060522735118866
-0.214536651968956,1.7682503461837769,-0.20494282245635986
-0.2010660320520401,1.7619423866271973,-0.20472873747348785
-0.1896420121192932,1.7709367275238037,-0.2062905728816986
-0.17499732971191406,1.7489705085754395,-0.20425185561180115
-0.16350889205932617,1.7578179836273193,-0.20564806461334229
-0.15188463032245636,1.7665935754776,-0.20702897012233734
-0.1387471854686737,1.7598336935043335,-0.20660465955734253
-0.12594856321811676,1.752961277961731,-0.20616699755191803
-0.11373588442802429,1.7537426948547363,-0.20661984384059906
-0.10060009360313416,1.7389687299728394,-0.20507222414016724
-0.08629687130451202,1.6969774961471558,-0.20031824707984924
-0.07681219279766083,1.755648136138916,-0.2074621468782425
-0.06333619356155396,1.7212166786193848,-0.2036127895116806
-0.05148027837276459,1.7254667282104492,-0.2042938768863678
-0.03902416676282883,1.7063817977905273,-0.2020881026983261
-0.027576595544815063,1.7337520122528076,-0.20539425313472748
-0.015131253749132156,1.7144980430603027,-0.20318838953971863
-0.0032176044769585133,1.7339465618133545,-0.20557813346385956
0.008931676857173443,1.749442458152771,-0.20742210745811462
0.02103029191493988,1.7415920495986938,-0.20640170574188232
0.032857634127140045,1.72590172290802,-0.20446337759494781
0.04475555568933487,1.7217655181884766,-0.2039046734571457
0.05692841857671738,1.7214179039001465,-0.20380377769470215
0.06826167553663254,1.7055022716522217,-0.20175175368785858
0.08137135952711105,1.7321465015411377,-0.20467086136341095
0.09340617060661316,1.7315737009048462,-0.20437991619110107
0.10543694347143173,1.7309170961380005,-0.2040889710187912
0.11769601702690125,1.7301617860794067,-0.20379237830638885
0.1297031193971634,1.7293543815612793,-0.20335626602172852
0.14074671268463135,1.7168680429458618,-0.20152267813682556
0.15437385439872742,1.735228419303894,-0.20331798493862152
0.16643843054771423,1.7341684103012085,-0.20284274220466614
0.1786992847919464,1.7330044507980347,-0.20235946774482727
0.19238696992397308,1.7472307682037354,-0.20350129902362823
0.20176543295383453,1.7228097915649414,-0.20015129446983337
0.21468281745910645,1.7291452884674072,-0.2003868818283081
0.22873671352863312,1.7430766820907593,-0.20150460302829742
0.24214966595172882,1.749182939529419,-0.20167653262615204
0.2542450726032257,1.7475632429122925,-0.20082996785640717
0.25873419642448425,1.69597589969635,-0.19426855444908142
0.2705044150352478,1.6942330598831177,-0.19344313442707062
0.2893018424510956,1.7345242500305176,-0.19741030037403107
0.299984335899353,1.7249326705932617,-0.19562651216983795
0.30793505907058716,1.6999796628952026,-0.19200880825519562
0.3189350962638855,1.694111943244934,-0.19058221578598022
0.3344632685184479,1.711013913154602,-0.1917112171649933
0.3587283790111542,1.769645094871521,-0.19748932123184204
0.3749611973762512,1.7862510681152344,-0.19843721389770508
0.39407843351364136,1.8140761852264404,-0.2005457729101181
0.4066333472728729,1.8114417791366577,-0.19929280877113342
0.42453649640083313,1.83139967918396,-0.20051515102386475
0.4355090260505676,1.820974349975586,-0.19841216504573822
0.4536341428756714,1.840714693069458,-0.199435755610466
0.4608039855957031,1.8150510787963867,-0.19553005695343018
0.47339925169944763,1.8119615316390991,-0.194091334939003
0.4971238076686859,1.8500475883483887,-0.1970423012971878
0.5202944278717041,1.8841747045516968,-0.1994752287864685
0.5374789834022522,1.8956832885742188,-0.19939349591732025
0.555072546005249,1.9069823026657104,-0.19925621151924133
0.5705950260162354,1.9106882810592651,-0.19832271337509155
0.5896105170249939,1.925421118736267,-0.19852545857429504
0.6051725745201111,1.9289273023605347,-0.19743987917900085
0.6278859972953796,1.9545420408248901,-0.19857226312160492
0.6465181708335876,1.9650379419326782,-0.19810006022453308
0.6664465665817261,1.97909414768219,-0.1979842334985733
0.6852272748947144,1.9893324375152588,-0.19742825627326965
0.7143396139144897,2.0288262367248535,-0.19964462518692017
0.7308862209320068,2.031406879425049,-0.19819097220897675
0.7531039714813232,2.0483782291412354,-0.19809748232364655
0.7717402577400208,2.05412220954895,-0.19686917960643768
0.7941085696220398,2.0708274841308594,-0.1965857595205307
0.8223865628242493,2.101829767227173,-0.19760656356811523
0.852836012840271,2.136057138442993,-0.1988338828086853
0.8706813454627991,2.137488603591919,-0.19696131348609924
0.9035420417785645,2.1747210025787354,-0.19823788106441498
0.9350091814994812,2.208202838897705,-0.1990915685892105
0.9594703912734985,2.223400592803955,-0.1982145607471466
0.9843950271606445,2.238276720046997,-0.19724401831626892
1.020517110824585,2.2778828144073486,-0.19834673404693604
1.0572139024734497,2.3171186447143555,-0.19921857118606567
1.0763334035873413,2.3171589374542236,-0.19668962061405182
1.109183430671692,2.3450491428375244,-0.19642959535121918
1.157467246055603,2.404289722442627,-0.19865980744361877
1.1548216342926025,2.3582165241241455,-0.1921016275882721
1.167699933052063,2.3434438705444336,-0.1880752593278885
1.2545411586761475,2.474515199661255,-0.195582777261734
1.2983288764953613,2.518069267272949,-0.195914626121521
1.3441569805145264,2.564819574356079,-0.19631922245025635
1.3855104446411133,2.600578546524048,-0.19570109248161316
1.3758201599121094,2.539719820022583,-0.18775808811187744
1.382096529006958,2.5099449157714844,-0.18211421370506287
1.3341290950775146,2.385256290435791,-0.16981004178524017
1.3756458759307861,2.420320510864258,-0.1688670516014099
1.4081392288208008,2.437941551208496,-0.166576087474823
1.4302316904067993,2.438904047012329,-0.16305099427700043
1.4468451738357544,2.4293723106384277,-0.1587127149105072
1.4637919664382935,2.4194865226745605,-0.15426886081695557
1.469974398612976,2.393155813217163,-0.14878804981708527
1.500168800354004,2.406856060028076,-0.14577479660511017
1.529285192489624,2.4164905548095703,-0.14226442575454712
1.546156883239746,2.4060122966766357,-0.13741467893123627
1.485141634941101,2.278442621231079,-0.12613576650619507
1.401620864868164,2.1187949180603027,-0.1133909747004509
1.4162204265594482,2.1093027591705322,-0.10886666178703308
1.434259057044983,2.106757640838623,-0.10467991977930069
1.4488558769226074,2.09698224067688,-0.09983541071414948
1.4541330337524414,2.0745131969451904,-0.09438545256853104
1.4538309574127197,2.0462725162506104,-0.08873749524354935
1.454317331314087,2.0173380374908447,-0.08277726918458939
1.467483639717102,2.007986068725586,-0.0776374489068985
1.4713648557662964,1.9859386682510376,-0.07184690237045288
2.105895757675171,2.9484293460845947,0.2023068219423294
2.102741003036499,2.9931387901306152,0.21202342212200165
2.3871397972106934,3.450308084487915,0.2513905465602875
2.3795900344848633,3.492741346359253,0.261228084564209
2.3610665798187256,3.5234744548797607,0.2701731324195862
2.3530311584472656,3.56569766998291,0.27954554557800293
3.103656530380249,4.778662204742432,0.3827611207962036
1.6340607404708862,2.558474063873291,0.2090812474489212
1.640426516532898,2.6093993186950684,0.21718797087669373
1.5974571704864502,2.580700635910034,0.2185700386762619
3.0198702812194824,4.961796760559082,0.42718246579170227
2.986074447631836,4.990524768829346,0.43659037351608276
2.958820104598999,5.024101257324219,0.4459541141986847
2.9439024925231934,5.081698417663574,0.4574296474456787
2.9285900592803955,5.143644332885742,0.46924349665641785
2.890974521636963,5.164155960083008,0.47714710235595703
2.8634095191955566,5.201004981994629,0.4864755868911743
2.7663004398345947,5.111386775970459,0.48362836241722107
2.6640217304229736,5.010967254638672,0.47935763001441956
2.604125738143921,4.984682083129883,0.48188114166259766
2.5852177143096924,5.033285140991211,0.49146491289138794
2.5363757610321045,5.026934623718262,0.4956968426704407
2.499098062515259,5.044945240020752,0.5020216703414917
1.236941933631897,2.543515205383301,0.255378395318985
1.2291678190231323,2.572869300842285,0.26051580905914307
1.1962571144104004,2.5494115352630615,0.2603093683719635
1.1775671243667603,2.5578041076660156,0.26318395137786865
1.1631666421890259,2.576890468597412,0.26719191670417786
1.157293677330017,2.61330246925354,0.2729485034942627
2.5631041526794434,5.898244857788086,0.6204222440719604
2.5351524353027344,5.947721481323242,0.6299598813056946
2.506570339202881,6.001352787017822,0.6396378874778748
2.479424476623535,6.062403202056885,0.6502721309661865
2.4466538429260254,6.104408264160156,0.6587278842926025
2.4209487438201904,6.1641645431518555,0.6691364645957947
2.3926618099212646,6.220409393310547,0.679122805595398
2.3637330532073975,6.280720233917236,0.6892775893211365
1.9871231317520142,5.400406360626221,0.595803439617157
2.2923009395599365,6.367931365966797,0.7061008214950562
2.269639015197754,6.445520877838135,0.7182779908180237
2.242002248764038,6.51214599609375,0.7292641997337341
2.208451986312866,6.568148136138916,0.7386754155158997
2.176893472671509,6.635364532470703,0.7494940757751465
2.137956380844116,6.676016807556152,0.7572710514068604
2.078526258468628,6.649474143981934,0.7574010491371155
2.016235828399658,6.611271858215332,0.756191611289978
1.9544936418533325,6.576651096343994,0.7549620866775513
1.8941928148269653,6.545302391052246,0.7539921998977661
1.8368333578109741,6.5248517990112305,0.7543288469314575
1.7769132852554321,6.484625339508057,0.752259373664856
1.7207067012786865,6.455124378204346,0.7514297366142273
1.667542576789856,6.436544895172119,0.7517356872558594
0.817849338054657,3.2521800994873047,0.3808833956718445
1.5515556335449219,6.364853858947754,0.7475634813308716
0.7916173338890076,3.350043535232544,0.39457759261131287
1.4420616626739502,6.29824161529541,0.7439097166061401
1.3838272094726562,6.243359088897705,0.7395235896110535
1.3413281440734863,6.260219097137451,0.7433376908302307
1.2880637645721436,6.231452941894531,0.7415671348571777
1.238327145576477,6.213517665863037,0.7410781383514404
1.1749168634414673,6.118873596191406,0.7314190864562988
1.1280747652053833,6.103705406188965,0.7312479615211487
1.0882855653762817,6.126379489898682,0.7356438636779785
1.029325246810913,6.045812606811523,0.7272619009017944
0.9889405965805054,6.068028926849365,0.7311161756515503
0.945968747138977,6.074634075164795,0.7331272959709167
0.8955442905426025,6.027141571044922,0.7286185622215271
0.842151403427124,5.952348232269287,0.7208135724067688
0.7963937520980835,5.931014060974121,0.7195159196853638
0.759032666683197,5.970914840698242,0.7252241969108582
0.6115862727165222,5.09803581237793,0.6199041604995728
0.5682281255722046,5.036563873291016,0.6131495833396912
0.5494391918182373,5.194509983062744,0.6331415772438049
0.40430667996406555,4.094386100769043,0.4996754825115204
0.37321555614471436,4.073854923248291,0.4978252947330475
0.35283708572387695,4.172881603240967,0.5103082656860352
0.32235223054885864,4.15971565246582,0.5090325474739075
0.2948388159275055,4.185003280639648,0.5124878883361816
0.2651575207710266,4.17914342880249,0.5121533870697021
0.23818033933639526,4.227293491363525,0.5184731483459473
0.3836509585380554,7.772114276885986,0.9540451169013977
0.3284572958946228,7.751279830932617,0.9518328905105591
0.27259883284568787,7.706836223602295,0.9465643763542175
0.21779026091098785,7.673617362976074,0.9427182078361511
0.16288703680038452,7.651656627655029,0.9403038024902344
0.10948105901479721,7.637044429779053,0.9388311505317688
0.056109797209501266,7.5871663093566895,0.9330650568008423
0.0033536232076585293,7.564106464385986,0.930242657661438
-0.049140095710754395,7.548470497131348,0.9280828237533569
-0.10212264955043793,7.513073921203613,0.9235366582870483
-0.15380211174488068,7.488957405090332,0.920427143573761
-0.20523177087306976,7.464483737945557,0.9173188209533691
-0.25678253173828125,7.455160140991211,0.9161170721054077
-0.3085339069366455,7.4532623291015625,0.9155945181846619
-0.2582683861255646,5.344316482543945,0.656065821647644
-0.2999873757362366,5.4160003662109375,0.6644278764724731
-0.33750003576278687,5.413873195648193,0.6637683510780334
-0.3730258345603943,5.380529403686523,0.6593138575553894
-0.410407155752182,5.377888202667236,0.6586560010910034
-0.4457610249519348,5.351822853088379,0.6550384759902954
-0.4271494746208191,4.7269368171691895,0.5778952836990356
-0.44884252548217773,4.61207389831543,0.5632466673851013
-0.4822940230369568,4.62440824508667,0.5641706585884094
-0.5114632844924927,4.594079494476318,0.5599138140678406
-0.5406413078308105,4.567424297332764,0.5561386346817017
-0.5728827118873596,4.563620090484619,0.5550945401191711
-0.6011430025100708,4.536676406860352,0.5509392023086548
-0.6301321387290955,4.51724100112915,0.5477290749549866
-0.6623032093048096,4.520638942718506,0.5473135709762573
-0.6884050369262695,4.481588840484619,0.5417810678482056
-0.7189138531684875,4.4691057205200195,0.5394790172576904
-0.7511811852455139,4.471830368041992,0.539004385471344
-0.7764437198638916,4.436221122741699,0.5335899591445923
-0.8025982975959778,4.408114910125732,0.529118001461029
-0.8298918604850769,4.387472152709961,0.5255745053291321
-0.7161120772361755,3.6470608711242676,0.4360003173351288
-0.7442306280136108,3.65348219871521,0.4358896017074585
-0.7678965926170349,3.640829563140869,0.433489590883255
-0.9406237602233887,4.314342498779297,0.5123276114463806
-0.9750944972038269,4.33079719543457,0.5129437446594238
-1.0046511888504028,4.324284076690674,0.5108524560928345
-1.0316351652145386,4.302220344543457,0.5069050192832947
-1.0485258102416992,4.242436408996582,0.4985816478729248
-1.0816484689712524,4.250392436981201,0.4981476068496704
-1.1144300699234009,4.258250713348389,0.4974704086780548
-1.1473256349563599,4.265871524810791,0.4967794120311737
-1.1708331108093262,4.2356109619140625,0.49165990948677063
-1.1938912868499756,4.205249309539795,0.48657387495040894
-1.2230597734451294,4.197144985198975,0.4840971529483795
-1.2516812086105347,4.189005374908447,0.4814344048500061
-1.2776565551757812,4.173357009887695,0.477781742811203
-1.3050771951675415,4.161118507385254,0.4745178520679474
-1.3291043043136597,4.137519836425781,0.46997109055519104
-1.3531032800674438,4.113709449768066,0.4654209017753601
-1.3842580318450928,4.111853122711182,0.4633767008781433
-1.4119762182235718,4.1027727127075195,0.4602198898792267
-1.4396342039108276,4.093503475189209,0.4570627808570862
-1.4679489135742188,4.083796501159668,0.45382311940193176
-1.488348126411438,4.051942348480225,0.4481413960456848
-1.5192943811416626,4.049099922180176,0.44569799304008484
-1.5468049049377441,4.039046764373779,0.44227898120880127
-1.5710164308547974,4.021732330322266,0.43797194957733154
-1.5797020196914673,3.9643774032592773,0.42931580543518066
-1.6073347330093384,3.9536449909210205,0.4257011115550995
-1.6364175081253052,3.9462947845458984,0.42246589064598083
-1.666459083557129,3.942544460296631,0.4194956421852112
-1.6927818059921265,3.9317262172698975,0.41561824083328247
-1.7225905656814575,3.9276669025421143,0.41242411732673645
-1.743470311164856,3.9018349647521973,0.4069095253944397
-1.765816330909729,3.879377841949463,0.40177077054977417
-1.7922247648239136,3.8676750659942627,0.39764705300331116
-1.8112213611602783,3.842054843902588,0.3919786512851715
-1.8270546197891235,3.809117317199707,0.385553777217865
-1.875841498374939,3.842139720916748,0.38569602370262146
-1.8835952281951904,3.7910590171813965,0.37741202116012573
-1.9195560216903687,3.799607276916504,0.3749092221260071
-1.9375370740890503,3.773435354232788,0.36892083287239075
-1.963003396987915,3.7607104778289795,0.3642011284828186
-1.9787812232971191,3.7264902591705322,0.35725200176239014
-2.0044760704040527,3.713200569152832,0.3523496687412262
-1.6994415521621704,3.099609136581421,0.2909359931945801
-1.7122539281845093,3.0751304626464844,0.28545764088630676
-1.726089596748352,3.0499134063720703,0.279751181602478
-0.8428317904472351,1.4649590253829956,0.13271945714950562
-0.8681023716926575,1.4865210056304932,0.13293404877185822
-0.8658949732780457,1.460903525352478,0.12892545759677887
-0.8760808706283569,1.4550246000289917,0.12657181918621063
-0.8903218507766724,1.455701231956482,0.12477264553308487
-0.8834766745567322,1.4235167503356934,0.12007968127727509
-0.8969462513923645,1.424487829208374,0.11822866648435593
-0.8943419456481934,1.3986605405807495,0.11403927206993103
-0.8911160230636597,1.3731286525726318,0.10991070419549942
-0.8999370336532593,1.3675655126571655,0.10736998915672302
-0.9396597146987915,1.4069223403930664,0.1081354096531868
-2.3890633583068848,3.5238852500915527,0.26488587260246277
-1.340397596359253,1.9506168365478516,0.1432279646396637
-1.4245617389678955,2.0444257259368896,0.14639391005039215
-1.3879314661026,2.0012309551239014,-0.10063345730304718
-1.3135414123535156,1.9242428541183472,-0.10133195668458939
-1.2896363735198975,1.9491875171661377,-0.11123952269554138
-1.2007085084915161,1.8439491987228394,-0.10913445800542831
-1.1518123149871826,1.7963345050811768,-0.10990020632743835
-1.1736853122711182,1.860756516456604,-0.11750688403844833
-1.2446194887161255,2.004751205444336,-0.13035902380943298
-1.8417130708694458,3.0650837421417236,-0.2104799747467041
-0.747270405292511,1.3060709238052368,-0.09625058621168137
-0.8657397627830505,1.5389297008514404,-0.1158910021185875
-1.54905104637146,2.7998509407043457,-0.21523156762123108
-1.4897923469543457,2.7386224269866943,-0.21468542516231537
-1.4347045421600342,2.683825731277466,-0.21440060436725616
-1.3956310749053955,2.6556553840637207,-0.21597212553024292
-1.3412400484085083,2.5957698822021484,-0.21476079523563385
-1.2885650396347046,2.539224147796631,-0.2136429101228714
-1.2508877515792847,2.5098562240600586,-0.21460911631584167
-1.223005771636963,2.4972236156463623,-0.21679805219173431
-1.1632225513458252,2.4176840782165527,-0.21303725242614746
-1.1356799602508545,2.4046006202697754,-0.21490876376628876
-1.097008466720581,2.366485118865967,-0.21445602178573608
-1.067200779914856,2.345578193664551,-0.2154475748538971
-1.0331573486328125,2.3136394023895264,-0.2152852714061737
-0.9914021492004395,2.2637064456939697,-0.2132605016231537
-0.9643555283546448,2.24543833732605,-0.2141171395778656
-0.9304860234260559,2.2088069915771484,-0.21308964490890503
-0.898341953754425,2.1755454540252686,-0.21232517063617706
-0.8768597841262817,2.167232036590576,-0.21380208432674408
-0.852708101272583,2.151479959487915,-0.21451336145401
-0.8165037631988525,2.102739095687866,-0.2118161916732788
-0.7989786863327026,2.100867509841919,-0.21378973126411438
-0.7673686742782593,2.0626392364501953,-0.21191981434822083
-0.7498989105224609,2.0605216026306152,-0.213687464594841
-0.718497097492218,2.0178592205047607,-0.21116317808628082
-0.691624641418457,1.985862135887146,-0.20967790484428406
-0.6712915897369385,1.9720721244812012,-0.20997187495231628
-0.6520820260047913,1.961894154548645,-0.21062636375427246
-0.6310321688652039,1.9440360069274902,-0.21038852632045746
-0.6127179265022278,1.9333587884902954,-0.21089349687099457
-0.5899044275283813,1.907710075378418,-0.2096807211637497
-0.5729580521583557,1.9004875421524048,-0.2103734016418457
-0.5616326332092285,1.9117504358291626,-0.21311844885349274
-0.5330827236175537,1.8632025718688965,-0.20917139947414398
-0.5200702548027039,1.86667001247406,-0.21100716292858124
-0.5027916431427002,1.8551186323165894,-0.21099728345870972
-0.4827069640159607,1.8321640491485596,-0.20966282486915588
-0.4679166376590729,1.8277961015701294,-0.2104293406009674
-0.4530511498451233,1.8233487606048584,-0.21120259165763855
-0.43660369515419006,1.8112112283706665,-0.21098825335502625
-0.41232365369796753,1.7649506330490112,-0.2066698968410492
-0.4007059335708618,1.771439790725708,-0.20851120352745056
-0.38834497332572937,1.774027705192566,-0.20989224314689636
-0.370117723941803,1.750001311302185,-0.20813830196857452
-0.3593599200248718,1.7600172758102417,-0.21026447415351868
-0.3469604253768921,1.7623605728149414,-0.2114592045545578
-0.33025282621383667,1.7417407035827637,-0.20989398658275604
-0.312529593706131,1.7133333683013916,-0.2073674201965332
-0.29899343848228455,1.707735538482666,-0.20757107436656952
-0.28569865226745605,1.7020281553268433,-0.20760086178779602
-0.27495935559272766,1.711534857749939,-0.2094966471195221
-0.2577267289161682,1.6787971258163452,-0.20621420443058014
-0.249417245388031,1.703453540802002,-0.20998515188694
-0.23519054055213928,1.6897119283676147,-0.20895066857337952
-0.22335655987262726,1.6912236213684082,-0.20970503985881805
-0.21056534349918365,1.684956431388855,-0.20950187742710114
-0.19883611798286438,1.686287760734558,-0.21024830639362335
-0.18540368974208832,1.6721247434616089,-0.2090669423341751
-0.1753232479095459,1.6887263059616089,-0.21159397065639496
-0.16257232427597046,1.6821420192718506,-0.21119454503059387
-0.15013247728347778,1.6754451990127563,-0.2107800394296646
-0.13653191924095154,1.6532058715820312,-0.20841199159622192
-0.1273500919342041,1.68496572971344,-0.21285445988178253
-0.11503175646066666,1.6780365705490112,-0.21223855018615723
-0.10167162120342255,1.6555570363998413,-0.20966582000255585
-0.09055287390947342,1.6639196872711182,-0.211001455783844
-0.07824825495481491,1.6489804983139038,-0.20939035713672638
-0.06709104031324387,1.6571911573410034,-0.21067065000534058
-0.05553646758198738,1.6575987339019775,-0.2108272761106491
-0.04339040443301201,1.6424355506896973,-0.20901449024677277
-0.032268524169921875,1.658174753189087,-0.21114258468151093
-0.02084680087864399,1.666088342666626,-0.21228598058223724
-0.009169990196824074,1.6506863832473755,-0.2103680819272995
0.002292172284796834,1.642965316772461,-0.20934219658374786
0.014113797806203365,1.6661615371704102,-0.21226505935192108
0.025215812027454376,1.6350324153900146,-0.20827782154083252
0.036579255014657974,1.6348224878311157,-0.20823974907398224
0.048159632831811905,1.6422983407974243,-0.20904769003391266
0.060123324394226074,1.6574440002441406,-0.210785374045372
0.07029131799936295,1.6260441541671753,-0.2066153585910797
0.08181048929691315,1.6255351305007935,-0.20638054609298706
0.0944531038403511,1.6481692790985107,-0.20909488201141357
0.10640762746334076,1.6552602052688599,-0.20965945720672607
0.11734812706708908,1.6468039751052856,-0.20825481414794922
0.12879464030265808,1.646002173423767,-0.2078293412923813
0.1411001831293106,1.652827501296997,-0.2083698958158493
0.15329352021217346,1.659584403038025,-0.20888003706932068
0.1624973714351654,1.6354169845581055,-0.20535261929035187
0.17463982105255127,1.642038345336914,-0.20570626854896545
0.18780986964702606,1.656267762184143,-0.2070140242576599
0.19766798615455627,1.6395814418792725,-0.2044600397348404
0.2119932919740677,1.661329984664917,-0.2066347301006317
0.22555989027023315,1.6752928495407104,-0.20772898197174072
0.23608003556728363,1.6661126613616943,-0.20595981180667877
0.2510899603366852,1.6875429153442383,-0.2079765945672989
0.26064255833625793,1.6705009937286377,-0.20524819195270538
0.27471306920051575,1.6840801239013672,-0.20617535710334778
0.28894415497779846,1.697558879852295,-0.20703057944774628
0.29799824953079224,1.6803631782531738,-0.20415186882019043
0.3083036243915558,1.670738697052002,-0.20220890641212463
0.3199501931667328,1.6686701774597168,-0.20119383931159973
0.3347008228302002,1.6817435026168823,-0.20182141661643982
0.3400532901287079,1.6491334438323975,-0.19699588418006897
0.3579956591129303,1.6772258281707764,-0.19942577183246613
0.37135419249534607,1.6824103593826294,-0.19911842048168182
0.3812967836856842,1.6723737716674805,-0.19696903228759766
0.3894658386707306,1.6547082662582397,-0.19381453096866608
0.4164282977581024,1.7162646055221558,-0.19993609189987183
0.4283941984176636,1.7134816646575928,-0.1985187530517578
0.44422629475593567,1.725649356842041,-0.1988324075937271
0.464100182056427,1.752738356590271,-0.2007320374250412
0.48148778080940247,1.7683589458465576,-0.20122162997722626
0.5000072121620178,1.7876044511795044,-0.2021195888519287
0.5210604667663574,1.8141186237335205,-0.2038009613752365
0.535873532295227,1.8180912733078003,-0.20291192829608917
0.5483612418174744,1.8145694732666016,-0.20106349885463715
0.5644863247871399,1.822030782699585,-0.20040789246559143
0.5819031596183777,1.8330628871917725,-0.20013539493083954
0.6019181609153748,1.8513275384902954,-0.20063069462776184
0.6245248913764954,1.8768362998962402,-0.20178212225437164
0.63990318775177,1.8800865411758423,-0.2004723995923996
0.6592885851860046,1.8941924571990967,-0.20029400289058685
0.6753386855125427,1.8970160484313965,-0.19886472821235657
0.6964575052261353,1.9144357442855835,-0.1989467740058899
0.7230663895606995,1.946318507194519,-0.20038582384586334
0.7460199594497681,1.9670188426971436,-0.20062114298343658
0.7738006711006165,1.9982683658599854,-0.20184014737606049
0.7851502299308777,1.9857288599014282,-0.19858169555664062
0.8176241517066956,2.0274691581726074,-0.20064222812652588
0.846241295337677,2.0580813884735107,-0.20151610672473907
0.863537073135376,2.0595924854278564,-0.19946539402008057
0.894749104976654,2.0931262969970703,-0.2004617303609848
0.9217744469642639,2.115652084350586,-0.20021535456180573
0.9424557089805603,2.1238439083099365,-0.1985800862312317
0.9843735098838806,2.1778578758239746,-0.20111222565174103
1.0191150903701782,2.2136452198028564,-0.20182278752326965
1.049146294593811,2.2386269569396973,-0.20141346752643585
1.091352939605713,2.2878873348236084,-0.20300249755382538
1.1003193855285645,2.2665939331054688,-0.19827988743782043
1.1455022096633911,2.3184943199157715,-0.19986936450004578
1.1823680400848389,2.3526594638824463,-0.1997491866350174
1.2212858200073242,2.390026330947876,-0.19975785911083221
1.2485381364822388,2.4026036262512207,-0.19754751026630402
1.2729054689407349,2.40775990486145,-0.1945854276418686
1.3242254257202148,2.464629650115967,-0.19570359587669373
1.3612563610076904,2.493654727935791,-0.1944556087255478
1.3615831136703491,2.4537765979766846,-0.1876937299966812
1.3040333986282349,2.3121137619018555,-0.17337413132190704
1.3274816274642944,2.3170363903045654,-0.1701195240020752
1.3705480098724365,2.3555057048797607,-0.1692667454481125
1.4326125383377075,2.423388957977295,-0.1702074110507965
1.449036955833435,2.413926362991333,-0.16557210683822632
1.46903395652771,2.4112627506256104,-0.16137684881687164
1.4736424684524536,2.381298780441284,-0.15513193607330322
1.5129084587097168,2.4076921939849854,-0.15255530178546906
1.5496727228164673,2.430899143218994,-0.1496291160583496
1.585236668586731,2.4501030445098877,-0.14619633555412292
1.681634545326233,2.5599071979522705,-0.1477380394935608
1.4086602926254272,2.1138837337493896,-0.11773748695850372
1.4272710084915161,2.1110572814941406,-0.11322661489248276
1.4375219345092773,2.094895839691162,-0.10784713923931122
1.4465341567993164,2.0794334411621094,-0.10253163427114487
1.4426112174987793,2.0443062782287598,-0.09608032554388046
1.4476358890533447,2.0218260288238525,-0.09007903188467026
1.4513345956802368,2.0001394748687744,-0.08425521850585938
1.4652471542358398,1.99020516872406,-0.07850506901741028
2.0976405143737793,2.962310314178467,0.2243782877922058
2.2904915809631348,3.2835962772369385,0.25598886609077454
2.3351857662200928,3.403672456741333,0.2726972699165344
2.3361854553222656,3.4589006900787354,0.28407782316207886
2.2982261180877686,3.4555399417877197,0.29034486413002014
2.250082492828369,3.4399561882019043,0.2953687608242035
3.1087942123413086,4.827942848205566,0.4228150248527527
1.6457992792129517,2.595501661300659,0.23158852756023407
1.6172873973846436,2.594548463821411,0.23568470776081085
1.5979483127593994,2.606044054031372,0.24071434140205383
3.0002729892730713,4.970163345336914,0.4662173390388489
2.9857423305511475,5.027934551239014,0.4786486029624939
2.9514870643615723,5.0562825202941895,0.4882173538208008
2.9511449337005615,5.141088962554932,0.503137469291687
2.914944887161255,5.160876274108887,0.5115235447883606
2.876735210418701,5.181451797485352,0.5197651982307434
2.8749828338623047,5.270413398742676,0.5348734855651855
2.822438955307007,5.262644290924072,0.5399556756019592
2.7810733318328857,5.275020122528076,0.5470882058143616
2.6904990673065186,5.194300174713135,0.5441381931304932
2.7133495807647705,5.334799766540527,0.5642758011817932
2.7268528938293457,5.457864284515381,0.5826531052589417
2.7194278240203857,5.538875579833984,0.5965625047683716
1.2273558378219604,2.5459372997283936,0.2766108512878418
1.2051876783370972,2.547562837600708,0.2790093421936035
1.1846975088119507,2.5525248050689697,0.2817792296409607
1.1716469526290894,2.5710291862487793,0.285946249961853
1.1631327867507935,2.6001203060150146,0.2913336753845215
1.1474477052688599,2.615241050720215,0.2950546145439148
2.5473225116729736,5.924978256225586,0.6729820966720581
2.517874002456665,5.974781513214111,0.6830717921257019
2.4937593936920166,6.034639835357666,0.6942506432533264
2.4645519256591797,6.083635330200195,0.7042681574821472
2.4347150325775146,6.136744976043701,0.7144398093223572
2.407334804534912,6.201018810272217,0.7259646058082581
2.3763082027435303,6.253837585449219,0.7361265420913696
2.3271279335021973,6.255061626434326,0.7401405572891235
1.9805045127868652,5.438805103302002,0.646935224533081
2.2851638793945312,6.417726039886475,0.7669873833656311
2.2555935382843018,6.485085487365723,0.7786046862602234
2.224895477294922,6.548342227935791,0.7897515296936035
2.191296100616455,6.599930286407471,0.7994596362113953
2.1606733798980713,6.662430763244629,0.8105733394622803
2.111093044281006,6.669546604156494,0.8147674202919006
2.0426628589630127,6.621237754821777,0.8118904232978821
1.9825282096862793,6.594363212585449,0.8115888833999634
1.9228243827819824,6.562961101531982,0.8106676340103149
1.8652385473251343,6.534641742706299,0.810096025466919
1.8049622774124146,6.494650840759277,0.808079183101654
1.7492952346801758,6.473221302032471,0.8078510761260986
1.690118432044983,6.440326690673828,0.8061984181404114
0.8282094597816467,3.250312089920044,0.40810203552246094
1.5774989128112793,6.376045227050781,0.8029431104660034
0.8054348826408386,3.355316638946533,0.4238065779209137
1.469807744026184,6.3172478675842285,0.8001959323883057
1.4060090780258179,6.247932434082031,0.7932837009429932
1.3630762100219727,6.264983177185059,0.7973220944404602
1.3155107498168945,6.258911609649658,0.798442006111145
1.2641819715499878,6.229553699493408,0.7965840101242065
1.2125177383422852,6.195997714996338,0.794206440448761
1.150283932685852,6.1089348793029785,0.7847395539283752
1.1069103479385376,6.116639137268066,0.7871030569076538
1.0634210109710693,6.124045372009277,0.7894699573516846
1.0082457065582275,6.058444499969482,0.7824330925941467
0.9611268639564514,6.034415245056152,0.7807660698890686
0.9206873178482056,6.056093692779541,0.7850722074508667
0.870999813079834,6.012289047241211,0.7806174755096436
0.8200186491012573,5.956662178039551,0.7743726968765259
0.7809582352638245,5.985127925872803,0.7790910005569458
0.7361007928848267,5.967167854309082,0.7777982354164124
0.5880278944969177,5.056129455566406,0.6599571704864502
0.5606239438056946,5.136991024017334,0.6714830994606018
0.5314215421676636,5.206130027770996,0.6812907457351685
0.3915562033653259,4.122182369232178,0.5398588180541992
0.35848474502563477,4.07843017578125,0.5345678329467773
0.3377271294593811,4.1772565841674805,0.5479950904846191
0.3087310194969177,4.18716287612915,0.5498016476631165
0.27855968475341797,4.173649311065674,0.5485503077507019
0.25130683183670044,4.206333160400391,0.5532665848731995
0.40967005491256714,7.769989490509033,1.0223215818405151
0.3545740246772766,7.757097244262695,1.0209954977035522
0.2973487079143524,7.705146312713623,1.014581561088562
0.2435891181230545,7.699192047119141,1.0142606496810913
0.18936578929424286,7.673506736755371,1.0113879442214966
0.13542822003364563,7.64358377456665,1.0078907012939453
0.08191538602113724,7.6133646965026855,1.0037767887115479
0.0278877392411232,7.594394683837891,1.0011941194534302
-0.024901539087295532,7.555681228637695,0.9960594177246094
-0.07722531259059906,7.539839267730713,0.9939883351325989
-0.12886427342891693,7.496531009674072,0.9883438348770142
-0.18037262558937073,7.472229480743408,0.9852520823478699
-0.23126018047332764,7.43992280960083,0.980467677116394
-0.2839760184288025,7.445947647094727,0.9807364344596863
-0.33625248074531555,7.45937442779541,0.9820351600646973
-0.2812003791332245,5.4031982421875,0.7110299468040466
-0.3192009925842285,5.408917427062988,0.7115089893341064
-0.35627448558807373,5.398909568786621,0.7099536657333374
-0.39260879158973694,5.373210906982422,0.7059792280197144
-0.4297027885913849,5.37050724029541,0.7049458026885986
-0.46241578459739685,5.317383766174316,0.6973336935043335
-0.43366357684135437,4.6161699295043945,0.6048468351364136
-0.46572932600975037,4.613162517547607,0.6039519309997559
-0.49748536944389343,4.6021728515625,0.6020341515541077
-0.526106059551239,4.571843147277832,0.597377598285675
-0.5575269460678101,4.568288803100586,0.5960736274719238
-0.5839185118675232,4.526101589202881,0.5897650718688965
-0.6162142753601074,4.529806613922119,0.5894650220870972
-0.6461101770401001,4.510158061981201,0.586135983467102
-0.6762911081314087,4.498064994812012,0.5838364362716675
-0.7043577432632446,4.474338054656982,0.5798661112785339
-0.7350225448608398,4.469622611999512,0.578168511390686
-0.7630359530448914,4.4494194984436035,0.5744984149932861
-0.7923082113265991,4.436647415161133,0.5718154311180115
-0.8180696368217468,4.400664329528809,0.5661483407020569
-0.8391393423080444,4.345612049102783,0.5580921173095703
-0.7344166040420532,3.667297601699829,0.4700271487236023
-0.7578585743904114,3.6548333168029785,0.46730032563209534
-0.9298745393753052,4.335803508758545,0.5530523657798767
-0.964403510093689,4.348381996154785,0.5533246994018555
-0.9885869026184082,4.3153839111328125,0.5478342771530151
-1.020340919494629,4.316222667694092,0.5466736555099487
-1.0445091724395752,4.286789417266846,0.5415171384811401
-1.0754743814468384,4.287432670593262,0.5399968028068542
-1.1051154136657715,4.280205249786377,0.5374771952629089
-1.1285226345062256,4.250338077545166,0.5321599841117859
-1.1580368280410767,4.242706775665283,0.5296424031257629
-1.1812158823013306,4.212462425231934,0.5243356227874756
-1.2055779695510864,4.189752578735352,0.5197515487670898
-1.2332459688186646,4.178005695343018,0.51640385389328
-1.2625689506530762,4.173642158508301,0.5140247344970703
-1.2903211116790771,4.161442279815674,0.5106571912765503
-1.319300651550293,4.15270471572876,0.5077304244041443
-1.3482398986816406,4.143758773803711,0.504792332649231
-1.3717619180679321,4.120075225830078,0.4997076094150543
-1.4020631313323975,4.118454933166504,0.49736204743385315
-1.4223923683166504,4.087221145629883,0.49145591259002686
-1.4456512928009033,4.062975883483887,0.4863795340061188
-1.4739474058151245,4.053192615509033,0.48306596279144287
-1.4961938858032227,4.028885364532471,0.47786468267440796
-1.529185175895691,4.033526420593262,0.4759193956851959
-1.5562292337417603,4.023594856262207,0.47231048345565796
-1.5784143209457397,3.998685836791992,0.4668922424316406
-1.6063125133514404,3.987997055053711,0.46314987540245056
-1.6279242038726807,3.9628746509552,0.4576776325702667
-1.6638526916503906,3.973673105239868,0.4560833275318146
-1.6751630306243896,3.9271762371063232,0.4479905068874359
-1.7052863836288452,3.9231317043304443,0.4446987211704254
-1.7358068227767944,3.9186959266662598,0.4413345158100128
-1.759702444076538,3.899972677230835,0.4363256096839905
-1.781246542930603,3.877852201461792,0.43067601323127747
-1.8037363290786743,3.8593482971191406,0.42552003264427185
-1.8303192853927612,3.8473105430603027,0.42099034786224365
-1.8572330474853516,3.834893226623535,0.4163895547389984
-1.8766381740570068,3.808610439300537,0.41021084785461426
-1.9022670984268188,3.7963993549346924,0.40532317757606506
-1.923869013786316,3.777283191680908,0.39978092908859253
-1.9503204822540283,3.764230251312256,0.3947025239467621
-1.9767098426818848,3.7509710788726807,0.3896178901195526
-1.9980964660644531,3.731337785720825,0.3837052285671234
-2.0264244079589844,3.7254276275634766,0.3791600167751312
-1.702007532119751,3.078451633453369,0.30989038944244385
-1.7349483966827393,3.0872838497161865,0.30730336904525757
-0.8335434198379517,1.4602137804031372,0.14365553855895996
-0.8508716821670532,1.4684306383132935,0.14270056784152985
-0.8646267652511597,1.4696412086486816,0.14100366830825806
-0.8791123628616333,1.470342755317688,0.1391221433877945
-0.8729487061500549,1.4379230737686157,0.13414089381694794
-0.8863824009895325,1.4390674829483032,0.13226991891860962
-0.8877813220024109,1.420099139213562,0.12850169837474823
-0.9060766100883484,1.427227258682251,0.12701159715652466
-0.9115031361579895,1.414751410484314,0.123680479824543
-0.9078027009963989,1.3895208835601807,0.1192893534898758
-0.8980309963226318,1.3542124032974243,0.1139497458934784
-2.417614698410034,3.5919077396392822,0.2959400713443756
-2.4120256900787354,3.535114049911499,0.2848772406578064
-1.3067889213562012,1.8878167867660522,0.14847563207149506
-1.3894532918930054,1.9778565168380737,0.15159544348716736
-1.2051432132720947,1.7241530418395996,-0.0890212282538414
-1.3670073747634888,1.9868024587631226,-0.10772503167390823
-1.230112910270691,1.8153870105743408,-0.10290403664112091
-1.175150752067566,1.7627289295196533,-0.10414548218250275
-1.2823004722595215,1.9535142183303833,-0.11981745064258575
-1.2471016645431519,1.9295889139175415,-0.12255266308784485
-1.7474809885025024,2.8845431804656982,-0.20670944452285767
-1.6968739032745361,2.846278667449951,-0.2092648595571518
-1.6142833232879639,2.7989134788513184,-0.2159612625837326
-0.842176616191864,1.4846967458724976,-0.11713912338018417
-1.4982467889785767,2.6846563816070557,-0.21631848812103271
-1.4487138986587524,2.6403896808624268,-0.21711528301239014
-1.383023738861084,2.564826011657715,-0.21509608626365662
-1.3372600078582764,2.52262806892395,-0.21555213630199432
-1.296002745628357,2.48671293258667,-0.21631334722042084
-1.2440553903579712,2.429870843887329,-0.21503077447414398
-1.1984935998916626,2.3827412128448486,-0.21438783407211304
-1.1524330377578735,2.3313775062561035,-0.21310676634311676
-1.135494351387024,2.339298963546753,-0.21718835830688477
-1.0833061933517456,2.273329973220825,-0.2142070233821869
-1.0571800470352173,2.259486198425293,-0.2159583568572998
-1.0250701904296875,2.2311298847198486,-0.2162076085805893
-0.9883289933204651,2.1919331550598145,-0.21524956822395325
-0.9488504528999329,2.1453146934509277,-0.21340256929397583
-0.9271225929260254,2.1375081539154053,-0.21534162759780884
-0.8938443660736084,2.1006808280944824,-0.21421416103839874
-0.8743512630462646,2.0959136486053467,-0.21623355150222778
-0.8356780409812927,2.044259548187256,-0.21329808235168457
-0.8052420020103455,2.0101351737976074,-0.21205314993858337
-0.7681887149810791,1.9576152563095093,-0.20877309143543243
