X,Y,Z
-0.1887304037809372,2.793476104736328,-0.4749590754508972
-0.1698622852563858,2.809967279434204,-0.47846874594688416
-0.15069176256656647,2.8186228275299072,-0.4806617498397827
-0.13107340037822723,2.8194527626037598,-0.48154470324516296
-0.110236257314682,2.789431095123291,-0.47678342461586
-0.08766799420118332,2.693852424621582,-0.4607391953468323
-0.07230275124311447,2.8406007289886475,-0.4861759841442108
-0.0520792081952095,2.814016342163086,-0.48197734355926514
-0.03244983032345772,2.8065648078918457,-0.4809240400791168
-0.013119285926222801,2.8413827419281006,-0.48680615425109863
0.006648482289165258,2.8568153381347656,-0.48938921093940735
0.02694152668118477,2.8644065856933594,-0.49065160751342773
0.0475076287984848,2.902655839920044,-0.49718987941741943
0.06752799451351166,2.8946328163146973,-0.49542659521102905
0.08869805186986923,2.928823232650757,-0.5008118152618408
0.10836329311132431,2.9089887142181396,-0.4969802796840668
0.12822145223617554,2.900564432144165,-0.4951270818710327
0.14970743656158447,2.9189319610595703,-0.4977165460586548
0.17309343814849854,2.9718196392059326,-0.5058611035346985
0.19649241864681244,3.012995958328247,-0.5120077133178711
0.21744491159915924,3.011735439300537,-0.5109544992446899
0.24145393073558807,3.0487239360809326,-0.51640385389328
0.26566049456596375,3.077890396118164,-0.5201230645179749
0.29027554392814636,3.1107547283172607,-0.5243759155273438
0.31651395559310913,3.1549296379089355,-0.5305273532867432
0.3401155173778534,3.1682441234588623,-0.5314885973930359
0.36786821484565735,3.2158620357513428,-0.5380576252937317
0.3961777687072754,3.2594528198242188,-0.5435311794281006
0.42421627044677734,3.299034357070923,-0.5483465194702148
0.45342013239860535,3.34220027923584,-0.553730845451355
0.4826745390892029,3.381312608718872,-0.5584257245063782
0.5130219459533691,3.424072027206421,-0.5632821321487427
0.5437758564949036,3.462735891342163,-0.5672883987426758
0.5728442072868347,3.489781379699707,-0.5694068074226379
0.6095603704452515,3.5584003925323486,-0.5782606601715088
0.6384130716323853,3.57735538482666,-0.5788429379463196
0.6632293462753296,3.573395013809204,-0.575391411781311
0.7019262909889221,3.6412460803985596,-0.5834713578224182
0.718669056892395,3.5913355350494385,-0.5726293325424194
0.8252342343330383,3.979858636856079,-0.6315016746520996
0.8649730682373047,4.031343936920166,-0.6361013650894165
0.9238681793212891,4.165422439575195,-0.6535181999206543
0.9657925963401794,4.21607780456543,-0.6576899290084839
1.0180495977401733,4.303804397583008,-0.6674531698226929
1.0617915391921997,4.3536763191223145,-0.6710652709007263
1.0901358127593994,4.3395304679870605,-0.6645058989524841
1.122202754020691,4.340157508850098,-0.6602409482002258
1.1476073265075684,4.314342021942139,-0.6519631147384644
1.1783078908920288,4.306897163391113,-0.6463998556137085
1.2039644718170166,4.2846150398254395,-0.6382831335067749
1.2336537837982178,4.277034282684326,-0.6324040293693542
1.242631435394287,4.1987152099609375,-0.6161434650421143
1.064135193824768,3.5058753490448,-0.5105619430541992
1.0911773443222046,3.5064170360565186,-0.506411612033844
1.113067388534546,3.492159843444824,-0.5001204609870911
1.1373165845870972,3.4850869178771973,-0.4948728382587433
1.1666609048843384,3.4924569129943848,-0.4916411340236664
1.1859885454177856,3.470339059829712,-0.48414504528045654
1.2061034440994263,3.451870918273926,-0.4770292043685913
1.2277776002883911,3.4367780685424805,-0.47033974528312683
1.2519031763076782,3.4288363456726074,-0.4646717309951782
1.2758934497833252,3.4207534790039062,-0.4589569568634033
1.299452781677246,3.412662982940674,-0.4530492424964905
1.3229823112487793,3.404392719268799,-0.4471341073513031
1.3472455739974976,3.3956637382507324,-0.4410184919834137
1.3710888624191284,3.386887311935425,-0.43498316407203674
1.3943735361099243,3.378164768218994,-0.4287492036819458
1.4251230955123901,3.3871560096740723,-0.42475658655166626
1.4671294689178467,3.4207069873809814,-0.4236914813518524
1.4853485822677612,3.396707057952881,-0.4153521955013275
1.5323387384414673,3.44043231010437,-0.4151584506034851
1.5414910316467285,3.3988068103790283,-0.40463536977767944
1.5619126558303833,3.3817176818847656,-0.3970271348953247
1.5823522806167603,3.3644139766693115,-0.38939207792282104
1.5956456661224365,3.333108901977539,-0.3799538314342499
1.6285854578018188,3.3438775539398193,-0.37541884183883667
1.6191288232803345,3.267024278640747,-0.36100873351097107
2.2705366611480713,4.502617359161377,-0.48946434259414673
2.310009241104126,4.505415439605713,-0.4815059304237366
1.7240104675292969,3.307614803314209,-0.3474045693874359
1.716664433479309,3.2375566959381104,-0.3337525725364685
1.728091835975647,3.205730676651001,-0.3242742717266083
1.7180070877075195,3.136657953262329,-0.31113725900650024
1.7280908823013306,3.105133295059204,-0.3018314242362976
1.7652455568313599,3.1207165718078613,-0.29692894220352173
1.3386976718902588,2.329301118850708,-0.21668969094753265
1.2876063585281372,2.2064056396484375,-0.20062211155891418
0.9454126358032227,1.5948165655136108,-0.14152958989143372
0.9665369391441345,1.6052438020706177,-0.13887888193130493
0.9670897722244263,1.5824763774871826,-0.13334746658802032
0.9841946363449097,1.5860241651535034,-0.12992361187934875
0.9932757019996643,1.5760986804962158,-0.125319704413414
1.0184634923934937,1.592766523361206,-0.12278226763010025
1.0100066661834717,1.5568121671676636,-0.11617876589298248
1.0209485292434692,1.5499933958053589,-0.11162538081407547
1.042273998260498,1.5595701932907104,-0.10814044624567032
1.0416408777236938,1.5368026494979858,-0.10245703905820847
2.558121681213379,3.718317747116089,-0.2372557669878006
2.564664125442505,3.676547050476074,-0.22398506104946136
2.598090171813965,3.6728460788726807,-0.21284036338329315
2.5920767784118652,3.610766887664795,-0.197605162858963
2.606013059616089,3.582090377807617,-0.1846073418855667
2.667552947998047,3.615076780319214,-0.1738908588886261
2.6274302005767822,3.720628023147583,0.37588760256767273
2.5913193225860596,3.7257137298583984,0.38639137148857117
2.557420015335083,3.7384114265441895,0.3974358141422272
1.0538840293884277,1.565119743347168,0.17022649943828583
1.0424216985702515,1.5722987651824951,0.17459231615066528
1.0343776941299438,1.5864094495773315,0.17966511845588684
1.022542953491211,1.5935899019241333,0.18381796777248383
1.0070205926895142,1.593795657157898,0.1870126873254776
0.9985477328300476,1.6078073978424072,0.19175265729427338
0.9861661791801453,1.6149669885635376,0.19562610983848572
0.9747171998023987,1.6214687824249268,0.1991918385028839
0.9707585573196411,1.641480803489685,0.20438385009765625
1.3465732336044312,2.316483736038208,0.2921546399593353
1.3366585969924927,2.3394980430603027,0.2987874150276184
1.8013272285461426,3.2043802738189697,0.41398853063583374
1.760918140411377,3.186114549636841,0.4161686897277832
1.7830671072006226,3.2837960720062256,0.4334563910961151
1.7585700750350952,3.2961719036102295,0.43955621123313904
2.3906338214874268,4.558263301849365,0.613801121711731
2.357795476913452,4.574275970458984,0.6216446161270142
2.323470115661621,4.590765476226807,0.6292858123779297
2.2924747467041016,4.613931179046631,0.6378856301307678
2.2596421241760254,4.629093170166016,0.6451421976089478
2.2230887413024902,4.637143611907959,0.6514742374420166
2.1921181678771973,4.659461498260498,0.6593441963195801
2.157426595687866,4.674656391143799,0.6661792397499084
2.129462242126465,4.70350980758667,0.6749510765075684
2.096327066421509,4.7174391746521,0.6814377903938293
2.059814214706421,4.724114418029785,0.6868648529052734
2.0045032501220703,4.692266464233398,0.6863028407096863
1.7366561889648438,4.149038791656494,0.6103980541229248
1.7094438076019287,4.1679205894470215,0.6166921854019165
1.6772964000701904,4.171871185302734,0.6206897497177124
1.6478626728057861,4.182835578918457,0.6257189512252808
1.6194581985473633,4.2014946937561035,0.6315597295761108
1.591383695602417,4.2197723388671875,0.637337327003479
1.5580525398254395,4.223246097564697,0.640885591506958
1.5362955331802368,4.255202293395996,0.6486958861351013
1.5064804553985596,4.265162467956543,0.6531959772109985
1.4801125526428223,4.290093421936035,0.6596905589103699
1.4464644193649292,4.292764186859131,0.6626800298690796
1.412812352180481,4.295185089111328,0.6656605005264282
1.389579176902771,4.326496124267578,0.6730834245681763
1.361520767211914,4.342885494232178,0.6782214045524597
1.3301364183425903,4.351994514465332,0.6821003556251526
1.3019565343856812,4.372045993804932,0.6873783469200134
1.2724350690841675,4.388214111328125,0.6920937895774841
1.240960717201233,4.396663665771484,0.6956101655960083
1.2122324705123901,4.412137031555176,0.7002235651016235
1.1813985109329224,4.419948101043701,0.7036555409431458
1.1512922048568726,4.435359001159668,0.7080100774765015
1.126952886581421,4.47298002243042,0.7157960534095764
1.0966813564300537,4.48796272277832,0.7200085520744324
1.064893364906311,4.495133399963379,0.7229835391044617
1.03347909450531,4.501987934112549,0.7259190082550049
1.0048054456710815,4.523803234100342,0.7313422560691833
0.9725562334060669,4.5304412841796875,0.7338462471961975
0.9323635101318359,4.499094486236572,0.7301705479621887
0.7656838893890381,3.8319125175476074,0.6231139302253723
0.7386816740036011,3.83687686920166,0.6251566410064697
0.846990168094635,4.573616027832031,0.7467135190963745
0.8205150961875916,4.609387397766113,0.7540886402130127
0.7904101014137268,4.629973888397217,0.7585343718528748
0.7588091492652893,4.642758846282959,0.7616955637931824
0.7299910187721252,4.674381732940674,0.767995297908783
0.6976696252822876,4.686791896820068,0.7711942195892334
0.6650381088256836,4.691221714019775,0.7730883359909058
0.6354149580001831,4.718353271484375,0.77876877784729
0.6031959056854248,4.730108261108398,0.781508207321167
0.5716230273246765,4.749330997467041,0.7854110598564148
0.5389934182167053,4.760676383972168,0.7880526185035706
0.5065752863883972,4.779507637023926,0.7919880151748657
0.4751863479614258,4.801868915557861,0.7965319752693176
0.4431576430797577,4.820184707641602,0.8004494905471802
0.4094196856021881,4.822992324829102,0.8015044331550598
0.3767884075641632,4.840976238250732,0.8048838376998901
0.3427389860153198,4.8510918617248535,0.8070053458213806
0.3101321756839752,4.876315116882324,0.811675488948822
0.2770763635635376,4.8936052322387695,0.8150641322135925
0.24360395967960358,4.906822204589844,0.8178165555000305
0.21008196473121643,4.923687934875488,0.8210474252700806
0.175848126411438,4.948118209838867,0.8251636028289795
0.14149786531925201,4.956885814666748,0.8267077207565308
0.1071997657418251,4.973118782043457,0.8295379281044006
0.07290463149547577,4.996817111968994,0.8336544036865234
0.038369663059711456,5.024129390716553,0.8384158611297607
0.0027725195977836847,5.024230480194092,0.8386829495429993
-0.03225046396255493,5.039588928222656,0.840958297252655
-0.06774862110614777,5.070115566253662,0.8457893133163452
-0.10330388695001602,5.0849833488464355,0.8480471968650818
-0.1384388953447342,5.076491355895996,0.8464498519897461
-0.17491072416305542,5.110116481781006,0.8519152402877808
-0.21142630279064178,5.116501808166504,0.8528780937194824
-0.24949638545513153,5.168910503387451,0.8611717224121094
-0.285698264837265,5.174906253814697,0.8615422248840332
-0.273707777261734,4.403743267059326,0.7326554656028748
-0.2948906421661377,4.267317295074463,0.7095072865486145
-0.3256717324256897,4.27293586730957,0.7100147604942322
-0.35986337065696716,4.324460506439209,0.7181866765022278
-0.38635092973709106,4.283630847930908,0.7109101414680481
-0.4117741286754608,4.238874435424805,0.7026723623275757
-0.43460333347320557,4.174800872802734,0.6912850737571716
-0.4582957327365875,4.12205696105957,0.6818153858184814
-0.4815009832382202,4.07303524017334,0.6730170845985413
-0.5055286884307861,4.03535795211792,0.6661379933357239
-0.5285496711730957,3.9937198162078857,0.6586487889289856
-0.5501640439033508,3.9482524394989014,0.6501138806343079
-0.5710372924804688,3.89880108833313,0.6409574747085571
-0.5902462601661682,3.8454947471618652,0.631237804889679
-0.6155547499656677,3.833972215652466,0.6284180283546448
-0.6345608234405518,3.78421688079834,0.6193674206733704
-0.6548569202423096,3.7457821369171143,0.612219512462616
-0.6750326752662659,3.7111449241638184,0.605409562587738
-0.6914648413658142,3.657419443130493,0.5954208970069885
-0.7134837508201599,3.6377761363983154,0.5910488367080688
-0.7276970744132996,3.580172538757324,0.5805532932281494
-0.7454252243041992,3.541355609893799,0.5731455087661743
-0.7577599287033081,3.4798314571380615,0.5621168613433838
-0.782892644405365,3.4785633087158203,0.5605925917625427
-0.8022103309631348,3.454712390899658,0.5553369522094727
-0.8185436725616455,3.41949462890625,0.5482996702194214
-0.8345395922660828,3.384183883666992,0.5412909388542175
-0.8533580303192139,3.359933614730835,0.5360721945762634
-0.8713172674179077,3.3317437171936035,0.5302440524101257
-0.89012610912323,3.311161518096924,0.5254623293876648
-0.9043907523155212,3.2756571769714355,0.518222451210022
-0.9223926663398743,3.2549753189086914,0.5133757591247559
-0.9392402768135071,3.230442523956299,0.5079497694969177
-0.9555646777153015,3.201878547668457,0.5018731355667114
-0.9711132645606995,3.1733601093292236,0.4958791136741638
-0.9880936741828918,3.1523497104644775,0.490835040807724
-1.0011333227157593,3.120272159576416,0.48403429985046387
-1.0149894952774048,3.0918264389038086,0.477846622467041
-1.0267934799194336,3.0557644367218018,0.4704705476760864
-1.041852355003357,3.030665636062622,0.46483850479125977
-1.064241647720337,3.027409076690674,0.4625617563724518
-1.0754797458648682,2.995161771774292,0.45559725165367126
-1.0849993228912354,2.9592602252960205,0.44813454151153564
-1.0927273035049438,2.9197335243225098,0.4401848614215851
-1.1286332607269287,2.9521214962005615,0.44298815727233887
-1.1380430459976196,2.9157793521881104,0.435519278049469
-1.127875804901123,2.8329286575317383,0.4210274815559387
-1.1468913555145264,2.825772285461426,0.41773712635040283
-1.1554783582687378,2.793457508087158,0.4107690751552582
-1.147933006286621,2.721590280532837,0.3979818820953369
-1.144049882888794,2.6606037616729736,0.38689836859703064
-1.1468793153762817,2.617642641067505,0.3784492313861847
-1.164373517036438,2.6104001998901367,0.37503698468208313
-1.1882258653640747,2.6171460151672363,0.3736383616924286
-1.1966181993484497,2.588238477706909,0.36708539724349976
-1.2378968000411987,2.629347324371338,0.3704237937927246
-1.277850866317749,2.666663885116577,0.37309011816978455
-1.256516456604004,2.5785012245178223,0.3580646812915802
-1.270208716392517,2.56365704536438,0.35332757234573364
-1.28282630443573,2.544889450073242,0.34795626997947693
-1.3007577657699585,2.5363142490386963,0.34397435188293457
-1.3109421730041504,2.5141279697418213,0.3380742073059082
-1.3312662839889526,2.512761116027832,0.33487576246261597
-1.325881838798523,2.463399648666382,0.32533684372901917
-1.3355638980865479,2.441042423248291,0.3193050026893616
-1.3397831916809082,2.4082486629486084,0.3118898272514343
-1.3556400537490845,2.399919271469116,0.3075425922870636
-1.3597891330718994,2.3713061809539795,0.30063164234161377
-1.3798116445541382,2.369269609451294,0.29700368642807007
-1.3886126279830933,2.3466665744781494,0.29069313406944275
-1.3965988159179688,2.3244006633758545,0.2842819094657898
-1.423944354057312,2.3356733322143555,0.28197991847991943
-1.4090341329574585,2.2770049571990967,0.2711791396141052
-1.4437015056610107,2.2972068786621094,0.26964861154556274
-1.454758882522583,2.2816030979156494,0.2637515366077423
-1.482506275177002,2.2921128273010254,0.26074182987213135
-1.4704267978668213,2.2402541637420654,0.2505480647087097
-1.4774142503738403,2.2175917625427246,0.24359562993049622
-1.4959875345230103,2.2151055335998535,0.23875528573989868
-1.5059878826141357,2.1994941234588623,0.23244637250900269
-1.5173732042312622,2.1828322410583496,0.2255658656358719
-1.4957389831542969,2.1225697994232178,0.21431203186511993
-1.5273414850234985,2.138939380645752,0.210835263133049
-1.50823175907135,2.0813803672790527,0.19955241680145264
-1.5125343799591064,2.0595815181732178,0.191757470369339
-1.5350415706634521,2.062938928604126,0.18616867065429688
-1.4971802234649658,2.1147565841674805,-0.11745069921016693
-1.4840065240859985,2.128363609313965,-0.12494226545095444
-1.499150276184082,2.183870792388916,-0.13484451174736023
-1.4866596460342407,2.2013490200042725,-0.14260739088058472
-1.4754232168197632,2.217824935913086,-0.14978748559951782
-1.4672795534133911,2.241420030593872,-0.15749086439609528
-1.4506690502166748,2.2517287731170654,-0.16417543590068817
-1.4409589767456055,2.2713429927825928,-0.1713077425956726
-1.4276899099349976,2.2883989810943604,-0.17836947739124298
-1.414923071861267,2.304966688156128,-0.185211181640625
-1.4027140140533447,2.3210346698760986,-0.19181616604328156
-1.4054054021835327,2.364332914352417,-0.20073725283145905
-1.387953758239746,2.3740944862365723,-0.20685724914073944
-1.359216332435608,2.36322021484375,-0.21101458370685577
-1.3457839488983154,2.3793234825134277,-0.21743322908878326
-1.3357428312301636,2.402273178100586,-0.22450974583625793
-1.3223134279251099,2.418036699295044,-0.2307967096567154
-1.3086998462677002,2.4337351322174072,-0.23705127835273743
-1.306801438331604,2.4738736152648926,-0.2458028793334961
-1.2780519723892212,2.462019443511963,-0.249276801943779
-1.2518471479415894,2.453085422515869,-0.2528475821018219
-1.2201811075210571,2.433688163757324,-0.2551973760128021
-1.2024115324020386,2.441969394683838,-0.2603801488876343
-1.181246280670166,2.443089723587036,-0.264788955450058
-1.1840287446975708,2.4929354190826416,-0.27441704273223877
-1.1872470378875732,2.5467042922973633,-0.2845229208469391
-1.1848734617233276,2.590028762817383,-0.2936057150363922
-1.1697251796722412,2.6048545837402344,-0.2994248867034912
-1.1529347896575928,2.6160004138946533,-0.30480921268463135
-1.1321816444396973,2.620239496231079,-0.30933594703674316
-1.110245943069458,2.6206021308898926,-0.3133348524570465
-1.0917305946350098,2.6277999877929688,-0.3180743455886841
-1.0833951234817505,2.660033702850342,-0.32586556673049927
-1.0757102966308594,2.696035623550415,-0.3340551257133484
-1.0643985271453857,2.724937915802002,-0.34151867032051086
-1.0548646450042725,2.7571561336517334,-0.349334716796875
-1.0354574918746948,2.7639167308807373,-0.3539465367794037
-1.0596803426742554,2.8908400535583496,-0.37391361594200134
-1.0768998861312866,3.003591775894165,-0.392356812953949
-1.1437519788742065,3.2630362510681152,-0.43046003580093384
-1.1547234058380127,3.369307279586792,-0.4487329423427582
-1.1515593528747559,3.4392621517181396,-0.46211615204811096
-1.1341997385025024,3.4688093662261963,-0.47016263008117676
-1.1249570846557617,3.524029016494751,-0.4817555248737335
-1.1044607162475586,3.5460305213928223,-0.4889311194419861
-1.0906246900558472,3.590128183364868,-0.49892520904541016
-1.0706098079681396,3.615673065185547,-0.5063111782073975
-1.0493232011795044,3.637352466583252,-0.5132001042366028
-1.0363796949386597,3.688650369644165,-0.5243228673934937
-1.0084009170532227,3.6877076625823975,-0.5279352068901062
-0.9738547205924988,3.6643178462982178,-0.5281299352645874
-0.9478833675384521,3.670487403869629,-0.5325223803520203
-0.9296547174453735,3.7064218521118164,-0.5412536263465881
-0.8909013867378235,3.6595916748046875,-0.5378949642181396
-0.8481531739234924,3.5937228202819824,-0.531217098236084
-0.8111073970794678,3.550157308578491,-0.5278145670890808
-0.768653929233551,3.475947618484497,-0.5197017788887024
-0.7362775206565857,3.4428935050964355,-0.5176565051078796
-0.7136713862419128,3.4550395011901855,-0.5221390128135681
-0.6833319664001465,3.4291770458221436,-0.5207036733627319
-0.6449576616287231,3.3614063262939453,-0.5128999948501587
-0.6144936084747314,3.3273708820343018,-0.5101256370544434
-0.5926157236099243,3.3387293815612793,-0.5142461061477661
-0.5672541856765747,3.3309834003448486,-0.5150567889213562
-0.5351926684379578,3.2811279296875,-0.5093421936035156
-0.5118501782417297,3.284451723098755,-0.5119051337242126
-0.4804088771343231,3.2302753925323486,-0.5054574608802795
-0.4588497281074524,3.2408652305603027,-0.5088268518447876
-0.43303972482681274,3.220733642578125,-0.5072319507598877
-0.40658465027809143,3.192744255065918,-0.5043964385986328
-0.3834076225757599,3.1875247955322266,-0.5051568746566772
-0.3616945743560791,3.1975224018096924,-0.5083021521568298
-0.33567923307418823,3.1652016639709473,-0.5043128132820129
-0.31433916091918945,3.1749074459075928,-0.5070331692695618
-0.29146671295166016,3.1691017150878906,-0.5073010325431824
-0.2667565941810608,3.1400701999664307,-0.5038595199584961
-0.2438603639602661,3.1340014934539795,-0.5038213133811951
-0.2219374179840088,3.135469675064087,-0.5048205852508545
-0.20003077387809753,3.13678240776062,-0.5058186650276184
-0.17824111878871918,3.1379361152648926,-0.5068109631538391
-0.15680155158042908,3.146648406982422,-0.5090095400810242
-0.1341877579689026,3.139890432357788,-0.5082816481590271
-0.1134544238448143,3.1714937686920166,-0.5137848258018494
-0.09051112085580826,3.1412882804870605,-0.5092993974685669
-0.06757213175296783,3.091644763946533,-0.5016763210296631
-0.046929050236940384,3.149831533432007,-0.5113041996955872
-0.025029953569173813,3.200206756591797,-0.5194515585899353
-0.0027732427697628736,3.1810226440429688,-0.5163335800170898
0.019475411623716354,3.200241804122925,-0.51947420835495
0.041664205491542816,3.196171760559082,-0.5188596248626709
0.06471657007932663,3.2382876873016357,-0.5252687335014343
0.08762921392917633,3.2532570362091064,-0.5272794961929321
0.11169303953647614,3.2834675312042236,-0.5317730903625488
0.135635644197464,3.309661626815796,-0.5356422662734985
0.15753807127475739,3.285642385482788,-0.5311946272850037
0.18163853883743286,3.3077335357666016,-0.5339257121086121
0.20748287439346313,3.3527448177337646,-0.5403651595115662
0.233066126704216,3.378293752670288,-0.5436614155769348
0.2588809132575989,3.407525062561035,-0.547577977180481
0.2850959300994873,3.436635732650757,-0.551024854183197
0.31411224603652954,3.492457866668701,-0.5586782097816467
0.3421114385128021,3.5288426876068115,-0.5632108449935913
0.3715115487575531,3.568803071975708,-0.5682877898216248
0.399736613035202,3.597097635269165,-0.5713602900505066
0.42877912521362305,3.6290688514709473,-0.5746523141860962
0.4559164345264435,3.6416642665863037,-0.5748773813247681
0.49994808435440063,3.780324697494507,-0.5949558019638062
0.5368292331695557,3.8496921062469482,-0.6040226221084595
0.5696836709976196,3.8883230686187744,-0.607825756072998
0.6083495616912842,3.9610557556152344,-0.6167977452278137
0.6401190757751465,3.9838857650756836,-0.6179638504981995
0.6851754188537598,4.082612991333008,-0.6308419108390808
0.7302705645561218,4.173341751098633,-0.642252504825592
0.7825912237167358,4.294059753417969,-0.6576846837997437
0.8123743534088135,4.289108753204346,-0.6538652181625366
0.8579128384590149,4.363537311553955,-0.6621080636978149
0.8983532190322876,4.407263278961182,-0.6656330227851868
0.9289342164993286,4.401578426361084,-0.6612589359283447
0.9648886919021606,4.418264389038086,-0.660064697265625
0.9921309947967529,4.397051811218262,-0.6532913446426392
1.0211173295974731,4.3831467628479,-0.6476256847381592
1.0480701923370361,4.361565113067627,-0.640719473361969
1.07830810546875,4.354925632476807,-0.6356913447380066
1.1061720848083496,4.336701393127441,-0.6289419531822205
1.1266216039657593,4.292177200317383,-0.6184993982315063
1.0053318738937378,3.724555015563965,-0.5332620143890381
0.9897460341453552,3.5689964294433594,-0.5073608160018921
1.0101547241210938,3.5478224754333496,-0.5007131695747375
1.035254955291748,3.5412323474884033,-0.49607521295547485
1.062265157699585,3.5419507026672363,-0.49251797795295715
1.0823673009872437,3.520317792892456,-0.4857022166252136
1.102055549621582,3.498640298843384,-0.4787592887878418
1.125061273574829,3.487908363342285,-0.47335800528526306
1.151109218597412,3.484161376953125,-0.46881234645843506
1.1742137670516968,3.473025321960449,-0.4633054733276367
1.1956157684326172,3.4582102298736572,-0.45710039138793945
1.2194503545761108,3.450566053390503,-0.45187392830848694
1.2461756467819214,3.4499423503875732,-0.4475250542163849
1.264968752861023,3.427252769470215,-0.4403311610221863
1.2862554788589478,3.411749839782715,-0.43379151821136475
1.309704303741455,3.403517723083496,-0.42826181650161743
1.3362072706222534,3.402240753173828,-0.4235658347606659
1.3658884763717651,3.407866954803467,-0.4196734130382538
1.6303316354751587,3.98830509185791,-0.4855869710445404
1.670169472694397,4.006311416625977,-0.4820069968700409
1.4761683940887451,3.473707675933838,-0.4129680097103119
1.9775530099868774,4.565188884735107,-0.5361114144325256
1.5134649276733398,3.429384708404541,-0.3976294994354248
1.92073392868042,4.2737016677856445,-0.48906704783439636
1.5511912107467651,3.3883230686187744,-0.3824794590473175
1.584839105606079,3.3991854190826416,-0.3784026503562927
1.5915793180465698,3.353780746459961,-0.368004709482193
1.617785930633545,3.35056734085083,-0.36223533749580383
1.6340233087539673,3.326068639755249,-0.354123592376709
2.238842487335205,4.476809501647949,-0.46898284554481506
2.2889370918273926,4.500420093536377,-0.4637419879436493
1.7101205587387085,3.307258367538452,-0.3350772261619568
1.7330106496810913,3.29602313041687,-0.3281041979789734
1.7139357328414917,3.205519199371338,-0.3133162558078766
1.739304780960083,3.201361656188965,-0.3070283830165863
1.7217700481414795,3.1184256076812744,-0.29320812225341797
1.7511705160140991,3.120541572570801,-0.2874062955379486
1.7978312969207764,3.1529603004455566,-0.2842426598072052
1.3369065523147583,2.308903932571411,-0.203589528799057
0.9458466172218323,1.6084649562835693,-0.138585165143013
0.9513408541679382,1.5919580459594727,-0.1337737739086151
0.9660779237747192,1.592503547668457,-0.13044191896915436
0.9726076126098633,1.5796928405761719,-0.12601804733276367
0.9878041744232178,1.579758644104004,-0.12245418131351471
1.0006495714187622,1.5765866041183472,-0.11860347539186478
1.0091490745544434,1.5668331384658813,-0.11419829726219177
1.0157307386398315,1.5535717010498047,-0.10945851355791092
1.0306652784347534,1.5533740520477295,-0.10558106750249863
1.04086434841156,1.5468474626541138,-0.10125983506441116
1.0581138134002686,1.549583911895752,-0.09733261168003082
2.5485751628875732,3.678393840789795,-0.22086796164512634
2.5723748207092285,3.66243577003479,-0.20988686382770538
2.60239577293396,3.651416063308716,-0.1984097957611084
2.603447675704956,3.60325026512146,-0.18492218852043152
2.6409783363342285,3.605508327484131,-0.17377157509326935
2.6958274841308594,3.6287083625793457,-0.16271564364433289
2.6286027431488037,3.6940691471099854,0.344052255153656
2.6112797260284424,3.724306583404541,0.3566036522388458
2.5735716819763184,3.7304627895355225,0.3666703402996063
1.044971227645874,1.5396000146865845,0.15509983897209167
1.0578404664993286,1.582128882408142,0.16290777921676636
1.0456770658493042,1.5897585153579712,0.1671057641506195
1.0331737995147705,1.5974647998809814,0.1713322252035141
1.009270191192627,1.5846608877182007,0.17300644516944885
1.0097788572311401,1.611527919769287,0.17894580960273743
0.9850752353668213,1.5989887714385986,0.18046945333480835
0.9854978919029236,1.6256680488586426,0.18626338243484497
0.9617888927459717,1.612308382987976,0.18743304908275604
0.9651959538459778,1.6460241079330444,0.19392180442810059
1.3426088094711304,2.3295841217041016,0.27807167172431946
1.8223978281021118,3.213752269744873,0.3882347643375397
1.7520722150802612,3.1411638259887695,0.3838968276977539
1.7502776384353638,3.194688320159912,0.39477720856666565
1.7684211730957031,3.2857367992401123,0.4104045033454895
1.752400517463684,3.311190128326416,0.41770413517951965
2.373936891555786,4.562387466430664,0.581169068813324
2.336177110671997,4.572181701660156,0.5876485109329224
2.3082425594329834,4.602753162384033,0.5969305634498596
2.2647407054901123,4.597456455230713,0.6012969017028809
2.239072799682617,4.626349449157715,0.610044002532959
2.2119786739349365,4.655657768249512,0.618627667427063
2.1773290634155273,4.67108154296875,0.6252444386482239
2.1393847465515137,4.679171085357666,0.6309017539024353
2.1090645790100098,4.700555801391602,0.6382164359092712
2.0759851932525635,4.714407920837402,0.6444728374481201
2.038233518600464,4.721601486206055,0.6494066119194031
1.7663991451263428,4.175379753112793,0.5777484178543091
1.7180463075637817,4.14451265335083,0.5769060254096985
1.6884334087371826,4.155972480773926,0.5818701982498169
1.6678619384765625,4.188611030578613,0.5897865295410156
1.6315580606460571,4.185620307922363,0.5923061966896057
1.6009148359298706,4.196794509887695,0.5968375205993652
1.5730189085006714,4.2149529457092285,0.6023878455162048
1.5429575443267822,4.225417613983154,0.6068099737167358
1.5185489654541016,4.250070571899414,0.6132599115371704
1.492977261543274,4.274934768676758,0.6194417476654053
1.4593862295150757,4.277761936187744,0.6223735213279724
1.4283193349838257,4.287655353546143,0.6263583898544312
1.4022616147994995,4.311946392059326,0.6324641108512878
1.3744252920150757,4.328452110290527,0.6374033689498901
1.3460458517074585,4.34491491317749,0.6421952247619629
1.31684148311615,4.361424922943115,0.646744966506958
1.2853293418884277,4.370303153991699,0.6501973867416382
1.253975510597229,4.378891944885254,0.65362548828125
1.2280175685882568,4.405806064605713,0.6598132848739624
1.1972107887268066,4.413773536682129,0.6631688475608826
1.1676533222198486,4.429227352142334,0.6673095226287842
1.1377485990524292,4.444542407989502,0.6713650822639465
1.1058202981948853,4.452150821685791,0.6742941737174988
1.0774136781692505,4.47456693649292,0.6795092225074768
1.047907829284668,4.489070892333984,0.6835136413574219
1.0165421962738037,4.4958415031433105,0.686373233795166
0.9877138733863831,4.517715930938721,0.6910824775695801
0.9586723446846008,4.539393901824951,0.6958039402961731
0.7807657122612,3.8342702388763428,0.5889588594436646
0.7538162469863892,3.8393514156341553,0.5909631848335266
0.7256001830101013,3.8366167545318604,0.5917816162109375
0.8335858583450317,4.582187652587891,0.7082527875900269
0.807686984539032,4.62573766708374,0.7160254716873169
0.7742453813552856,4.631152629852295,0.7179595232009888
0.743800938129425,4.651487350463867,0.7222272753715515
0.7135059237480164,4.671560764312744,0.7264841794967651
0.6820537447929382,4.683767318725586,0.7295516729354858
0.6509839296340942,4.699587821960449,0.7332085371017456
0.6191749572753906,4.719239711761475,0.7369984984397888
0.5867825150489807,4.730941295623779,0.7395743727684021
0.5542555451393127,4.74241828918457,0.7421546578407288
0.5226954221725464,4.761318206787109,0.7459309101104736
0.4903157353401184,4.772306442260742,0.7485030889511108
0.45859554409980774,4.79075288772583,0.752284049987793
0.4250626266002655,4.801445484161377,0.7544342279434204
0.39287877082824707,4.8234100341796875,0.7583203315734863
0.3601208031177521,4.841309547424316,0.7616079449653625
0.32832732796669006,4.874375343322754,0.7673213481903076
0.2948544919490814,4.884109973907471,0.769400954246521
0.2606738209724426,4.893642902374268,0.7714982628822327
0.22779738903045654,4.922242164611816,0.7762662768363953
0.1933622658252716,4.923663139343262,0.7765964865684509
0.1596650332212448,4.947982311248779,0.7805771827697754
0.12549662590026855,4.964354038238525,0.7833430767059326
0.09066981077194214,4.980495452880859,0.786115288734436
0.05635470896959305,5.007960796356201,0.7907112836837769
0.02153661660850048,5.008211135864258,0.7908400297164917
-0.013359684497117996,5.031423568725586,0.7942834496498108
-0.048503678292036057,5.046675682067871,0.796506941318512
-0.08447230607271194,5.061672687530518,0.7987255454063416
-0.12022442370653152,5.084140777587891,0.8021637201309204
-0.15582098066806793,5.090928554534912,0.8031662106513977
-0.19136276841163635,5.093618869781494,0.8035179972648621
-0.227681502699852,5.115422248840332,0.8063889741897583
-0.2647080719470978,5.1446733474731445,0.8104671239852905
-0.3032248020172119,5.181328296661377,0.8157351016998291
-0.28596895933151245,4.366720199584961,0.6870983242988586
-0.3102279603481293,4.2800517082214355,0.6731127500534058
-0.34119728207588196,4.293282508850098,0.6748771667480469
-0.37355348467826843,4.321739673614502,0.6786859035491943
-0.39955323934555054,4.273080348968506,0.6703040599822998
-0.4209573566913605,4.1897478103637695,0.6565479636192322
-0.44622308015823364,4.152368068695068,0.6500416994094849
-0.47068682312965393,4.110988616943359,0.6429487466812134
-0.49413132667541504,4.065635681152344,0.6352772116661072
-0.516773521900177,4.016325950622559,0.6267836093902588
-0.5386417508125305,3.970832586288452,0.6187445521354675
-0.5582738518714905,3.9137587547302246,0.608952522277832
-0.5811474919319153,3.8833272457122803,0.6033527255058289
-0.6010116934776306,3.8336355686187744,0.5947935581207275
-0.6231586933135986,3.799024820327759,0.5886059403419495
-0.6448554992675781,3.7682230472564697,0.5829190015792847
-0.6638712286949158,3.7259795665740967,0.575232744216919
-0.6822999119758606,3.683654308319092,0.5675857663154602
-0.7009486556053162,3.6450321674346924,0.5605559349060059
-0.7202369570732117,3.610039710998535,0.5541135668754578
-0.7372150421142578,3.5635061264038086,0.5459275245666504
-0.748988926410675,3.4981436729431152,0.5348373651504517
-0.767021119594574,3.46685791015625,0.5287284255027771
-0.7906834483146667,3.461852788925171,0.5266623497009277
-0.8089964389801025,3.434117078781128,0.5211710929870605
-0.8277065753936768,3.406118631362915,0.5156419277191162
-0.8457478880882263,3.3780970573425293,0.5101678371429443
-0.8642154932022095,3.3537888526916504,0.5052048563957214
-0.8809912204742432,3.3257901668548584,0.4994615912437439
-0.8953632712364197,3.290260076522827,0.49263623356819153
-0.9159659743309021,3.276911973953247,0.489143431186676
-0.9291240572929382,3.237370491027832,0.48177191615104675
-0.9495217800140381,3.223737955093384,0.47829172015190125
-0.9605247974395752,3.18046498298645,0.470325231552124
-0.9797269701957703,3.1668951511383057,0.46659615635871887
-0.9933158755302429,3.134658098220825,0.4601269066333771
-1.0050709247589111,3.0987708568573,0.453192800283432
-1.0193610191345215,3.0700361728668213,0.4473113715648651
-1.0320534706115723,3.0375823974609375,0.44093576073646545
-1.0501731634140015,3.023580551147461,0.4370654225349426
-1.0705622434616089,3.0168380737304688,0.434182345867157
-1.0833027362823486,2.988011598587036,0.42812579870224
-1.1011877059936523,2.9736289978027344,0.4241671562194824
-1.1041357517242432,2.9191970825195312,0.4145251512527466
-1.1397066116333008,2.951627492904663,0.4171774089336395
-1.1382325887680054,2.890291929244995,0.4063887596130371
-1.1377629041671753,2.8325610160827637,0.3961655795574188
-1.151061773300171,2.8108766078948975,0.3910698890686035
-1.151361346244812,2.756686210632324,0.3814416825771332
-1.144882321357727,2.6883530616760254,0.36995643377304077
-1.1413414478302002,2.6312623023986816,0.3598748445510864
-1.1561241149902344,2.6167750358581543,0.3556317687034607
-1.1705126762390137,2.6023080348968506,0.351451575756073
-1.208132028579712,2.636781692504883,0.3537691533565521
-1.226589322090149,2.6287031173706055,0.35036030411720276
-1.2475180625915527,2.627899408340454,0.3477224111557007
-1.2838728427886963,2.6582844257354736,0.3491123616695404
-1.2691805362701416,2.583926200866699,0.3368176519870758
-1.2768441438674927,2.554630756378174,0.33038729429244995
-1.2929015159606934,2.5426688194274902,0.32622048258781433
-1.3025600910186768,2.520763635635376,0.3206079602241516
-1.3083935976028442,2.491948366165161,0.31416574120521545
-1.3438822031021118,2.517592668533325,0.3144628703594208
-1.3282312154769897,2.4471449851989746,0.3027529716491699
-1.3373876810073853,2.4249279499053955,0.297008752822876
-1.3533591032028198,2.4165523052215576,0.2928975522518158
-1.3558666706085205,2.384406089782715,0.2859415113925934
-1.3729374408721924,2.3751468658447266,0.2815142869949341
-1.3775420188903809,2.345991373062134,0.2747877836227417
-1.3889169692993164,2.3307442665100098,0.26960086822509766
-1.424272060394287,2.355370283126831,0.26900237798690796
-1.4325953722000122,2.332624912261963,0.26273873448371887
-1.4366090297698975,2.303243637084961,0.25566741824150085
-1.4473896026611328,2.287814140319824,0.25014206767082214
-1.4581249952316284,2.2722716331481934,0.24461129307746887
-1.4698845148086548,2.2559549808502197,0.23872703313827515
-1.4743034839630127,2.2303266525268555,0.23183415830135345
-1.4845671653747559,2.2146871089935303,0.22589229047298431
-1.495209813117981,2.198657989501953,0.21978844702243805
-1.5016660690307617,2.175917863845825,0.212857186794281
-1.5200228691101074,2.1731956005096436,0.20780260860919952
-1.5028297901153564,2.119163990020752,0.19777218997478485
-1.5110697746276855,2.0994904041290283,0.19064904749393463
-1.5150576829910278,2.0779049396514893,0.18341024219989777
-1.5195788145065308,2.0558085441589355,0.1758912205696106
-1.4914953708648682,2.0905072689056396,-0.1082962229847908
-1.4854227304458618,2.113563060760498,-0.11594349890947342
-1.4739723205566406,2.1306722164154053,-0.12321274727582932
-1.4865223169326782,2.183170795440674,-0.13251955807209015
-1.4839969873428345,2.2127225399017334,-0.14024627208709717
-1.4714628458023071,2.2300033569335938,-0.14726591110229492
-1.459150791168213,2.246950626373291,-0.15416470170021057
-1.4429548978805542,2.2569563388824463,-0.16032341122627258
-1.4363363981246948,2.2837905883789062,-0.16770057380199432
-1.4239482879638672,2.3002657890319824,-0.1741560399532318
-1.407448410987854,2.309950590133667,-0.17999741435050964
-1.405928373336792,2.3468234539031982,-0.18808935582637787
-1.3928745985031128,2.3631789684295654,-0.1943836510181427
-1.3800829648971558,2.379218816757202,-0.2005457729101181
-1.3624807596206665,2.3888657093048096,-0.20614798367023468
-1.341143250465393,2.3914995193481445,-0.2111029475927353
-1.3314719200134277,2.414217233657837,-0.21775975823402405
-1.3213077783584595,2.4370391368865967,-0.22436173260211945
-1.3051623106002808,2.4496383666992188,-0.23003852367401123
-1.2984811067581177,2.4790875911712646,-0.2372153103351593
-1.288033127784729,2.5015556812286377,-0.2437242865562439
-1.2588551044464111,2.4897208213806152,-0.2468806952238083
-1.2337608337402344,2.484382390975952,-0.2505466639995575
-1.1906707286834717,2.4400668144226074,-0.25004059076309204
-1.1765730381011963,2.455035924911499,-0.2555035352706909
-1.1802211999893188,2.508770704269409,-0.26503193378448486
-1.1817100048065186,2.559046506881714,-0.2743048369884491
-1.1939092874526978,2.634169340133667,-0.28639334440231323
-1.1513924598693848,2.588834762573242,-0.28526559472084045
-1.1715325117111206,2.6856086254119873,-0.29980698227882385
-1.1248124837875366,2.6290807723999023,-0.29724839329719543
-1.1093121767044067,2.6435718536376953,-0.3025934100151062
-1.093022108078003,2.6582300662994385,-0.3079434931278229
-1.0767602920532227,2.672722101211548,-0.3131825029850006
-1.0690913200378418,2.708706855773926,-0.32096779346466064
-1.0528395175933838,2.7228739261627197,-0.32618042826652527
-1.0485856533050537,2.7697043418884277,-0.33526021242141724
-1.0364277362823486,2.798596143722534,-0.3422422707080841
-1.0191164016723633,2.8126814365386963,-0.3473826050758362
-0.9993972182273865,2.819230079650879,-0.35156142711639404
-0.9934531450271606,2.866015911102295,-0.36071982979774475
-0.985441267490387,2.909250259399414,-0.3694010376930237
-1.002097487449646,3.0299105644226074,-0.38815391063690186
-1.0237252712249756,3.1691462993621826,-0.4094739258289337
-1.0818514823913574,3.4308040142059326,-0.4469960629940033
-1.0779207944869995,3.5045251846313477,-0.460134357213974
-1.0718804597854614,3.5746214389801025,-0.47295084595680237
-1.060853123664856,3.6298208236694336,-0.4838894307613373
-1.0455533266067505,3.6739349365234375,-0.49351218342781067
-1.0215849876403809,3.688136100769043,-0.4987904131412506
-1.0024640560150146,3.72088885307312,-0.5065898895263672
-0.9840550422668457,3.7572531700134277,-0.5149387121200562
-0.9673556685447693,3.8009707927703857,-0.5243476629257202
-0.9467229843139648,3.833508253097534,-0.5321388244628906
-0.9322971701622009,3.8922457695007324,-0.5433878898620605
-0.9109631180763245,3.9245588779449463,-0.5510379076004028
-0.8851608633995056,3.9378366470336914,-0.5560484528541565
-0.8559451103210449,3.935816764831543,-0.5588960647583008
-0.8141242861747742,3.876997470855713,-0.553257167339325
-0.7737044095993042,3.817702293395996,-0.5474380850791931
-0.7498853802680969,3.8377363681793213,-0.5529725551605225
-0.7052326202392578,3.7473740577697754,-0.5425567030906677
-0.672130286693573,3.7137296199798584,-0.5400092601776123
-0.6508671045303345,3.748502731323242,-0.5472773313522339
-0.6207646727561951,3.729684352874756,-0.5467109680175781
-0.5795215964317322,3.63808274269104,-0.5354231595993042
-0.5477476716041565,3.5996103286743164,-0.5318637490272522
-0.5213853716850281,3.595390558242798,-0.5329101085662842
-0.4925704002380371,3.5757179260253906,-0.5317068099975586
-0.4750853180885315,3.636226177215576,-0.5424345135688782
-0.448307067155838,3.6276190280914307,-0.5428961515426636
-0.4099920392036438,3.5190842151641846,-0.5281096696853638
-0.3882974088191986,3.5485050678253174,-0.5337830781936646
-0.366604208946228,3.581631898880005,-0.5400606989860535
-0.3397834300994873,3.568502187728882,-0.5394106507301331
-0.3149793744087219,3.5705294609069824,-0.5410481095314026
-0.2900926172733307,3.572463035583496,-0.5421996116638184
-0.2640196979045868,3.558821439743042,-0.5409907102584839
-0.2392437756061554,3.560401439666748,-0.5421163439750671
-0.21330688893795013,3.5502688884735107,-0.5414986610412598
-0.1885785609483719,3.5515263080596924,-0.5424297451972961
-0.16310527920722961,3.5372314453125,-0.5406838655471802
-0.14010509848594666,3.580631971359253,-0.5477868914604187
-0.1145511120557785,3.5621299743652344,-0.5454486012458801
-0.08999597281217575,3.589776039123535,-0.5502138137817383
-0.0448804572224617,2.4784531593322754,-0.3799732029438019
-0.04028229042887688,3.613797903060913,-0.554081916809082
-0.015097335912287235,3.606252670288086,-0.5530000329017639
0.010037143714725971,3.6294214725494385,-0.5566549897193909
0.035627592355012894,3.6215367317199707,-0.5554783940315247
0.06131140887737274,3.6521546840667725,-0.5597697496414185
0.08540641516447067,3.5976667404174805,-0.5510461330413818
0.11336710304021835,3.6935410499572754,-0.5653759241104126
0.13993386924266815,3.715883731842041,-0.5684658885002136
0.1640194058418274,3.676358938217163,-0.5618293881416321
0.1942000687122345,3.7562437057495117,-0.5732080340385437
0.22163353860378265,3.778085470199585,-0.5757494568824768
0.25092780590057373,3.8228487968444824,-0.5817965269088745
0.2777472734451294,3.8250186443328857,-0.581380307674408
0.30427780747413635,3.8232312202453613,-0.5798538327217102
0.33856070041656494,3.9058902263641357,-0.5910859107971191
0.37577012181282043,4.011373043060303,-0.605756938457489
0.402947336435318,4.001216888427734,-0.6029579639434814
0.43490269780158997,4.037003993988037,-0.6069033741950989
0.4712797701358795,4.107150077819824,-0.6156325340270996
0.522744357585907,4.288165092468262,-0.640863299369812
0.5604749321937561,4.346095561981201,-0.6476523876190186
0.5943483114242554,4.369250297546387,-0.6492529511451721
0.6350687742233276,4.438134670257568,-0.6571717858314514
0.6680964827537537,4.44936466217041,-0.6564071178436279
0.7043169736862183,4.475539684295654,-0.6578068733215332
0.7436479926109314,4.520565986633301,-0.661999523639679
0.7718258500099182,4.496697425842285,-0.6559953689575195
0.8002767562866211,4.4765424728393555,-0.6501272916793823
0.8326907157897949,4.479022026062012,-0.6475862860679626
0.8623853325843811,4.466049671173096,-0.6428292393684387
0.8925381302833557,4.452767372131348,-0.6380136609077454
0.9250127673149109,4.454612731933594,-0.6350754499435425
0.9493552446365356,4.418429374694824,-0.6265886425971985
0.9782742261886597,4.404778480529785,-0.6213557720184326
1.0038286447525024,4.375794410705566,-0.6139865517616272
0.8590949773788452,3.627164602279663,-0.5061242580413818
0.8786669373512268,3.5991039276123047,-0.49914196133613586
0.9016674757003784,3.585956335067749,-0.4942775070667267
0.9305438995361328,3.5951037406921387,-0.49247968196868896
0.9517024159431458,3.5740621089935303,-0.48656007647514343
0.9769389629364014,3.567815065383911,-0.48237156867980957
1.0037052631378174,3.5689964294433594,-0.4791519343852997
1.0198417901992798,3.5327351093292236,-0.4709421396255493
1.0489459037780762,3.5409367084503174,-0.4686669409275055
1.0668234825134277,3.511868715286255,-0.46139514446258545
1.0937529802322388,3.5123023986816406,-0.4577302932739258
1.1144218444824219,3.494185209274292,-0.4517380893230438
1.1399970054626465,3.490597724914551,-0.4476097524166107
1.1607356071472168,3.4720818996429443,-0.44158482551574707
1.1846327781677246,3.4646155834198,-0.4367380738258362
1.2084769010543823,3.4569828510284424,-0.43186646699905396
1.2276643514633179,3.4343602657318115,-0.4250584840774536
1.259727954864502,3.448138952255249,-0.4227980971336365
1.2781732082366943,3.4254047870635986,-0.41590243577957153
1.362525224685669,3.576766014099121,-0.429890513420105
1.5785616636276245,4.060040473937988,-0.48296990990638733
1.6017550230026245,4.034999370574951,-0.47485631704330444
1.6268055438995361,4.017333030700684,-0.4676448702812195
1.6513177156448364,3.9996674060821533,-0.46033379435539246
1.6877729892730713,4.010467052459717,-0.456290602684021
1.9717433452606201,4.595593452453613,-0.516658365726471
1.910853385925293,4.368741512298584,-0.48506391048431396
1.9137933254241943,4.296045303344727,-0.4709361493587494
1.9367011785507202,4.269505977630615,-0.4619954526424408
1.5605791807174683,3.3777670860290527,-0.3605925440788269
1.5840321779251099,3.3674747943878174,-0.35454684495925903
1.6174041032791138,3.3781206607818604,-0.3504749834537506
1.6403839588165283,3.3676602840423584,-0.3442837595939636
1.6709303855895996,3.3706369400024414,-0.3392983376979828
2.2689990997314453,4.499147415161133,-0.445744127035141
2.303025007247925,4.49143123626709,-0.43771475553512573
2.349872350692749,4.507493495941162,-0.4319049119949341
1.7181551456451416,3.2396156787872314,-0.3048461079597473
1.7329624891281128,3.214653491973877,-0.2969823181629181
1.7190834283828735,3.1385958194732666,-0.2845090925693512
1.729317307472229,3.106844902038574,-0.2760981619358063
1.7760552167892456,3.139268636703491,-0.2732488214969635
1.354927897453308,2.3575432300567627,-0.2007565200328827
1.284313440322876,2.2007651329040527,-0.18330149352550507
0.9459746479988098,1.5954841375350952,-0.1297592967748642
0.9568885564804077,1.589257001876831,-0.1261027604341507
0.9674529433250427,1.5831350088119507,-0.1224491223692894
0.9846599102020264,1.586565375328064,-0.11936216056346893
0.9894486665725708,1.5700628757476807,-0.11475773900747299
1.0061068534851074,1.5736207962036133,-0.11161807179450989
1.0103418827056885,1.5572528839111328,-0.10699617862701416
1.0212290287017822,1.5504111051559448,-0.10291849821805954
1.0358752012252808,1.5503259897232056,-0.09920451045036316
