X,Y,Z
-1.1334325075149536,2.8232479095458984,0.351438969373703
-1.152390718460083,2.8159162998199463,0.3485931158065796
-1.1373993158340454,2.7258806228637695,0.3355344235897064
-1.1366757154464722,2.6717796325683594,0.32697901129722595
-1.1287530660629272,2.6037111282348633,0.31671142578125
-1.1668275594711304,2.6425085067749023,0.31929829716682434
-1.1669306755065918,2.596061944961548,0.31163290143013
-1.1895912885665894,2.5989387035369873,0.3098648488521576
-1.234031319618225,2.6472315788269043,0.31342947483062744
-1.2421408891677856,2.6180455684661865,0.30770981311798096
-1.2564499378204346,2.602977752685547,0.30353036522865295
-1.2994223833084106,2.647260904312134,0.30628448724746704
-1.3055166006088257,2.6142940521240234,0.2999996542930603
-1.2868210077285767,2.532731533050537,0.2882109582424164
-1.2966771125793457,2.510610818862915,0.2831507623195648
-1.3023923635482788,2.4817347526550293,0.27732884883880615
-1.3155485391616821,2.4663755893707275,0.2729875147342682
-1.3216992616653442,2.4369843006134033,0.2670475244522095
-1.3366221189498901,2.424794912338257,0.2629861831665039
-1.3544472455978394,2.419750452041626,0.259568989276886
-1.3568686246871948,2.3875279426574707,0.2532748281955719
-1.365970253944397,2.36480450630188,0.2478235810995102
-1.3786256313323975,2.348848342895508,0.2431235909461975
-1.3860373497009277,2.3268020153045654,0.23768378794193268
-1.3932316303253174,2.304741621017456,0.23228593170642853
-1.4294891357421875,2.328655242919922,0.23133690655231476
-1.4458951950073242,2.3189449310302734,0.22687917947769165
-1.4400533437728882,2.277071714401245,0.219259575009346
-1.4505313634872437,2.2615840435028076,0.2142544388771057
-1.487687587738037,2.2843875885009766,0.21252097189426422
-1.4815882444381714,2.2422542572021484,0.20469968020915985
-1.485399842262268,2.2167649269104004,0.19835807383060455
-1.4872114658355713,2.187784194946289,0.19164803624153137
-1.4757623672485352,2.139401435852051,0.18317823112010956
-1.4848450422286987,2.1240367889404297,0.17754162847995758
-1.4920960664749146,2.1050705909729004,0.17146220803260803
-1.506974697113037,2.0949079990386963,0.16571401059627533
-1.5063416957855225,2.0669264793395996,0.15860368311405182
-1.5109028816223145,2.044684648513794,0.1516878306865692
-1.4831337928771973,2.077472686767578,-0.10416021943092346
-1.4855377674102783,2.113684892654419,-0.11219240725040436
-1.4768996238708496,2.1336350440979004,-0.11910489201545715
-1.460534930229187,2.144502639770508,-0.1255543977022171
-1.4756746292114258,2.1998343467712402,-0.13431629538536072
-1.4679210186004639,2.223357915878296,-0.1412280797958374
-1.4657986164093018,2.2569825649261475,-0.14890727400779724
-1.4477647542953491,2.263579845428467,-0.1544380933046341
-1.4308382272720337,2.2739176750183105,-0.16021126508712769
-1.4242159128189087,2.3006231784820557,-0.1671055555343628
-1.412099838256836,2.3168158531188965,-0.17302890121936798
-1.4027425050735474,2.3402700424194336,-0.17959879338741302
-1.3933085203170776,2.363588571548462,-0.18611982464790344
-1.3844553232192993,2.3864059448242188,-0.19243504106998444
-1.3555129766464233,2.375659227371216,-0.1960100531578064
-1.341731071472168,2.391974449157715,-0.2017797976732254
-1.3356436491012573,2.4216678142547607,-0.20865359902381897
-1.318429946899414,2.4306490421295166,-0.21364231407642365
-1.3005560636520386,2.439819812774658,-0.21860545873641968
-1.2954353094100952,2.472907543182373,-0.22572368383407593
-1.2887288331985474,2.502270460128784,-0.2324478030204773
-1.2773950099945068,2.525078535079956,-0.23864856362342834
-1.2485288381576538,2.512969970703125,-0.24145625531673431
-1.1878948211669922,2.433938980102539,-0.23758931457996368
-1.184213638305664,2.4698598384857178,-0.24480830132961273
-1.1662638187408447,2.4779460430145264,-0.24922451376914978
-1.1824781894683838,2.560063123703003,-0.2611951529979706
-1.1945096254348755,2.635354995727539,-0.2726549804210663
-1.1522024869918823,2.5899477005004883,-0.2715618908405304
-1.1474246978759766,2.629835605621338,-0.2792666554450989
-1.123779058456421,2.626882791519165,-0.28246524930000305
-1.1127493381500244,2.652204751968384,-0.28863778710365295
-1.0937105417251587,2.6596426963806152,-0.29293376207351685
-1.0803515911102295,2.681407928466797,-0.2986315190792084
-1.066733956336975,2.7031073570251465,-0.30437296628952026
-1.0630590915679932,2.7499566078186035,-0.3129599988460541
-1.0437489748001099,2.756876230239868,-0.31704893708229065
-1.0317320823669434,2.7857959270477295,-0.3235671818256378
-1.0170379877090454,2.807257890701294,-0.3292253613471985
-1.0075902938842773,2.8431742191314697,-0.33659476041793823
-0.9902080297470093,2.8570268154144287,-0.34138593077659607
-0.9786251783370972,2.889263391494751,-0.3482368588447571
-0.9674032926559448,2.9252943992614746,-0.35563087463378906
-0.9562255144119263,2.9611434936523438,-0.3630082905292511
-0.9401261210441589,2.9821066856384277,-0.36859461665153503
-0.9201785922050476,2.991929054260254,-0.37269818782806396
-0.9100075364112854,3.0351083278656006,-0.38089048862457275
-0.9297629594802856,3.1824865341186523,-0.4023379683494568
-0.9314782619476318,3.2743258476257324,-0.4170050323009491
-1.002677083015442,3.6202828884124756,-0.46432575583457947
-0.988083004951477,3.667977809906006,-0.47346967458724976
-0.9719089865684509,3.711873769760132,-0.48220860958099365
-0.963965117931366,3.789461612701416,-0.4954145550727844
-0.9444006085395813,3.825795888900757,-0.5033777952194214
-0.9291340708732605,3.880856990814209,-0.5135247111320496
-0.9086925387382507,3.917034149169922,-0.5211648344993591
-0.8903937935829163,3.964428424835205,-0.5303694009780884
-0.8709332942962646,4.0079026222229,-0.5391042232513428
-0.8463456034660339,4.032466411590576,-0.5452783107757568
-0.8225610852241516,4.0606513023376465,-0.5516266226768494
-0.7999050617218018,4.096292495727539,-0.5590484738349915
-0.7862854599952698,4.181230068206787,-0.5732777118682861
-0.7571173906326294,4.186152935028076,-0.576608419418335
-0.7298988699913025,4.2062835693359375,-0.5817247629165649
-0.6882846355438232,4.138373851776123,-0.5745096206665039
-0.658064603805542,4.135060787200928,-0.5762432813644409
-0.6211110353469849,4.085598945617676,-0.5715287327766418
-0.5831828713417053,4.0243659019470215,-0.5650253891944885
-0.5513468980789185,4.0051069259643555,-0.5640185475349426
-0.5303110480308533,4.062263011932373,-0.5737850069999695
-0.4972251355648041,4.027161121368408,-0.5705485343933105
-0.4642074406147003,3.987959861755371,-0.5667243003845215
-0.22405686974525452,2.0492477416992188,-0.2919524312019348
-0.4103502631187439,4.0128021240234375,-0.5729655623435974
-0.3693387508392334,3.8844854831695557,-0.5559185743331909
-0.34028080105781555,3.863619565963745,-0.5541969537734985
-0.31996726989746094,3.946601152420044,-0.5674150586128235
-0.28873738646507263,3.8984498977661133,-0.5612917542457581
-0.2600054144859314,3.877065420150757,-0.5590343475341797
-0.2320428341627121,3.8709352016448975,-0.5590121150016785
-0.20508979260921478,3.872302293777466,-0.5600823760032654
-0.17846283316612244,3.881234645843506,-0.5620740056037903
-0.15078161656856537,3.866854190826416,-0.5603794455528259
-0.12429918348789215,3.8831887245178223,-0.5631635189056396
-0.0955476239323616,3.8336522579193115,-0.556424617767334
-0.06997116655111313,3.8921210765838623,-0.5653815865516663
-0.042343828827142715,3.838374614715576,-0.5576745867729187
-0.01600082963705063,3.915886878967285,-0.5689207911491394
0.011151550337672234,3.9004387855529785,-0.5666882991790771
0.039040565490722656,3.923452377319336,-0.5700725317001343
0.06638272106647491,3.9230897426605225,-0.5700413584709167
0.09454096108675003,3.957390308380127,-0.5745657086372375
0.12282254546880722,3.9798965454101562,-0.5773988962173462
0.15244537591934204,4.029242038726807,-0.5841463208198547
0.1811056137084961,4.043612957000732,-0.5858461856842041
0.21007753908634186,4.050068378448486,-0.5861743092536926
0.23862957954406738,4.056389331817627,-0.5862032771110535
0.26930999755859375,4.093373775482178,-0.590681791305542
0.29833677411079407,4.099272727966309,-0.5906915068626404
0.34963205456733704,4.382482528686523,-0.6306301355361938
0.3712313175201416,4.272274494171143,-0.6134778261184692
0.3994085490703583,4.254441738128662,-0.6095561981201172
0.4429178237915039,4.390331268310547,-0.6276484131813049
0.4830116927623749,4.47583532333374,-0.6384938359260559
0.5150225758552551,4.480320930480957,-0.6376949548721313
0.5475562810897827,4.48460054397583,-0.6363531351089478
0.5850472450256348,4.530913829803467,-0.6410179138183594
0.6196615695953369,4.550079822540283,-0.6418356895446777
0.6546072959899902,4.568979740142822,-0.6426258087158203
0.6851488351821899,4.557062149047852,-0.6387936472892761
0.7172603011131287,4.552549362182617,-0.635714590549469
0.7487593293190002,4.547896385192871,-0.6326912045478821
0.77651447057724,4.520102500915527,-0.6264745593070984
0.8053179979324341,4.499752044677734,-0.6213369965553284
0.8343477845191956,4.483132362365723,-0.6162523031234741
0.865376889705658,4.477731704711914,-0.6127147674560547
0.895487904548645,4.464402675628662,-0.6080695986747742
0.9171491265296936,4.413036823272705,-0.5983445048332214
0.9421042799949646,4.380552768707275,-0.5910664200782776
0.9732063412666321,4.378250598907471,-0.5876004099845886
0.8361831903457642,3.6432981491088867,-0.48635634779930115
0.849509060382843,3.5849506855010986,-0.4759480059146881
0.8837582468986511,3.616997003555298,-0.4776135981082916
0.9087806940078735,3.6112730503082275,-0.47395917773246765
0.929841160774231,3.5903820991516113,-0.46829408407211304
0.9607152938842773,3.6067984104156494,-0.46750158071517944
0.9822124242782593,3.5854227542877197,-0.46175849437713623
1.0028880834579468,3.5640830993652344,-0.45598655939102173
1.0296010971069336,3.5650486946105957,-0.4528745710849762
1.0431277751922607,3.5212013721466064,-0.4441218674182892
1.0699493885040283,3.5217649936676025,-0.44097626209259033
1.095009207725525,3.5145742893218994,-0.4368109703063965
1.1157160997390747,3.4963834285736084,-0.4310632646083832
1.143407940864563,3.500211238861084,-0.428040087223053
1.167698621749878,3.492722749710083,-0.4236154854297638
1.1858428716659546,3.466639280319214,-0.41694796085357666
1.2072961330413818,3.451552152633667,-0.4114879369735718
1.2366398572921753,3.4582107067108154,-0.4084564745426178
1.264465093612671,3.4610931873321533,-0.40502363443374634
1.279194712638855,3.4272353649139404,-0.39726606011390686
1.3611159324645996,3.571237087249756,-0.40993085503578186
1.5798907279968262,4.062023162841797,-0.4614752233028412
1.6139161586761475,4.066033840179443,-0.4570506513118744
1.6306573152542114,4.0265116691589355,-0.44775697588920593
1.6528514623641968,4.001311302185059,-0.4400974214076996
1.6862140893936157,4.00492525100708,-0.4354071021080017
1.4867279529571533,3.465257167816162,-0.37232697010040283
1.9568462371826172,4.473991870880127,-0.4748023450374603
1.921684741973877,4.311753273010254,-0.45194292068481445
1.9542734622955322,4.30637264251709,-0.4455016851425171
1.5512961149215698,3.357980728149414,-0.3427978754043579
1.5977848768234253,3.3969790935516357,-0.34202829003334045
1.6152732372283936,3.3720476627349854,-0.33466199040412903
1.634705901145935,3.354602098464966,-0.32802340388298035
1.6643582582473755,3.357952117919922,-0.3234170377254486
2.259002685546875,4.4798808097839355,-0.4247063398361206
2.306262254714966,4.49592924118042,-0.41933614015579224
2.343796491622925,4.4948296546936035,-0.4121726155281067
1.7271771430969238,3.25805401802063,-0.2935338318347931
1.7370787858963013,3.222419500350952,-0.28501853346824646
1.7556015253067017,3.204044818878174,-0.27805572748184204
1.7259800434112549,3.1008009910583496,-0.2638472616672516
1.775830864906311,3.1403703689575195,-0.2618085443973541
1.813761830329895,3.1551787853240967,-0.25731584429740906
1.3301289081573486,2.2784407138824463,-0.18168696761131287
0.9518712759017944,1.6060121059417725,-0.12513190507888794
0.9630041718482971,1.5996352434158325,-0.12158141285181046
0.971984326839447,1.58989679813385,-0.11774539947509766
0.9785921573638916,1.576934576034546,-0.11362310498952866
0.9893092513084412,1.5704938173294067,-0.10996311157941818
1.0002827644348145,1.563788652420044,-0.10618388652801514
1.0063332319259644,1.5508630275726318,-0.10198517143726349
1.025299310684204,1.5573537349700928,-0.09899526834487915
1.0363796949386597,1.5502580404281616,-0.09490177780389786
1.0486494302749634,1.5469415187835693,-0.09109413623809814
1.0633728504180908,1.546575665473938,-0.08735228329896927
2.56577730178833,3.677244186401367,-0.1983170509338379
2.5984714031219482,3.6738967895507812,-0.18868707120418549
2.6146135330200195,3.6437783241271973,-0.17705026268959045
2.599987745285034,3.573000192642212,-0.16344119608402252
2.662158966064453,3.6102118492126465,-0.15475285053253174
2.616041898727417,3.704423427581787,0.3280903995037079
2.5938944816589355,3.7285120487213135,0.33924534916877747
1.0538791418075562,1.5393805503845215,0.14365975558757782
1.0633822679519653,1.5795866250991821,0.15106742084026337
1.0435775518417358,1.5737096071243286,0.1537289321422577
1.0444257259368896,1.6007261276245117,0.1595459133386612
1.0151792764663696,1.5821714401245117,0.1607866883277893
1.003874659538269,1.5890066623687744,0.16431954503059387
0.9919841289520264,1.5960873365402222,0.1678706854581833
0.991875410079956,1.6232038736343384,0.17346328496932983
0.971860408782959,1.6167792081832886,0.1753867268562317
0.9604375958442688,1.623242735862732,0.17858090996742249
1.3392598628997803,2.3022425174713135,0.2566462457180023
1.8750909566879272,3.2806999683380127,0.3705398142337799
1.7943202257156372,3.1917715072631836,0.36484166979789734
1.7643154859542847,3.190058469772339,0.36888033151626587
1.7830474376678467,3.281079053878784,0.38350269198417664
1.7583738565444946,3.293715476989746,0.38906580209732056
2.3910505771636963,4.558041095733643,0.5439226031303406
2.355316162109375,4.5670084953308105,0.5502901673316956
2.318074941635132,4.576477527618408,0.5564150214195251
2.2838101387023926,4.592830657958984,0.5633190274238586
2.2484328746795654,4.605102062225342,0.5696482062339783
2.2204935550689697,4.630738735198975,0.5775554776191711
2.193960428237915,4.659734725952148,0.5857067704200745
2.1561458110809326,4.668023586273193,0.5910182595252991
2.121567964553833,4.683055400848389,0.5972045660018921
2.091318130493164,4.704373359680176,0.604071855545044
2.064415454864502,4.73241662979126,0.6117968559265137
1.9883722066879272,4.650436878204346,0.6050637364387512
1.7353031635284424,4.142012119293213,0.5421669483184814
1.6945037841796875,4.128911018371582,0.5437018275260925
1.6740498542785645,4.161722183227539,0.5511727929115295
1.6462572813034058,4.17634916305542,0.556265652179718
1.6142181158065796,4.18408727645874,0.5602461695671082
1.5904957056045532,4.213308334350586,0.5669577717781067
1.5596802234649658,4.224234104156494,0.5712530612945557
1.5298537015914917,4.2345662117004395,0.5753999948501587
1.5027769804000854,4.25191068649292,0.5805110931396484
1.4744669198989868,4.269457817077637,0.5855376124382019
1.4409904479980469,4.2721781730651855,0.5883120894432068
1.4172834157943726,4.30405330657959,0.5951374173164368
1.3842101097106934,4.30615234375,0.5978454351425171
1.358716368675232,4.329992771148682,0.603559672832489
1.3277806043624878,4.33906364440918,0.6072509288787842
1.3031002283096313,4.370326995849609,0.613636314868927
1.271560788154602,4.379147529602051,0.6169125437736511
1.2452239990234375,4.406361103057861,0.6228208541870117
1.2123454809188843,4.407042026519775,0.6249520778656006
1.183563470840454,4.422420024871826,0.6291950345039368
1.1575102806091309,4.4528727531433105,0.6354272961616516
1.1217811107635498,4.445651054382324,0.6360567808151245
1.093572735786438,4.4682111740112305,0.6409799456596375
1.0635415315628052,4.483011245727539,0.6448189616203308
1.0339982509613037,4.497466564178467,0.6486114859580994
1.0037513971328735,4.5118408203125,0.652460515499115
0.9733774662017822,4.526059627532959,0.6559373736381531
0.9316766858100891,4.4871087074279785,0.6516178846359253
0.7675445675849915,3.8335349559783936,0.5578650236129761
0.7375712394714355,3.8233859539031982,0.5575553178787231
0.8472619652748108,4.565765857696533,0.6672487854957581
0.817429780960083,4.582655906677246,0.6711603403091431
0.7888680100440979,4.610921859741211,0.6763725876808167
0.7611152529716492,4.646661281585693,0.6826604008674622
0.7281121015548706,4.651679515838623,0.6844760775566101
0.6971104741096497,4.671790599822998,0.6885592341423035
0.664580225944519,4.676266193389893,0.690345287322998
0.634090006351471,4.695834636688232,0.6943968534469604
0.6034839153289795,4.719142436981201,0.6986239552497864
0.5720458030700684,4.73843240737915,0.7022147178649902
0.5404167771339417,4.757506370544434,0.7058117985725403
0.5072157979011536,4.768733501434326,0.7082962393760681
0.4748080372810364,4.779641628265381,0.7107484936714172
0.44293177127838135,4.798027515411377,0.7143526673316956
0.41093727946281433,4.820120334625244,0.7181786894798279
0.37766459584236145,4.830471038818359,0.7201436161994934
0.3431413471698761,4.832922458648682,0.7209752202033997
0.31224438548088074,4.881354331970215,0.7286973595619202
0.2778227925300598,4.875572681427002,0.7283626198768616
0.24465443193912506,4.892700672149658,0.7314865589141846
0.21173223853111267,4.92122220993042,0.7360784411430359
0.177008718252182,4.930278778076172,0.737545371055603
0.1432061493396759,4.954519271850586,0.7413191795349121
0.10907325148582458,4.978527545928955,0.7450958490371704
0.07442887127399445,4.979119777679443,0.7454042434692383
0.040021274238824844,5.00264835357666,0.7491832375526428
0.004634590819478035,5.029824733734131,0.7533931732177734
-0.030368898063898087,5.02976655960083,0.7531812787055969
-0.0656726136803627,5.052642822265625,0.7564392685890198
-0.10108672827482224,5.0675458908081055,0.7585393190383911
-0.13718225061893463,5.097646713256836,0.7629497647285461
-0.17299184203147888,5.1081862449646,0.7644688487052917
-0.20877282321453094,5.099151611328125,0.76307213306427
-0.24560002982616425,5.128564834594727,0.7669404149055481
-0.28363505005836487,5.173146724700928,0.7731067538261414
-0.3165819048881531,5.1248979568481445,0.7654368281364441
-0.2940865457057953,4.2785468101501465,0.6386749148368835
-0.3249349892139435,4.2841596603393555,0.6391827464103699
-0.355318158864975,4.289595603942871,0.6397001147270203
-0.38702282309532166,4.310276031494141,0.6421515345573425
-0.408141553401947,4.21920919418335,0.6279008388519287
-0.4332505762577057,4.17801570892334,0.621121346950531
-0.4587714970111847,4.140460014343262,0.6149120330810547
-0.4808068573474884,4.079752445220947,0.6053135395050049
-0.5044143795967102,4.038111209869385,0.5985868573188782
-0.527263879776001,3.99639892578125,0.5916464328765869
-0.5488437414169312,3.9507834911346436,0.5840005278587341
-0.5698041319847107,3.9011576175689697,0.5757918953895569
-0.5901891589164734,3.8553214073181152,0.5682052969932556
-0.6133121252059937,3.828427791595459,0.5634427070617676
-0.6335376501083374,3.7861459255218506,0.5564550161361694
-0.6510222554206848,3.732396364212036,0.5476568341255188
-0.6737658977508545,3.7128937244415283,0.5437058806419373
-0.6916812062263489,3.666579246520996,0.5358530879020691
-0.7107965350151062,3.63165283203125,0.5297282934188843
-0.7314568161964417,3.604125499725342,0.5247043371200562
-0.7446085214614868,3.542421817779541,0.5147522687911987
-0.7624938488006592,3.5072195529937744,0.5085644125938416
-0.7791844010353088,3.4681739807128906,0.5016160607337952
-0.8010629415512085,3.455531120300293,0.49854809045791626
-0.8138126730918884,3.405123472213745,0.49007344245910645
-0.8338319659233093,3.3846278190612793,0.4859215021133423
-0.8526188731193542,3.3602733612060547,0.4812528192996979
-0.8703070878982544,3.3320531845092773,0.4758930504322052
-0.8908939361572266,3.3189189434051514,0.4725586771965027
-0.9031460285186768,3.2757997512817383,0.4649941325187683
-0.9222961664199829,3.2587127685546875,0.4611632525920868
-0.9341811537742615,3.2153592109680176,0.45362743735313416
-0.9525251984596252,3.1941421031951904,0.44923579692840576
-0.9652755856513977,3.1582813262939453,0.44264423847198486
-0.9831311106681824,3.140951633453369,0.43857869505882263
-0.9972512722015381,3.112457752227783,0.4329915940761566
-1.006502628326416,3.0690977573394775,0.42536407709121704
-1.0307646989822388,3.069565773010254,0.423788458108902
-1.0408751964569092,3.0296647548675537,0.416698157787323
-1.0587095022201538,3.0156497955322266,0.4129222631454468
-1.0790451765060425,3.008812189102173,0.41015005111694336
-1.0860109329223633,2.965449810028076,0.40243953466415405
-1.1039044857025146,2.950943946838379,0.3986360430717468
-1.1220879554748535,2.936168909072876,0.3947855234146118
-1.1209992170333862,2.874659538269043,0.3845873773097992
-1.131693959236145,2.8458495140075684,0.37870922684669495
-1.1420258283615112,2.8170275688171387,0.3728799521923065
-1.1539289951324463,2.7916035652160645,0.3675004839897156
-1.1240674257278442,2.6657958030700684,0.34894856810569763
-1.1301900148391724,2.6298563480377197,0.3422490358352661
-1.153970718383789,2.6368558406829834,0.34100231528282166
-1.1684203147888184,2.6223928928375244,0.3369894027709961
-1.189475178718567,2.6218390464782715,0.3347378671169281
-1.2048959732055664,2.6066620349884033,0.3305342197418213
-1.2360833883285522,2.6267921924591064,0.33077892661094666
-1.2468467950820923,2.604931354522705,0.3255689740180969
-1.27434241771698,2.6179516315460205,0.3247295022010803
-1.2715656757354736,2.5678508281707764,0.3160233795642853
-1.2863792181015015,2.5522170066833496,0.31151527166366577
-1.2948999404907227,2.526548147201538,0.3057630956172943
-1.2972701787948608,2.4907925128936768,0.2987538278102875
-1.3101239204406738,2.4757063388824463,0.2942739725112915
-1.3273682594299316,2.4669594764709473,0.2904288172721863
-1.3334752321243286,2.437573194503784,0.28417298197746277
-1.3403427600860596,2.4120631217956543,0.27818700671195984
-1.3561909198760986,2.4036407470703125,0.2742493748664856
-1.3609724044799805,2.374551296234131,0.2678811252117157
-1.3738045692443848,2.358625888824463,0.26293930411338806
-1.3856297731399536,2.343139410018921,0.2579434812068939
-1.389270305633545,2.314281940460205,0.2514154613018036
-1.4251576662063599,2.3385086059570312,0.2506054639816284
-1.4456696510314941,2.335531711578369,0.24669942259788513
-1.452778935432434,2.313246726989746,0.2406560331583023
-1.446840763092041,2.2714362144470215,0.23262697458267212
-1.4668159484863281,2.268366575241089,0.228353813290596
-1.4740626811981201,2.245560646057129,0.22204887866973877
-1.4733870029449463,2.2138304710388184,0.21480758488178253
-1.4964559078216553,2.2176058292388916,0.21099846065044403
-1.5032403469085693,2.194671869277954,0.2043062001466751
-1.4822707176208496,2.133934736251831,0.19407275319099426
-1.5227175951004028,2.1631813049316406,0.1921064853668213
-1.4993711709976196,2.0990586280822754,0.18141476809978485
-1.517688512802124,2.095992088317871,0.17600537836551666
-1.5124822854995728,2.0616955757141113,0.16797015070915222
-1.517751932144165,2.038942575454712,0.16035783290863037
-1.51781165599823,2.1433725357055664,-0.11554308235645294
-1.4781184196472168,2.118428945541382,-0.12040308862924576
-1.495092511177063,2.177457332611084,-0.130088210105896
-1.4831178188323975,2.194638967514038,-0.13729195296764374
-1.4715921878814697,2.211350440979004,-0.14414142072200775
-1.4590768814086914,2.228527069091797,-0.15105755627155304
-1.4557163715362549,2.2581865787506104,-0.15859168767929077
-1.4455190896987915,2.278156042098999,-0.16542328894138336
-1.4239063262939453,2.28208065032959,-0.17119477689266205
-1.4198617935180664,2.311647891998291,-0.17854340374469757
-1.4112346172332764,2.3347063064575195,-0.1853896528482437
-1.389870524406433,2.3379580974578857,-0.19066929817199707
-1.3809096813201904,2.360870599746704,-0.1974099576473236
-1.3714938163757324,2.383868932723999,-0.204212486743927
-1.3461326360702515,2.379917621612549,-0.2085932493209839
-1.3401360511779785,2.4095892906188965,-0.21586281061172485
-1.3306214809417725,2.4321446418762207,-0.22241707146167755
-1.312852382659912,2.4412930011749268,-0.22772519290447235
-1.3000397682189941,2.4608471393585205,-0.23409751057624817
-1.2861826419830322,2.476400852203369,-0.23989427089691162
-1.2827143669128418,2.5127036571502686,-0.24772043526172638
-1.2503961324691772,2.4936652183532715,-0.2500368356704712
-1.1927722692489624,2.421886444091797,-0.24686741828918457
-1.18216872215271,2.443880796432495,-0.25311481952667236
-1.1779662370681763,2.4799046516418457,-0.2607651650905609
-1.159892201423645,2.487910270690918,-0.26548564434051514
-1.1792412996292114,2.5769617557525635,-0.27893415093421936
-1.164306640625,2.5917563438415527,-0.2844140827655792
-1.1597939729690552,2.6315338611602783,-0.2926105558872223
-1.1404235363006592,2.639456272125244,-0.2973504364490509
-1.1109873056411743,2.6219520568847656,-0.29908692836761475
-1.102944254875183,2.6542980670928955,-0.30648016929626465
-1.0839123725891113,2.661613702774048,-0.3108985424041748
-1.0704765319824219,2.683260917663574,-0.31698518991470337
-1.0594899654388428,2.7121148109436035,-0.3240092992782593
-1.052897572517395,2.751598358154297,-0.33228203654289246
-1.0387026071548462,2.773055076599121,-0.3383159339427948
-1.0241080522537231,2.7944958209991455,-0.34434518218040466
-1.0146818161010742,2.830404281616211,-0.3521961569786072
-1.0021640062332153,2.8590011596679688,-0.35922789573669434
-0.988204836845398,2.8838446140289307,-0.3656620979309082
-0.9774520397186279,2.919726848602295,-0.37346071004867554
-1.0000383853912354,3.058751344680786,-0.3946409821510315
-1.029284119606018,3.2239370346069336,-0.41948679089546204
-1.0856847763061523,3.4859983921051025,-0.4573867917060852
-1.0754849910736084,3.541257858276367,-0.468209832906723
-1.0656510591506958,3.600240468978882,-0.47965002059936523
-1.0522565841674805,3.6479508876800537,-0.4896429181098938
-1.0351301431655884,3.6844348907470703,-0.49821937084198
-1.0131386518478394,3.706031084060669,-0.5044881701469421
-0.9974062442779541,3.7538001537323,-0.5144360661506653
-0.9729139804840088,3.7676353454589844,-0.519729733467102
-0.948392391204834,3.781278133392334,-0.5250208973884583
-0.9272323250770569,3.809868812561035,-0.5321980714797974
-0.9251818656921387,3.921252489089966,-0.5508877038955688
-0.8961098194122314,3.923459053039551,-0.5544037818908691
-0.855261504650116,3.8686301708221436,-0.5497530102729797
-0.8176478743553162,3.824798345565796,-0.5465328693389893
-0.7781251072883606,3.7693755626678467,-0.541211724281311
-0.7575520277023315,3.8046398162841797,-0.5489177703857422
-0.7224103212356567,3.7676732540130615,-0.5462484955787659
-0.6876905560493469,3.726513385772705,-0.5428808927536011
-0.6392975449562073,3.605181932449341,-0.5274280309677124
-0.6120396852493286,3.5977530479431152,-0.5284285545349121
-0.5805943608283997,3.5634093284606934,-0.5254706740379333
-0.5529199838638306,3.5517678260803223,-0.5258812308311462
-0.5315187573432922,3.5781009197235107,-0.531834065914154
-0.5042818784713745,3.5661072731018066,-0.5317206382751465
-0.4746396243572235,3.5347659587860107,-0.5287268757820129
-0.44608861207962036,3.507007122039795,-0.5262541770935059
-0.41708141565322876,3.471350908279419,-0.5225847363471985
-0.390728622674942,3.4585907459259033,-0.5220932364463806
-0.2217560112476349,2.0934951305389404,-0.31677138805389404
-0.3359868824481964,3.3978774547576904,-0.5153772234916687
-0.3151216208934784,3.4306671619415283,-0.5216217637062073
-0.287964791059494,3.3940584659576416,-0.517322838306427
-0.26562872529029846,3.418952465057373,-0.5219511389732361
-0.24173389375209808,3.420558452606201,-0.5230414867401123
-0.21641215682029724,3.3988723754882812,-0.5205879211425781
-0.19189578294754028,3.384709596633911,-0.5192999839782715
-0.16948704421520233,3.4089696407318115,-0.5237100720405579
-0.1446707397699356,3.3945629596710205,-0.5219368934631348
-0.12102405726909637,3.3953981399536133,-0.5225234031677246
-0.0978427603840828,3.4115045070648193,-0.5254868865013123
-0.07394018769264221,3.404292345046997,-0.5248850584030151
-0.05035996064543724,3.4124209880828857,-0.5262318849563599
-0.026256365701556206,3.4204001426696777,-0.5275058746337891
-0.002466177335008979,3.443650960922241,-0.5311606526374817
0.021425969898700714,3.4358510971069336,-0.5300520062446594
0.04554086923599243,3.451066493988037,-0.5323893427848816
0.06999123096466064,3.473890542984009,-0.5355417728424072
0.09416134655475616,3.473384141921997,-0.5351206064224243
0.11990518122911453,3.5074245929718018,-0.5400396585464478
0.14494335651397705,3.522001266479492,-0.5419888496398926
0.16977021098136902,3.528740406036377,-0.5424088835716248
0.1965978741645813,3.570030927658081,-0.5479730367660522
0.2228402942419052,3.591848850250244,-0.5505595207214355
0.2493261694908142,3.605740785598755,-0.5519363880157471
0.272649347782135,3.5809688568115234,-0.5474048256874084
0.30358314514160156,3.6523377895355225,-0.557088315486908
0.3324013650417328,3.688835859298706,-0.5614426136016846
0.3610239028930664,3.717421054840088,-0.5645958185195923
0.3965475559234619,3.8033695220947266,-0.5764288902282715
0.4259895086288452,3.8276684284210205,-0.5786698460578918
0.46070215106010437,3.8939967155456543,-0.5869659185409546
0.49106958508491516,3.91786527633667,-0.5888475775718689
0.5157982707023621,3.8955259323120117,-0.5838034152984619
0.5647783875465393,4.045182704925537,-0.6044753193855286
0.5989879369735718,4.083637237548828,-0.607997715473175
0.6296338438987732,4.095086097717285,-0.6074420213699341
0.6814038157463074,4.236050605773926,-0.6260343790054321
0.7224226593971252,4.300257205963135,-0.6331912875175476
0.7583394646644592,4.329865455627441,-0.6350393891334534
0.8027288317680359,4.401018142700195,-0.6425150036811829
0.8397066593170166,4.430070400238037,-0.6438514590263367
0.8750261664390564,4.447415828704834,-0.6434670686721802
0.909186840057373,4.456885814666748,-0.6419399380683899
0.9416927695274353,4.458634853363037,-0.6388802528381348
0.9681699872016907,4.429820537567139,-0.631317138671875
0.9972130060195923,4.416043758392334,-0.6260044574737549
1.024525761604309,4.394496440887451,-0.6196190118789673
1.0551133155822754,4.387871742248535,-0.6152217388153076
1.0817344188690186,4.366095066070557,-0.608400285243988
1.110524296760559,4.351536273956299,-0.6025705337524414
1.116271734237671,4.250709533691406,-0.5849452018737793
0.9621850252151489,3.5629987716674805,-0.48724791407585144
0.9847379922866821,3.5493671894073486,-0.4820263087749481
1.013502597808838,3.5579516887664795,-0.4797818660736084
1.0364266633987427,3.543855667114258,-0.47442349791526794
1.0612107515335083,3.5370888710021973,-0.47010716795921326
1.0857689380645752,3.530219316482544,-0.4656478464603424
1.1031352281570435,3.5010645389556885,-0.4581039547920227
1.132026195526123,3.5087292194366455,-0.4554116129875183
1.1485166549682617,3.4754109382629395,-0.44730904698371887
1.1727968454360962,3.4678955078125,-0.4426135718822479
1.1966642141342163,3.4603607654571533,-0.43766915798187256
1.217921257019043,3.4453325271606445,-0.43180182576179504
1.2419182062149048,3.4373793601989746,-0.42680755257606506
1.2660143375396729,3.429199695587158,-0.42178043723106384
1.290075421333313,3.420870304107666,-0.41647428274154663
1.3108043670654297,3.405301332473755,-0.4103405773639679
1.3372292518615723,3.4039905071258545,-0.40591293573379517
1.3610550165176392,3.3951706886291504,-0.40055549144744873
1.6402215957641602,4.011826992034912,-0.46805068850517273
1.6771185398101807,4.022583961486816,-0.4638289213180542
1.698757529258728,3.9973793029785156,-0.45552897453308105
1.4935615062713623,3.4477434158325195,-0.38815316557884216
1.9410732984542847,4.397918701171875,-0.48894938826560974
1.9408260583877563,4.31803560256958,-0.4738632142543793
1.5680599212646484,3.425067663192749,-0.3708202540874481
1.5690613985061646,3.3653085231781006,-0.35936325788497925
1.5956569910049438,3.362046957015991,-0.35393041372299194
1.611745834350586,3.337749481201172,-0.3462280035018921
1.6311827898025513,3.3202743530273438,-0.3392411172389984
1.6722922325134277,3.3439815044403076,-0.3362134099006653
2.2880074977874756,4.4983906745910645,-0.44494444131851196
2.3274171352386475,4.500917911529541,-0.43775475025177
1.7298561334609985,3.290154457092285,-0.3144480586051941
1.7254395484924316,3.227044105529785,-0.3028371036052704
1.743659257888794,3.209001064300537,-0.29549500346183777
1.7261528968811035,3.1259725093841553,-0.2822064459323883
1.7440255880355835,3.10771107673645,-0.27485883235931396
1.777226448059082,3.116377115249634,-0.26979899406433105
1.3666248321533203,2.359917640686035,-0.1998288333415985
1.2916932106018066,2.1965692043304443,-0.1817709356546402
0.9555312991142273,1.59896719455719,-0.12904615700244904
0.9683443903923035,1.5960997343063354,-0.125565767288208
0.9769149422645569,1.586584448814392,-0.12155703455209732
0.9837949872016907,1.5734350681304932,-0.1171521544456482
0.9945852160453796,1.566926121711731,-0.11321699619293213
1.015669822692871,1.5768709182739258,-0.1103716567158699
1.0200670957565308,1.5603532791137695,-0.10559402406215668
1.0372765064239502,1.5633082389831543,-0.10204803198575974
1.040969729423523,1.5470342636108398,-0.09724361449480057
1.0536986589431763,1.5433869361877441,-0.09309902042150497
2.5665972232818604,3.704401969909668,-0.21352072060108185
2.5681443214416504,3.6563472747802734,-0.20103035867214203
2.602325201034546,3.651893377304077,-0.19038839638233185
2.617374897003174,3.6224617958068848,-0.1782553493976593
2.6108405590057373,3.565016031265259,-0.1647731065750122
2.6844449043273926,3.6131484508514404,-0.15519094467163086
2.641822099685669,3.713141679763794,0.34800994396209717
2.6109726428985596,3.7243151664733887,0.35875368118286133
2.5770907402038574,3.7372865676879883,0.36942124366760254
1.0601869821548462,1.5621272325515747,0.1581474095582962
1.0619674921035767,1.5886509418487549,0.16437038779258728
1.0452626943588257,1.5899457931518555,0.1679152399301529
1.037239909172058,1.6040226221084595,0.1727672666311264
1.0133211612701416,1.5912251472473145,0.1744459867477417
1.0011861324310303,1.5984752178192139,0.17819121479988098
0.9969978928565979,1.6189640760421753,0.18343259394168854
0.9894891977310181,1.6322659254074097,0.18767833709716797
0.9615049958229065,1.612403154373169,0.18807408213615417
0.9531060457229614,1.6260044574737549,0.19221563637256622
1.3385906219482422,2.322824001312256,0.2781601548194885
1.829984426498413,3.2271647453308105,0.3911040425300598
1.7705078125,3.1752099990844727,0.3892402946949005
1.7535403966903687,3.2016026973724365,0.3968667984008789
1.7720130681991577,3.292468309402466,0.412492036819458
1.756032109260559,3.3178935050964355,0.4198342263698578
2.369757652282715,4.555591106414795,0.5820106267929077
2.33911395072937,4.579167366027832,0.5903229713439941
2.3006582260131836,4.588951587677002,0.5969879031181335
2.268172264099121,4.60418176651001,0.6039910316467285
2.2424533367156982,4.633088111877441,0.6128162145614624
2.201476573944092,4.6346435546875,0.617644727230072
2.17356276512146,4.664028167724609,0.6261827945709229
2.1394803524017334,4.678879261016846,0.6327377557754517
2.1059725284576416,4.693185806274414,0.6391616463661194
2.075693130493164,4.714278697967529,0.646353542804718
2.0408527851104736,4.7286481857299805,0.6523097157478333
1.7780383825302124,4.2038702964782715,0.5834670662879944
1.7166117429733276,4.140675067901611,0.5781177282333374
1.6884814500808716,4.15570592880249,0.5836353898048401
1.6617857217788696,4.174112319946289,0.5894770622253418
1.631207823753357,4.185506343841553,0.5940734148025513
1.603309988975525,4.2039079666137695,0.5997012853622437
1.5730717182159424,4.214670658111572,0.604222297668457
1.5456123352050781,4.232415676116943,0.6097609400749207
1.5157380104064941,4.2425761222839355,0.614133358001709
1.4924650192260742,4.274833679199219,0.6213694214820862
1.4638466835021973,4.292304039001465,0.6265029907226562
1.4302870035171509,4.294856548309326,0.6294816136360168
1.406834602355957,4.326424598693848,0.6367124915122986
1.3718879222869873,4.320824146270752,0.6384598016738892
1.343169093132019,4.337401390075684,0.6431727409362793
1.3117884397506714,4.34647274017334,0.646691620349884
1.2847086191177368,4.370153903961182,0.6524254083633423
1.2558828592300415,4.386051654815674,0.6569958925247192
1.2319533824920654,4.420411586761475,0.664391040802002
1.2009609937667847,4.428425312042236,0.6677591800689697
1.167160987854004,4.429006099700928,0.6696357131004333
1.1410787105560303,4.459283351898193,0.6760427951812744
1.1072176694869995,4.4593915939331055,0.6779144406318665
1.079068660736084,4.48173189163208,0.683190107345581
1.0495011806488037,4.496234893798828,0.6872791647911072
1.0195503234863281,4.5106201171875,0.6911973357200623
0.988948404788971,4.524955749511719,0.6948431134223938
0.9582409858703613,4.539072036743164,0.6984933614730835
0.7758076786994934,3.8112709522247314,0.58778977394104
0.7521814107894897,3.8314332962036133,0.5921751260757446
0.726916491985321,3.843851089477539,0.59539794921875
0.8359643816947937,4.597020149230957,0.7134146094322205
0.8046160340309143,4.610145092010498,0.7165629267692566
0.7750759720802307,4.638380527496338,0.7221247553825378
0.7445986270904541,4.658702850341797,0.7264783382415771
0.7121402621269226,4.66347074508667,0.7284245491027832
0.6818761825561523,4.683291912078857,0.7327613234519958
0.6490628123283386,4.687679767608643,0.7345060706138611
0.6189058423042297,4.718776702880859,0.7401816844940186
0.5855769515037537,4.722800254821777,0.7416391372680664
0.5540134310722351,4.7419209480285645,0.7455070614814758
0.5235152840614319,4.768453598022461,0.7505717873573303
0.491096556186676,4.77943229675293,0.7532305121421814
0.45846593379974365,4.790218353271484,0.7557608485221863
0.42590656876564026,4.812442302703857,0.759746253490448
0.3939473032951355,4.838244915008545,0.7643307447433472
0.3605547249317169,4.848437786102295,0.7664894461631775
0.3272509276866913,4.8583855628967285,0.768645167350769
0.2939322292804718,4.86809778213501,0.7708008885383606
0.2610788643360138,4.900732517242432,0.7766187191009521
0.22771792113780975,4.921643257141113,0.7800790071487427
0.19387184083461761,4.938472270965576,0.782931923866272
0.15985572338104248,4.955066204071045,0.7857866883277893
0.12528181076049805,4.955995559692383,0.7861961126327515
0.09063376486301422,4.979836463928223,0.7902842164039612
0.05611767992377281,4.995712757110596,0.793144702911377
0.021426856517791748,5.01527214050293,0.7962024807929993
-0.013587994500994682,5.030753135681152,0.798515260219574
-0.04883676767349243,5.053705215454102,0.802051842212677
-0.08476155251264572,5.060969352722168,0.8031362295150757
-0.12036143988370895,5.075706481933594,0.8054466843605042
-0.1556415557861328,5.074768543243408,0.8053087592124939
-0.19187253713607788,5.100616455078125,0.8091957569122314
-0.228916734457016,5.137819290161133,0.8146045207977295
-0.2660886347293854,5.167047500610352,0.8187815546989441
-0.3024982213973999,5.165158748626709,0.8180571794509888
-0.2846371531486511,4.3429646492004395,0.6875190138816833
-0.3120676577091217,4.302489280700684,0.6808275580406189
-0.3444179892539978,4.331093788146973,0.6850236654281616
-0.3736571669578552,4.3210930824279785,0.6827316880226135
-0.398617684841156,4.260901927947998,0.6725413203239441
-0.42186251282691956,4.196779251098633,0.6617926955223083
-0.4480437636375427,4.167061805725098,0.6565120816230774
-0.4690920412540436,4.09499454498291,0.6446025371551514
-0.4952166974544525,4.072640419006348,0.6405613422393799
-0.5167971253395081,4.0157084465026855,0.6307076811790466
-0.5396966338157654,3.9778664112091064,0.6238700151443481
-0.5604651570320129,3.928431987762451,0.6152613759040833
-0.5812767744064331,3.8826961517333984,0.6072761416435242
-0.6010922193527222,3.833012819290161,0.5987147688865662
-0.6269429326057434,3.8212666511535645,0.5961062908172607
-0.6434365510940552,3.760040521621704,0.5855426788330078
-0.659669041633606,3.7026045322418213,0.5755032300949097
-0.6821786165237427,3.6830861568450928,0.5714045166969299
-0.7038000226020813,3.6596245765686035,0.5667274594306946
-0.7202258706092834,3.60945200920105,0.5579434037208557
-0.7387484908103943,3.570488691329956,0.5509251356124878
-0.7471120357513428,3.490079402923584,0.5373621582984924
-0.7667470574378967,3.466353416442871,0.5324209928512573
-0.7903571724891663,3.461358070373535,0.5303904414176941
-0.8104988932609558,3.441133975982666,0.526050865650177
-0.8293908834457397,3.4130959510803223,0.5205132961273193
-0.8409702181816101,3.35880970954895,0.5110438466072083
-0.8639974594116211,3.3532965183258057,0.5088325142860413
-0.8808372616767883,3.325284004211426,0.5030893087387085
-0.8932422995567322,3.2822811603546143,0.4951303005218506
-0.9119062423706055,3.2614476680755615,0.4905254542827606
-0.9271551966667175,3.22935152053833,0.4842666983604431
-0.9408758878707886,3.193495512008667,0.47749418020248413
-0.9604095816612244,3.1799750328063965,0.47385871410369873
-0.9818990230560303,3.1737942695617676,0.471246600151062
-0.988530695438385,3.1194210052490234,0.4614972472190857
-1.0027564764022827,3.0908703804016113,0.4556323289871216
-1.0219048261642456,3.076829433441162,0.45191341638565063
-1.0408647060394287,3.0626816749572754,0.44820666313171387
-1.0475574731826782,3.015796184539795,0.43944281339645386
-1.062696933746338,2.9944894313812256,0.4344633221626282
-1.0885173082351685,3.0020956993103027,0.4336647093296051
-1.10132896900177,2.973088026046753,0.4275762736797333
-1.1138724088668823,2.9440102577209473,0.4215186834335327
-1.1158876419067383,2.889785051345825,0.41177958250045776
-1.1409410238265991,2.8970847129821777,0.4107045829296112
-1.1404986381530762,2.83935546875,0.40041911602020264
-1.148180365562439,2.803239107131958,0.3932533264160156
-1.1334726810455322,2.7133381366729736,0.3785950839519501
-1.135614037513733,2.666611909866333,0.37001943588256836
-1.1473023891448975,2.6451661586761475,0.3648052513599396
-1.1622049808502197,2.6306333541870117,0.3605387806892395
-1.1768701076507568,2.616053342819214,0.3563062250614166
-1.19514000415802,2.6082141399383545,0.35294899344444275
-1.2362171411514282,2.6494851112365723,0.35617777705192566
-1.272083044052124,2.680236577987671,0.3577152490615845
-1.2514034509658813,2.591726064682007,0.3433449864387512
-1.2723798751831055,2.590618848800659,0.34063583612442017
-1.2940597534179688,2.5890309810638428,0.33776894211769104
-1.3225138187408447,2.6012587547302246,0.33662477135658264
-1.302362084388733,2.520514488220215,0.3233594298362732
-1.3082618713378906,2.4916749000549316,0.3168715238571167
-1.3184131383895874,2.469240665435791,0.3110952079296112
-1.3320547342300415,2.453582525253296,0.3062058091163635
-1.3372409343719482,2.4246938228607178,0.29956915974617004
-1.3513193130493164,2.4129323959350586,0.2950337529182434
-1.3597816228866577,2.390821695327759,0.2892199456691742
-1.3730212450027466,2.3748066425323486,0.28396350145339966
-1.3774244785308838,2.34578013420105,0.27717170119285583
-1.3888005018234253,2.3305411338806152,0.27194511890411377
-1.4001424312591553,2.3151819705963135,0.2667110860347748
-1.420542597770691,2.3123998641967773,0.26269620656967163
-1.4324846267700195,2.296412944793701,0.2570544183254242
-1.4640623331069946,2.3138587474823,0.255107045173645
-1.4542149305343628,2.2653274536132812,0.2458372712135315
-1.4637507200241089,2.2458181381225586,0.2395889014005661
-1.4742591381072998,2.230163335800171,0.23368166387081146
-1.4627944231033325,2.1822407245635986,0.22437378764152527
-1.4777907133102417,2.172675609588623,0.21886271238327026
-1.474975347518921,2.1374127864837646,0.21066685020923615
-1.4841279983520508,2.122119903564453,0.2044253647327423
-1.496077299118042,2.109501361846924,0.1982298046350479
-1.526773452758789,2.1216700077056885,0.1939396858215332
-1.5102570056915283,2.071657657623291,0.18402065336704254
-1.5195739269256592,2.0557281970977783,0.17686820030212402
-1.4916447401046753,2.09011173248291,-0.11373085528612137
-1.471827745437622,2.094172239303589,-0.12071093916893005
-1.494144082069397,2.1590497493743896,-0.13109183311462402
-1.4996610879898071,2.202127695083618,-0.14038145542144775
-1.4840643405914307,2.2122249603271484,-0.14720787107944489
-1.4759304523468018,2.235908269882202,-0.1549815535545349
-1.4548097848892212,2.2399325370788574,-0.16136005520820618
-1.4431239366531372,2.256272554397583,-0.16823817789554596
-1.432395577430725,2.2764382362365723,-0.17544500529766083
-1.4197938442230225,2.2929983139038086,-0.1822897344827652
-1.4197564125061035,2.329115390777588,-0.19057762622833252
-1.410050630569458,2.3526694774627686,-0.1979999542236328
-1.388763189315796,2.3557369709014893,-0.20355167984962463
-1.3681639432907104,2.358245611190796,-0.20883406698703766
-1.358502745628357,2.3812499046325684,-0.21591466665267944
-1.3446221351623535,2.397508382797241,-0.2224305421113968
-1.3311185836791992,2.41339111328125,-0.22879697382450104
-1.321191668510437,2.4360291957855225,-0.2357267439365387
-1.3087531328201294,2.4554219245910645,-0.24237021803855896
-1.294639229774475,2.4711291790008545,-0.24860428273677826
-1.2807608842849731,2.4865548610687256,-0.2547442615032196
-1.2465094327926636,2.464169979095459,-0.25697407126426697
-1.2077041864395142,2.4308645725250244,-0.25786009430885315
-1.1904741525650024,2.4388084411621094,-0.26292160153388977
-1.1798995733261108,2.460653066635132,-0.26947203278541565
-1.1719194650650024,2.489712715148926,-0.2767966389656067
-1.1848132610321045,2.5646047592163086,-0.28936541080474854
-1.1872692108154297,2.6184496879577637,-0.2997117340564728
-1.1512373685836792,2.587211847305298,-0.3002219796180725
-1.1775102615356445,2.698141098022461,-0.3172624409198761
-1.1137391328811646,2.602428436279297,-0.3099972605705261
-1.1044421195983887,2.631099224090576,-0.3173401951789856
-1.0868982076644897,2.64201021194458,-0.3225841522216797
-1.0794821977615356,2.6779820919036865,-0.3307848572731018
-1.06596040725708,2.6995060443878174,-0.33726775646209717
-1.0581153631210327,2.7353127002716064,-0.34554725885391235
-1.041422724723816,2.749424695968628,-0.3510746657848358
-1.036095142364502,2.7963852882385254,-0.36081624031066895
-1.0213038921356201,2.8177332878112793,-0.36726897954940796
-1.0637264251708984,2.999608278274536,-0.3948240280151367
-1.1619659662246704,3.3506152629852295,-0.44525688886642456
-1.145519733428955,3.3801610469818115,-0.45323944091796875
-1.14166259765625,3.450218439102173,-0.4668530225753784
-1.126916766166687,3.486954689025879,-0.4759618937969208
-1.1152487993240356,3.534703016281128,-0.48666316270828247
-1.0968974828720093,3.564087390899658,-0.49459636211395264
-1.079322338104248,3.5970747470855713,-0.5031030178070068
-1.060465693473816,3.6262006759643555,-0.511113703250885
-1.0387965440750122,3.6478655338287354,-0.5181899666786194
-1.0263983011245728,3.702942371368408,-0.5297526121139526
-1.0041557550430298,3.7244088649749756,-0.5364924073219299
-0.9591876268386841,3.659648895263672,-0.5307709574699402
-0.9335973858833313,3.6656131744384766,-0.5352239012718201
-0.882335901260376,3.5701870918273926,-0.5247007012367249
-0.8472098708152771,3.5343849658966064,-0.5225164294242859
-0.8117305636405945,3.494516372680664,-0.519684910774231
