X,Y,Z
1.4762696027755737,2.0198776721954346,-0.1013384610414505
1.4718259572982788,1.9847445487976074,-0.09244795888662338
2.0800094604492188,2.9189021587371826,0.31096628308296204
2.068057060241699,2.9453721046447754,0.3220600485801697
2.062960386276245,2.9857699871063232,0.3346351385116577
2.3152782917022705,3.4057815074920654,0.390617311000824
2.2953357696533203,3.427468776702881,0.40128639340400696
2.3013336658477783,3.492314100265503,0.4169721007347107
3.0681376457214355,4.735459804534912,0.5762964487075806
1.6321688890457153,2.5579464435577393,0.31654512882232666
1.625838041305542,2.58872127532959,0.3255673348903656
1.5853779315948486,2.5673434734344482,0.32786890864372253
3.0138297080993652,4.9606032371521,0.6426688432693481
2.9879424571990967,4.997359752655029,0.6564078330993652
2.9624907970428467,5.038039207458496,0.6702924966812134
2.947201728820801,5.0993499755859375,0.6868991255760193
2.9063477516174316,5.112378120422363,0.6966573596000671
2.898541212081909,5.182141304016113,0.7140542268753052
2.8669350147247314,5.215949535369873,0.7264238595962524
2.8347723484039307,5.249704837799072,0.7385308146476746
2.8273327350616455,5.3270344734191895,0.756636917591095
2.8111772537231445,5.386710166931152,0.7721809148788452
2.7810781002044678,5.422711372375488,0.784264862537384
2.770983934402466,5.504662990570068,0.8028811812400818
2.748809576034546,5.561950206756592,0.8179046511650085
1.2244905233383179,2.5217573642730713,0.3737034797668457
1.2116633653640747,2.540215492248535,0.3793269097805023
1.181444764137268,2.5239410400390625,0.3795602321624756
1.1706949472427368,2.5496737957000732,0.38605475425720215
1.1549272537231445,2.564760208129883,0.39097461104393005
1.1399986743927002,2.5793333053588867,0.3957127034664154
2.5683882236480713,5.9221320152282715,0.9143432378768921
2.533933401107788,5.9609503746032715,0.92557692527771
2.506272077560425,6.017501354217529,0.9396020174026489
2.473585605621338,6.0631818771362305,0.9520334005355835
2.448188543319702,6.122263431549072,0.9664322137832642
2.4206697940826416,6.177661895751953,0.9803664088249207
2.3923490047454834,6.237214088439941,0.9945239424705505
2.3642776012420654,6.300431728363037,1.0092182159423828
2.3335225582122803,6.360108852386475,1.0235216617584229
2.300508975982666,6.40794038772583,1.0357861518859863
2.2708356380462646,6.466511249542236,1.0498861074447632
2.238485336303711,6.521594524383545,1.0632072687149048
2.2032251358032227,6.573266506195068,1.075618863105774
2.1772639751434326,6.658030033111572,1.0936405658721924
2.1251957416534424,6.657582759857178,1.0975890159606934
2.0658743381500244,6.630753993988037,1.0971527099609375
2.001422166824341,6.58497428894043,1.0935744047164917
1.9397811889648438,6.5501837730407715,1.091163158416748
1.8817085027694702,6.526064395904541,1.0904150009155273
1.8201568126678467,6.490527629852295,1.087829828262329
1.7645360231399536,6.465035915374756,1.0867799520492554
1.7104161977767944,6.4428019523620605,1.0862905979156494
0.8369500637054443,3.243680238723755,0.5485402345657349
1.5973471403121948,6.378801345825195,1.081250786781311
0.8080886602401733,3.3296022415161133,0.5657590627670288
1.4864635467529297,6.320950984954834,1.0766352415084839
1.443213701248169,6.334203243255615,1.0814703702926636
1.3849146366119385,6.279432773590088,1.0747191905975342
1.3273677825927734,6.22420072555542,1.067822813987732
1.2775256633758545,6.210433006286621,1.0673952102661133
1.2250105142593384,6.177233695983887,1.0636281967163086
1.1752667427062988,6.1549482345581055,1.0617682933807373
1.1280888319015503,6.139710903167725,1.0611237287521362
1.0879422426223755,6.162028789520264,1.0670158863067627
1.0184639692306519,6.017166614532471,1.0440031290054321
0.9850228428840637,6.080810070037842,1.0563993453979492
0.9354149699211121,6.045354843139648,1.051626443862915
0.8857317566871643,6.005710124969482,1.046159267425537
0.835774838924408,5.9541425704956055,1.038617730140686
0.7966010570526123,5.982381820678711,1.0450637340545654
0.6605430841445923,5.238944053649902,0.9165433049201965
0.5964096784591675,5.01387882232666,0.8780329823493958
0.5687233209609985,5.086552143096924,0.8915215730667114
0.5372365713119507,5.132284164428711,0.9003494381904602
0.39738327264785767,4.071000099182129,0.7148435115814209
0.3699565529823303,4.0888352394104,0.7186940312385559
0.3488810360431671,4.179295063018799,0.7353511452674866
0.3185015320777893,4.1661176681518555,0.7336044907569885
0.28823572397232056,4.152780055999756,0.7315540313720703
0.26008838415145874,4.169941425323486,0.7349123358726501
0.4288836121559143,7.766961097717285,1.3695564270019531
0.3741474747657776,7.754171848297119,1.36805260181427
0.3190471827983856,7.729470252990723,1.3645102977752686
0.26364725828170776,7.685159206390381,1.3575520515441895
0.20963206887245178,7.67138147354126,1.3551065921783447
0.15439969301223755,7.638016223907471,1.3492684364318848
0.10074567049741745,7.615782260894775,1.3454614877700806
0.04761764034628868,7.585477828979492,1.3402923345565796
-0.00508684990927577,7.558652400970459,1.3358007669448853
-0.05738682299852371,7.527615547180176,1.3306273221969604
-0.10995084047317505,7.488607883453369,1.3235623836517334
-0.161521315574646,7.4685492515563965,1.3195202350616455
-0.21336793899536133,7.467360973358154,1.3188772201538086
-0.2641133666038513,7.43505859375,1.3128036260604858
-0.3167060613632202,7.45621919631958,1.3162341117858887
-0.267103374004364,5.40219259262085,0.9534640908241272
-0.30524325370788574,5.400270938873291,0.9529032111167908
-0.34081611037254333,5.371354579925537,0.9470517039299011
-0.37795501947402954,5.369065284729004,0.9459426999092102
-0.4126454293727875,5.335834503173828,0.9394325017929077
-0.4496588706970215,5.333037853240967,0.9383260607719421
-0.4236002266407013,4.632549285888672,0.8145741820335388
-0.4535256028175354,4.606686592102051,0.8095731139183044
-0.48369091749191284,4.588376998901367,0.805536687374115
-0.5135282874107361,4.56990909576416,0.801343560218811
-0.5440465211868286,4.558888912200928,0.7984991073608398
-0.5756246447563171,4.551399230957031,0.7962937951087952
-0.6072818040847778,4.547549724578857,0.79477459192276
-0.633553147315979,4.505362510681152,0.7866005897521973
-0.6635711789131165,4.49354887008667,0.7835996150970459
-0.694375216960907,4.489245891571045,0.7815709710121155
-0.7219992280006409,4.461845874786377,0.775543212890625
-0.7513067722320557,4.4495463371276855,0.7722068428993225
-0.7789126634597778,4.425604343414307,0.7668770551681519
-0.8117722272872925,4.431792736053467,0.7668076753616333
-0.8317795395851135,4.369645118713379,0.7549510598182678
-0.7198110222816467,3.6463708877563477,0.6286613941192627
-0.7451109290122986,3.6416540145874023,0.6265230178833008
-0.7667601704597473,3.621769666671753,0.6218323707580566
-0.9518007636070251,4.346832752227783,0.7447996735572815
-0.9786583781242371,4.325504302978516,0.7396612167358398
-1.0043883323669434,4.300256729125977,0.7338997721672058
-1.0351760387420654,4.297425270080566,0.7315364480018616
-1.063457727432251,4.287058353424072,0.7278723120689392
-1.093552589416504,4.283973217010498,0.7254781723022461
-1.11439847946167,4.243256568908691,0.7167242765426636
-1.1439106464385986,4.235915184020996,0.713648796081543
-1.1718857288360596,4.220786094665527,0.7092641592025757
-1.200583577156067,4.213288307189941,0.7058382630348206
-1.2204488515853882,4.176029682159424,0.6973688006401062
-1.2486774921417236,4.1682586669921875,0.6938748359680176
-1.2821049690246582,4.174840927124023,0.6927391290664673
-1.3048171997070312,4.144144058227539,0.6854006052017212
-1.3408271074295044,4.157564163208008,0.6854344606399536
-1.3617396354675293,4.127040863037109,0.6778262853622437
-1.3871006965637207,4.111097812652588,0.6726188659667969
-1.4110887050628662,4.091331481933594,0.6668246388435364
-1.437076210975647,4.074761390686035,0.6615089178085327
-1.4634584188461304,4.057833194732666,0.6561262607574463
-1.4835941791534424,4.026505470275879,0.6484199166297913
-1.5188593864440918,4.038832664489746,0.6473966836929321
-1.54047691822052,4.0148115158081055,0.6405750513076782
-1.573522925376892,4.019308090209961,0.6382871866226196
-1.599273920059204,4.001567840576172,0.632365345954895
-1.6185598373413086,3.9695122241973877,0.6242840886116028
-1.6484466791152954,3.966343402862549,0.6204754114151001
-1.671983242034912,3.9488685131073,0.6143300533294678
-1.698456048965454,3.9383373260498047,0.609294056892395
-1.7265303134918213,3.926938533782959,0.6039381623268127
-1.7572282552719116,3.9225876331329346,0.5997491478919983
-1.7680659294128418,3.8760502338409424,0.5889798998832703
-1.7971441745758057,3.8720285892486572,0.5845068097114563
-1.8196666240692139,3.853771924972534,0.5779059529304504
-1.8537386655807495,3.8555729389190674,0.574084997177124
-1.868902325630188,3.818960189819336,0.5646283030509949
-1.895094394683838,3.8069093227386475,0.5586737394332886
-1.9221289157867432,3.7985684871673584,0.5530638694763184
-1.9508733749389648,3.793490171432495,0.5479468107223511
-1.9739866256713867,3.7737059593200684,0.5404637455940247
-2.0010430812835693,3.760373115539551,0.5338550209999084
-2.020861864089966,3.73748779296875,0.5257421731948853
-1.7040376663208008,3.1029953956604004,0.432353675365448
-1.7193968296051025,3.0819919109344482,0.42521023750305176
-0.8265343308448792,1.4576973915100098,0.1990368515253067
-0.8445456624031067,1.465670108795166,0.19795942306518555
-0.8658939003944397,1.480591893196106,0.19772015511989594
-0.871696412563324,1.4685598611831665,0.19385243952274323
-0.8780689835548401,1.4561177492141724,0.18979765474796295
-0.8801963925361633,1.4370620250701904,0.18491020798683167
-0.8856462240219116,1.4249906539916992,0.180799663066864
-0.8950034976005554,1.419538974761963,0.1775791347026825
-0.9134277105331421,1.4266769886016846,0.1757192462682724
-0.8979034423828125,1.3816256523132324,0.1674635112285614
-0.9025634527206421,1.3697006702423096,0.1632343977689743
-0.9551147222518921,1.4285751581192017,0.16717419028282166
-2.4130566120147705,3.555558204650879,0.4080752730369568
-1.2943260669708252,1.880874514579773,0.21150951087474823
-1.2084394693374634,1.7327204942703247,0.1907690167427063
-1.3656437397003174,1.939436674118042,-0.11927829682826996
-1.2711617946624756,1.833686351776123,-0.11905410140752792
-1.4725285768508911,2.4097397327423096,-0.21264046430587769
-1.4160470962524414,2.356797933578491,-0.2141103893518448
-1.3810265064239502,2.336254835128784,-0.2180296927690506
-0.8234412670135498,1.439141869544983,-0.14113499224185944
-1.2192457914352417,2.1671602725982666,-0.2175765186548233
-1.186664342880249,2.1446595191955566,-0.22017525136470795
-1.1303125619888306,2.077392578125,-0.21784919500350952
-1.102121114730835,2.0611014366149902,-0.2206340730190277
-1.0619721412658691,2.0202202796936035,-0.22052274644374847
-1.0209084749221802,1.975324273109436,-0.21970686316490173
-0.9763718843460083,1.9233582019805908,-0.2178981453180313
-0.9414619207382202,1.888196349143982,-0.21772220730781555
-0.9127146601676941,1.8628959655761719,-0.2184177190065384
-0.8927503824234009,1.854812502861023,-0.22104626893997192
-0.8526754379272461,1.8045868873596191,-0.21845349669456482
-0.8281506896018982,1.7855675220489502,-0.21947942674160004
-0.8056856393814087,1.769771933555603,-0.22079333662986755
-0.7693597078323364,1.7218228578567505,-0.21789240837097168
-0.7475432753562927,1.7055578231811523,-0.2188061773777008
-0.7260957360267639,1.6890363693237305,-0.21960116922855377
-0.6885609030723572,1.6329153776168823,-0.21506738662719727
-0.676747739315033,1.6374003887176514,-0.21843919157981873
-0.6532955765724182,1.613057255744934,-0.21780318021774292
-0.638871967792511,1.6100594997406006,-0.21998682618141174
-0.6205089092254639,1.5960347652435303,-0.22059035301208496
-0.6064459681510925,1.5927232503890991,-0.22261559963226318
-0.5867097973823547,1.5749096870422363,-0.22252091765403748
-0.5727972984313965,1.5713753700256348,-0.2243630439043045
-0.5487229824066162,1.5385046005249023,-0.22192957997322083
-0.5314923524856567,1.5236672163009644,-0.222012460231781
-0.5155978798866272,1.5123978853225708,-0.222458153963089
-0.5021544098854065,1.508376955986023,-0.22398608922958374
-0.4843825399875641,1.4894227981567383,-0.22319555282592773
-0.46454915404319763,1.462934970855713,-0.22121916711330414
-0.45415782928466797,1.4658457040786743,-0.22351574897766113
-0.44038206338882446,1.4575870037078857,-0.2240917980670929
-0.4235476851463318,1.4380700588226318,-0.22289271652698517
-0.4111303985118866,1.4332847595214844,-0.22397609055042267
0.45541223883628845,1.437394618988037,-0.21761949360370636
0.47021910548210144,1.4492381811141968,-0.2175232470035553
0.48271018266677856,1.453640103340149,-0.21620279550552368
0.5040168166160583,1.48357355594635,-0.218630850315094
0.514431893825531,1.480362892150879,-0.2161206603050232
0.5223949551582336,1.469733476638794,-0.21248964965343475
0.5351985096931458,1.473738193511963,-0.21090587973594666
0.5588539242744446,1.506679654121399,-0.21340930461883545
0.5817867517471313,1.5356967449188232,-0.21523001790046692
0.6065621972084045,1.5680851936340332,-0.21742889285087585
0.6204272508621216,1.5714054107666016,-0.21538247168064117
0.6370563507080078,1.5818735361099243,-0.21432822942733765
0.6584606766700745,1.6028776168823242,-0.21460729837417603
0.68470698595047,1.6343857049942017,-0.2162003070116043
0.6899071931838989,1.6157742738723755,-0.21105064451694489
0.7135995626449585,1.639788031578064,-0.21138617396354675
0.7423776984214783,1.6741979122161865,-0.2129567414522171
0.7701444029808044,1.7047309875488281,-0.21389932930469513
0.7948997616767883,1.7280272245407104,-0.2137555480003357
0.821569561958313,1.7546288967132568,-0.21390363574028015
0.844078004360199,1.7702386379241943,-0.2125094085931778
0.8717871308326721,1.796169400215149,-0.21230579912662506
0.9047571420669556,1.8324124813079834,-0.21311934292316437
0.9347034096717834,1.8613910675048828,-0.21293629705905914
0.9636563658714294,1.8864319324493408,-0.21209129691123962
1.002028226852417,1.9283825159072876,-0.21298298239707947
1.0462499856948853,1.9803508520126343,-0.21464303135871887
1.0873289108276367,2.025078058242798,-0.2153616100549698
1.1239882707595825,2.0588440895080566,-0.214580237865448
1.1515618562698364,2.0752875804901123,-0.2118540108203888
1.2133718729019165,2.1527175903320312,-0.21508480608463287
1.2651927471160889,2.208887815475464,-0.21570973098278046
1.2885618209838867,2.213939905166626,-0.21115076541900635
1.3194584846496582,2.2324841022491455,-0.207774817943573
1.3384329080581665,2.230797290802002,-0.2024325281381607
1.3338075876235962,2.188633680343628,-0.19325082004070282
1.3533360958099365,2.1863298416137695,-0.187542125582695
1.3679015636444092,2.177769899368286,-0.18136386573314667
1.4520455598831177,2.2772412300109863,-0.18372157216072083
1.6099421977996826,2.486752510070801,-0.19397029280662537
1.8446441888809204,2.809004068374634,-0.21151141822338104
1.8640683889389038,2.7968103885650635,-0.20261551439762115
1.8291287422180176,2.703479528427124,-0.18793688714504242
1.8291796445846558,2.666282892227173,-0.1774873286485672
1.8606480360031128,2.6735727787017822,-0.16972556710243225
1.4471138715744019,2.049229383468628,-0.12349480390548706
1.4605807065963745,2.040081024169922,-0.11620838940143585
1.4700335264205933,2.0240635871887207,-0.10823249071836472
1.4789562225341797,2.0082671642303467,-0.10017549991607666
2.077772378921509,2.936859130859375,0.3369297981262207
2.054567813873291,2.9519243240356445,0.3474138081073761
2.2861547470092773,3.334118366241455,0.4013209939002991
2.955651044845581,4.3813557624816895,0.5389854907989502
2.27891206741333,3.4347822666168213,0.4312426745891571
2.303342342376709,3.5244269371032715,0.4505132734775543
1.6618058681488037,2.583153009414673,0.3359420597553253
1.62926185131073,2.5753509998321533,0.3404698669910431
1.6099879741668701,2.586538791656494,0.3472771644592285
3.018902063369751,4.92611026763916,0.6710084080696106
3.0035109519958496,4.983743190765381,0.6881150603294373
2.9808812141418457,5.031724452972412,0.703957736492157
2.952610731124878,5.064734935760498,0.7171702980995178
2.931318998336792,5.111235618591309,0.7324937582015991
2.9133501052856445,5.168896675109863,0.7489390969276428
2.8982675075531006,5.233401775360107,0.766503095626831
2.8515474796295166,5.235418796539307,0.7744846343994141
2.838178873062134,5.298320770263672,0.7914850115776062
2.8125195503234863,5.345461368560791,0.8059569597244263
2.7916359901428223,5.402842998504639,0.8218106031417847
2.769725799560547,5.456048488616943,0.8369174003601074
2.7640442848205566,5.539741039276123,0.8566394448280334
2.7346761226654053,5.578674793243408,0.8694528341293335
1.222071886062622,2.540970802307129,0.3989410698413849
1.2031043767929077,2.5493459701538086,0.40313825011253357
1.188174843788147,2.5642271041870117,0.40826502442359924
1.1732041835784912,2.5789690017700195,0.41338834166526794
1.1608445644378662,2.6008658409118652,0.41956785321235657
2.564816474914551,5.861868858337402,0.9512825608253479
2.5462701320648193,5.940052509307861,0.9698185920715332
2.5223381519317627,5.999227046966553,0.984997034072876
2.496333122253418,6.054716110229492,0.9996799826622009
2.4616291522979736,6.092570781707764,1.011278510093689
2.435230016708374,6.15588903427124,1.0267523527145386
2.4086475372314453,6.222994327545166,1.0430775880813599
2.3822338581085205,6.285561561584473,1.0585124492645264
2.3514487743377686,6.337041854858398,1.0721509456634521
2.321307897567749,6.392032623291016,1.0864355564117432
2.2900569438934326,6.451241493225098,1.1008362770080566
2.253495693206787,6.499629974365234,1.113573431968689
2.2239561080932617,6.565618991851807,1.129309892654419
2.1935558319091797,6.627470016479492,1.144347071647644
2.15409517288208,6.663520336151123,1.1550319194793701
2.0925841331481934,6.633492469787598,1.1538571119308472
2.028846502304077,6.599796295166016,1.1517233848571777
1.9676345586776733,6.569000244140625,1.1500427722930908
1.9070383310317993,6.533669471740723,1.1474864482879639
1.8486279249191284,6.501385688781738,1.1454285383224487
1.7958990335464478,6.487172603607178,1.1465709209442139
1.7374365329742432,6.454331874847412,1.1437957286834717
1.6813489198684692,6.432474613189697,1.1428555250167847
0.8246042728424072,3.2497520446777344,0.5788633823394775
1.5666725635528564,6.360588073730469,1.1358603239059448
0.8013506531715393,3.3537027835845947,0.600429892539978
1.4629217386245728,6.316446304321289,1.1337976455688477
1.4137095212936401,6.311136722564697,1.135195016860962
1.353893756866455,6.252704620361328,1.12689208984375
1.3052198886871338,6.242704391479492,1.1273447275161743
1.2523084878921509,6.205775260925293,1.1229228973388672
1.203116774559021,6.183485984802246,1.1211669445037842
1.1585179567337036,6.18740177154541,1.1242445707321167
1.102473258972168,6.126753330230713,1.1149835586547852
1.0464813709259033,6.061919212341309,1.1047701835632324
1.004636287689209,6.076264381408691,1.1090261936187744
0.9571717381477356,6.05226993560791,1.1063129901885986
0.9113491773605347,6.039381504058838,1.105689525604248
0.861630380153656,5.991806983947754,1.0987167358398438
0.819543182849884,5.997265815734863,1.1011286973953247
0.6799761056900024,5.251734733581543,0.965186595916748
0.6227697730064392,5.092068195343018,0.9368016719818115
0.582969069480896,5.061651229858398,0.9321994781494141
0.5533052086830139,5.122634410858154,0.9444883465766907
0.4111114740371704,4.071019172668457,0.751457691192627
0.38202324509620667,4.065896987915039,0.7513313889503479
0.3591121733188629,4.13338565826416,0.7642071843147278
0.334354966878891,4.18925666809082,0.7749847173690796
0.3010229170322418,4.1454033851623535,0.7673622369766235
0.2726897895336151,4.154904365539551,0.7696354985237122
0.24693776667118073,4.210224151611328,0.7804413437843323
0.40121325850486755,7.763605117797852,1.4402238130569458
0.34531641006469727,7.727682113647461,1.4339909553527832
0.28933876752853394,7.702963829040527,1.4296101331710815
0.23456932604312897,7.673975944519043,1.4245021343231201
0.1803922802209854,7.64459753036499,1.4193873405456543
0.12704162299633026,7.63403844833374,1.417832612991333
0.07359762489795685,7.588543891906738,1.4098540544509888
0.01982131600379944,7.565764904022217,1.4059308767318726
-0.032605186104774475,7.538905143737793,1.4005684852600098
-0.08469943702220917,7.507841110229492,1.394494652748108
-0.1364184021949768,7.484100341796875,1.3898504972457886
-0.18819832801818848,7.475360870361328,1.388060450553894
-0.23924686014652252,7.447070121765137,1.3827074766159058
-0.2926415801048279,7.464450359344482,1.3859012126922607
-0.3423728942871094,7.420238018035889,1.3770077228546143
-0.2862706482410431,5.392765998840332,1.0001245737075806
-0.3235671818256378,5.39083194732666,0.999178946018219
-0.36014145612716675,5.377138614654541,0.9961017966270447
-0.3976120054721832,5.36697244644165,0.9937179684638977
-0.43305015563964844,5.341280460357666,0.9885193109512329
-0.40404385328292847,4.5883049964904785,0.8486788868904114
-0.437837690114975,4.608613967895508,0.8515398502349854
-0.46803349256515503,4.590453624725342,0.8473316431045532
-0.4993955194950104,4.579677581787109,0.8445168733596802
-0.5294875502586365,4.561080455780029,0.8403113484382629
-0.5588245987892151,4.538476467132568,0.835415244102478
-0.5913965106010437,4.542352199554443,0.8354345560073853
-0.6195293664932251,4.515664577484131,0.8294018507003784
-0.648883044719696,4.4963698387146,0.8246384859085083
-0.6797041296958923,4.4921674728393555,0.8227095603942871
-0.7107952833175659,4.487709999084473,0.8207617998123169
-0.7407501935958862,4.475427627563477,0.8174192309379578
-0.7646813988685608,4.428846836090088,0.8078634142875671
-0.7884448766708374,4.386011600494385,0.7988088726997375
-0.8218002915382385,4.395986557006836,0.7990673184394836
-0.8401103019714355,4.3303070068359375,0.7856558561325073
-0.7363627552986145,3.661250114440918,0.6630446910858154
-0.7586743831634521,3.6413543224334717,0.6582385301589966
-0.929967999458313,4.313236713409424,0.778299868106842
-0.9687256813049316,4.344590663909912,0.7824738025665283
-0.9931253790855408,4.315929889678955,0.7754418253898621
-1.0242403745651245,4.317095756530762,0.7738142013549805
-1.0499794483184814,4.295595645904541,0.7681599259376526
-1.0799126625061035,4.288712024688721,0.7651204466819763
-1.1054688692092896,4.262864589691162,0.7587137222290039
-1.1371426582336426,4.263035774230957,0.7569953799247742
-1.1619335412979126,4.241000652313232,0.7508588433265686
-1.1865208148956299,4.218807220458984,0.7447408437728882
-1.2151310443878174,4.211271286010742,0.7412524819374084
-1.2340985536575317,4.166234493255615,0.7311173677444458
-1.2654136419296265,4.165507793426514,0.7288486361503601
-1.2967817783355713,4.164549350738525,0.726542592048645
-1.3226145505905151,4.149032115936279,0.7212308049201965
-1.3482540845870972,4.133362293243408,0.7159386277198792
-1.370697021484375,4.1063690185546875,0.7086779475212097
-1.394403100013733,4.082799434661865,0.7020333409309387
-1.4255156517028809,4.080920219421387,0.6991537809371948
-1.451179027557373,4.064399242401123,0.6936835050582886
-1.4759114980697632,4.04804801940918,0.6879067420959473
-1.5004494190216064,4.031554222106934,0.6821520328521729
-1.5257200002670288,4.014593601226807,0.6762641668319702
-1.556602120399475,4.011791706085205,0.672773540019989
-1.570462942123413,3.965686082839966,0.6620752811431885
-1.6061320304870605,3.9771859645843506,0.6607383489608765
-1.6357365846633911,3.9742953777313232,0.656855583190918
-1.6598728895187378,3.9567525386810303,0.6505206227302551
-1.6752760410308838,3.9175302982330322,0.6406141519546509
-1.7119656801223755,3.92779541015625,0.6388195157051086
-1.74223792552948,3.923793077468872,0.6345869302749634
-1.7684043645858765,3.9129788875579834,0.6289566159248352
-1.7820223569869995,3.8736979961395264,0.6187410354614258
-1.8186160326004028,3.8832104206085205,0.6162844300270081
-1.845983624458313,3.8712167739868164,0.6103423833847046
-1.8763689994812012,3.8661248683929443,0.6054444313049316
-1.8696131706237793,3.7885708808898926,0.5889256000518799
-1.9057258367538452,3.7975049018859863,0.5858533978462219
-1.9373012781143188,3.795527458190918,0.5809956789016724
-1.96405827999115,3.782755136489868,0.5744195580482483
-1.9902007579803467,3.7700765132904053,0.5677524209022522
-2.006065845489502,3.7407288551330566,0.5583455562591553
-2.0234475135803223,3.7147347927093506,0.5495108366012573
-1.7120730876922607,3.09114408493042,0.45281240344047546
-1.7338403463363647,3.079869031906128,0.44677838683128357
-0.8425784111022949,1.4739714860916138,0.2116057127714157
-0.8561522364616394,1.4755284786224365,0.2095719426870346
-0.8701900243759155,1.4767462015151978,0.20738311111927032
-0.8529254198074341,1.424301028251648,0.19761300086975098
-0.8827788829803467,1.4520398378372192,0.1989690661430359
-0.8800618648529053,1.4268507957458496,0.19298729300498962
-0.8979669809341431,1.4344568252563477,0.19137203693389893
-0.9039530158042908,1.4219709634780884,0.18695516884326935
-0.9053099155426025,1.4031298160552979,0.1816340982913971
-0.9059083461761475,1.3846696615219116,0.17642061412334442
-0.9111229777336121,1.3723983764648438,0.17187705636024475
-2.3759765625,3.5254807472229004,0.43357640504837036
-2.431736469268799,3.5593228340148926,0.4293856918811798
-1.3461636304855347,1.9431242942810059,0.22964495420455933
-1.3443632125854492,1.9119058847427368,0.22089172899723053
-1.3045196533203125,1.8674724102020264,-0.12197105586528778
-1.450121283531189,2.354581832885742,-0.21224559843540192
-1.4324390888214111,2.3647074699401855,-0.21961833536624908
-1.3157604932785034,2.242605686187744,-0.2198449820280075
-0.8292886018753052,1.461930274963379,-0.1506539285182953
-1.1506463289260864,2.0617594718933105,-0.21736355125904083
-1.1094143390655518,2.021747350692749,-0.217889204621315
-1.0778443813323975,1.9984843730926514,-0.22003096342086792
-1.0378854274749756,1.9575477838516235,-0.2199576199054718
-0.9898245930671692,1.8988171815872192,-0.21754144132137299
-0.9652557969093323,1.8847070932388306,-0.22000499069690704
-0.9218735694885254,1.8321105241775513,-0.21777628362178802
-0.8882405161857605,1.7962684631347656,-0.21723806858062744
-0.8496671915054321,1.7497715950012207,-0.21525976061820984
-0.8151795864105225,1.7098439931869507,-0.21378716826438904
-0.8144164681434631,1.739737868309021,-0.22095808386802673
-0.7777952551841736,1.6920565366744995,-0.21818426251411438
-0.7560489773750305,1.6758843660354614,-0.21928417682647705
-0.7344538569450378,1.659549355506897,-0.22025945782661438
-0.6869142055511475,1.5825309753417969,-0.21299360692501068
-0.6848500967025757,1.608262300491333,-0.21937674283981323
-0.6643752455711365,1.5911920070648193,-0.21985289454460144
-0.6367591023445129,1.556029200553894,-0.21770454943180084
-0.6314492225646973,1.5744386911392212,-0.22298367321491241
-0.6172865033149719,1.5712577104568481,-0.22525860369205475
-0.594906747341156,1.5462772846221924,-0.22422818839550018
-0.5660427212715149,1.5029865503311157,-0.2203899621963501
-0.5553666949272156,1.5065324306488037,-0.2233223021030426
-0.5447663068771362,1.5099655389785767,-0.22622667253017426
-0.5158504247665405,1.4623677730560303,-0.2213767170906067
-0.5079286098480225,1.4729119539260864,-0.2251744419336319
-0.48634690046310425,1.4431058168411255,-0.22276753187179565
-0.47132930159568787,1.4314136505126953,-0.22308146953582764
-0.4588046967983246,1.4269696474075317,-0.22444351017475128
0.47749781608581543,1.4215394258499146,-0.21986527740955353
0.5087952017784119,1.4483712911605835,-0.21970641613006592
0.5188754796981812,1.445195198059082,-0.2170296013355255
0.5317169427871704,1.4491702318191528,-0.21540065109729767
0.5474973917007446,1.460240125656128,-0.2147323042154312
0.5714502334594727,1.4929766654968262,-0.21712161600589752
0.590268075466156,1.511032223701477,-0.21728718280792236
0.6052042841911316,1.518060564994812,-0.21579112112522125
0.6246275901794434,1.535726547241211,-0.2157546430826187
0.6443217396736145,1.553223729133606,-0.2154763787984848
0.6671180725097656,1.5777370929718018,-0.2161417007446289
0.685906171798706,1.591249942779541,-0.2151728868484497
0.7095901370048523,1.6152312755584717,-0.21554699540138245
0.7206916213035583,1.6107803583145142,-0.21199335157871246
0.7480509281158447,1.6414635181427002,-0.21295373141765594
0.7841329574584961,1.6894129514694214,-0.21597377955913544
0.8059995770454407,1.7053749561309814,-0.2147686630487442
0.8362078666687012,1.7387765645980835,-0.21557173132896423
0.8652260303497314,1.7683573961257935,-0.21576045453548431
0.8882840871810913,1.783486008644104,-0.21393729746341705
0.9130707383155823,1.8019787073135376,-0.21248731017112732
0.9431495666503906,1.8307605981826782,-0.21208003163337708
0.9827724695205688,1.8763927221298218,-0.21342502534389496
1.0343924760818481,1.941990613937378,-0.21667715907096863
1.0590091943740845,1.955802083015442,-0.21393761038780212
1.1081422567367554,2.0137243270874023,-0.21573323011398315
1.1448811292648315,2.0472898483276367,-0.21467411518096924
1.188162922859192,2.090460777282715,-0.21433688700199127
1.2354967594146729,2.140165090560913,-0.2143968939781189
1.2873338460922241,2.1961469650268555,-0.2147979438304901
1.3189960718154907,2.214230537414551,-0.21096117794513702
1.338423252105713,2.212249755859375,-0.20521463453769684
1.3613868951797485,2.21708083152771,-0.20004044473171234
1.3643035888671875,2.18837833404541,-0.19169935584068298
1.3672397136688232,2.159503698348999,-0.18331946432590485
1.3945456743240356,2.170381546020508,-0.17820791900157928
1.7562456130981445,2.6936004161834717,-0.21361446380615234
1.850528597831726,2.795597791671753,-0.2134917974472046
1.873532772064209,2.790318012237549,-0.2048235535621643
1.8241714239120483,2.6784322261810303,-0.1884755790233612
1.8522107601165771,2.6787726879119873,-0.17973123490810394
1.8944700956344604,2.7022523880004883,-0.17255418002605438
1.4356101751327515,2.019117832183838,-0.1221151277422905
1.4588098526000977,2.0221550464630127,-0.115094393491745
1.471794605255127,2.0131516456604004,-0.10735303908586502
1.4763214588165283,1.9908562898635864,-0.09844260662794113
2.072376012802124,2.9102587699890137,0.3501847982406616
2.055955648422241,2.9301295280456543,0.36127233505249023
2.309720277786255,3.3439512252807617,0.4219810962677002
2.324603796005249,3.421729326248169,0.4414604902267456
2.300083875656128,3.436875820159912,0.45210522413253784
2.2488455772399902,3.413573980331421,0.4574832022190094
3.1054112911224365,4.7948713302612305,0.6543151140213013
1.6248654127120972,2.548445224761963,0.3534083068370819
1.6314259767532349,2.598400354385376,0.3659236431121826
1.556336522102356,2.520833969116211,0.36014705896377563
3.0075581073760986,4.954112529754639,0.7177302837371826
2.985483169555664,4.997284412384033,0.7334334850311279
2.9807376861572266,5.070376873016357,0.7534438967704773
2.9513795375823975,5.108117580413818,0.767917275428772
2.927927255630493,5.15546989440918,0.7838238477706909
2.8912925720214844,5.174407958984375,0.7949444651603699
2.8816440105438232,5.244388103485107,0.8141207098960876
2.849172830581665,5.278006076812744,0.8271072506904602
2.827221632003784,5.331913471221924,0.8433910012245178
2.8034749031066895,5.377721309661865,0.8580580949783325
2.774095058441162,5.413022518157959,0.8711196780204773
2.7698357105255127,5.504587173461914,0.8930926322937012
2.7454590797424316,5.558297157287598,0.9087610840797424
1.2325490713119507,2.541508913040161,0.41863611340522766
1.2112798690795898,2.542450189590454,0.42177584767341614
1.193307638168335,2.5502216815948486,0.42606520652770996
1.171120047569275,2.5513100624084473,0.4289610683917999
1.1581186056137085,2.573486328125,0.4354671537876129
1.1519508361816406,2.6093690395355225,0.444237619638443
2.5630977153778076,5.916918754577637,1.0133204460144043
2.5334055423736572,5.961728096008301,1.02703857421875
2.508582592010498,6.025135040283203,1.043360710144043
2.477825164794922,6.078044414520264,1.0580543279647827
2.4494106769561768,6.133807182312012,1.0731804370880127
2.4230687618255615,6.19255256652832,1.0887912511825562
2.3946378231048584,6.247600555419922,1.103877067565918
2.3574469089508057,6.285071849822998,1.11538827419281
2.3277151584625244,6.348155975341797,1.131418228149414
2.3045551776885986,6.428953647613525,1.1506617069244385
2.270857810974121,6.4763641357421875,1.1638582944869995
2.2377896308898926,6.527257442474365,1.1777952909469604
2.207404613494873,6.589091777801514,1.1936310529708862
2.175297975540161,6.655240535736084,1.2097663879394531
2.124448776245117,6.6623382568359375,1.2151907682418823
2.060645580291748,6.624739646911621,1.2124253511428833
1.9996851682662964,6.5899658203125,1.2100828886032104
1.9425855875015259,6.565742492675781,1.2096850872039795
1.8777449131011963,6.515462875366211,1.204042673110962
1.8215382099151611,6.498415946960449,1.204176902770996
1.7634694576263428,6.46956729888916,1.2020952701568604
1.70574152469635,6.436315059661865,1.1991562843322754
0.8331857323646545,3.2347283363342285,0.60429847240448
1.591177225112915,6.360670566558838,1.1915326118469238
0.8060941100120544,3.323728561401367,0.624121904373169
1.4853016138076782,6.321356773376465,1.1895194053649902
1.4186323881149292,6.237366676330566,1.176240086555481
1.374480962753296,6.246440887451172,1.1804980039596558
1.3292144536972046,6.247581481933594,1.1832802295684814
1.2732114791870117,6.199627876281738,1.17684006690979
1.224938988685608,6.185147285461426,1.1762970685958862
1.175769567489624,6.166685104370117,1.174621820449829
1.1131483316421509,6.072303771972656,1.1585034132003784
1.0741569995880127,6.102088928222656,1.1660964488983154
1.0168476104736328,6.025650501251221,1.1534322500228882
0.9809259176254272,6.069875717163086,1.163877248764038
0.9326072931289673,6.038083553314209,1.15958571434021
0.880375325679779,5.9795241355896,1.1495925188064575
0.837997317314148,5.985150337219238,1.1519854068756104
0.7813510894775391,5.887853145599365,1.1346224546432495
0.748899519443512,5.961230754852295,1.150156855583191
0.5962187647819519,5.028688907623291,0.9714542627334595
0.5709352493286133,5.120025634765625,0.9903885722160339
0.5340856909751892,5.1160149574279785,0.9903197288513184
0.400396466255188,4.115361213684082,0.797170102596283
0.369844526052475,4.106454372406006,0.7960436344146729
0.34589555859565735,4.166064262390137,0.8082302212715149
0.3169608414173126,4.168156623840332,0.8093022108078003
0.2874380648136139,4.162400722503662,0.8088890314102173
0.25982555747032166,4.187107086181641,0.814183235168457
0.42506933212280273,7.741909027099609,1.5058112144470215
0.3708650767803192,7.7445068359375,1.5067802667617798
0.3157937526702881,7.723734378814697,1.5032734870910645
0.26073190569877625,7.683400630950928,1.4960240125656128
0.20696943998336792,7.66950798034668,1.4939905405044556
0.1524525135755539,7.655257701873779,1.491970181465149
0.0985725075006485,7.613961696624756,1.4837538003921509
0.04533210024237633,7.5684661865234375,1.4747262001037598
-0.00738651305437088,7.553274154663086,1.4716755151748657
-0.059592194855213165,7.51087760925293,1.4633963108062744
-0.11257918179035187,7.502613544464111,1.4618395566940308
-0.16392278671264648,7.4633283615112305,1.454308271408081
-0.2152227759361267,7.442932605743408,1.4501316547393799
-0.2671729028224945,7.4529619216918945,1.4513282775878906
-0.32017695903778076,7.481780529022217,1.4562482833862305
-0.26862165331840515,5.400006294250488,1.050604224205017
-0.3063780963420868,5.3904643058776855,1.0483424663543701
-0.34333881735801697,5.380699157714844,1.0460964441299438
-0.37990787625312805,5.366855144500732,1.0431090593338013
-0.41636940836906433,5.356716632843018,1.0402851104736328
-0.45143193006515503,5.331063747406006,1.0343867540359497
-0.4229278266429901,4.610005855560303,0.8937182426452637
-0.4548797309398651,4.607205390930176,0.8924651741981506
-0.48525169491767883,4.5889201164245605,0.8882566690444946
-0.5154433846473694,4.570428848266602,0.8840543031692505
-0.5443148612976074,4.544177055358887,0.8781982064247131
-0.5760494470596313,4.540622711181641,0.876336932182312
-0.6046581268310547,4.517899990081787,0.8708429932594299
-0.6346375942230225,4.506388187408447,0.8675557971000671
-0.664838969707489,4.494627952575684,0.8642539978027344
-0.6926058530807495,4.46748685836792,0.8580417633056641
-0.7229823470115662,4.4552531242370605,0.8547258973121643
-0.7509345412254333,4.435501575469971,0.8495016098022461
-0.779260516166687,4.419374465942383,0.8449550271034241
-0.810219407081604,4.418160915374756,0.8432995676994324
-0.8343033194541931,4.37896203994751,0.8344297409057617
-0.7247452139854431,3.665303945541382,0.6973010301589966
-0.7476523518562317,3.6454100608825684,0.6923946142196655
-0.7759267687797546,3.6556284427642822,0.69300377368927
-0.9506288766860962,4.333587169647217,0.8197146654129028
-0.9802030324935913,4.327546119689941,0.8167939186096191
-1.0099247694015503,4.321261405944824,0.8138542771339417
-1.0351301431655884,4.292150020599365,0.8066102266311646
-1.0668834447860718,4.292845726013184,0.8050428032875061
-1.0946941375732422,4.2784905433654785,0.8005198240280151
-1.1207951307296753,4.2604522705078125,0.794969379901886
-1.1507138013839722,4.2570977210998535,0.7921991944313049
-1.1730756759643555,4.223719596862793,0.7838414311408997
-1.200434923171997,4.208683967590332,0.7789329886436462
-1.2255231142044067,4.186072826385498,0.7726684808731079
-1.2545336484909058,4.178140163421631,0.7690390944480896
-1.278270959854126,4.155575752258301,0.7623386383056641
-1.3115167617797852,4.162089824676514,0.7609624266624451
-1.3351619243621826,4.139128684997559,0.7542592287063599
-1.3616807460784912,4.123123645782471,0.7488098740577698
-1.3905471563339233,4.114226341247559,0.7446887493133545
-1.4139405488967896,4.090722560882568,0.7378007173538208
-1.4402202367782593,4.078280448913574,0.7325963973999023
-1.462991714477539,4.054621696472168,0.7253687381744385
-1.4827606678009033,4.023629188537598,0.7168980836868286
-1.5027992725372314,3.992326498031616,0.708371639251709
-1.5363378524780273,3.99688982963562,0.7062451839447021
-1.569246530532837,4.001522541046143,0.7038411498069763
-1.5937254428863525,3.9844417572021484,0.6974090337753296
-1.6176304817199707,3.9673588275909424,0.6910727024078369
-1.6481549739837646,3.9640443325042725,0.6870597004890442
-1.6759213209152222,3.953303098678589,0.6817587614059448
-1.703373908996582,3.9424753189086914,0.6764036417007446
-1.7177221775054932,3.9035251140594482,0.6657969355583191
-1.746945858001709,3.8999581336975098,0.6613443493843079
-1.7768257856369019,3.895906448364258,0.6567330360412598
-1.801025152206421,3.877270221710205,0.6495768427848816
-1.8283500671386719,3.865459680557251,0.6436037421226501
-1.8580446243286133,3.860912322998047,0.6383734345436096
-1.8872073888778687,3.856389045715332,0.6332107186317444
-1.903167724609375,3.8237051963806152,0.6233736276626587
-1.9335795640945435,3.8181650638580322,0.6178627610206604
-1.956918716430664,3.7986299991607666,0.6101178526878357
-1.989288091659546,3.800360918045044,0.6053782105445862
-2.0003914833068848,3.7606303691864014,0.5939816832542419
-2.0060298442840576,3.7104332447052,0.5809457898139954
-1.7060215473175049,3.1036510467529297,0.4815383851528168
-1.7181047201156616,3.075782537460327,0.4727388024330139
-0.8291147947311401,1.461905598640442,0.22245264053344727
-0.8505995869636536,1.4768598079681396,0.22241275012493134
-0.8571360111236572,1.4645931720733643,0.2181556671857834
-0.8674882650375366,1.4589667320251465,0.21491217613220215
-0.8730804920196533,1.447068452835083,0.21061420440673828
-0.8906630277633667,1.4550114870071411,0.20919471979141235
-0.8846436738967896,1.42279052734375,0.2018139511346817
-0.8988890051841736,1.4235225915908813,0.19916404783725739
-0.8915036916732788,1.3919380903244019,0.19192057847976685
-0.9005817174911499,1.3865734338760376,0.1883377730846405
-0.8953955173492432,1.358012318611145,0.18143248558044434
-0.9460826516151428,1.4134345054626465,0.1855737566947937
-2.396682024002075,3.5324289798736572,0.4554555118083954
-1.3147456645965576,1.910865306854248,0.24167649447917938
-1.2349225282669067,1.7683621644973755,0.21897488832473755
-1.4419347047805786,2.3227076530456543,-0.21317870914936066
-1.414292335510254,2.3161466121673584,-0.21931803226470947
-1.3232650756835938,2.202183723449707,-0.21467286348342896
-1.2856440544128418,2.1740965843200684,-0.217806875705719
-0.8267364501953125,1.44514799118042,-0.15238100290298462
-1.15029776096344,2.0436160564422607,-0.22064021229743958
-1.112351417541504,2.010699510574341,-0.2221853882074356
-1.05856454372406,1.9464529752731323,-0.21986855566501617
-1.017228603363037,1.9019010066986084,-0.21933339536190033
-0.9781872630119324,1.8604265451431274,-0.21890659630298615
-0.9573389291763306,1.853167176246643,-0.22233864665031433
-0.9068536758422852,1.7867941856384277,-0.21846522390842438
-0.8820568919181824,1.7682740688323975,-0.22010163962841034
-0.8487345576286316,1.7322202920913696,-0.21936412155628204
-0.8209351301193237,1.7063307762145996,-0.21974937617778778
-0.7988590598106384,1.6905215978622437,-0.22123397886753082
-0.7623865604400635,1.6428163051605225,-0.2183925211429596
-0.7438095211982727,1.6337451934814453,-0.22053411602973938
-0.7129637002944946,1.5960973501205444,-0.21865318715572357
-0.6985639929771423,1.593480110168457,-0.22139741480350494
-0.6811526417732239,1.5836288928985596,-0.2230975478887558
-0.6621835827827454,1.570151686668396,-0.22413870692253113
-0.6417852640151978,1.552976131439209,-0.2246362417936325
-0.616263747215271,1.5210983753204346,-0.22280621528625488
-0.5997722744941711,1.5105444192886353,-0.22400768101215363
-0.5790759325027466,1.489102840423584,-0.22342894971370697
-0.5545994639396667,1.4566062688827515,-0.22109340131282806
-0.538729727268219,1.4455890655517578,-0.2219388484954834
-0.5245528817176819,1.4379972219467163,-0.2232278436422348
-0.5155465006828308,1.444911241531372,-0.22664102911949158
-0.4988309442996979,1.4298765659332275,-0.22659942507743835
-0.48623135685920715,1.425610065460205,-0.22820352017879486
0.5018406510353088,1.412771224975586,-0.22215357422828674
0.5090895295143127,1.402390956878662,-0.21823401749134064
0.5295931100845337,1.42825186252594,-0.21986596286296844
0.5368372797966003,1.4177228212356567,-0.2158576250076294
0.5593743920326233,1.4468164443969727,-0.21783244609832764
0.5725180506706238,1.4504503011703491,-0.21582777798175812
0.588331401348114,1.46127188205719,-0.21483471989631653
0.617628276348114,1.5041513442993164,-0.21843694150447845
0.6267406940460205,1.4966565370559692,-0.21462370455265045
0.6509252786636353,1.5247535705566406,-0.21584515273571014
0.6771088242530823,1.5561542510986328,-0.21728889644145966
0.6910533308982849,1.5589886903762817,-0.2147112488746643
0.7260075211524963,1.6075513362884521,-0.2182711660861969
0.7470070719718933,1.6240578889846802,-0.2173246145248413
0.7614781856536865,1.6264089345932007,-0.21437378227710724
0.7946566939353943,1.667037844657898,-0.21628926694393158
0.8098065853118896,1.66889226436615,-0.21307608485221863
0.8541259169578552,1.7298370599746704,-0.21723444759845734
0.8799169063568115,1.752234697341919,-0.2163158357143402
0.9114914536476135,1.7846767902374268,-0.21646244823932648
0.9455618262290955,1.820121169090271,-0.21674318611621857
0.9783519506454468,1.8517670631408691,-0.21629822254180908
1.0203760862350464,1.9004040956497192,-0.2176821082830429
1.0466665029525757,1.9177004098892212,-0.21520093083381653
1.1017260551452637,1.985629916191101,-0.21811749041080475
1.1401270627975464,2.0226833820343018,-0.21733051538467407
1.1869850158691406,2.0727319717407227,-0.21760191023349762
1.2387981414794922,2.1288111209869385,-0.21810869872570038
1.2853211164474487,2.1743452548980713,-0.21723128855228424
1.3099887371063232,2.1829373836517334,-0.2124657928943634
1.3372225761413574,2.1944029331207275,-0.20775100588798523
1.3570908308029175,2.1919870376586914,-0.20142178237438202
1.3759781122207642,2.190004825592041,-0.19519628584384918
1.3677617311477661,2.145094156265259,-0.18515896797180176
1.389235496520996,2.1457936763763428,-0.17888662219047546
1.7782336473464966,2.706963300704956,-0.2176208645105362
1.850598931312561,2.776660680770874,-0.21471792459487915
1.8658316135406494,2.7577860355377197,-0.20437191426753998
1.851370930671692,2.6975674629211426,-0.19114933907985687
1.864774465560913,2.6794919967651367,-0.18102943897247314
1.45602285861969,2.0615622997283936,-0.1319982260465622
1.456217885017395,2.0331971645355225,-0.12282496690750122
1.4652186632156372,2.017556667327881,-0.11438581347465515
1.4792742729187012,2.007740020751953,-0.10588572919368744
2.07487416267395,2.933901309967041,0.3780514597892761
2.297366142272949,3.302900552749634,0.43606558442115784
2.2822439670562744,3.3306968212127686,0.4491402506828308
2.261215925216675,3.352813482284546,0.4615064561367035
2.292492628097534,3.4563591480255127,0.48498305678367615
2.2374444007873535,3.4260778427124023,0.4891301393508911
1.6149932146072388,2.511152744293213,0.3644782304763794
1.6346981525421143,2.584861993789673,0.38100922107696533
1.5859705209732056,2.5502736568450928,0.38159146904945374
3.028306722640991,4.945882797241211,0.7501233816146851
2.9978649616241455,4.975992679595947,0.7645781636238098
2.975203275680542,5.023632526397705,0.7815019488334656
2.9610424041748047,5.083871364593506,0.8002414107322693
2.941432476043701,5.133492946624756,0.8172196745872498
2.9189393520355225,5.17996883392334,0.8334317207336426
2.8830323219299316,5.2069926261901855,0.8462346196174622
2.8605988025665283,5.257124900817871,0.8627336621284485
2.8377692699432373,5.302774429321289,0.8782063722610474
2.817126989364624,5.355612754821777,0.895092785358429
2.796053171157837,5.412734031677246,0.9120960235595703
2.7760136127471924,5.4732441902160645,0.9298310279846191
2.762532949447632,5.543102264404297,0.9489403367042542
2.7197983264923096,5.553849220275879,0.957951545715332
1.21225106716156,2.5216877460479736,0.43810930848121643
1.1933289766311646,2.529935121536255,0.44248679280281067
1.1808732748031616,2.552018165588379,0.4493180811405182
1.156450629234314,2.5455141067504883,0.45097675919532776
1.1572777032852173,2.595144748687744,0.46263790130615234
2.571894645690918,5.880013465881348,1.0543248653411865
2.5517497062683105,5.95429801940918,1.0735888481140137
2.5149526596069336,5.98921012878418,1.0857908725738525
2.4902477264404297,6.047987461090088,1.1021414995193481
2.463449716567993,6.103086948394775,1.1179462671279907
2.433823823928833,6.154835224151611,1.132976770401001
2.405698299407959,6.218056678771973,1.1498112678527832
2.3761966228485107,6.277291297912598,1.1659578084945679
2.3447675704956055,6.328676223754883,1.180605411529541
2.3146605491638184,6.383315086364746,1.1959096193313599
2.289104700088501,6.4522929191589355,1.2140275239944458
2.253833293914795,6.504013538360596,1.228301763534546
2.222398281097412,6.566241264343262,1.2445214986801147
2.186689615249634,6.617335319519043,1.2587417364120483
2.1520512104034424,6.667734146118164,1.2727833986282349
2.091336965560913,6.637337684631348,1.2714661359786987
2.0265698432922363,6.595797061920166,1.2678630352020264
1.9655342102050781,6.564943790435791,1.2655688524246216
1.9060566425323486,6.537271022796631,1.2639124393463135
1.8444849252700806,6.497869491577148,1.2599587440490723
