X,Y,Z
0.20390790700912476,1.5183311700820923,-0.21427622437477112
0.2122831791639328,1.5016775131225586,-0.211251363158226
0.2267235815525055,1.5270733833312988,-0.214144766330719
0.23576301336288452,1.5140817165374756,-0.21164707839488983
0.24685890972614288,1.5163804292678833,-0.21112391352653503
0.2599548399448395,1.5300428867340088,-0.2121814787387848
0.2719517946243286,1.535967230796814,-0.21215969324111938
0.28125059604644775,1.5265693664550781,-0.21003076434135437
0.2904148995876312,1.5171267986297607,-0.2078465074300766
0.30412089824676514,1.5304056406021118,-0.20864789187908173
0.3194050192832947,1.5511887073516846,-0.2104748785495758
0.3302100598812103,1.5490988492965698,-0.20918796956539154
0.342668741941452,1.5544971227645874,-0.2089175283908844
0.3534199297428131,1.5522797107696533,-0.20748956501483917
0.36787742376327515,1.565038800239563,-0.20800240337848663
0.38330650329589844,1.5814690589904785,-0.2090025097131729
0.39810556173324585,1.5939890146255493,-0.20946383476257324
0.4150094985961914,1.6138975620269775,-0.21083658933639526
0.4261515736579895,1.6112140417099,-0.2091260850429535
0.43747758865356445,1.6084015369415283,-0.20738433301448822
0.4549700915813446,1.627929449081421,-0.20852357149124146
0.46847793459892273,1.632387638092041,-0.20771734416484833
0.4797745943069458,1.629341721534729,-0.20583826303482056
0.49101245403289795,1.6262319087982178,-0.2039211541414261
0.49790409207344055,1.608144998550415,-0.20011430978775024
0.5220379829406738,1.6455399990081787,-0.20321406424045563
0.5406757593154907,1.6642545461654663,-0.20391075313091278
0.5643516182899475,1.6975806951522827,-0.20625337958335876
0.5810391306877136,1.7086119651794434,-0.20584021508693695
0.5993759036064148,1.7230976819992065,-0.2057899385690689
0.6142504811286926,1.7263691425323486,-0.20435254275798798
0.6367163062095642,1.7515802383422852,-0.20538759231567383
0.6595579981803894,1.7765694856643677,-0.20633241534233093
0.6788158416748047,1.7903755903244019,-0.20590709149837494
0.7053622603416443,1.8220939636230469,-0.20748133957386017
0.7238608002662659,1.8318535089492798,-0.20638546347618103
0.7422128915786743,1.841570496559143,-0.20525270700454712
0.7594015002250671,1.847470760345459,-0.20364750921726227
0.7813491225242615,1.8639203310012817,-0.2031513750553131
0.8095325231552124,1.8945187330245972,-0.20408253371715546
0.8335461616516113,1.914128065109253,-0.20365770161151886
0.8719639182090759,1.9655271768569946,-0.20653504133224487
0.898543655872345,1.9880515336990356,-0.2062321901321411
0.920449435710907,1.9997764825820923,-0.20472262799739838
0.9505366683006287,2.0290400981903076,-0.20488254725933075
0.9831342101097107,2.06132435798645,-0.20517155528068542
1.0145560503005981,2.0897440910339355,-0.20497362315654755
1.0686523914337158,2.1632792949676514,-0.2090039700269699
1.086788535118103,2.163316011428833,-0.20575475692749023
1.124640703201294,2.2012436389923096,-0.20599791407585144
1.1741461753845215,2.259333610534668,-0.20789727568626404
1.2044618129730225,2.27901291847229,-0.20602019131183624
1.241886854171753,2.312415599822998,-0.20531031489372253
1.2653021812438965,2.3178551197052,-0.20193828642368317
1.287225365638733,2.319530487060547,-0.19814346730709076
1.3067364692687988,2.3179428577423096,-0.1940033882856369
1.3128504753112793,2.2924599647521973,-0.18780897557735443
1.3347692489624023,2.2937023639678955,-0.18371516466140747
1.3406994342803955,2.2680230140686035,-0.17747417092323303
1.3597842454910278,2.266108989715576,-0.17308352887630463
1.4239165782928467,2.337045669555664,-0.1739867925643921
1.469294548034668,2.373633861541748,-0.17188803851604462
1.503745436668396,2.3938992023468018,-0.16851806640625
1.5448795557022095,2.423637628555298,-0.16561591625213623
1.5936750173568726,2.4622297286987305,-0.16287930309772491
1.7258573770523071,2.6278958320617676,-0.1680457592010498
1.7391877174377441,2.6101417541503906,-0.16096970438957214
1.4229992628097534,2.1038553714752197,-0.12472385168075562
1.414921760559082,2.0624701976776123,-0.11729899048805237
1.4418336153030396,2.0726470947265625,-0.11276502907276154
1.4698189496994019,2.0819475650787354,-0.10775820910930634
1.4312994480133057,1.999495029449463,-0.0980563834309578
1.4607272148132324,2.0122547149658203,-0.09300582110881805
1.4698023796081543,1.9962351322174072,-0.08631821721792221
2.0920212268829346,2.9537315368652344,0.26053521037101746
2.2605018615722656,3.2440006732940674,0.2942425310611725
2.324169397354126,3.3885445594787598,0.31530603766441345
2.3171586990356445,3.4301483631134033,0.3268260657787323
2.2989501953125,3.4602324962615967,0.33702000975608826
2.322075843811035,3.551380157470703,0.35303017497062683
3.11669659614563,4.839789390563965,0.4902435839176178
1.634751319885254,2.5806243419647217,0.26610589027404785
1.6023507118225098,2.57279109954834,0.26995840668678284
3.0401954650878906,4.958005428314209,0.5283629298210144
3.004237413406372,4.978780269622803,0.5385896563529968
2.9701473712921143,5.007141590118408,0.5494033098220825
2.9469234943389893,5.051306247711182,0.5617581605911255
2.9339101314544678,5.111672401428223,0.5758312940597534
2.909911632537842,5.155584335327148,0.5878504514694214
2.8935511112213135,5.2171196937561035,0.6018034815788269
2.8591606616973877,5.243856430053711,0.6116046905517578
2.8423545360565186,5.300509452819824,0.6247544288635254
2.810558557510376,5.3339667320251465,0.6351903080940247
2.7776832580566406,5.367645263671875,0.6453392505645752
2.7714955806732178,5.452733516693115,0.6616964340209961
2.7608883380889893,5.526663780212402,0.676582396030426
2.7236599922180176,5.5484299659729,0.6851672530174255
1.2279611825942993,2.549612522125244,0.3173864185810089
1.202364206314087,2.5441763401031494,0.3191983699798584
1.184216856956482,2.5522453784942627,0.32260626554489136
1.164642333984375,2.5565476417541504,0.32551977038383484
1.1605751514434814,2.596271514892578,0.33289578557014465
1.135148048400879,2.5901424884796143,0.3342854380607605
2.548147201538086,5.934088230133057,0.770936131477356
2.5214877128601074,5.9866623878479,0.7825697660446167
2.495692014694214,6.042718887329102,0.7947574257850647
2.461090326309204,6.081099987030029,0.8044224381446838
2.4364850521087646,6.148544788360596,0.8177220225334167
2.403210163116455,6.198156833648682,0.8288317322731018
2.3762247562408447,6.257471084594727,0.8410666584968567
2.0163493156433105,5.4231109619140625,0.732661783695221
2.3077101707458496,6.343237400054932,0.8611530065536499
2.291379690170288,6.443004608154297,0.8785408735275269
2.253833293914795,6.488215923309326,0.8886711001396179
2.218991756439209,6.536232948303223,0.8991042375564575
2.192748785018921,6.6096014976501465,0.913070797920227
2.159552812576294,6.664499759674072,0.9245942831039429
2.103189468383789,6.6533331871032715,0.9263643026351929
2.038159132003784,6.616085529327393,0.9245604276657104
1.9716901779174805,6.566775321960449,0.9209747314453125
1.9192874431610107,6.557374477386475,0.9228978157043457
1.85749351978302,6.51408052444458,0.9200615882873535
1.8051655292510986,6.504006862640381,0.9216464757919312
1.745235562324524,6.467626571655273,0.9191291332244873
1.686116099357605,6.434669494628906,0.917153000831604
0.8245903849601746,3.2397844791412354,0.46311259269714355
1.5723798274993896,6.362610340118408,0.9121324419975281
0.802764892578125,3.3481812477111816,0.4813900589942932
1.4748122692108154,6.3490681648254395,0.9150945544242859
1.4023520946502686,6.24211311340332,0.9017448425292969
1.362666368484497,6.274150848388672,0.9084538221359253
1.3121979236602783,6.252799987792969,0.9074416756629944
1.2624216079711914,6.230991840362549,0.9063718318939209
1.2107243537902832,6.19742488861084,0.903614342212677
1.1453293561935425,6.095365047454834,0.890390932559967
1.1122132539749146,6.160050392150879,0.9013869166374207
1.0505833625793457,6.064557075500488,0.8889753222465515
1.0144973993301392,6.109511375427246,0.8971529603004456
0.9567950963973999,6.020599842071533,0.8856939077377319
0.9164323806762695,6.042133331298828,0.8905348181724548
0.8683637976646423,6.009872913360596,0.8869539499282837
0.8159776926040649,5.942812919616699,0.8781026601791382
0.7700031995773315,5.9174885749816895,0.8754451274871826
0.6417579054832458,5.216671466827393,0.7727484703063965
0.5782608985900879,4.986606597900391,0.7396388649940491
0.5604854822158813,5.151693344116211,0.7651811838150024
0.5290634632110596,5.201437473297119,0.7733147144317627
0.38840702176094055,4.104649066925049,0.61070317029953
0.35884901881217957,4.099454402923584,0.6104114651679993
0.33664703369140625,4.182619571685791,0.6233134865760803
0.30533865094184875,4.161646842956543,0.6207400560379028
0.2763761878013611,4.163542747497559,0.6215956807136536
0.24778872728347778,4.172980785369873,0.623428225517273
0.40623509883880615,7.758800506591797,1.159476399421692
0.3519129753112793,7.761337757110596,1.160252332687378
0.29465773701667786,7.709478378295898,1.152957558631897
0.24002163112163544,7.676471710205078,1.1485223770141602
0.18595215678215027,7.646943092346191,1.1446584463119507
0.13256242871284485,7.632501602172852,1.1430015563964844
0.07906337827444077,7.602344989776611,1.1383118629455566
0.025197412818670273,7.583407878875732,1.1353570222854614
-0.02741205133497715,7.544776916503906,1.129511833190918
-0.07948288321495056,7.5057830810546875,1.1236671209335327
-0.13174334168434143,7.512784481048584,1.1247626543045044
-0.18314692378044128,7.476937294006348,1.1194971799850464
-0.23456265032291412,7.460144519805908,1.1164897680282593
-0.28654783964157104,7.442989826202393,1.1133348941802979
-0.3402954041957855,7.487259387969971,1.1194288730621338
-0.28326547145843506,5.4052910804748535,0.8078089952468872
-0.320828378200531,5.403282165527344,0.8072046637535095
-0.3572947382926941,5.385595321655273,0.8042984008789062
-0.39466121792793274,5.375373840332031,0.8022364377975464
-0.42859870195388794,5.3341851234436035,0.7953392267227173
-0.4610368609428406,5.2812299728393555,0.7867366075515747
-0.43552517890930176,4.620249271392822,0.6876839399337769
-0.46532100439071655,4.594189643859863,0.683249831199646
-0.49657222628593445,4.579407215118408,0.6805213093757629
-0.5296562910079956,4.587536334991455,0.6811076998710632
-0.5579222440719604,4.557150363922119,0.675650417804718
-0.5882753133773804,4.545754909515381,0.6730477809906006
-0.6184979677200317,4.5341572761535645,0.6704500913619995
-0.6494653820991516,4.522238254547119,0.667816162109375
-0.6751040816307068,4.479612827301025,0.6607046723365784
-0.7049760818481445,4.46740198135376,0.6580933928489685
-0.7348796129226685,4.458943843841553,0.6556192636489868
-0.7640457153320312,4.446474552154541,0.6525890827178955
-0.791714072227478,4.426202297210693,0.6484501957893372
-0.8145536780357361,4.375157833099365,0.639809787273407
-0.8464375138282776,4.37725830078125,0.6390034556388855
-0.736973762512207,3.6739091873168945,0.5354143381118774
-0.7620442509651184,3.6690750122070312,0.5334646105766296
-0.9276044368743896,4.318236827850342,0.6263728141784668
-0.9634369611740112,4.338466644287109,0.6278246641159058
-0.9909027814865112,4.320716381072998,0.6238075494766235
-1.0191935300827026,4.306524753570557,0.6203343272209167
-1.039953589439392,4.262089729309082,0.6125514507293701
-1.068924069404602,4.255306243896484,0.6098365187644958
-1.1021751165390015,4.263205051422119,0.6091770529747009
-1.1330777406692505,4.2634992599487305,0.6074814200401306
-1.152487874031067,4.21859073638916,0.5993449091911316
-1.1839640140533447,4.218305587768555,0.5975845456123352
-1.2089991569519043,4.195487976074219,0.5926571488380432
-1.2334738969802856,4.172673225402832,0.5873096585273743
-1.2684255838394165,4.186907768249512,0.5872372388839722
-1.288788914680481,4.152765274047852,0.5804022550582886
-1.3153849840164185,4.136750221252441,0.5760887861251831
-1.3502134084701538,4.1463398933410645,0.5753635168075562
-1.3683116436004639,4.104154586791992,0.56732577085495
-1.3934690952301025,4.087996482849121,0.5627040266990662
-1.418508768081665,4.07166862487793,0.5580896735191345
-1.4489750862121582,4.069653034210205,0.5554297566413879
-1.4746830463409424,4.052670955657959,0.5507106781005859
-1.4893827438354492,4.006478786468506,0.5420779585838318
-1.527956247329712,4.025650501251221,0.5419670939445496
-1.5577226877212524,4.023086071014404,0.538885235786438
-1.5761315822601318,3.991454839706421,0.5319440960884094
-1.6040767431259155,3.980867862701416,0.5277255177497864
-1.6348979473114014,3.977254867553711,0.524452269077301
-1.6626737117767334,3.966306447982788,0.5200236439704895
-1.6800949573516846,3.934257745742798,0.5127179622650146
-1.7064417600631714,3.9234862327575684,0.50822514295578
-1.7273229360580444,3.8979711532592773,0.5017528533935547
-1.7545539140701294,3.886390447616577,0.49708208441734314
-1.7671335935592651,3.842897415161133,0.48820748925209045
-1.8140485286712646,3.8773717880249023,0.48907753825187683
-1.8214648962020874,3.8272833824157715,0.4792962074279785
-1.859857201576233,3.839632034301758,0.4772161841392517
-1.8815950155258179,3.8166894912719727,0.47072505950927734
-1.9046170711517334,3.7972304821014404,0.464481920003891
-1.9333029985427856,3.792088508605957,0.45989859104156494
-1.9585168361663818,3.779787063598633,0.45444604754447937
-1.9741774797439575,3.7459933757781982,0.44623303413391113
-1.9967976808547974,3.725851058959961,0.43969881534576416
-2.025294780731201,3.7199809551239014,0.4346160888671875
-1.7079097032546997,3.088024854660034,0.35702747106552124
-1.7252447605133057,3.070049524307251,0.35112690925598145
-0.8406162858009338,1.4718331098556519,0.16645240783691406
-0.8505715131759644,1.4663904905319214,0.16389478743076324
-0.852262556552887,1.44767427444458,0.1598254144191742
-0.878155529499054,1.4687855243682861,0.1600421816110611
-0.8844497203826904,1.456214189529419,0.15651258826255798
-0.8555176854133606,1.3875600099563599,0.14702048897743225
-0.8996064066886902,1.4383320808410645,0.15014512836933136
-0.9093306660652161,1.4325112104415894,0.14718756079673767
-0.8942592740058899,1.3870247602462769,0.14009501039981842
-0.9076516032218933,1.3879133462905884,0.13772785663604736
-0.907956600189209,1.3693642616271973,0.13342508673667908
-2.402523994445801,3.5697484016418457,0.340790718793869
-2.4446229934692383,3.5796689987182617,0.3345220386981964
-1.1751881837844849,1.6973768472671509,0.1550435870885849
-1.3792814016342163,1.9639208316802979,0.17503413558006287
-1.3213777542114258,1.8900175094604492,-0.10676875710487366
-1.2360469102859497,1.7969037294387817,-0.10680064558982849
-1.2063831090927124,1.8668683767318726,-0.13047225773334503
-1.589642882347107,2.6231319904327393,-0.2074512094259262
-1.5317093133926392,2.611271619796753,-0.2174898087978363
-0.7668392062187195,1.351753830909729,-0.11804048717021942
-1.362400770187378,2.441852569580078,-0.2179274708032608
-1.3020656108856201,2.3723971843719482,-0.21617722511291504
-1.2588173151016235,2.333400011062622,-0.21691842377185822
-1.2176659107208252,2.2975356578826904,-0.21784557402133942
-1.174513339996338,2.2538070678710938,-0.21761567890644073
-1.1176800727844238,2.181976556777954,-0.21443507075309753
-1.0982177257537842,2.1826891899108887,-0.2181934118270874
-1.058365821838379,2.1412646770477295,-0.21760082244873047
-1.010726809501648,2.0818748474121094,-0.2149905562400818
-0.9890950322151184,2.0746023654937744,-0.21753312647342682
-0.9393755197525024,2.007366418838501,-0.21362102031707764
-0.9218025803565979,2.0065433979034424,-0.216598778963089
-0.8932952284812927,1.9806841611862183,-0.21678437292575836
-0.8570722937583923,1.9368840456008911,-0.21482346951961517
-0.8304260969161987,1.9142307043075562,-0.21511752903461456
-0.8092207312583923,1.90182363986969,-0.21640679240226746
-0.7584342360496521,1.81747305393219,-0.20934589207172394
-0.7366065979003906,1.8009260892868042,-0.20987501740455627
-0.709173858165741,1.769791603088379,-0.20860102772712708
-0.704907238483429,1.7961969375610352,-0.21410340070724487
-0.6922837495803833,1.8007559776306152,-0.2169782966375351
-0.6644505262374878,1.7653276920318604,-0.21491454541683197
-0.6410694718360901,1.7405788898468018,-0.21401967108249664
-0.6287134885787964,1.7447569370269775,-0.2166372537612915
-0.599503755569458,1.7013019323349,-0.2133048176765442
-0.5824339389801025,1.6905097961425781,-0.2139171063899994
-0.5654130578041077,1.6796189546585083,-0.21440939605236053
-0.5389383435249329,1.6390918493270874,-0.21105603873729706
-0.5274485945701599,1.6425353288650513,-0.2133006751537323
-0.514560341835022,1.642261266708374,-0.21508535742759705
-0.4960944354534149,1.6233601570129395,-0.21424129605293274
-0.4889727234840393,1.641425371170044,-0.21828114986419678
-0.4709823429584503,1.6222120523452759,-0.2173437774181366
-0.45117631554603577,1.5953786373138428,-0.21534405648708344
-0.4419575035572052,1.6057391166687012,-0.21823269128799438
-0.42235177755355835,1.5787032842636108,-0.21601146459579468
-0.4112333357334137,1.5813900232315063,-0.21780435740947723
-0.40396469831466675,1.5989935398101807,-0.22166642546653748
-0.38629207015037537,1.5752273797988892,-0.21973904967308044
-0.3679995834827423,1.547568917274475,-0.21710991859436035
-0.35167384147644043,1.5273191928863525,-0.2155095636844635
-0.34266605973243713,1.5370787382125854,-0.21811066567897797
-0.3302885890007019,1.5316531658172607,-0.21856625378131866
-0.31791794300079346,1.526169776916504,-0.21885748207569122
-0.30182793736457825,1.501634120941162,-0.21637316048145294
-0.2881757616996765,1.4883675575256348,-0.21550744771957397
-0.281328022480011,1.5091614723205566,-0.2195645123720169
-0.26872313022613525,1.4994926452636719,-0.21914219856262207
-0.25294229388237,1.470699429512024,-0.21578212082386017
-0.24261915683746338,1.4722777605056763,-0.2168702930212021
-0.23216845095157623,1.473799467086792,-0.21797074377536774
-0.21267223358154297,1.4842486381530762,-0.22112329304218292
-0.20019248127937317,1.4702523946762085,-0.21972912549972534
0.24327188730239868,1.4643322229385376,-0.215754896402359
0.2534782886505127,1.4627528190612793,-0.21471667289733887
0.2651846706867218,1.4687066078186035,-0.21465465426445007
0.2753615379333496,1.4670120477676392,-0.2134244590997696
0.28703024983406067,1.4728338718414307,-0.213290736079216
0.30037254095077515,1.4861385822296143,-0.21423137187957764
0.3123234212398529,1.4917609691619873,-0.2140481173992157
0.32447898387908936,1.4972926378250122,-0.21365973353385925
0.33484676480293274,1.4952144622802734,-0.2122109830379486
0.3461436629295349,1.4968186616897583,-0.21128436923027039
0.35840076208114624,1.5020968914031982,-0.21087536215782166
0.3743884563446045,1.5223395824432373,-0.2124578058719635
0.38319990038871765,1.5123950242996216,-0.20972321927547455
0.40151771903038025,1.5398989915847778,-0.21219022572040558
0.4162845015525818,1.552250623703003,-0.21253271400928497
0.4250588119029999,1.5420740842819214,-0.20978304743766785
0.4420360326766968,1.5617166757583618,-0.21093454957008362
0.45409393310546875,1.5625483989715576,-0.2095029205083847
0.47384992241859436,1.5893031358718872,-0.2115364521741867
0.4894932210445404,1.6010328531265259,-0.21153342723846436
0.5028882622718811,1.6052743196487427,-0.21043404936790466
0.5044760704040527,1.5725148916244507,-0.2044616937637329
0.5300989151000977,1.6133912801742554,-0.20801612734794617
0.5525392293930054,1.642991542816162,-0.21005430817604065
0.560223400592804,1.6283766031265259,-0.20638734102249146
0.5830209255218506,1.657706618309021,-0.20817390084266663
0.6023363471031189,1.6758451461791992,-0.2084968090057373
0.6167424917221069,1.6791735887527466,-0.2069254219532013
0.6368803381919861,1.6968448162078857,-0.20706306397914886
0.6526824235916138,1.7036248445510864,-0.20575299859046936
0.686977207660675,1.7572755813598633,-0.21002434194087982
0.6963651180267334,1.7455493211746216,-0.20638832449913025
0.7247048020362854,1.7805132865905762,-0.2082318365573883
0.7431275248527527,1.790083646774292,-0.20691929757595062
0.7735320329666138,1.8282281160354614,-0.2088552713394165
0.7893321514129639,1.830280065536499,-0.20656588673591614
0.8162474036216736,1.8570586442947388,-0.2070019692182541
0.8385975956916809,1.8730144500732422,-0.20610009133815765
0.8725682497024536,1.9134870767593384,-0.2077236920595169
0.9021995663642883,1.943021535873413,-0.20805521309375763
0.9324309825897217,1.972176194190979,-0.2082192599773407
0.9645354151725769,2.0046446323394775,-0.20857149362564087
0.9918239116668701,2.026379346847534,-0.2076743245124817
1.0182406902313232,2.044109582901001,-0.2061738520860672
1.0607011318206787,2.092846393585205,-0.20770050585269928
1.098172903060913,2.1309173107147217,-0.2079581767320633
1.1270043849945068,2.1514363288879395,-0.20637309551239014
1.1950587034225464,2.2435812950134277,-0.211335688829422
1.2238056659698486,2.2595126628875732,-0.20887866616249084
1.261868953704834,2.292412042617798,-0.2077486664056778
1.2887650728225708,2.3046486377716064,-0.2046959549188614
1.2972123622894287,2.2824478149414062,-0.19842872023582458
1.32076096534729,2.287351369857788,-0.1945120394229889
1.3242071866989136,2.2587292194366455,-0.18773214519023895
1.3359649181365967,2.2431626319885254,-0.18190456926822662
1.3476570844650269,2.2274773120880127,-0.17607636749744415
1.3972605466842651,2.2752573490142822,-0.1751343011856079
1.4681543111801147,2.3555829524993896,-0.17636200785636902
1.5242793560028076,2.4082489013671875,-0.17496131360530853
1.580915093421936,2.4604461193084717,-0.17314985394477844
1.7035712003707886,2.6137657165527344,-0.17804215848445892
1.7390766143798828,2.6282522678375244,-0.172672837972641
1.756943941116333,2.616804838180542,-0.16551117599010468
1.795983076095581,2.637946128845215,-0.1603328436613083
1.426445484161377,2.0638840198516846,-0.11986349523067474
1.4447038173675537,2.0610287189483643,-0.11414937674999237
1.4626564979553223,2.0582432746887207,-0.10833504050970078
1.4542336463928223,2.016611337661743,-0.10013245046138763
1.4718283414840698,2.0137970447540283,-0.09395157545804977
1.4667894840240479,1.9790376424789429,-0.08598760515451431
2.0923049449920654,2.933117628097534,0.273647665977478
2.0941643714904785,2.9833874702453613,0.2864256799221039
2.2855992317199707,3.3047118186950684,0.32541054487228394
2.2730977535247803,3.3406574726104736,0.33693212270736694
2.3235538005828857,3.470000982284546,0.3578767776489258
2.9351863861083984,4.45022439956665,0.4684090316295624
3.108035087585449,4.7915191650390625,0.5143155455589294
1.6297763586044312,2.554504632949829,0.2792738676071167
1.6282533407211304,2.591647148132324,0.2880558967590332
1.5888365507125854,2.5697386264801025,0.2901986241340637
3.0190532207489014,4.966371536254883,0.5694248080253601
2.982067108154297,4.987431526184082,0.5801512002944946
2.9605331420898438,5.030640125274658,0.593117892742157
2.9424028396606445,5.0850114822387695,0.6072171926498413
2.9189810752868652,5.133065700531006,0.6205602288246155
2.891505479812622,5.169694900512695,0.6321950554847717
2.876786231994629,5.229971885681152,0.6468270421028137
2.858336925506592,5.287527561187744,0.660804271697998
2.825684070587158,5.321474075317383,0.6718109846115112
2.8051280975341797,5.375030040740967,0.6851081252098083
2.7831878662109375,5.4245924949646,0.6978395581245422
2.7677724361419678,5.492238998413086,0.7129228115081787
2.7490549087524414,5.556844711303711,0.7273743748664856
1.2286001443862915,2.529719352722168,0.33385926485061646
1.2091081142425537,2.534310817718506,0.3370703458786011
1.1928800344467163,2.5457825660705566,0.3412163555622101
1.1692767143249512,2.5434417724609375,0.34330570697784424
1.1548466682434082,2.562309741973877,0.3482799232006073
1.1457337141036987,2.5913827419281006,0.35458531975746155
2.5650439262390137,5.912425994873047,0.8142479658126831
2.5356390476226807,5.957756996154785,0.8257649540901184
2.50667405128479,6.0110063552856445,0.8379017114639282
2.4807307720184326,6.075168132781982,0.851748526096344
2.451447010040283,6.1277852058410645,0.8638954162597656
2.4155402183532715,6.161850452423096,0.873396098613739
2.383380889892578,6.206564426422119,0.8844910264015198
2.022193431854248,5.382003307342529,0.7706082463264465
2.32253098487854,6.322656631469727,0.9095996022224426
2.299142599105835,6.400228023529053,0.9250169396400452
2.2696971893310547,6.459057331085205,0.9377173781394958
2.2432479858398438,6.528766632080078,0.9521135091781616
2.211282253265381,6.587770938873291,0.9646257758140564
2.1782736778259277,6.650825023651123,0.977622926235199
2.1347172260284424,6.680309295654297,0.9857072234153748
2.068122148513794,6.631533622741699,0.9821550846099854
2.0058891773223877,6.593210220336914,0.980120837688446
1.9519436359405518,6.580325603485107,0.9818114042282104
1.891528606414795,6.548924922943115,0.9800997972488403
1.831851601600647,6.5209550857543945,0.9789689779281616
1.7668097019195557,6.466043949127197,0.9737139344215393
1.7126922607421875,6.443893909454346,0.9733219146728516
1.6541359424591064,6.4025983810424805,0.9700461626052856
1.6126788854599,6.428438186645508,0.9767215251922607
1.5466194152832031,6.360551357269287,0.9687729477882385
1.4930564165115356,6.337015628814697,0.9675469994544983
1.441230297088623,6.316712379455566,0.9668155312538147
1.3871573209762573,6.280758857727051,0.9636695981025696
1.337624192237854,6.263267517089844,0.9633797407150269
1.2864512205123901,6.241893768310547,0.9622166156768799
1.2359654903411865,6.22011137008667,0.960625171661377
1.1713401079177856,6.122069358825684,0.9472655057907104
1.130226731300354,6.141109466552734,0.9520257115364075
1.0840479135513306,6.129364013671875,0.952035665512085
1.0315606594085693,6.083129405975342,0.9467446208000183
0.9795460104942322,6.032649517059326,0.9404596090316772
0.9415210485458374,6.069605827331543,0.9474734663963318
0.8883379697799683,6.007030487060547,0.9389894604682922
0.8481791019439697,6.028078079223633,0.9436044096946716
0.7988227605819702,5.983846187591553,0.9380481243133545
0.7504233717918396,5.935303688049316,0.9318130612373352
0.6046989560127258,5.066319465637207,0.7964234352111816
0.5689785480499268,5.070250988006592,0.7977231740951538
0.540952742099762,5.146847724914551,0.8105045557022095
0.39938390254974365,4.074931621551514,0.6423114538192749
0.37048009037971497,4.07749605178833,0.64336097240448
0.3501572608947754,4.175943374633789,0.659574568271637
0.3204391300678253,4.170426845550537,0.6593853235244751
0.2906520664691925,4.164778709411621,0.6587668061256409
0.2609599828720093,4.1589179039001465,0.6581461429595947
0.4312242567539215,7.758709907531738,1.2284549474716187
0.3766818046569824,7.749785423278809,1.2277278900146484
0.32244497537612915,7.744335174560547,1.227608561515808
0.26750004291534424,7.715368747711182,1.2238175868988037
0.21231800317764282,7.66684103012085,1.2163023948669434
0.1572558432817459,7.637261390686035,1.2116366624832153
0.10365604609251022,7.614991188049316,1.2081893682479858
0.05045871064066887,7.592345237731934,1.2047401666641235
-0.002335491357371211,7.573187828063965,1.2019016742706299
-0.05452536419034004,7.5189433097839355,1.1935501098632812
-0.10747884958982468,7.502962112426758,1.190961480140686
-0.15909616649150848,7.48284912109375,1.1872807741165161
-0.21019583940505981,7.450809955596924,1.181767463684082
-0.2614004611968994,7.433845043182373,1.1787047386169434
-0.31521928310394287,7.485917568206787,1.1866440773010254
-0.26302143931388855,5.360324859619141,0.8495151996612549
-0.30450254678726196,5.4239020347595215,0.85939621925354
-0.3402666449546814,5.39487886428833,0.8540893793106079
-0.37645262479782104,5.377166748046875,0.8506194353103638
-0.4111672043800354,5.343826770782471,0.8447245359420776
-0.4482552409172058,5.341006278991699,0.8436940908432007
-0.4254937767982483,4.673036098480225,0.737692654132843
-0.4515753984451294,4.6048173904418945,0.726488471031189
-0.4824924170970917,4.594118118286133,0.7240227460861206
-0.5119622349739075,4.5717291831970215,0.7196193933486938
-0.5433764457702637,4.568318843841553,0.7182426452636719
-0.5736320614814758,4.54927921295166,0.7144253253936768
-0.6042211651802063,4.537747859954834,0.7118374705314636
-0.6336546540260315,4.51835823059082,0.7080538868904114
-0.6637195944786072,4.5064873695373535,0.705256998538971
-0.6887484788894653,4.463963508605957,0.6974329352378845
-0.7155934572219849,4.432659149169922,0.6913922429084778
-0.7486660480499268,4.443142890930176,0.6919216513633728
-0.7755240797996521,4.415304183959961,0.6865078210830688
-0.8048561811447144,4.402490139007568,0.6834690570831299
-0.8309718370437622,4.374358654022217,0.6779709458351135
-0.7204372882843018,3.6565754413604736,0.5654995441436768
-0.7473733425140381,3.659353256225586,0.5647052526473999
-0.770801305770874,3.646893262863159,0.5616047978401184
-0.9455434679985046,4.324796199798584,0.6646043658256531
-0.978177547454834,4.329773426055908,0.6640037894248962
-1.00823175907135,4.323243618011475,0.6615918874740601
-1.0399420261383057,4.324107646942139,0.6599045991897583
-1.0646742582321167,4.298606872558594,0.6542617082595825
-1.0901501178741455,4.276689529418945,0.6492028832435608
-1.116033911705017,4.254456996917725,0.6441006064414978
-1.1396032571792603,4.224615097045898,0.637894868850708
-1.1693639755249023,4.216917991638184,0.6349540948867798
-1.1979012489318848,4.209383964538574,0.631740927696228
-1.2198891639709473,4.179384231567383,0.625196099281311
-1.2505607604980469,4.178863525390625,0.623085081577301
-1.277413249015808,4.163135051727295,0.6186886429786682
-1.3092480897903442,4.161840915679932,0.6164326667785645
-1.3319618701934814,4.13482141494751,0.6102725267410278
-1.361018180847168,4.129960536956787,0.6071596741676331
-1.3826946020126343,4.102881908416748,0.6008131504058838
-1.403280258178711,4.071878910064697,0.5939024686813354
-1.434305191040039,4.069809913635254,0.5912056565284729
-1.4632174968719482,4.060060024261475,0.5873786211013794
-1.480086088180542,4.021541118621826,0.5791566967964172
-1.5098122358322144,4.019336223602295,0.5761043429374695
-1.5368398427963257,4.00966739654541,0.5719993710517883
-1.561990737915039,3.9922280311584473,0.566716194152832
-1.5904016494750977,3.981610059738159,0.5623788833618164
-1.6119914054870605,3.9568076133728027,0.5560012459754944
-1.6474151611328125,3.9680118560791016,0.5544348955154419
-1.6679295301437378,3.943249225616455,0.5478665232658386
-1.6919881105422974,3.925199270248413,0.54218590259552
-1.7198678255081177,3.913731813430786,0.5373440980911255
-1.7391122579574585,3.8846487998962402,0.5301403403282166
-1.7649599313735962,3.8736586570739746,0.525111734867096
-1.795595407485962,3.873059034347534,0.5215098857879639
-1.8105077743530273,3.836810827255249,0.5130414962768555
-1.8345388174057007,3.8174917697906494,0.506735622882843
-1.8730608224868774,3.829695701599121,0.5046338438987732
-1.8967697620391846,3.81440806388855,0.4986094534397125
-1.9116020202636719,3.781651735305786,0.4903491735458374
-1.9412728548049927,3.775981903076172,0.4854786992073059
-1.9570190906524658,3.7423346042633057,0.47697800397872925
-1.9903662204742432,3.743070602416992,0.47267478704452515
-2.007694721221924,3.7169251441955566,0.46489593386650085
-1.7036771774291992,3.104994535446167,0.38457566499710083
-1.7217049598693848,3.086808443069458,0.3783477246761322
-0.8084619045257568,1.4261208772659302,0.17295882105827332
-0.848982572555542,1.4748821258544922,0.1768006682395935
-0.8664863109588623,1.4830178022384644,0.17572025954723358
-0.8609480261802673,1.450533151626587,0.16972485184669495
-0.8751798868179321,1.4514094591140747,0.16764706373214722
-0.8847638368606567,1.445921778678894,0.1647360473871231
-0.859486997127533,1.3841830492019653,0.15545913577079773
-0.9002083539962769,1.4278539419174194,0.1579313576221466
-0.8934565186500549,1.3956187963485718,0.15194618701934814
-0.9024409651756287,1.3901630640029907,0.14883257448673248
-0.8986669182777405,1.365071177482605,0.14362607896327972
-0.9603750109672546,1.4365825653076172,0.14821255207061768
-2.385843276977539,3.518061637878418,0.35574042797088623
-1.6849751472473145,2.4512126445770264,0.24271167814731598
-1.3432537317276,1.9259264469146729,0.18630413711071014
-1.3144432306289673,1.8662108182907104,-0.10693622380495071
-1.2066445350646973,1.7412506341934204,-0.10532880574464798
-1.3854970932006836,2.029789447784424,-0.12871234118938446
-1.5745035409927368,2.577131986618042,-0.21009226143360138
-1.4238741397857666,2.4475810527801514,-0.21596628427505493
-1.3385365009307861,2.3786909580230713,-0.2198505997657776
-1.2742594480514526,2.3025739192962646,-0.21752312779426575
-1.2312425374984741,2.2635045051574707,-0.2183125615119934
-1.1873013973236084,2.2203736305236816,-0.2184538096189499
-1.1263691186904907,2.142089605331421,-0.2147691249847412
-1.1073722839355469,2.142740249633789,-0.2187938690185547
-1.057948112487793,2.0845298767089844,-0.21672603487968445
-1.0292017459869385,2.063701629638672,-0.2182152420282364
-0.9957917332649231,2.032045364379883,-0.21842345595359802
-0.9506849646568298,1.975706934928894,-0.21573154628276825
-0.936267077922821,1.9821346998214722,-0.21978560090065002
-0.9042669534683228,1.9494774341583252,-0.2193494290113449
-0.8596519827842712,1.8882941007614136,-0.21558870375156403
-0.8300886154174805,1.858594298362732,-0.21512173116207123
-0.8010385632514954,1.8285608291625977,-0.2145075798034668
-0.7805007696151733,1.8159074783325195,-0.21577948331832886
-0.7616618275642395,1.8066482543945312,-0.21740710735321045
-0.7306259870529175,1.7687290906906128,-0.21544630825519562
-0.7077044248580933,1.748366355895996,-0.2154870182275772
-0.6896801590919495,1.7384928464889526,-0.2167188972234726
-0.6577682495117188,1.6922966241836548,-0.21333976089954376
-0.6455994844436646,1.6966203451156616,-0.2161514014005661
-0.6183167099952698,1.6609426736831665,-0.21386119723320007
-0.6039799451828003,1.657611608505249,-0.21559862792491913
-0.5975425839424133,1.6760660409927368,-0.2201874852180481
-0.572832465171814,1.6433390378952026,-0.2179141789674759
-0.55607670545578,1.6323835849761963,-0.2184590846300125
-0.5382457971572876,1.6176105737686157,-0.21847011148929596
-0.526883065700531,1.6210200786590576,-0.22088350355625153
-0.5107184052467346,1.6096222400665283,-0.22117328643798828
-0.4900858402252197,1.583313226699829,-0.21931958198547363
-0.478887677192688,1.5864322185516357,-0.22150717675685883
-0.4612206816673279,1.5671582221984863,-0.22053749859333038
-0.44466909766197205,1.5515133142471313,-0.22002561390399933
-0.4295121431350708,1.5394349098205566,-0.21985390782356262
-0.4125326871871948,1.5197526216506958,-0.21856819093227386
-0.401881605386734,1.5223314762115479,-0.22045740485191345
-0.3893033266067505,1.517337679862976,-0.22125157713890076
-0.3727774918079376,1.4973254203796387,-0.21969974040985107
-0.35765504837036133,1.480880618095398,-0.21860681474208832
-0.34902137517929077,1.4906375408172607,-0.22137382626533508
-0.3317413032054901,1.4626398086547852,-0.2185215950012207
0.3512132465839386,1.4506055116653442,-0.21422213315963745
0.3631878197193146,1.4558683633804321,-0.2136848121881485
0.382034033536911,1.4872478246688843,-0.21694810688495636
0.3874586224555969,1.4661011695861816,-0.2124854475259781
0.4018513262271881,1.4785352945327759,-0.21277041733264923
0.41210269927978516,1.4759767055511475,-0.21091777086257935
0.4320404827594757,1.5068027973175049,-0.21379731595516205
0.4447682499885559,1.5114378929138184,-0.21293142437934875
0.44852134585380554,1.486369252204895,-0.20775827765464783
0.4704222083091736,1.5204576253890991,-0.21081233024597168
0.4857185184955597,1.5321927070617676,-0.21073228120803833
0.5119904279708862,1.5769435167312622,-0.2151298075914383
0.5253730416297913,1.5810147523880005,-0.2138359695672989
0.5387680530548096,1.5850064754486084,-0.2124604731798172
0.5497684478759766,1.5815434455871582,-0.2100744992494583
0.5662609934806824,1.5925061702728271,-0.2095407247543335
0.5800250172615051,1.5961217880249023,-0.20802250504493713
0.6112614274024963,1.6469504833221436,-0.21249547600746155
0.628130316734314,1.6575348377227783,-0.21169111132621765
0.650957465171814,1.6823723316192627,-0.21262504160404205
0.6572537422180176,1.6636015176773071,-0.20799197256565094
0.6875521540641785,1.7061861753463745,-0.21091397106647491
0.6963238716125488,1.6945968866348267,-0.20709571242332458
0.7231908440589905,1.7258425951004028,-0.2084358185529709
0.7551167011260986,1.7675108909606934,-0.21092401444911957
0.7736401557922363,1.776827096939087,-0.20933249592781067
0.8015159964561462,1.8073856830596924,-0.21021676063537598
0.8141586780548096,1.8021187782287598,-0.20682337880134583
0.8511939644813538,1.849679708480835,-0.2094067931175232
0.8770720362663269,1.8723456859588623,-0.20897285640239716
0.8984400033950806,1.884154200553894,-0.20719633996486664
0.9455395936965942,1.9481921195983887,-0.21101346611976624
0.9746862053871155,1.9733082056045532,-0.21044407784938812
1.0125553607940674,2.0157010555267334,-0.21150971949100494
1.0385985374450684,2.033463478088379,-0.20986990630626678
1.077956199645996,2.074901819229126,-0.21043533086776733
1.1163703203201294,2.112337589263916,-0.2103571742773056
1.1619353294372559,2.1634790897369385,-0.21146973967552185
1.2139447927474976,2.224307060241699,-0.2132740020751953
1.250355839729309,2.253631353378296,-0.21172790229320526
1.2774052619934082,2.2657508850097656,-0.2084389477968216
1.296791911125183,2.264176845550537,-0.20372708141803741
1.3163079023361206,2.262383222579956,-0.1989491730928421
1.3321796655654907,2.253551721572876,-0.19346235692501068
1.3352851867675781,2.2249574661254883,-0.1862930804491043
1.3583166599273682,2.229698896408081,-0.18190273642539978
1.3927435874938965,2.2501940727233887,-0.17838184535503387
1.464126706123352,2.330167770385742,-0.1793896108865738
1.5529476404190063,2.4358928203582764,-0.1819072812795639
1.6270983219146729,2.5138754844665527,-0.18160651624202728
1.779280424118042,2.708428144454956,-0.18895047903060913
1.7692413330078125,2.654799699783325,-0.17845314741134644
1.7897467613220215,2.646245241165161,-0.17086021602153778
1.7968275547027588,2.6183197498321533,-0.16194485127925873
1.428326964378357,2.052973508834839,-0.12135782837867737
1.4560623168945312,2.0625059604644775,-0.11583686619997025
1.4519401788711548,2.027501344680786,-0.10766400396823883
1.455984354019165,2.0056843757629395,-0.10032375901937485
1.4700047969818115,1.995778203010559,-0.09316758811473846
2.0851190090179443,2.9454660415649414,0.2980409860610962
2.313896656036377,3.3212528228759766,0.3450624942779541
2.2970643043518066,3.3507158756256104,0.3567957878112793
2.3011207580566406,3.408076286315918,0.37111327052116394
2.259988784790039,3.4017956256866455,0.3782218396663666
2.2890610694885254,3.5026676654815674,0.3972115218639374
3.0932095050811768,4.805932998657227,0.5547828674316406
1.632798194885254,2.577827215194702,0.3026941418647766
1.6124465465545654,2.5898382663726807,0.3091936409473419
3.0532662868499756,4.982825756072998,0.6038528680801392
3.0038087368011475,4.979702472686768,0.61219722032547
2.9798192977905273,5.024374961853027,0.6260656714439392
2.9569406509399414,5.072488307952881,0.6404336094856262
2.931980609893799,5.112510681152344,0.6533885598182678
2.9091618061065674,5.15543794631958,0.6666730046272278
2.8926756381988525,5.2167277336120605,0.6819595694541931
2.8642590045928955,5.257593154907227,0.6946971416473389
2.832453966140747,5.286753177642822,0.7054940462112427
2.8125338554382324,5.339972972869873,0.7196869254112244
2.790738105773926,5.393853187561035,0.7335625886917114
2.7625162601470947,5.437569618225098,0.7460600137710571
2.755998373031616,5.522093296051025,0.7640737295150757
2.727217435836792,5.561059474945068,0.7757630944252014
1.217167615890503,2.5279295444488525,0.35548123717308044
1.2065759897232056,2.5539069175720215,0.3617721498012543
1.1875174045562744,2.5622804164886475,0.36560744047164917
1.1614218950271606,2.5524344444274902,0.36670055985450745
1.1639723777770996,2.605989694595337,0.3769451677799225
2.5808041095733643,5.890831470489502,0.8575267791748047
2.5486936569213867,5.9373602867126465,0.8695974946022034
2.5170023441314697,5.983332633972168,0.881569504737854
2.4911649227142334,6.039112091064453,0.8948568105697632
2.463268995285034,6.091189861297607,0.9076961278915405
2.435161590576172,6.147194862365723,0.9208933115005493
2.4089090824127197,6.214573383331299,0.9356491565704346
2.375640630722046,6.2635393142700195,0.9476742148399353
2.344919204711914,6.315333366394043,0.9600455164909363
2.31382417678833,6.366903305053711,0.972457766532898
2.290710210800171,6.444015026092529,0.9887257218360901
2.256843328475952,6.499985694885254,1.0013971328735352
2.219383716583252,6.5445404052734375,1.0123364925384521
2.1896541118621826,6.6105875968933105,1.0266199111938477
2.161134958267212,6.679938316345215,1.0414599180221558
2.1003308296203613,6.649721145629883,1.040833592414856
2.03466534614563,6.608586311340332,1.0379807949066162
1.967909812927246,6.5593767166137695,1.0336105823516846
1.9117209911346436,6.542926788330078,1.0344092845916748
1.854224681854248,6.514462471008301,1.0332151651382446
1.8025075197219849,6.504094123840332,1.0348997116088867
1.7408978939056396,6.456075191497803,1.0305579900741577
1.6810016632080078,6.419334411621094,1.0273756980895996
0.8264837861061096,3.250795602798462,0.5216274857521057
1.571357250213623,6.370119094848633,1.0248501300811768
0.8028900623321533,3.3552680015563965,0.5412195920944214
1.467319130897522,6.32617712020874,1.0231378078460693
1.4187113046646118,6.320759296417236,1.024896502494812
1.3619792461395264,6.2773895263671875,1.0198959112167358
1.3036341667175293,6.222202777862549,1.0129863023757935
1.2532224655151367,6.200504779815674,1.0115396976470947
1.2085344791412354,6.200955867767334,1.0136995315551758
1.1581308841705322,6.174691677093506,1.011566400527954
1.093748688697815,6.064453125,0.9955039024353027
1.057292103767395,6.109621047973633,1.0043716430664062
1.008899211883545,6.086100101470947,1.0019994974136353
0.9518395066261292,6.005086421966553,0.990182638168335
0.9139187932014465,6.04174280166626,0.9978015422821045
0.8629858493804932,5.9864959716796875,0.990259051322937
0.811287522315979,5.919389247894287,0.9807552695274353
0.7660322189331055,5.8979058265686035,0.9781501889228821
0.6266988515853882,5.107147216796875,0.8478738069534302
0.5795959830284119,5.0154643058776855,0.8335444927215576
0.5560253262519836,5.13030481338501,0.8535895943641663
0.5292717814445496,5.221970558166504,0.8698388338088989
0.3861316740512848,4.093508243560791,0.6826829314231873
0.3587997257709503,4.111319541931152,0.6861286163330078
0.33579325675964355,4.18658447265625,0.6990834474563599
0.30528756976127625,4.181059837341309,0.6985966563224792
0.274558424949646,4.1598920822143555,0.6955171823501587
0.24791009724140167,4.200033187866211,0.7027217149734497
0.403293251991272,7.748969554901123,1.2974797487258911
0.3488020598888397,7.739866733551025,1.2966054677963257
0.29291945695877075,7.718958854675293,1.2932840585708618
0.2374952882528305,7.674520015716553,1.286078929901123
0.18343815207481384,7.656644344329834,1.2833855152130127
0.1295703500509262,7.619126319885254,1.2774577140808105
0.07639498263597488,7.588934898376465,1.2728158235549927
0.022667251527309418,7.569941520690918,1.2700767517089844
-0.029886990785598755,7.554564952850342,1.2671416997909546
-0.08197429776191711,7.515710830688477,1.2603323459625244
-0.13379810750484467,7.491907119750977,1.256109595298767
-0.18539056181907654,7.471597194671631,1.2525345087051392
-0.23707416653633118,7.462484836578369,1.250897765159607
-0.28925561904907227,7.445281505584717,1.2479649782180786
-0.34122008085250854,7.4509453773498535,1.248355507850647
-0.2846575081348419,5.397931098937988,0.9037975072860718
-0.3206474781036377,5.37290096282959,0.8990628719329834
-0.35892584919929504,5.38607120513916,0.9007635712623596
-0.3958554267883301,5.368177890777588,0.8973040580749512
-0.4318959712982178,5.350081443786621,0.8938649296760559
-0.45690789818763733,5.208937168121338,0.869762659072876
-0.4353974163532257,4.599767684936523,0.7672138810157776
-0.4678475558757782,4.604540824890137,0.7672120332717896
-0.4967786967754364,4.570715427398682,0.7608059644699097
-0.5281603336334229,4.563529968261719,0.7588819861412048
-0.5580065846443176,4.544658184051514,0.7550552487373352
-0.5896512866020203,4.540874481201172,0.7537730932235718
-0.617706835269928,4.514089584350586,0.7482336163520813
-0.6470672488212585,4.494697570800781,0.7438929677009583
-0.6802061796188354,4.5056915283203125,0.7446380257606506
-0.7078511714935303,4.478310585021973,0.7390663623809814
-0.7345688939094543,4.446949005126953,0.7328833341598511
-0.7661232352256775,4.445828914642334,0.7317246794700623
-0.7946792840957642,4.429405689239502,0.7277535796165466
-0.8197779059410095,4.393829345703125,0.7204645872116089
-0.8439546227455139,4.358197212219238,0.7132422924041748
-0.7342712879180908,3.6568267345428467,0.5973181128501892
-0.7565253376960754,3.6368424892425537,0.5929356813430786
-0.9287240505218506,4.314422607421875,0.7021093964576721
-0.9631273150444031,4.327048301696777,0.7026426196098328
-0.990828812122345,4.313317775726318,0.6986758708953857
-1.0219000577926636,4.3144378662109375,0.6971497535705566
-1.0487271547317505,4.296525955200195,0.6925666332244873
-1.0748623609542847,4.274596691131592,0.6873539090156555
-1.0973610877990723,4.2374420166015625,0.6797167658805847
-1.1344939470291138,4.260092258453369,0.6815429329872131
-1.1552177667617798,4.223022937774658,0.6735584139823914
-1.183799147605896,4.215611457824707,0.6703528165817261
-1.2126753330230713,4.207911491394043,0.6671082377433777
-1.2424850463867188,4.199737548828125,0.6637522578239441
-1.2649978399276733,4.1693196296691895,0.6569594740867615
-1.2935856580734253,4.161086082458496,0.6534790396690369
-1.3157912492752075,4.134429454803467,0.6469067335128784
-1.3388510942459106,4.1113409996032715,0.6409448385238647
-1.3700815439224243,4.109780311584473,0.6382808685302734
-1.3963630199432373,4.093349933624268,0.6333388686180115
-1.4249869585037231,4.0840606689453125,0.6295405030250549
-1.4527641534805298,4.074891567230225,0.6254590153694153
-1.4775844812393188,4.0583672523498535,0.6201760172843933
-1.4968959093093872,4.027176380157471,0.6126954555511475
-1.5391515493392944,4.053277969360352,0.6138166785240173
-1.5590896606445312,4.02142333984375,0.6062192916870117
-1.5783885717391968,3.989596128463745,0.5985878109931946
-1.6051287651062012,3.979607582092285,0.59395432472229
-1.6288609504699707,3.962275981903076,0.5882574319839478
-1.6594611406326294,3.9586663246154785,0.5845025181770325
-1.6872259378433228,3.9476280212402344,0.5796524882316589
-1.7086939811706543,3.922206401824951,0.5727348923683167
-1.728695034980774,3.8972394466400146,0.5655595064163208
-1.7499327659606934,3.8757474422454834,0.5589056611061096
-1.7734484672546387,3.8572795391082764,0.5526105761528015
-1.8087574243545532,3.8630177974700928,0.5497361421585083
-1.8325592279434204,3.843966245651245,0.5433508157730103
-1.856646180152893,3.828878402709961,0.5372270941734314
-1.8821274042129517,3.817211151123047,0.5315570831298828
-1.904997706413269,3.7979934215545654,0.5247181057929993
-1.9351749420166016,3.792238712310791,0.5196948051452637
-1.9616742134094238,3.7794175148010254,0.5137075781822205
-1.9757601022720337,3.7466230392456055,0.504723846912384
-1.9931873083114624,3.720615863800049,0.4967128038406372
