X,Y,Z
-0.5347204804420471,3.9262099266052246,-0.2845108211040497
-0.5146992206573486,3.9877476692199707,-0.28970518708229065
-0.4911864995956421,4.025966644287109,-0.29323217272758484
-0.4676090478897095,4.067923545837402,-0.29701220989227295
-0.4441032111644745,4.117526531219482,-0.3011741638183594
-0.4211331903934479,4.178621768951416,-0.3062047064304352
-0.3953966498374939,4.224120616912842,-0.31013062596321106
-0.36597001552581787,4.226714611053467,-0.3109153211116791
-0.33495140075683594,4.209692001342773,-0.31021279096603394
-0.30749624967575073,4.239090919494629,-0.31273454427719116
-0.32875704765319824,5.0185699462890625,-0.3706788420677185
-0.29514849185943604,5.055734157562256,-0.3738909065723419
-0.2565869987010956,4.991480350494385,-0.3696082532405853
-0.22180967032909393,4.993106842041016,-0.37014853954315186
-0.18640737235546112,4.978939533233643,-0.3692786991596222
-0.15140697360038757,4.972310543060303,-0.3689853847026825
-0.1159849762916565,4.96544885635376,-0.3686954081058502
-0.08117276430130005,4.946638584136963,-0.3675307035446167
-0.046616941690444946,4.931485176086426,-0.36659514904022217
-0.012281305156648159,4.90831995010376,-0.36481887102127075
0.02177298441529274,4.884917259216309,-0.3630429208278656
0.05636867880821228,4.8846435546875,-0.3630034923553467
0.09017378091812134,4.876347064971924,-0.36238592863082886
0.12336376309394836,4.848349094390869,-0.36027440428733826
0.15680129826068878,4.839614391326904,-0.35933709144592285
0.1906936764717102,4.846221446990967,-0.359556645154953
0.22292573750019073,4.813674449920654,-0.35688939690589905
0.25492843985557556,4.773101329803467,-0.35364359617233276
0.2881202697753906,4.771241664886475,-0.3532558083534241
0.3198781907558441,4.7497429847717285,-0.3511734902858734
0.35044458508491516,4.7163825035095215,-0.34823668003082275
0.38254013657569885,4.706118106842041,-0.3470246195793152
0.4158531129360199,4.703339099884033,-0.34637340903282166
0.4463317096233368,4.6771135330200195,-0.3439923822879791
0.47788137197494507,4.666232109069824,-0.3424779176712036
0.5109561085700989,4.670633792877197,-0.34210243821144104
0.5401412844657898,4.639962673187256,-0.3391754627227783
0.5700849294662476,4.61289644241333,-0.3365216553211212
0.6041375398635864,4.624347686767578,-0.3366793394088745
0.631732702255249,4.589286804199219,-0.3332154154777527
0.6633760929107666,4.584907531738281,-0.332000195980072
0.6897677779197693,4.5456342697143555,-0.3282795250415802
0.7194848656654358,4.525333881378174,-0.3259330987930298
0.7534330487251282,4.535695552825928,-0.3257919251918793
0.7819998264312744,4.515146732330322,-0.3232097029685974
0.8061326146125793,4.471416473388672,-0.3189978301525116
0.7035078406333923,3.753451108932495,-0.2668752372264862
0.7296366691589355,3.7485480308532715,-0.2656298875808716
0.7576504349708557,3.751030921936035,-0.2648574113845825
0.9198501110076904,4.398113250732422,-0.30926379561424255
0.9533335566520691,4.407047748565674,-0.3086183965206146
0.9863558411598206,4.411877155303955,-0.30768319964408875
1.0152926445007324,4.397429943084717,-0.30540964007377625
1.0435634851455688,4.3789167404174805,-0.30276554822921753
1.0754609107971191,4.3793559074401855,-0.3013123571872711
1.1016443967819214,4.356898784637451,-0.29830241203308105
1.1258950233459473,4.326669692993164,-0.2947729527950287
1.1539536714553833,4.311336040496826,-0.29227587580680847
1.1862252950668335,4.310800075531006,-0.2906424403190613
1.2092951536178589,4.280233860015869,-0.2869303524494171
1.2406866550445557,4.279505252838135,-0.2852376103401184
1.2637557983398438,4.248500823974609,-0.28151702880859375
1.2933472394943237,4.2397332191467285,-0.2792884409427643
1.320513129234314,4.223341941833496,-0.276375412940979
1.3493168354034424,4.214385032653809,-0.2739609479904175
1.3745510578155518,4.194072723388672,-0.270817369222641
1.4037227630615234,4.184557914733887,-0.26836127042770386
1.4276202917099,4.1601386070251465,-0.26493164896965027
1.4584754705429077,4.157852649688721,-0.26278433203697205
1.484586238861084,4.1404852867126465,-0.25966179370880127
1.513144612312317,4.130300045013428,-0.25701025128364563
1.530922293663025,4.0906147956848145,-0.25253385305404663
1.5643956661224365,4.094804286956787,-0.25066182017326355
1.5864551067352295,4.069742202758789,-0.24695256352424622
1.617478609085083,4.066082000732422,-0.244511216878891
1.6398799419403076,4.040440559387207,-0.24075159430503845
1.6647439002990723,4.021991729736328,-0.23740223050117493
1.6979399919509888,4.025207042694092,-0.23522846400737762
1.9668807983398438,4.576487064361572,-0.2647574245929718
2.0319690704345703,4.637747764587402,-0.2654531002044678
2.064236879348755,4.623682022094727,-0.261836439371109
2.098553419113159,4.616991996765137,-0.2584839165210724
2.1246488094329834,4.592357635498047,-0.25414392352104187
2.1528499126434326,4.5707926750183105,-0.24993138015270233
2.1902592182159424,4.566184043884277,-0.2465621531009674
2.2244112491607666,4.558542728424072,-0.2429693192243576
2.246218681335449,4.526278018951416,-0.23806849122047424
2.2736423015594482,4.5040364265441895,-0.2336517572402954
2.3085460662841797,4.495234966278076,-0.22988496720790863
2.3440325260162354,4.4902567863464355,-0.2262158989906311
2.3780901432037354,4.48136568069458,-0.22226671874523163
1.7380465269088745,3.221773624420166,-0.15723413228988647
1.7566871643066406,3.2029027938842773,-0.15371358394622803
1.7341886758804321,3.1129236221313477,-0.146798238158226
1.7586251497268677,3.1083030700683594,-0.1439746469259262
1.8252860307693481,3.173783779144287,-0.14415818452835083
1.3408493995666504,2.295236587524414,-0.10219056904315948
0.9577144980430603,1.6149652004241943,-0.07042209059000015
0.9584847092628479,1.591844916343689,-0.06791454553604126
0.9797232151031494,1.601865291595459,-0.06677113473415375
0.9842276573181152,1.5854110717773438,-0.06447438895702362
0.9945846796035767,1.5790088176727295,-0.0626218244433403
1.001392126083374,1.5655165910720825,-0.06038937345147133
1.0181810855865479,1.5687073469161987,-0.05879073962569237
1.0262166261672974,1.5588631629943848,-0.05669237673282623
1.0327967405319214,1.545203685760498,-0.054331403225660324
1.043008804321289,1.53840172290802,-0.05223102495074272
1.0594857931137085,1.5414072275161743,-0.050451118499040604
2.5624964237213135,3.6735410690307617,-0.1153569221496582
2.60876727104187,3.6889302730560303,-0.11086297035217285
2.628540277481079,3.665428638458252,-0.10494795441627502
2.625946283340454,3.6096606254577637,-0.09790173918008804
2.6392014026641846,3.5807487964630127,-0.09165534377098083
2.6162781715393066,3.696401834487915,0.15468457341194153
2.5874276161193848,3.716386318206787,0.16099226474761963
1.057675838470459,1.541939616203308,0.06881745904684067
1.0588085651397705,1.569387435913086,0.07208698242902756
1.0427155494689941,1.5706573724746704,0.07407478243112564
1.031701683998108,1.5778121948242188,0.07621055096387863
1.0365431308746338,1.6117818355560303,0.07963565737009048
1.0119751691818237,1.599573016166687,0.08075163513422012
0.9923059344291687,1.5933873653411865,0.08206406980752945
0.9762979745864868,1.5940004587173462,0.08364428579807281
0.9682489037513733,1.6079180240631104,0.08592043817043304
0.9569789171218872,1.6145551204681396,0.08770359307527542
1.3541440963745117,2.3223986625671387,0.12816286087036133
1.8601309061050415,3.2465410232543945,0.18193981051445007
1.7847501039505005,3.1680235862731934,0.18011842668056488
1.7512816190719604,3.1597306728363037,0.1820993274450302
1.7710835933685303,3.251049518585205,0.18979360163211823
1.7542551755905151,3.277684450149536,0.19375914335250854
2.382066249847412,4.529671669006348,0.2710357904434204
2.3432445526123047,4.5320725440979,0.27429041266441345
2.3136305809020996,4.5557708740234375,0.2787023186683655
2.2834014892578125,4.579471111297607,0.283099502325058
2.2435598373413086,4.581517696380615,0.2860904037952423
2.2177090644836426,4.611164569854736,0.2907862365245819
2.1778132915496826,4.612663745880127,0.2935587167739868
2.1471545696258545,4.635380744934082,0.2976232171058655
2.110121488571167,4.643560409545898,0.3007475733757019
2.0777010917663574,4.657933712005615,0.3041737675666809
2.05426025390625,4.693645477294922,0.3089829683303833
1.9809387922286987,4.618963718414307,0.30636242032051086
1.72662353515625,4.108314514160156,0.27450239658355713
1.6944776773452759,4.113060474395752,0.2767767012119293
1.6686697006225586,4.1318254470825195,0.27997592091560364
1.639208436012268,4.143424034118652,0.2826012372970581
1.611369252204895,4.162513256072998,0.28570276498794556
1.5783555507659912,4.166631698608398,0.28776034712791443
1.5545449256896973,4.192036151885986,0.2912442088127136
1.5252814292907715,4.202600479125977,0.2937087416648865
1.497806429862976,4.220580101013184,0.29656097292900085
1.4718636274337769,4.246037483215332,0.2999282479286194
1.4362013339996338,4.241613864898682,0.3011718988418579
1.4114216566085815,4.2661895751953125,0.3044411838054657
1.3816897869110107,4.275753974914551,0.3066534101963043
1.3559030294418335,4.300199031829834,0.309805303812027
1.324439525604248,4.309844970703125,0.3118644058704376
1.2968195676803589,4.330294609069824,0.31470099091529846
1.2631467580795288,4.327916145324707,0.31586283445358276
1.2340335845947266,4.340214252471924,0.3181001543998718
1.2096097469329834,4.371210098266602,0.3216116428375244
1.1783109903335571,4.379622936248779,0.3233570158481598
1.152321696281433,4.410567760467529,0.3268083930015564
1.1211633682250977,4.41846227645874,0.3285394012928009
1.0903708934783936,4.426034927368164,0.33024707436561584
1.0612438917160034,4.440995216369629,0.3324912488460541
1.0313540697097778,4.455918788909912,0.334542840719223
1.0006980895996094,4.470774173736572,0.3366277813911438
0.9705769419670105,4.4852705001831055,0.33868536353111267
0.9417084455490112,4.5032501220703125,0.3410082459449768
0.7654121518135071,3.791719913482666,0.2879520058631897
0.7401553392410278,3.8045849800109863,0.28962963819503784
0.7270222902297974,3.886322498321533,0.29651594161987305
0.8207180500030518,4.566050052642822,0.3491601049900055
0.7899945974349976,4.579278469085693,0.3509633541107178
0.7593979835510254,4.592255115509033,0.35276034474372864
0.7310715913772583,4.620419979095459,0.35573452711105347
0.699004054069519,4.633182525634766,0.35731181502342224
0.6668423414230347,4.641780853271484,0.3585766851902008
0.6351206302642822,4.654014587402344,0.36014172434806824
0.6056792736053467,4.681427955627441,0.36289525032043457
0.574988067150116,4.700916767120361,0.36505645513534546
0.5430393815040588,4.712488651275635,0.3665256202220917
0.5101494789123535,4.723942756652832,0.36782804131507874
0.4784810245037079,4.742859363555908,0.36972495913505554
0.44620800018310547,4.75768518447876,0.37132373452186584
0.41312679648399353,4.760617733001709,0.372008353471756
0.3818362355232239,4.786617279052734,0.37451639771461487
0.34891679883003235,4.804706573486328,0.37626776099205017
0.3157412111759186,4.814774513244629,0.37728622555732727
0.2833518981933594,4.840162754058838,0.379525363445282
0.2509218752384186,4.8692169189453125,0.3820725083351135
0.21738262474536896,4.878593444824219,0.3830948770046234
0.18346822261810303,4.895541667938232,0.38473692536354065
0.14955198764801025,4.9044718742370605,0.38554325699806213
0.11585970968008041,4.928745269775391,0.3875077962875366
0.08175773918628693,4.944997787475586,0.3888609707355499
0.0474720299243927,4.964907646179199,0.39052122831344604
0.01239280216395855,4.980686187744141,0.39187800884246826
-0.02229355461895466,4.996218204498291,0.39323335886001587
-0.05718563124537468,5.011528491973877,0.39433106780052185
-0.09229055792093277,5.026596546173096,0.3954015076160431
-0.127804696559906,5.049203872680664,0.3970832824707031
-0.16326066851615906,5.059883117675781,0.3978455066680908
-0.1990862339735031,5.058612823486328,0.39768630266189575
-0.23463603854179382,5.064898490905762,0.39812982082366943
-0.2709176540374756,5.08652400970459,0.3994901478290558
-0.30662548542022705,5.092336177825928,0.3996252417564392
-0.2884007394313812,4.293580055236816,0.3366871774196625
-0.3170273005962372,4.268163204193115,0.3344516158103943
-0.34798821806907654,4.281411170959473,0.3352666199207306
-0.3783767819404602,4.286686420440674,0.335427850484848
-0.4042709767818451,4.245253562927246,0.33174973726272583
-0.4300072491168976,4.2075419425964355,0.32838577032089233
-0.45109322667121887,4.127037525177002,0.3217015862464905
-0.47659289836883545,4.096774578094482,0.31896400451660156
-0.4964889585971832,4.023833274841309,0.31292712688446045
-0.5217851400375366,4.0010480880737305,0.310730904340744
-0.5429084897041321,3.9511303901672363,0.3063005208969116
-0.5643954873085022,3.904900074005127,0.30217352509498596
-0.5865510702133179,3.870185136795044,0.29897141456604004
-0.6073036789894104,3.8276145458221436,0.29518067836761475
-0.6268945932388306,3.7810943126678467,0.2911092936992645
-0.6475859880447388,3.7460575103759766,0.2878219187259674
-0.66697096824646,3.707117795944214,0.2841719090938568
-0.6870394945144653,3.671830415725708,0.2808147668838501
-0.7033564448356628,3.621209144592285,0.2763199210166931
-0.7231020927429199,3.5895822048187256,0.2732939124107361
-0.7416468858718872,3.554041862487793,0.269992858171463
-0.7519294023513794,3.484246253967285,0.26394811272621155
-0.7743623852729797,3.4714348316192627,0.26221412420272827
-0.794538676738739,3.450969696044922,0.25993093848228455
-0.8129690885543823,3.4227397441864014,0.2570740282535553
-0.8302518129348755,3.390604019165039,0.25394243001937866
-0.8498594164848328,3.3697614669799805,0.25162357091903687
-0.8672550916671753,3.3412797451019287,0.24861150979995728
-0.8799051642417908,3.297757387161255,0.24452219903469086
-0.8972465395927429,3.2729806900024414,0.24184520542621613
-0.9179191589355469,3.259244203567505,0.23998497426509857
-0.9319796562194824,3.2229104042053223,0.2364809811115265
-0.9520784616470337,3.2090086936950684,0.2344777137041092
-0.963631808757782,3.1690256595611572,0.23057563602924347
-0.9758167266845703,3.1327614784240723,0.22697564959526062
-0.9903784394264221,3.103759288787842,0.2239077389240265
-1.0095117092132568,3.0894951820373535,0.2219192534685135
-1.0260521173477173,3.067718744277954,0.2193140983581543
-1.0429081916809082,3.049787998199463,0.21694199740886688
-1.055711269378662,3.0207302570343018,0.2138001173734665
-1.0763823986053467,3.0135395526885986,0.2122052013874054
-1.081286072731018,2.9621529579162598,0.2075074017047882
-1.0866451263427734,2.9145877361297607,0.20307610929012299
-1.0981755256652832,2.885370969772339,0.19983448088169098
-1.1175060272216797,2.878056287765503,0.198147714138031
-1.1227253675460815,2.83425235748291,0.19395475089550018
-1.1351591348648071,2.8083994388580322,0.19099418818950653
-1.1574407815933228,2.807844638824463,0.18973402678966522
-1.1387827396392822,2.710160732269287,0.1818479746580124
-1.144610047340393,2.673926591873169,0.1781727820634842
-1.150394320487976,2.6375656127929688,0.17449669539928436
-1.1908960342407227,2.679497241973877,0.1759755164384842
-1.1866074800491333,2.621713161468506,0.17085538804531097
-1.2042845487594604,2.6137654781341553,0.16892777383327484
-1.2348636388778687,2.634077310562134,0.1688421070575714
-1.2665358781814575,2.6537363529205322,0.16863049566745758
-1.2748048305511475,2.6239118576049805,0.16526874899864197
-1.2923184633255005,2.615461826324463,0.16317564249038696
-1.276685357093811,2.54058837890625,0.15694282948970795
-1.2831538915634155,2.511202812194824,0.15358254313468933
-1.3005764484405518,2.5023539066314697,0.15145215392112732
-1.3102046251296997,2.479822874069214,0.14846360683441162
-1.3153935670852661,2.450671672821045,0.14505939185619354
-1.3258923292160034,2.431814193725586,0.14228813350200653
-1.3393474817276,2.415647506713867,0.13956187665462494
-1.3443478345870972,2.3861682415008545,0.13609835505485535
-1.3638176918029785,2.384219169616699,0.13416114449501038
-1.36374032497406,2.3483667373657227,0.13033564388751984
-1.3959695100784302,2.3658053874969482,0.12935391068458557
-1.4082611799240112,2.3495535850524902,0.1264558583498001
-1.4194316864013672,2.3338260650634766,0.1235937550663948
-1.4307695627212524,2.3178598880767822,0.12069390714168549
-1.4510546922683716,2.3145713806152344,0.11835068464279175
-1.4390380382537842,2.2622921466827393,0.11348684877157211
-1.4538323879241943,2.252948522567749,0.11076748371124268
-1.4393101930618286,2.197352170944214,0.10572171211242676
-1.4714288711547852,2.213705062866211,0.10410559922456741
-1.485517978668213,2.204409122467041,0.10122880339622498
-1.4650036096572876,2.1429851055145264,0.09589964896440506
-1.5020958185195923,2.164977550506592,0.09416022151708603
-1.4865351915359497,2.1140758991241455,0.0892690122127533
-1.4961273670196533,2.097851037979126,0.08574191480875015
-1.4963805675506592,2.068965196609497,0.08159439265727997
-1.5138483047485352,2.066037893295288,0.07846813648939133
-1.5140737295150757,2.036893606185913,0.07404739409685135
-1.5196183919906616,2.14401912689209,-0.07134541869163513
-1.4990795850753784,2.14877986907959,-0.07508387416601181
-1.4969791173934937,2.178596019744873,-0.07948959618806839
-1.4931386709213257,2.209418296813965,-0.08404842019081116
-1.4816995859146118,2.2263550758361816,-0.08783867210149765
-1.469638466835022,2.243534803390503,-0.09159592539072037
-1.448461890220642,2.247837543487549,-0.09482058137655258
-1.4557198286056519,2.2940258979797363,-0.09963374584913254
-1.430274486541748,2.2914440631866455,-0.1023918092250824
-1.4131338596343994,2.3019065856933594,-0.10565950721502304
-1.405092477798462,2.3249430656433105,-0.1093466654419899
-1.3961215019226074,2.3483753204345703,-0.11306953430175781
-1.3865236043930054,2.3720040321350098,-0.11682400107383728
-1.3772639036178589,2.3952670097351074,-0.12050569802522659
-1.3525291681289673,2.3912551403045654,-0.1227363869547844
-1.3387178182601929,2.4077978134155273,-0.12599433958530426
-1.3288291692733765,2.4309213161468506,-0.12957614660263062
-1.3117791414260864,2.440014600753784,-0.13236376643180847
-1.3027585744857788,2.4667723178863525,-0.13612213730812073
-1.2882109880447388,2.4830400943756104,-0.13928456604480743
-1.2990469932556152,2.5475077629089355,-0.145121231675148
-1.2932896614074707,2.5808613300323486,-0.1492309868335724
-1.2744284868240356,2.590070962905884,-0.1519138365983963
-1.2722132205963135,2.6343843936920166,-0.15672162175178528
-1.2404441833496094,2.6148412227630615,-0.1576203852891922
-1.212056040763855,2.602173328399658,-0.15887215733528137
-1.1996804475784302,2.624911308288574,-0.16223376989364624
-1.1903047561645508,2.654686689376831,-0.1660575568675995
-1.148171305656433,2.6092424392700195,-0.1651008129119873
-1.1649094820022583,2.6996302604675293,-0.17276619374752045
-1.168170690536499,2.761688470840454,-0.17862702906131744
-1.1542115211486816,2.784285545349121,-0.18198749423027039
-1.1406499147415161,2.806556224822998,-0.1852928251028061
-1.1238490343093872,2.821566104888916,-0.1881149709224701
-1.124464750289917,2.8840250968933105,-0.19408144056797028
-1.1092944145202637,2.906435251235962,-0.1973758339881897
-1.101194977760315,2.946842670440674,-0.20188742876052856
-1.0833004713058472,2.961613893508911,-0.20466890931129456
-1.0700000524520874,2.991144895553589,-0.20837673544883728
-1.055911660194397,3.0207769870758057,-0.21214598417282104
-1.034530520439148,3.0280134677886963,-0.21431629359722137
-1.0207897424697876,3.0571844577789307,-0.2180396318435669
-1.0076450109481812,3.090099573135376,-0.22198598086833954
-0.9879429936408997,3.1044888496398926,-0.22455625236034393
-0.9792354702949524,3.15609073638916,-0.22988368570804596
-0.9651079773902893,3.1888010501861572,-0.23381872475147247
-0.945049524307251,3.202779769897461,-0.2364046722650528
-0.9286879301071167,3.2317543029785156,-0.23995020985603333
-0.9119879603385925,3.2606470584869385,-0.24351975321769714
-0.8910455703735352,3.274367332458496,-0.24596834182739258
-0.8748028874397278,3.3068180084228516,-0.24985936284065247
-0.8593611121177673,3.34291672706604,-0.25395646691322327
-0.8394508361816406,3.3639042377471924,-0.25682052969932556
-0.8211472630500793,3.3923401832580566,-0.2602789103984833
-0.807187557220459,3.439584732055664,-0.2652040123939514
-0.7862476110458374,3.460275888442993,-0.2681334912776947
-0.7618894577026367,3.4655978679656982,-0.2697157561779022
-0.7479191422462463,3.520301103591919,-0.27511096000671387
-0.7293010354042053,3.555896520614624,-0.27905258536338806
-0.7151145339012146,3.6142542362213135,-0.2848048210144043
-0.6916705369949341,3.630582571029663,-0.2873017489910126
-0.6717216968536377,3.665897846221924,-0.2910848557949066
-0.6526448726654053,3.708782196044922,-0.29549041390419006
-0.6336769461631775,3.7554099559783936,-0.30022943019866943
-0.6112375259399414,3.7826874256134033,-0.30344411730766296
-0.5896826386451721,3.8214619159698486,-0.3075999319553375
-0.5695827603340149,3.8716540336608887,-0.3124583959579468
-0.5488053560256958,3.9217474460601807,-0.3173440992832184
-0.5259492993354797,3.9601387977600098,-0.3213118612766266
-0.5032737255096436,4.0022358894348145,-0.3256056010723114
-0.4804176688194275,4.048086166381836,-0.3301765024662018
-0.45586562156677246,4.090027809143066,-0.33425453305244446
-0.4316788911819458,4.135639190673828,-0.338650107383728
-0.4050622582435608,4.161726474761963,-0.3414726257324219
-0.38031190633773804,4.210896968841553,-0.34621474146842957
-0.3519821763038635,4.225010871887207,-0.3480091094970703
-0.31927546858787537,4.192417144775391,-0.3457651138305664
-0.28782349824905396,4.163424015045166,-0.34382060170173645
-0.26245322823524475,4.2235589027404785,-0.3492544889450073
-0.22664746642112732,4.10861873626709,-0.34022054076194763
-0.19804534316062927,4.110054969787598,-0.3407237231731415
-0.16919589042663574,4.119110107421875,-0.341680109500885
-0.14019986987113953,4.112383842468262,-0.341340571641922
-0.13445425033569336,4.957674026489258,-0.41178521513938904
-0.0995350107550621,4.935105323791504,-0.4102112948894501
-0.06529293209314346,4.94344425201416,-0.4110936224460602
-0.03021564707159996,4.928210735321045,-0.4098047912120819
0.0040804315358400345,4.90494441986084,-0.4078684151172638
0.03806917741894722,4.889225959777832,-0.4065794050693512
0.07188192754983902,4.87327241897583,-0.40529030561447144
0.10549958050251007,4.860990047454834,-0.4041897654533386
0.13862977921962738,4.83682107925415,-0.40189746022224426
0.17229272425174713,4.820187091827393,-0.4002484679222107
0.20547492802143097,4.811122894287109,-0.3992534279823303
0.23776684701442719,4.786277770996094,-0.39696961641311646
0.26946303248405457,4.7573442459106445,-0.394231915473938
0.3019435703754425,4.747648239135742,-0.39290162920951843
0.33432847261428833,4.72992467880249,-0.39091968536376953
0.36655038595199585,4.719783306121826,-0.3895941972732544
0.39803165197372437,4.701661109924316,-0.3876304030418396
0.42920729517936707,4.683348178863525,-0.38552868366241455
0.46081316471099854,4.672604084014893,-0.3838711380958557
0.49244424700737,4.657716274261475,-0.3818817138671875
0.5230121612548828,4.638794898986816,-0.37959474325180054
0.5534209609031677,4.619663715362549,-0.3773120939731598
0.5844658017158508,4.608084201812744,-0.3755210041999817
0.6183559894561768,4.619481086730957,-0.37544646859169006
0.6453746557235718,4.576574802398682,-0.37096449732780457
0.6759963631629944,4.564387321472168,-0.36901262402534485
0.7047273516654968,4.540445327758789,-0.3661327362060547
0.7349073886871338,4.527888298034668,-0.3640274703502655
0.7647700309753418,4.515172004699707,-0.36178889870643616
0.7931387424468994,4.494587421417236,-0.35894328355789185
0.8206873536109924,4.4660162925720215,-0.35545533895492554
0.7173848152160645,3.756457805633545,-0.2979929447174072
0.7403305172920227,3.7362446784973145,-0.2952519655227661
0.7856106758117676,3.826565742492676,-0.3011469841003418
0.9333927631378174,4.392655372619629,-0.3442821204662323
0.9703077077865601,4.412722110748291,-0.34440767765045166
1.0009920597076416,4.406013488769531,-0.342475563287735
1.0294917821884155,4.391606330871582,-0.3397471606731415
1.0586795806884766,4.380822658538818,-0.33727338910102844
1.0868988037109375,4.36604642868042,-0.33450841903686523
1.1158639192581177,4.350862503051758,-0.33168551325798035
1.1421505212783813,4.328090190887451,-0.3283217251300812
1.165663719177246,4.297786712646484,-0.32417547702789307
1.1992708444595337,4.3048930168151855,-0.32286956906318665
1.2246333360671997,4.2817230224609375,-0.3192972242832184
1.2549558877944946,4.273121356964111,-0.31678149104118347
1.2822388410568237,4.257064342498779,-0.3136802613735199
1.3089557886123657,4.240966796875,-0.31045225262641907
1.3402442932128906,4.239553928375244,-0.30831125378608704
1.3563750982284546,4.189582824707031,-0.3026413321495056
1.3909698724746704,4.194850444793701,-0.3009399175643921
1.4197049140930176,4.185418605804443,-0.2980648875236511
1.4430721998214722,4.161128520965576,-0.29410260915756226
1.4689074754714966,4.144015312194824,-0.29066282510757446
1.4924026727676392,4.1192402839660645,-0.2866734564304352
1.5182009935379028,4.10169792175293,-0.28316864371299744
1.5492349863052368,4.098632335662842,-0.28048545122146606
1.5714131593704224,4.073685169219971,-0.27636298537254333
1.5967026948928833,4.055675983428955,-0.2726913094520569
1.6278457641601562,4.051895618438721,-0.26997068524360657
1.652459740638733,4.03371524810791,-0.26616576313972473
1.6801973581314087,4.022464275360107,-0.26276129484176636
1.7199288606643677,4.039783954620361,-0.2612308859825134
2.0072896480560303,4.6253180503845215,-0.29599064588546753
2.0452170372009277,4.625992774963379,-0.29283207654953003
2.0763771533966064,4.612351894378662,-0.28868424892425537
2.108133316040039,4.598188400268555,-0.28444409370422363
2.140118360519409,4.583653450012207,-0.28015992045402527
2.173231363296509,4.572628498077393,-0.27604296803474426
2.203888416290283,4.558197021484375,-0.2716299891471863
2.2327892780303955,4.5400261878967285,-0.2670019268989563
2.264965772628784,4.524331569671631,-0.26233941316604614
2.2959914207458496,4.508932590484619,-0.25772377848625183
2.318885564804077,4.4799017906188965,-0.2522737681865692
2.361711025238037,4.488620758056641,-0.24892204999923706
1.7302769422531128,3.233832359313965,-0.176458477973938
1.7410777807235718,3.2015979290008545,-0.17180031538009644
1.7305984497070312,3.1318860054016113,-0.16512733697891235
1.7250251770019531,3.0726418495178223,-0.15910780429840088
1.7908912897109985,3.1386818885803223,-0.15946629643440247
1.3696261644363403,2.3636984825134277,-0.11772792786359787
1.3100224733352661,2.22690486907959,-0.1086684837937355
0.9571620225906372,1.6013712882995605,-0.07641982287168503
0.9680728316307068,1.5948951244354248,-0.07439006119966507
0.9785053133964539,1.5886098146438599,-0.07235731184482574
0.9891610741615295,1.5820908546447754,-0.07027243822813034
1.002278208732605,1.5785349607467651,-0.06824842840433121
1.025423526763916,1.5916296243667603,-0.0668618232011795
1.0167124271392822,1.5554897785186768,-0.06342802941799164
1.031835913658142,1.5549715757369995,-0.061377447098493576
1.0419081449508667,1.548330545425415,-0.05906855687499046
1.0476359128952026,1.5351040363311768,-0.056481581181287766
2.555088758468628,3.687713861465454,-0.13021284341812134
2.583103895187378,3.6778995990753174,-0.12444531172513962
2.6120498180389404,3.667198896408081,-0.11841171234846115
2.636624574661255,3.649775743484497,-0.11189223825931549
2.627224922180176,3.589205741882324,-0.10411641001701355
2.67521333694458,3.6025428771972656,-0.09792294353246689
2.628695487976074,3.686861038208008,0.1710060089826584
2.5961251258850098,3.7000062465667725,0.17769600450992584
2.5874807834625244,3.743760108947754,0.185417041182518
1.0597528219223022,1.5589457750320435,0.07949911803007126
1.065744400024414,1.5924323797225952,0.08338020741939545
1.032785415649414,1.567345380783081,0.08409096300601959
1.0332965850830078,1.5948458909988403,0.08761562407016754
1.0217586755752563,1.6021349430084229,0.08991319686174393
1.0061687231063843,1.6026397943496704,0.09175524860620499
0.9816964268684387,1.5901741981506348,0.09278950095176697
0.9780817031860352,1.6105613708496094,0.09568564593791962
0.9666072130203247,1.6173514127731323,0.09773717820644379
1.3260990381240845,2.2566347122192383,0.13854241371154785
1.3403334617614746,2.320399284362793,0.14466804265975952
1.807567834854126,3.1808156967163086,0.20115457475185394
1.7526103258132935,3.1354551315307617,0.20101848244667053
1.7456252574920654,3.1792240142822266,0.20652979612350464
1.771950602531433,3.2845458984375,0.21609379351139069
1.7599163055419922,3.3172969818115234,0.2208261638879776
2.3690671920776367,4.543095588684082,0.3058885335922241
2.328249216079712,4.546329975128174,0.30942726135253906
2.2975058555603027,4.570362567901611,0.31444430351257324
2.2620761394500732,4.579015731811523,0.31818026304244995
2.239978551864624,4.61558723449707,0.3238472640514374
2.2026124000549316,4.6246137619018555,0.3274291753768921
2.168534278869629,4.640401840209961,0.33150309324264526
2.1291303634643555,4.641183376312256,0.3344022035598755
2.102550983428955,4.670105457305908,0.3393520712852478
2.068726062774658,4.684915542602539,0.3430761992931366
2.0251474380493164,4.678177833557129,0.34517523646354675
1.7400686740875244,4.100498199462891,0.304802805185318
1.711458683013916,4.1122941970825195,0.30785661935806274
1.6790940761566162,4.116967678070068,0.31039848923683167
1.6491574048995972,4.128833770751953,0.31327566504478455
1.6219383478164673,4.1477508544921875,0.31671032309532166
1.592356562614441,4.1589813232421875,0.31953737139701843
1.5715155601501465,4.191662311553955,0.3239978849887848
1.5413788557052612,4.202624320983887,0.3267613649368286
1.5109652280807495,4.213453769683838,0.32933056354522705
1.4830142259597778,4.231428146362305,0.3324805796146393
1.4504417181015015,4.2342705726623535,0.3344239890575409
1.4233816862106323,4.251464366912842,0.3374868333339691
1.3977457284927368,4.27616024017334,0.3411251902580261
1.3645797967910767,4.27850341796875,0.3427899479866028
1.3441367149353027,4.321511268615723,0.34774160385131836
1.3077644109725952,4.312131881713867,0.3484792411327362
1.280944585800171,4.332181453704834,0.3515845537185669
1.2549580335617065,4.355816841125488,0.3549846112728119
1.2294363975524902,4.387194633483887,0.3588382303714752
1.193830966949463,4.380712509155273,0.3595940172672272
1.1664828062057495,4.404025554656982,0.36280903220176697
1.1376787424087524,4.419436931610107,0.3653663694858551
1.1049805879592896,4.419538974761963,0.36667400598526
1.0749155282974243,4.434812068939209,0.3690909445285797
1.0467844009399414,4.457393646240234,0.37205231189727783
1.0166592597961426,4.472204685211182,0.37438952922821045
0.9869439005851746,4.48668909072876,0.3767022490501404
0.9556745886802673,4.493312835693359,0.3783675730228424
0.7820032835006714,3.8096275329589844,0.32170695066452026
0.7519481778144836,3.7997024059295654,0.3215864300727844
0.7234927415847778,3.79719877243042,0.32210689783096313
0.8368892073631287,4.567913055419922,0.3883802890777588
0.8050716519355774,4.573511600494385,0.38975462317466736
0.7778522372245789,4.609683036804199,0.39377543330192566
0.7454468607902527,4.614931106567383,0.3949861228466034
0.7145949006080627,4.631529808044434,0.39707595109939575
0.6829792261123657,4.644071102142334,0.3988405466079712
0.6535664796829224,4.671788692474365,0.40192899107933044
0.6204891800880432,4.676201343536377,0.4030410349369049
0.5898888111114502,4.695756435394287,0.40546780824661255
0.5595696568489075,4.7229084968566895,0.4083164632320404
0.526315450668335,4.726659774780273,0.4091292917728424
0.4930361211299896,4.7301764488220215,0.4099421203136444
0.4626096189022064,4.760550498962402,0.4131019115447998
0.4296465814113617,4.7713823318481445,0.4145964980125427
0.39840877056121826,4.797454357147217,0.41740700602531433
0.3641818165779114,4.792324542999268,0.41723406314849854
0.3322373628616333,4.81800651550293,0.41976475715637207
0.29947009682655334,4.8357062339782715,0.42162299156188965
0.26602232456207275,4.853206634521484,0.4234912097454071
0.23275618255138397,4.866559028625488,0.4250142276287079
0.20013347268104553,4.899129390716553,0.4281720817089081
0.16611839830875397,4.908172130584717,0.4290357828140259
0.132246196269989,4.9247565269470215,0.4305799603462219
0.09779463708400726,4.956682205200195,0.43348994851112366
0.06337078660726547,4.961117267608643,0.43401503562927246
0.029093747958540916,5.000334739685059,0.4376054108142853
-0.005672412924468517,4.992625713348389,0.4370103180408478
-0.04052959382534027,5.015826225280762,0.43891093134880066
-0.07626713812351227,5.030990123748779,0.44012653827667236
-0.11159660667181015,5.045912265777588,0.44134393334388733
-0.1467980146408081,5.048916816711426,0.4415398836135864
-0.18218672275543213,5.0555644035339355,0.4420756697654724
-0.21762199699878693,5.061976909637451,0.4424843192100525
-0.2542351186275482,5.091482162475586,0.4447271525859833
-0.29256337881088257,5.13234281539917,0.4479729235172272
-0.27773362398147583,4.341861248016357,0.37872540950775146
-0.3048648536205292,4.2971625328063965,0.3745957016944885
-0.33471447229385376,4.294975757598877,0.3741922676563263
-0.36444568634033203,4.292601108551025,0.37365975975990295
-0.3923911452293396,4.266747951507568,0.370953768491745
-0.4164511561393738,4.209778308868408,0.3655754625797272
-0.4410160481929779,4.1642866134643555,0.3612203598022461
-0.4642670452594757,4.110904216766357,0.3562045991420746
-0.4872613251209259,4.061264991760254,0.3515392541885376
-0.5118086338043213,4.02692985534668,0.34806036949157715
-0.5337772369384766,3.980962038040161,0.3435090482234955
-0.5529636144638062,3.919466972351074,0.3376484513282776
-0.5742596983909607,3.87713623046875,0.33346664905548096
-0.5940755009651184,3.8269643783569336,0.3286326825618744
-0.6199594736099243,3.815045118331909,0.32709744572639465
-0.6364237070083618,3.75321626663208,0.3211228847503662
-0.6567232012748718,3.7181921005249023,0.31742143630981445
-0.674462616443634,3.6715800762176514,0.31275928020477295
-0.6954227685928345,3.643983840942383,0.30973896384239197
-0.7162138223648071,3.6162378787994385,0.3067243993282318
-0.7347092032432556,3.5768580436706543,0.30272766947746277
-0.7477378845214844,3.5185625553131104,0.2969735264778137
-0.7717333436012268,3.513482093811035,0.2957359254360199
-0.7896661162376404,3.4816598892211914,0.29226720333099365
-0.803100049495697,3.4307243824005127,0.2872130274772644
-0.8255030512809753,3.417497396469116,0.2853254973888397
-0.8424453139305115,3.385390281677246,0.281812846660614
-0.8576584458351135,3.349541187286377,0.27788856625556946
-0.8704729676246643,3.3061013221740723,0.27336499094963074
-0.8909671902656555,3.2926855087280273,0.2713453471660614
-0.9048874378204346,3.252643346786499,0.2671208679676056
-0.9232364296913147,3.2314016819000244,0.26448336243629456
-0.938621997833252,3.202751874923706,0.26109597086906433
-0.9558154940605164,3.1815288066864014,0.25831034779548645
-0.9693269729614258,3.1490514278411865,0.25463637709617615
-0.9867671132087708,3.1274280548095703,0.25182631611824036
-0.9989008903503418,3.0909712314605713,0.2478616088628769
-1.0176395177841187,3.076780080795288,0.24562856554985046
-1.038346529006958,3.069990634918213,0.2439131736755371
-1.0450066328048706,3.0225636959075928,0.23899556696414948
-1.0656741857528687,3.015474796295166,0.2372756153345108
-1.0790520906448364,2.986011505126953,0.23377585411071777
-1.088855504989624,2.949388027191162,0.22972744703292847
-1.101754903793335,2.923931121826172,0.226443350315094
-1.1017776727676392,2.865701913833618,0.2206621617078781
-1.1155409812927246,2.8437793254852295,0.21769945323467255
-1.1357311010360718,2.835923671722412,0.21577227115631104
-1.1509456634521484,2.8173041343688965,0.21304252743721008
-1.1518511772155762,2.76649808883667,0.20779746770858765
-1.1323415040969849,2.6691641807556152,0.19913437962532043
-1.1380796432495117,2.632934331893921,0.19508253037929535
-1.155112862586975,2.621394634246826,0.1928299367427826
-1.1746537685394287,2.6171152591705322,0.19110484421253204
-1.1984666585922241,2.6235976219177246,0.1900705099105835
-1.2191301584243774,2.6228089332580566,0.18850556015968323
-1.2370833158493042,2.6145431995391846,0.18635718524456024
-1.2691794633865356,2.63393497467041,0.1861143708229065
-1.2835559844970703,2.618438720703125,0.1833481639623642
-1.2869974374771118,2.5821053981781006,0.1791117787361145
-1.2847832441329956,2.5353763103485107,0.1741999238729477
-1.2916676998138428,2.5057449340820312,0.1704367995262146
-1.3016353845596313,2.4831430912017822,0.16716325283050537
-1.3108558654785156,2.460791826248169,0.16381624341011047
-1.3232519626617432,2.4454407691955566,0.16099123656749725
-1.3381767272949219,2.433018684387207,0.15828394889831543
-1.3475406169891357,2.4101505279541016,0.1548887938261032
-1.3517518043518066,2.3810811042785645,0.15103396773338318
-1.3636881113052368,2.3654282093048096,0.1480240374803543
-1.3759289979934692,2.3494575023651123,0.14495405554771423
-1.4082212448120117,2.3667995929718018,0.14388401806354523
-1.4155093431472778,2.34440541267395,0.14031803607940674
-1.4184887409210205,2.315359592437744,0.13639132678508759
-1.4306867122650146,2.2988295555114746,0.1330433040857315
-1.4379476308822632,2.2760238647460938,0.12935011088848114
-1.4462810754776,2.2570133209228516,0.12584638595581055
-1.4654978513717651,2.25406551361084,0.12317370623350143
-1.4726498126983643,2.2308926582336426,0.1192730963230133
-1.4568346738815308,2.175971031188965,0.11364496499300003
-1.4927743673324585,2.1989734172821045,0.11212533712387085
-1.490323543548584,2.1629960536956787,0.10738557577133179
-1.5041799545288086,2.1535513401031494,0.103960320353508
-1.4975329637527466,2.1154439449310303,0.09915172308683395
-1.5193836688995361,2.114419937133789,0.09575242549180984
-1.5119447708129883,2.0766069889068604,0.09073109924793243
-1.5208691358566284,2.060551404953003,0.08654932677745819
-1.4844779968261719,2.077834129333496,-0.07319553196430206
-1.5065553188323975,2.143381357192993,-0.07962580770254135
-1.4958332777023315,2.1602251529693604,-0.08401258289813995
-1.4883970022201538,2.184114933013916,-0.08866840600967407
-1.489568829536438,2.220853567123413,-0.09380769729614258
-1.4694631099700928,2.2246909141540527,-0.09739705175161362
-1.448020100593567,2.2292282581329346,-0.10104764252901077
-1.4444994926452637,2.259188652038574,-0.10565752536058426
-1.4283127784729004,2.2692859172821045,-0.1092652827501297
-1.425659418106079,2.3029706478118896,-0.11403258889913559
-1.405024528503418,2.306307792663574,-0.11719733476638794
-1.400382161140442,2.3362925052642822,-0.12170127779245377
-1.394905924797058,2.366603374481201,-0.12619544565677643
-1.3816680908203125,2.383200168609619,-0.1299256831407547
-1.3688310384750366,2.399405002593994,-0.13356369733810425
-1.3396834135055542,2.38881516456604,-0.13565582036972046
-1.3217493295669556,2.398597478866577,-0.13892801105976105
-1.3161640167236328,2.42814564704895,-0.14318343997001648
-1.306162714958191,2.4510536193847656,-0.14706113934516907
-1.2936629056930542,2.47070574760437,-0.15074469149112701
-1.2830721139907837,2.493595838546753,-0.15461063385009766
-1.2723170518875122,2.5164060592651367,-0.158493310213089
-1.2713971138000488,2.560302257537842,-0.1636517494916916
-1.2680673599243164,2.600865364074707,-0.168654665350914
-1.2395458221435547,2.588473320007324,-0.17016805708408356
-1.2131491899490356,2.579233407974243,-0.1718333214521408
-1.2058627605438232,2.6125526428222656,-0.17626971006393433
-1.1897964477539062,2.6282777786254883,-0.17959243059158325
-1.160201072692871,2.6114561557769775,-0.18058368563652039
-1.1715363264083862,2.687203884124756,-0.18799926340579987
-1.1429511308670044,2.6738839149475098,-0.18912257254123688
-1.152274250984192,2.7501683235168457,-0.1966293454170227
-1.1413723230361938,2.7798144817352295,-0.20087413489818573
-1.1378940343856812,2.827314615249634,-0.2064109891653061
-1.1161341667175293,2.8315985202789307,-0.20871329307556152
-1.1167480945587158,2.8939106464385986,-0.21533092856407166
-1.1045054197311401,2.9234201908111572,-0.2195357233285904
-1.0905262231826782,2.949249029159546,-0.22350481152534485
-1.0748927593231201,2.9713733196258545,-0.22709140181541443
-1.061448335647583,3.0008230209350586,-0.23122060298919678
-1.042638897895813,3.0154669284820557,-0.2342308908700943
-1.0352996587753296,3.0630745887756348,-0.23980793356895447
-1.0133572816848755,3.0702130794525146,-0.2422366738319397
-1.00099515914917,3.1068406105041504,-0.2468673586845398
-0.9787920713424683,3.1137237548828125,-0.24916565418243408
-0.9729740619659424,3.172443389892578,-0.25561821460723877
-0.9508340358734131,3.1789650917053223,-0.257900208234787
-0.9381340146064758,3.219085454940796,-0.2627832889556885
-0.9212254285812378,3.2480807304382324,-0.26679477095603943
-0.9003309011459351,3.261838674545288,-0.2695465683937073
-0.881624698638916,3.2828993797302246,-0.2729039490222931
-0.8674920201301575,3.322718858718872,-0.2778046429157257
-0.8496584296226501,3.3512659072875977,-0.2816430628299713
-0.8292157649993896,3.3722546100616455,-0.2849007248878479
-0.8109886646270752,3.400538444519043,-0.2887645959854126
-0.7916692495346069,3.424903392791748,-0.29231923818588257
-0.7726982831954956,3.4530162811279297,-0.29608166217803955
-0.7581745982170105,3.5038914680480957,-0.301739901304245
-0.7401686310768127,3.5433802604675293,-0.30648425221443176
-0.7216100096702576,3.578824758529663,-0.31087934970855713
-0.701137363910675,3.6065311431884766,-0.31463560461997986
-0.686470627784729,3.6686229705810547,-0.3212193548679352
-0.6633805632591248,3.6885502338409424,-0.32411763072013855
-0.6416226029396057,3.7199041843414307,-0.3280677795410156
-0.6220165491104126,3.7625434398651123,-0.33302071690559387
-0.5994246006011963,3.7897119522094727,-0.3366106152534485
-0.5791729092597961,3.836038827896118,-0.3416680693626404
-0.5599281191825867,3.893822431564331,-0.3477877974510193
-0.5368979573249817,3.932291269302368,-0.3522352874279022
-0.5145208239555359,3.9743995666503906,-0.35702070593833923
-0.49196916818618774,4.020262718200684,-0.3621002435684204
-0.46735039353370667,4.05443811416626,-0.365928590297699
-0.44391530752182007,4.103938102722168,-0.3711734712123871
-0.41877618432044983,4.141678333282471,-0.3753845989704132
-0.3931027352809906,4.183173179626465,-0.37997978925704956
-0.35989901423454285,4.139217376708984,-0.3766876757144928
-0.3347153067588806,4.188096523284912,-0.38165736198425293
-0.30854737758636475,4.232944965362549,-0.3862902522087097
-0.2713562548160553,4.118474960327148,-0.37639153003692627
-0.24126429855823517,4.1046929359436035,-0.37570467591285706
-0.21223410964012146,4.098453998565674,-0.37555450201034546
-0.18325838446617126,4.092029094696045,-0.37523308396339417
-0.15497030317783356,4.100947380065918,-0.37633708119392395
-0.12739181518554688,4.132994651794434,-0.3795836269855499
-0.11669014394283295,4.915397644042969,-0.4518333375453949
-0.08238079398870468,4.908289909362793,-0.4513576030731201
-0.04804248362779617,4.8931803703308105,-0.44998636841773987
-0.01398293487727642,4.885611057281494,-0.44933027029037476
0.01996898464858532,4.877805233001709,-0.44867387413978577
0.0541820302605629,4.850308895111084,-0.44622913002967834
0.08789819478988647,4.849832534790039,-0.44604405760765076
0.12101290374994278,4.825803279876709,-0.44356468319892883
0.15425458550453186,4.817101955413818,-0.44251763820648193
0.18711966276168823,4.800395965576172,-0.4407574236392975
0.2211882472038269,4.814554214477539,-0.44185230135917664
0.2527328133583069,4.766312122344971,-0.43697452545166016
0.2850669026374817,4.752861976623535,-0.4351921081542969
0.31800615787506104,4.750837326049805,-0.43447810411453247
0.3486779034137726,4.717544078826904,-0.43092817068099976
0.3808252513408661,4.707317352294922,-0.4295094311237335
0.4126627445220947,4.689103603363037,-0.4270957410335541
0.4428883492946625,4.662997245788574,-0.42390355467796326
0.47470593452453613,4.656052112579346,-0.4224793314933777
0.507108747959137,4.6527323722839355,-0.42139923572540283
0.5359007716178894,4.618269920349121,-0.41752398014068604
0.5665461421012878,4.599057197570801,-0.41472578048706055
0.5983328819274902,4.595160484313965,-0.4132823348045349
0.6290345191955566,4.583333492279053,-0.41114720702171326
0.6586837768554688,4.563571453094482,-0.40831899642944336
0.6852136254310608,4.524375915527344,-0.4037819504737854
0.7194408774375916,4.53497838973999,-0.403375506401062
0.7507520318031311,4.530057907104492,-0.401603639125824
0.7780529260635376,4.5019121170043945,-0.39779865741729736
0.8051894307136536,4.47357177734375,-0.39400097727775574
0.7002058029174805,3.7412092685699463,-0.3284088969230652
0.7274021506309509,3.7440991401672363,-0.32733872532844543
0.753601610660553,3.7390682697296143,-0.3255652189254761
0.802488386631012,3.844416856765747,-0.33339715003967285
0.9517201781272888,4.40578031539917,-0.38054442405700684
0.9839876890182495,4.406850337982178,-0.37902653217315674
1.0143142938613892,4.400175094604492,-0.37662944197654724
1.0432995557785034,4.385598659515381,-0.37354692816734314
1.0708792209625244,4.367125988006592,-0.37017789483070374
1.1012922525405884,4.359760761260986,-0.3677622675895691
1.131395936012268,4.352261543273926,-0.36520108580589294
1.1551977396011353,4.322051525115967,-0.36063358187675476
1.1832860708236694,4.306596755981445,-0.35729286074638367
1.2132257223129272,4.298482418060303,-0.3545891046524048
1.238808512687683,4.275187015533447,-0.3506550192832947
1.2725368738174438,4.28176212310791,-0.3489474952220917
1.2972619533538818,4.258295059204102,-0.34477168321609497
1.322365403175354,4.234492301940918,-0.3405512869358063
1.349472165107727,4.217994689941406,-0.33695489168167114
1.3786375522613525,4.208795070648193,-0.3339003920555115
1.4011352062225342,4.181077480316162,-0.32922810316085815
1.429600477218628,4.1716814041137695,-0.32602763175964355
1.4610650539398193,4.169276714324951,-0.32334238290786743
1.4774720668792725,4.122385501861572,-0.31718209385871887
1.5163953304290771,4.141697406768799,-0.31601253151893616
1.536383032798767,4.109638690948486,-0.3108827471733093
1.5644949674606323,4.099281311035156,-0.3074083924293518
1.5930335521697998,4.0885396003723145,-0.3038722276687622
1.6102172136306763,4.048540115356445,-0.2980802655220032
1.6376250982284546,4.037800312042236,-0.2944128215312958
1.6620116233825684,4.019656658172607,-0.29022106528282166
1.6959623098373413,4.022645950317383,-0.2874947190284729
1.9686529636383057,4.580435752868652,-0.32398492097854614
2.0298054218292236,4.634961128234863,-0.3241773545742035
2.0562939643859863,4.61078405380249,-0.3188996911048889
2.0928778648376465,4.607461929321289,-0.315002977848053
2.1249632835388184,4.593071460723877,-0.3103142976760864
2.1509759426116943,4.568344593048096,-0.3047903776168823
2.1821835041046143,4.5538458824157715,-0.2998879551887512
2.2168354988098145,4.546079635620117,-0.29542097449302673
2.2415502071380615,4.516860008239746,-0.2895205020904541
2.275444746017456,4.5089430809021,-0.28487783670425415
2.310908079147339,4.5043463706970215,-0.2804250121116638
2.341832399368286,4.48867130279541,-0.27516990900039673
2.3883471488952637,4.499786853790283,-0.2713943123817444
1.736946940422058,3.22054123878479,-0.19100530445575714
