X,Y,Z
-1.2783557176589966,2.5984413623809814,-0.12185950577259064
-1.2471872568130493,2.5831422805786133,-0.12279684841632843
-1.2288964986801147,2.591798782348633,-0.12478753179311752
-1.2108170986175537,2.6001992225646973,-0.1267487108707428
-1.2001068592071533,2.626533031463623,-0.12954123318195343
-1.1970187425613403,2.6706666946411133,-0.13324205577373505
-1.159286618232727,2.636091709136963,-0.13298116624355316
-1.1683919429779053,2.7086384296417236,-0.13814905285835266
-1.1626026630401611,2.7492027282714844,-0.14164745807647705
-1.1547054052352905,2.786252498626709,-0.14499248564243317
-1.1378628015518188,2.8015012741088867,-0.14720503985881805
-1.1269501447677612,2.831024408340454,-0.15016688406467438
-1.122017502784729,2.878995895385742,-0.15410636365413666
-1.1096349954605103,2.9087629318237305,-0.1570514291524887
-1.0970408916473389,2.938438892364502,-0.1600096970796585
-1.0792045593261719,2.95324969291687,-0.16214898228645325
-1.072864055633545,3.0010745525360107,-0.16609637439250946
-1.0509841442108154,3.0087130069732666,-0.16778729856014252
-1.039488434791565,3.045603036880493,-0.17110976576805115
-1.0243295431137085,3.0712087154388428,-0.17379708588123322
-1.0126105546951294,3.107834815979004,-0.17712894082069397
-0.9905447363853455,3.114849090576172,-0.17869289219379425
-0.9725539684295654,3.1367599964141846,-0.18112586438655853
-0.9593508243560791,3.173344612121582,-0.18440422415733337
-0.9427093267440796,3.1985738277435303,-0.18703213334083557
-0.9288839101791382,3.2350008487701416,-0.1903076022863388
-0.914267361164093,3.2714850902557373,-0.19350440800189972
-0.8930136561393738,3.285348892211914,-0.19538632035255432
-0.8744871020317078,3.3104140758514404,-0.1979578733444214
-0.8611045479774475,3.354111909866333,-0.20164406299591064
-0.8393564224243164,3.367577075958252,-0.20345599949359894
-0.8228011131286621,3.403684377670288,-0.2065875381231308
-0.8013289570808411,3.4207403659820557,-0.2085847109556198
-0.7787646055221558,3.4338650703430176,-0.21035918593406677
-0.7648787498474121,3.484825372695923,-0.21445822715759277
-0.7524690628051758,3.5472638607025146,-0.21917057037353516
-0.7321213483810425,3.5753307342529297,-0.22174780070781708
-0.7129253149032593,3.6109349727630615,-0.2248162031173706
-0.6924100518226624,3.642636299133301,-0.2276708483695984
-0.6726540327072144,3.677975654602051,-0.23076187074184418
-0.654192328453064,3.7247917652130127,-0.23442408442497253
-0.6318380832672119,3.752309560775757,-0.23687656223773956
-0.6116426587104797,3.7950856685638428,-0.2403150349855423
-0.5888980627059937,3.826230525970459,-0.24304726719856262
-0.5690413117408752,3.876459836959839,-0.2470051348209381
-0.5482596158981323,3.9266419410705566,-0.2507844865322113
-0.5242341756820679,3.957397699356079,-0.2533411681652069
-0.5012926459312439,3.999607563018799,-0.2566528022289276
-0.48039188981056213,4.061006546020508,-0.2612161636352539
-0.4551439881324768,4.09523868560791,-0.2640698254108429
-0.43252602219581604,4.156441688537598,-0.26845669746398926
-0.4079795181751251,4.205881595611572,-0.2721056342124939
-0.38101670145988464,4.235766410827637,-0.2745107114315033
-0.3502615690231323,4.2227325439453125,-0.27414655685424805
-0.31948211789131165,4.213403224945068,-0.2740418314933777
-0.2929767966270447,4.258281707763672,-0.2772518992424011
-0.3108040690422058,5.0305352210998535,-0.3278818130493164
-0.27393460273742676,5.001415252685547,-0.3263467848300934
-0.23836366832256317,4.9875946044921875,-0.3258211016654968
-0.203060582280159,4.989124298095703,-0.3263193666934967
-0.1682528853416443,4.990405082702637,-0.32654231786727905
-0.13284924626350403,4.968064308166504,-0.32520726323127747
-0.09810634702444077,4.964960098266602,-0.32514673471450806
-0.06335155665874481,4.949919700622559,-0.3243193030357361
-0.028109299018979073,4.919048309326172,-0.32247194647789
0.006126158870756626,4.911332130432129,-0.3219234049320221
0.040191054344177246,4.895584583282471,-0.3208189606666565
0.07415525615215302,4.887396812438965,-0.3202258348464966
0.10748986899852753,4.859490871429443,-0.3183566629886627
0.14100679755210876,4.850840091705322,-0.31776461005210876
0.17495951056480408,4.841951847076416,-0.3169628083705902
0.2075061798095703,4.8172807693481445,-0.3150760233402252
0.24010881781578064,4.800177574157715,-0.3137015104293823
0.2726113796234131,4.782847881317139,-0.312328040599823
0.304635614156723,4.761408805847168,-0.31070297956466675
0.337144136428833,4.743620872497559,-0.3091535270214081
0.3681783676147461,4.717894077301025,-0.3070225119590759
0.4001932144165039,4.7075018882751465,-0.30590713024139404
0.4307771921157837,4.68135404586792,-0.3037838935852051
0.4633219838142395,4.678284645080566,-0.30317503213882446
0.49542874097824097,4.6672043800354,-0.30189618468284607
0.5263476371765137,4.652105331420898,-0.3002777099609375
0.5575465559959412,4.64067268371582,-0.2989128828048706
0.586807370185852,4.613542079925537,-0.29655224084854126
0.6188709735870361,4.609405517578125,-0.2956862449645996
0.64913010597229,4.5895586013793945,-0.29368382692337036
0.679608166217804,4.577332973480225,-0.2920953929424286
0.7057546973228455,4.537938594818115,-0.28879448771476746
0.734714925289154,4.517610549926758,-0.2867245078086853
0.7661155462265015,4.512461185455322,-0.28563249111175537
0.7945669889450073,4.491779327392578,-0.28344133496284485
0.8217736482620239,4.463181972503662,-0.2806462049484253
0.7176916599273682,3.7528858184814453,-0.23517407476902008
0.7467718720436096,3.763179063796997,-0.23500952124595642
0.792590320110321,3.853435754776001,-0.23982439935207367
0.9434317350387573,4.431427955627441,-0.2747246026992798
0.9702093601226807,4.405778884887695,-0.2719695568084717
1.0064942836761475,4.425722599029541,-0.2720612585544586
1.0336356163024902,4.403539657592773,-0.26956072449684143
1.0578022003173828,4.369813442230225,-0.26637598872184753
1.0915789604187012,4.377679824829102,-0.26559194922447205
1.1162244081497192,4.347416877746582,-0.26242658495903015
1.1419531106948853,4.324703693389893,-0.2597646713256836
1.1740916967391968,4.324278831481934,-0.2584325969219208
1.2020878791809082,4.308589935302734,-0.25620076060295105
1.2272484302520752,4.285381317138672,-0.25337105989456177
1.2570122480392456,4.276863098144531,-0.2513822317123413
1.2795805931091309,4.245845317840576,-0.24810980260372162
1.309138536453247,4.236940860748291,-0.2461266666650772
1.3361647129058838,4.220430850982666,-0.24368250370025635
1.3612908124923706,4.20021915435791,-0.24088622629642487
1.390389084815979,4.190801620483398,-0.2386961281299591
1.4192214012145996,4.181249618530273,-0.2365211397409439
1.4456957578659058,4.164036273956299,-0.2339118868112564
1.4690219163894653,4.139438152313232,-0.2308202087879181
1.4970324039459229,4.129519939422607,-0.2284945845603943
1.5249755382537842,4.119410991668701,-0.22616888582706451
1.551337718963623,4.101347923278809,-0.2233414649963379
1.5826798677444458,4.097851276397705,-0.22134341299533844
1.6103876829147339,4.087177753448486,-0.21881859004497528
1.6292946338653564,4.05459451675415,-0.2151411771774292
1.651158332824707,4.029013633728027,-0.21183672547340393
1.6856966018676758,4.031744956970215,-0.20996655523777008
1.7223232984542847,4.04183292388916,-0.20843146741390228
2.0089662075042725,4.628026485443115,-0.23624524474143982
2.0544815063476562,4.646585464477539,-0.23474839329719543
2.080390453338623,4.618092060089111,-0.2308076024055481
2.112699508666992,4.603565692901611,-0.2274867296218872
2.1419031620025635,4.58590841293335,-0.2239817976951599
2.1743462085723877,4.575098514556885,-0.2208186239004135
2.204402446746826,4.55652379989624,-0.21719972789287567
2.228874683380127,4.527373313903809,-0.21306994557380676
2.2630410194396973,4.519291400909424,-0.20980943739414215
2.2931392192840576,4.5042572021484375,-0.20628011226654053
2.3297953605651855,4.498764991760254,-0.2030697911977768
2.3716282844543457,4.503504753112793,-0.20027679204940796
1.7348474264144897,3.241952419281006,-0.14194366335868835
1.7564343214035034,3.2304275035858154,-0.13920080661773682
1.7358092069625854,3.1394689083099365,-0.13296306133270264
1.7417538166046143,3.1005215644836426,-0.1290280669927597
1.7950468063354492,3.1467278003692627,-0.1285872906446457
1.3327938318252563,2.300344705581665,-0.09222698211669922
1.3111720085144043,2.2271604537963867,-0.0875047966837883
0.9595829248428345,1.6051115989685059,-0.06172037869691849
0.9741648435592651,1.6055039167404175,-0.06040339171886444
0.9790972471237183,1.5888200998306274,-0.05838074907660484
0.9960120916366577,1.5921653509140015,-0.0570828840136528
1.0021648406982422,1.5791175365447998,-0.05518713593482971
1.0214781761169434,1.5853664875030518,-0.053877245634794235
1.0130764245986938,1.5489826202392578,-0.05111479014158249
1.0316938161849976,1.5554803609848022,-0.04977305978536606
1.044278621673584,1.5518269538879395,-0.048032913357019424
1.0482381582260132,1.5350478887557983,-0.04583078622817993
2.5543477535247803,3.6890029907226562,-0.10597028583288193
2.5881543159484863,3.6846072673797607,-0.10148866474628448
2.617121934890747,3.6738176345825195,-0.09666584432125092
2.631114959716797,3.6446874141693115,-0.09136281907558441
2.6125731468200684,3.5665535926818848,-0.08446482568979263
2.669806957244873,3.597264051437378,-0.08014794439077377
2.6341395378112793,3.6941463947296143,0.1329716295003891
2.603302001953125,3.706204414367676,0.1381818950176239
2.5699563026428223,3.7197113037109375,0.14338582754135132
1.0651079416275024,1.5655443668365479,0.062165241688489914
1.0535964965820312,1.5732322931289673,0.06421434134244919
1.0285903215408325,1.561637282371521,0.06544335186481476
1.0343570709228516,1.5950959920883179,0.06845565885305405
1.0142472982406616,1.5893855094909668,0.06974201649427414
0.9938580393791199,1.5837290287017822,0.07099425792694092
0.980538010597229,1.5873467922210693,0.07255429774522781
0.9792643189430237,1.610938549041748,0.07500771433115005
0.9588848352432251,1.6049118041992188,0.07608819752931595
1.3308173418045044,2.264542818069458,0.10917266458272934
1.3384475708007812,2.314199447631836,0.1133328452706337
1.801583170890808,3.1686885356903076,0.15749938786029816
1.7569713592529297,3.1444098949432373,0.15856872498989105
1.7550071477890015,3.1944289207458496,0.163309708237648
1.7566176652908325,3.251178741455078,0.1683802753686905
1.7617685794830322,3.319098949432373,0.17401374876499176
2.3594541549682617,4.525595664978027,0.24014630913734436
2.3241236209869385,4.534883499145508,0.24335816502571106
2.2880806922912598,4.544245719909668,0.24659302830696106
2.2648940086364746,4.581784725189209,0.2512173652648926
2.2345001697540283,4.605167388916016,0.25509220361709595
2.195326566696167,4.606503486633301,0.25764042139053345
2.163175106048584,4.621503829956055,0.26093390583992004
2.132688283920288,4.644060134887695,0.26449087262153625
2.094855785369873,4.652510166168213,0.26728305220603943
2.0678491592407227,4.681461811065674,0.27117884159088135
2.0258877277374268,4.674101829528809,0.27292415499687195
1.743913173675537,4.103085994720459,0.24141547083854675
1.711045265197754,4.10830545425415,0.2434791475534439
1.680590271949768,4.120706558227539,0.24601076543331146
1.651698350906372,4.132229328155518,0.24840547144412994
1.6227961778640747,4.143520832061768,0.2507944107055664
1.5901179313659668,4.147681713104248,0.25260791182518005
1.565445065498352,4.173585414886475,0.25573116540908813
1.5374661684036255,4.192142486572266,0.25844264030456543
1.5109034776687622,4.209943771362305,0.2610441744327545
1.479000449180603,4.212859153747559,0.2627352774143219
1.4512077569961548,4.230635166168213,0.26518550515174866
1.4257272481918335,4.255617618560791,0.26810213923454285
1.3922700881958008,4.258349418640137,0.2696518898010254
1.3672995567321777,4.282685279846191,0.2725261151790619
1.337378740310669,4.291999340057373,0.27446407079696655
1.3111240863800049,4.316280841827393,0.2771960496902466
1.2800730466842651,4.325477123260498,0.2789683938026428
1.2501168251037598,4.338172912597656,0.2809787690639496
1.2235645055770874,4.361822128295898,0.28370410203933716
1.1931579113006592,4.370124816894531,0.28542912006378174
1.1661479473114014,4.393442630767822,0.2879907190799713
1.1347370147705078,4.401559829711914,0.2895224392414093
1.107054352760315,4.4245781898498535,0.29205259680747986
1.0773879289627075,4.439817428588867,0.294085294008255
1.0500208139419556,4.462289810180664,0.29659485816955566
1.0152297019958496,4.454248428344727,0.2969968020915985
0.9868777990341187,4.476497173309326,0.29929977655410767
0.9583041667938232,4.498558044433594,0.30160975456237793
0.783942461013794,3.814177989959717,0.2564515471458435
0.752835750579834,3.7965285778045654,0.25597625970840454
0.7278649210929871,3.8092594146728516,0.2575589418411255
0.8311813473701477,4.523441791534424,0.3065124452114105
0.8038751482963562,4.556009769439697,0.3093874752521515
0.7749131321907043,4.584670066833496,0.3120326101779938
0.745377242565155,4.605287075042725,0.31412965059280396
0.7132985591888428,4.610292434692383,0.31517747044563293
0.6810302138328552,4.615103721618652,0.31613993644714355
0.650617241859436,4.635176181793213,0.3180088400840759
0.6209402084350586,4.66671085357666,0.3206934332847595
0.5900388956069946,4.686374664306641,0.3225729465484619
0.5574268698692322,4.690310001373291,0.3233812749385834
0.525654673576355,4.70176362991333,0.32472455501556396
0.4959568977355957,4.736292362213135,0.3275139629840851
0.4626685082912445,4.739620208740234,0.3280893564224243
0.4312411844730377,4.769933223724365,0.3305574059486389
0.39855828881263733,4.7805562019348145,0.33167168498039246
0.36707961559295654,4.8064866065979,0.33386483788490295
0.3347686231136322,4.824429988861084,0.3355221152305603
0.30099987983703613,4.82663106918335,0.3358628451824188
0.26881644129753113,4.86753511428833,0.3389052152633667
0.2349245399236679,4.873167037963867,0.3395071029663086
0.20191775262355804,4.898024082183838,0.3414652347564697
0.16809207201004028,4.907076358795166,0.34233924746513367
0.13456135988235474,4.931479454040527,0.34426093101501465
0.09970727562904358,4.940097332000732,0.3448835611343384
0.06544358283281326,4.9562530517578125,0.3460492491722107
0.03093503601849079,4.968273639678955,0.3469432294368744
-0.003690373618155718,4.983950138092041,0.34810972213745117
-0.038601912558078766,5.014971733093262,0.35036543011665344
-0.07425016164779663,5.022366046905518,0.3508896231651306
-0.10931458324193954,5.029534339904785,0.35124078392982483
-0.14453327655792236,5.0364556312561035,0.3515910506248474
-0.1800801306962967,5.050920486450195,0.3524845242500305
-0.2153884768486023,5.053452014923096,0.35256168246269226
-0.25165441632270813,5.075199127197266,0.3539961576461792
-0.2916237711906433,5.147243499755859,0.35880210995674133
-0.27605560421943665,4.340113162994385,0.30226483941078186
-0.3019452691078186,4.279819488525391,0.2978098690509796
-0.33036988973617554,4.262112617492676,0.29633647203445435
-0.36193081736564636,4.283041477203369,0.29756253957748413
-0.391518235206604,4.272639751434326,0.29662153124809265
-0.41526341438293457,4.211701393127441,0.2920318841934204
-0.4393519163131714,4.1622772216796875,0.28820785880088806
-0.4623437821865082,4.108850479125977,0.2841293215751648
-0.4852050542831421,4.059159755706787,0.28032994270324707
-0.5084932446479797,4.013141632080078,0.2767980992794037
-0.5311955213546753,3.9709246158599854,0.27355483174324036
-0.5524765849113464,3.9247853755950928,0.269865483045578
-0.5725693702697754,3.874688148498535,0.26592183113098145
-0.5955776572227478,3.847609758377075,0.2635793387889862
-0.6158427000045776,3.8010470867156982,0.25991004705429077
-0.6357595920562744,3.758296012878418,0.2565307319164276
-0.6563593745231628,3.7231509685516357,0.2536408007144928
-0.6768984794616699,3.691801071166992,0.25088223814964294
-0.6948519349098206,3.648857831954956,0.24735844135284424
-0.7130402326583862,3.60965895652771,0.24411123991012573
-0.7323058843612671,3.5740394592285156,0.24110949039459229
-0.7490378618240356,3.5307960510253906,0.23762701451778412
-0.7624413371086121,3.4761340618133545,0.2332969456911087
-0.7861158847808838,3.4709274768829346,0.2322443574666977
-0.8026923537254333,3.435185194015503,0.2291644960641861
-0.820315420627594,3.403028964996338,0.2263290286064148
-0.8382745385169983,3.374624729156494,0.2237696349620819
-0.8577654957771301,3.353700876235962,0.22171112895011902
-0.8765420317649841,3.3327996730804443,0.21952372789382935
-0.889958381652832,3.2929892539978027,0.21611376106739044
-0.9084848761558533,3.2718236446380615,0.2139352709054947
-0.9269739985466003,3.2504987716674805,0.21175645291805267
-0.9408292174339294,3.2141077518463135,0.2086172252893448
-0.9560322761535645,3.1852855682373047,0.20588919520378113
-0.9741511344909668,3.1676409244537354,0.20384898781776428
-0.9819005727767944,3.1163125038146973,0.19965100288391113
-1.0057519674301147,3.116976261138916,0.19880418479442596
-1.0151793956756592,3.0729658603668213,0.19511784613132477
-1.0300544500350952,3.0475258827209473,0.19258107244968414
-1.0505605936050415,3.0406081676483154,0.19114598631858826
-1.0632307529449463,3.0114901065826416,0.18833112716674805
-1.078858733177185,2.98944091796875,0.18594732880592346
-1.0942312479019165,2.9673190116882324,0.18357785046100616
-1.1022838354110718,2.9269540309906006,0.18006916344165802
-1.1107256412506104,2.8904576301574707,0.1767287254333496
-1.115856409072876,2.8467259407043457,0.17298004031181335
-1.132655143737793,2.831779956817627,0.17096984386444092
-1.144974946975708,2.8058645725250244,0.16831012070178986
-1.1552287340164185,2.776423692703247,0.16543260216712952
-1.1646064519882202,2.747199058532715,0.16252374649047852
-1.1381020545959473,2.6355998516082764,0.15480077266693115
-1.156422734260559,2.6277079582214355,0.15317417681217194
-1.174709439277649,2.619678497314453,0.1515456587076187
-1.2054471969604492,2.640120267868042,0.15149767696857452
-1.2048969268798828,2.593228340148926,0.14754733443260193
-1.2371017932891846,2.617006778717041,0.14762946963310242
-1.2725143432617188,2.6434414386749268,0.1477515548467636
-1.2806460857391357,2.6135714054107666,0.1447443962097168
-1.271862268447876,2.5527384281158447,0.13997530937194824
-1.281713604927063,2.530426025390625,0.13736023008823395
-1.2988590002059937,2.521770477294922,0.13546787202358246
-1.2982279062271118,2.4782323837280273,0.13169553875923157
-1.307748794555664,2.4556567668914795,0.1289927214384079
-1.3219577074050903,2.4437034130096436,0.12686167657375336
-1.330697774887085,2.4212610721588135,0.12417679280042648
-1.3437381982803345,2.405217409133911,0.1217689961194992
-1.3522286415100098,2.3826262950897217,0.11900816857814789
-1.3797436952590942,2.3939707279205322,0.11787465214729309
-1.3956718444824219,2.3848249912261963,0.11571969091892242
-1.4122666120529175,2.3751442432403564,0.11346554756164551
-1.4119294881820679,2.3390543460845947,0.10993655771017075
-1.4230217933654785,2.3232784271240234,0.10737340897321701
-1.4307135343551636,2.3002915382385254,0.10439228266477585
-1.4383245706558228,2.2772018909454346,0.10140398144721985
-1.4424118995666504,2.2515761852264404,0.09827512502670288
-1.4527084827423096,2.235745668411255,0.09558442234992981
-1.4811896085739136,2.2452051639556885,0.09380826354026794
-1.496185064315796,2.2353503704071045,0.09113333374261856
-1.4885002374649048,2.193556070327759,0.08721741288900375
-1.5080270767211914,2.1897757053375244,0.08466270565986633
-1.4843424558639526,2.125535488128662,0.0797841027379036
-1.4886584281921387,2.1035122871398926,0.07655539363622665
-1.5034736394882202,2.0930593013763428,0.07346975803375244
-1.5029621124267578,2.064621686935425,0.06978560239076614
-1.5162559747695923,2.0549826622009277,0.06665264070034027
-1.5233724117279053,2.132021188735962,-0.06289292871952057
-1.5068325996398926,2.143632411956787,-0.06653840094804764
-1.5002939701080322,2.167130947113037,-0.07033777981996536
-1.4799736738204956,2.1715049743652344,-0.07342278212308884
-1.4679762125015259,2.1889302730560303,-0.07691720128059387
-1.4740991592407227,2.231647253036499,-0.0811634510755539
-1.4526619911193848,2.2362375259399414,-0.08409900963306427
-1.4446017742156982,2.2598941326141357,-0.08763139694929123
-1.428739309310913,2.2698428630828857,-0.09051428735256195
-1.4158622026443481,2.2869691848754883,-0.09367148578166962
-1.4174247980117798,2.3271212577819824,-0.09775778651237488
-1.4008657932281494,2.3370087146759033,-0.10054513812065125
-1.3954083919525146,2.3673794269561768,-0.10416585952043533
-1.3818773031234741,2.384209156036377,-0.10720118135213852
-1.3787766695022583,2.4173901081085205,-0.11088398844003677
-1.3441213369369507,2.3965141773223877,-0.11206218600273132
-1.3223847150802612,2.3995444774627686,-0.11435714364051819
-1.3165110349655151,2.4293203353881836,-0.11782962083816528
-1.3067675828933716,2.452157974243164,-0.12096017599105835
-1.290585994720459,2.4649972915649414,-0.12357745319604874
-1.3136340379714966,2.554030179977417,-0.13007858395576477
-1.2795664072036743,2.531853675842285,-0.13091525435447693
-1.284023642539978,2.5862314701080322,-0.13565951585769653
-1.2856239080429077,2.6374988555908203,-0.14027321338653564
-1.243011474609375,2.597292900085449,-0.13999901711940765
-1.216531753540039,2.588139057159424,-0.14130261540412903
-1.225806713104248,2.6568596363067627,-0.14684580266475677
-1.1997088193893433,2.651500701904297,-0.14833319187164307
-1.1601409912109375,2.613536834716797,-0.14790746569633484
-1.1684151887893677,2.682222366333008,-0.15348687767982483
-1.1554806232452393,2.704674005508423,-0.15642577409744263
-1.1585723161697388,2.7667717933654785,-0.16166605055332184
-1.144353985786438,2.7894279956817627,-0.16466622054576874
-1.1496220827102661,2.8587307929992676,-0.17040380835533142
-1.1137107610702515,2.826725959777832,-0.1700829416513443
-1.111626386642456,2.8818342685699463,-0.17494966089725494
-1.1019196510314941,2.9188082218170166,-0.17876560986042023
-1.093361496925354,2.9593451023101807,-0.18282189965248108
-1.0806602239608765,2.988774538040161,-0.18619304895401
-1.067054271697998,3.018366813659668,-0.18949267268180847
-1.0480096340179443,3.0331625938415527,-0.19188566505908966
-1.031590461730957,3.055131435394287,-0.19473330676555634
-1.0135464668273926,3.0733609199523926,-0.19737450778484344
-1.0013506412506104,3.1100234985351562,-0.20110809803009033
-0.9791518449783325,3.1169681549072266,-0.20288725197315216
-0.9637811779975891,3.1461119651794434,-0.20612969994544983
-0.9541102051734924,3.193725109100342,-0.21059031784534454
-0.933984637260437,3.2076735496520996,-0.21285218000411987
-0.9214158058166504,3.2517316341400146,-0.21701723337173462
-0.8982769250869751,3.258089542388916,-0.2186717540025711
-0.884421706199646,3.2981021404266357,-0.22259600460529327
-0.8654049038887024,3.3191475868225098,-0.22525474429130554
-0.8516906499862671,3.3628087043762207,-0.22940577566623688
-0.8330516815185547,3.3914568424224854,-0.23247525095939636
-0.8108609914779663,3.4047415256500244,-0.23449380695819855
-0.7888094186782837,3.417816162109375,-0.23650126159191132
-0.7760215401649475,3.4725725650787354,-0.24142040312290192
-0.7581483721733093,3.5083255767822266,-0.24493348598480225
-0.7400637865066528,3.547926187515259,-0.2487017810344696
-0.7195679545402527,3.5758984088897705,-0.2516671419143677
-0.7020789980888367,3.6189820766448975,-0.25570979714393616
-0.6819090843200684,3.65049409866333,-0.2589641213417053
-0.6644902229309082,3.701138496398926,-0.263425350189209
-0.6426241397857666,3.732593536376953,-0.2665330767631531
-0.6214278340339661,3.7676937580108643,-0.2699131965637207
-0.6024266481399536,3.8180370330810547,-0.2744089365005493
-0.5798510313034058,3.849029541015625,-0.27754437923431396
-0.5593865513801575,3.899226665496826,-0.2818647027015686
-0.5372334718704224,3.945526599884033,-0.285940557718277
-0.5164943933486938,4.003227710723877,-0.290860652923584
-0.4910072684288025,4.025987148284912,-0.29326242208480835
-0.47011151909828186,4.091160774230957,-0.29877057671546936
-0.4452197253704071,4.129158020019531,-0.30207666754722595
-0.42017295956611633,4.170883655548096,-0.30568066239356995
-0.3944852650165558,4.2163777351379395,-0.30959534645080566
-0.36581677198410034,4.226726055145264,-0.31093868613243103
-0.3348138630390167,4.2096991539001465,-0.31026268005371094
-0.3067901134490967,4.231326580047607,-0.31220272183418274
-0.28022468090057373,4.2799811363220215,-0.3161582350730896
-0.296329528093338,5.079076290130615,-0.3756454885005951
-0.2564476430416107,4.991486549377441,-0.36962589621543884
-0.22068582475185394,4.969756126403809,-0.36846959590911865
-0.1863623708486557,4.97893762588501,-0.3693235516548157
-0.1510915756225586,4.960625171661377,-0.3681555390357971
-0.11593225598335266,4.961550712585449,-0.36843621730804443
-0.08142109215259552,4.962216854095459,-0.3687116801738739
-0.04668470099568367,4.939271450042725,-0.3672368824481964
-0.012274240143597126,4.923898220062256,-0.3660345673561096
0.021876873448491096,4.908286094665527,-0.3648325502872467
0.056230440735816956,4.872954368591309,-0.3621824085712433
0.08995131403207779,4.864659786224365,-0.36156007647514343
0.12320559471845627,4.840553283691406,-0.35977888107299805
0.15679112076759338,4.839608192443848,-0.35942012071609497
0.19010555744171143,4.830643653869629,-0.3584831953048706
0.22253993153572083,4.805886745452881,-0.35639360547065735
0.2557264566421509,4.788657188415527,-0.3548767864704132
0.28805240988731384,4.771237373352051,-0.3533690869808197
0.31981074810028076,4.749741077423096,-0.35127052664756775
0.35041534900665283,4.716379165649414,-0.3483071029186249
0.38309749960899353,4.713886260986328,-0.34764334559440613
0.4150487184524536,4.695586681365967,-0.34582293033599854
0.44622889161109924,4.677121639251709,-0.34401780366897583
0.47739142179489136,4.662364482879639,-0.34222039580345154
0.5100157856941223,4.662897109985352,-0.34154874086380005
0.5400488376617432,4.6399736404418945,-0.3391757309436798
0.5719043612480164,4.62837553024292,-0.33763670921325684
0.6020517349243164,4.608903884887695,-0.33555498719215393
0.6328141689300537,4.597002983093262,-0.33378487825393677
0.6633890867233276,4.58490514755249,-0.33200758695602417
0.6915678381919861,4.557183265686035,-0.329118549823761
0.719525158405304,4.525327682495117,-0.32593604922294617
0.7535485625267029,4.535674095153809,-0.3258264660835266
0.7807717323303223,4.507448673248291,-0.3226843476295471
0.8076773285865784,4.4790568351745605,-0.31955307722091675
0.702162504196167,3.745774507522583,-0.26632845401763916
0.7296819686889648,3.748539924621582,-0.26561877131462097
0.7561851739883423,3.743374824523926,-0.26432517170906067
0.9167367219924927,4.382839679718018,-0.30818668007850647
0.9558704495429993,4.41846227645874,-0.30940163135528564
0.9863330125808716,4.41188383102417,-0.30765753984451294
1.014379620552063,4.393643856048584,-0.30510738492012024
1.0453473329544067,4.3865065574646,-0.3032746911048889
1.0763161182403564,4.38316011428833,-0.3015557825565338
1.1015193462371826,4.356931686401367,-0.2982836067676544
1.1276825666427612,4.334260940551758,-0.29526638984680176
1.1538000106811523,4.311379432678223,-0.2922486662864685
1.184095859527588,4.303300380706787,-0.29013338685035706
1.2156089544296265,4.302755355834961,-0.28843408823013306
1.240656852722168,4.279514312744141,-0.2852296829223633
1.2636373043060303,4.248536109924316,-0.28151407837867737
1.295483946800232,4.2472333908081055,-0.27977657318115234
1.3228328227996826,4.2307844161987305,-0.2768815755844116
1.3492892980575562,4.214392185211182,-0.2739832103252411
1.3768309354782104,4.201529026031494,-0.27132973074913025
1.4035879373550415,4.184600830078125,-0.26839548349380493
1.4326531887054443,4.174897193908691,-0.26592570543289185
1.4558149576187134,4.150518894195557,-0.26236069202423096
1.4871219396591187,4.147859573364258,-0.2601475119590759
1.5076017379760742,4.11571741104126,-0.2561139762401581
1.5362274646759033,4.105285167694092,-0.25343164801597595
1.5643773078918457,4.094810962677002,-0.2506639361381531
1.5920816659927368,4.084292411804199,-0.2478342205286026
1.6173559427261353,4.0661301612854,-0.24451476335525513
1.639797568321228,4.040473937988281,-0.2407463937997818
1.6618231534957886,4.014758110046387,-0.23697836697101593
1.6919119358062744,4.0108160972595215,-0.23438648879528046
1.9731204509735107,4.590789318084717,-0.26557308435440063
2.030348777770996,4.634199142456055,-0.2652420103549957
2.0625970363616943,4.620142936706543,-0.261620432138443
2.0953750610351562,4.609865665435791,-0.25808894634246826
2.1247003078460693,4.592333793640137,-0.25414523482322693
2.1527726650238037,4.570828437805176,-0.24994713068008423
2.18511962890625,4.555666923522949,-0.2460068166255951
2.2192718982696533,4.548024654388428,-0.24244068562984467
2.246199131011963,4.526286602020264,-0.23809897899627686
2.280519723892212,4.518047332763672,-0.2344198077917099
2.3119404315948486,4.502263069152832,-0.23028384149074554
2.3476479053497314,4.497170925140381,-0.22661057114601135
2.385430335998535,4.495140552520752,-0.22298966348171234
1.7416560649871826,3.2286930084228516,-0.15761028230190277
1.7603386640548706,3.2098004817962646,-0.1540880650281906
1.7417378425598145,3.126586675643921,-0.1474832147359848
1.773928165435791,3.13551926612854,-0.14526931941509247
1.8212159872055054,3.167117118835449,-0.1438925415277481
1.344785213470459,2.3019776344299316,-0.10251219570636749
0.9577248096466064,1.614958643913269,-0.07043357193470001
0.9584594964981079,1.5918594598770142,-0.06793002039194107
0.9756348729133606,1.5952132940292358,-0.06650546938180923
0.9842889308929443,1.5853725671768188,-0.06448423117399216
0.9946213364601135,1.5789852142333984,-0.06263606995344162
1.0076794624328613,1.5753978490829468,-0.06079518049955368
1.0182209014892578,1.568680763244629,-0.05881191045045853
1.0176531076431274,1.5458018779754639,-0.056234318763017654
1.0370804071426392,1.5517326593399048,-0.05458364263176918
1.0473837852478027,1.5448700189590454,-0.05247173830866814
1.0638753175735474,1.547865867614746,-0.050682369619607925
2.5623650550842285,3.673631191253662,-0.115400031208992
2.590912342071533,3.6632938385009766,-0.11008968204259872
2.6286447048187256,3.665354013442993,-0.10494256764650345
2.612410306930542,3.590532064437866,-0.09736758470535278
2.644050359725952,3.586879014968872,-0.09179173409938812
2.6162946224212646,3.6963918209075928,0.15464676916599274
2.5918092727661133,3.722851037979126,0.16122925281524658
1.0620298385620117,1.5484212636947632,0.06908553838729858
1.0675547122955322,1.5823224782943726,0.07266146689653397
1.046961784362793,1.5772087574005127,0.07437887042760849
1.0316563844680786,1.5778422355651855,0.07620356976985931
1.028141975402832,1.5986242294311523,0.07897418737411499
1.011953353881836,1.599587082862854,0.08074526488780975
0.9861059188842773,1.5834568738937378,0.08153937011957169
0.9845331907272339,1.607262134552002,0.08432237803936005
0.96833336353302,1.6078686714172363,0.0858922079205513
0.9609350562095642,1.6212830543518066,0.08804979175329208
1.3463410139083862,2.3088834285736084,0.1273912787437439
1.8563097715377808,3.239739418029785,0.18151874840259552
1.7769557237625122,3.1545040607452393,0.17932620644569397
1.7548881769180298,3.166653871536255,0.18247340619564056
1.7710267305374146,3.2510812282562256,0.1897764950990677
1.7578585147857666,3.284606456756592,0.1941436231136322
2.3817689418792725,4.529829025268555,0.2710195779800415
2.3465373516082764,4.539154052734375,0.2746828496456146
2.310051202774048,4.548840522766113,0.27824828028678894
2.2833755016326904,4.579486846923828,0.28306010365486145
2.250208854675293,4.5956339836120605,0.2869395911693573
2.217485189437866,4.611273765563965,0.29075393080711365
2.1844303607940674,4.626791000366211,0.2944335341453552
2.1438324451446533,4.628325939178467,0.2971409261226654
2.1131176948547363,4.650765895843506,0.3011939525604248
2.0806477069854736,4.665160179138184,0.3046203851699829
2.057373523712158,4.700796127319336,0.3094470500946045
1.9871150255203247,4.6332855224609375,0.3072938024997711
1.7267216444015503,4.108275413513184,0.2744704782962799
1.6973799467086792,4.120299816131592,0.2772378623485565
1.6657217741012573,4.12460994720459,0.27945077419281006
1.6393377780914307,4.143374443054199,0.28258028626441956
1.6143555641174316,4.169719696044922,0.2861747443675995
1.5785692930221558,4.166553020477295,0.287727415561676
1.5518747568130493,4.184713363647461,0.2907157242298126
1.5253294706344604,4.202584743499756,0.29368510842323303
1.4927924871444702,4.205816745758057,0.29551899433135986
1.4643765687942505,4.223883152008057,0.2983437776565552
1.4363456964492798,4.241567611694336,0.30113428831100464
1.411423683166504,4.2661919593811035,0.30439847707748413
1.3840605020523071,4.2831830978393555,0.3071291446685791
1.3536771535873413,4.292731285095215,0.3092241883277893
1.3245333433151245,4.309820175170898,0.3118038773536682
1.293535828590393,4.319079875946045,0.3138118386268616
1.2663885354995728,4.33915376663208,0.31659719347953796
1.2361077070236206,4.347733974456787,0.318550705909729
1.2117234468460083,4.378716945648193,0.3220871388912201
1.1783636808395386,4.379614353179932,0.3232751190662384
1.1543198823928833,4.4181060791015625,0.3272818922996521
1.1230002641677856,4.426041603088379,0.32901790738105774
1.09213125705719,4.433632850646973,0.33072593808174133
1.0630216598510742,4.4485859870910645,0.3330012559890747
1.0348690748214722,4.471104621887207,0.3356309235095978
1.002428650856018,4.478374481201172,0.337152361869812
0.9688987731933594,4.477664947509766,0.3380703330039978
0.9376325011253357,4.484205722808838,0.33953216671943665
0.7668654322624207,3.7993767261505127,0.28850939869880676
0.7386760711669922,3.796935796737671,0.28905218839645386
0.8473502993583679,4.529577732086182,0.3455909490585327
0.8193162679672241,4.558387279510498,0.3485613167285919
0.7911879420280457,4.586978912353516,0.3515337109565735
0.7618370652198792,4.6076459884643555,0.35391247272491455
0.7321913242340088,4.62813138961792,0.3563009798526764
0.6990348100662231,4.6331787109375,0.357296884059906
0.6680140495300293,4.649484634399414,0.35914355516433716
0.6341645121574402,4.646286487579346,0.3595021367073059
0.6026715040206909,4.658257484436035,0.36104682087898254
0.5730741024017334,4.685461521148682,0.36379122734069824
0.5430106520652771,4.712493896484375,0.3664945960044861
0.5101057291030884,4.723949432373047,0.36779412627220154
0.47764065861701965,4.7351179122924805,0.36908411979675293
0.44613444805145264,4.757695198059082,0.3712840676307678
0.4136635363101959,4.768393039703369,0.37257325649261475
0.3810652196407318,4.778868675231934,0.37386465072631836
0.34878847002983093,4.804716110229492,0.37626269459724426
0.31667360663414,4.830324649810791,0.37849318981170654
0.2837126851081848,4.847945213317871,0.38011854887008667
0.2501692771911621,4.857558727264404,0.3811355531215668
0.21722345054149628,4.878602504730225,0.38306793570518494
0.18354253470897675,4.903335094451904,0.3853165805339813
0.14958849549293518,4.912262916564941,0.3861545920372009
0.11584451794624329,4.936537742614746,0.3881020247936249
0.0813838317990303,4.9372172355651855,0.38821351528167725
0.04719208925962448,4.961019992828369,0.39016231894493103
0.012190823443233967,4.9962687492370605,0.39303290843963623
-0.022479543462395668,4.996224403381348,0.39314502477645874
-0.057549670338630676,5.027106761932373,0.3954952359199524
-0.09270968288183212,5.042174339294434,0.39654868841171265
-0.1275414079427719,5.033636093139648,0.3957643210887909
-0.16301308572292328,5.048211097717285,0.3968161940574646
-0.1991618573665619,5.058619976043701,0.39755815267562866
-0.23574469983577728,5.088248252868652,0.39983072876930237
-0.2717825770378113,5.102084159851074,0.40061405301094055
-0.3084721267223358,5.123444080352783,0.4019675850868225
-0.2901531755924225,4.320791244506836,0.3387373685836792
-0.31694498658180237,4.2681756019592285,0.3343694806098938
-0.34978950023651123,4.304714679718018,0.33700698614120483
-0.3784022927284241,4.286687850952148,0.33538180589675903
-0.4028090238571167,4.229748249053955,0.33048656582832336
-0.4284702241420746,4.192044734954834,0.3271186351776123
-0.4511289596557617,4.127038955688477,0.3216390311717987
-0.4747767746448517,4.081307888031006,0.3176925778388977
-0.4993247985839844,4.04703426361084,0.3146589994430542
-0.5207945704460144,3.9933247566223145,0.3100905120372772
-0.5429173707962036,3.9511325359344482,0.30625537037849426
-0.5654716491699219,3.912619113922119,0.3027215301990509
-0.5865058302879333,3.8701958656311035,0.29891833662986755
-0.604200005531311,3.8083930015563965,0.2936401665210724
-0.6268355250358582,3.7811086177825928,0.291047602891922
-0.6462559103965759,3.738384485244751,0.28719794750213623
-0.6690659523010254,3.7186172008514404,0.28501230478286743
-0.6841914057731628,3.656515598297119,0.2795972228050232
-0.7077865600585938,3.6441614627838135,0.2780202627182007
-0.7246425747871399,3.5972235202789307,0.27381858229637146
-0.7416761517524719,3.5540406703948975,0.2699297070503235
-0.7536861896514893,3.4918410778045654,0.2644827663898468
-0.7778794765472412,3.486619710922241,0.26331233978271484
-0.7963884472846985,3.458543539047241,0.26044607162475586
-0.8166163563728333,3.4378952980041504,0.25815120339393616
-0.828454852104187,3.3830270767211914,0.2533068358898163
-0.8481000065803528,3.362173080444336,0.2510075271129608
-0.8674148917198181,3.341242551803589,0.24855174124240875
-0.8860741257667542,3.3203117847442627,0.2461313158273697
-0.9024598002433777,3.291757106781006,0.24316565692424774
-0.9158211350440979,3.251744270324707,0.2393610179424286
-0.9319170117378235,3.222933769226074,0.23640716075897217
-0.9476572871208191,3.194066047668457,0.23333650827407837
-0.9590375423431396,3.1541337966918945,0.22944767773151398
-0.9757153987884521,3.132796049118042,0.22693687677383423
-0.9949164390563965,3.118675947189331,0.22494825720787048
-1.0093557834625244,3.089548349380493,0.22188694775104523
-1.0248223543167114,3.064021587371826,0.2190323770046234
-1.0378698110580444,3.035036563873291,0.21587057411670685
-1.0531718730926514,3.0133626461029053,0.21325039863586426
-1.0684939622879028,2.991525888442993,0.21062493324279785
-1.086609125137329,2.9768097400665283,0.2084992229938507
-1.0976146459579468,2.943779706954956,0.20509083569049835
-1.1149202585220337,2.9290502071380615,0.20283770561218262
-1.1289039850234985,2.9070863723754883,0.20012341439723969
-1.125636339187622,2.8414864540100098,0.1944306492805481
-1.1453328132629395,2.8337228298187256,0.19270193576812744
-1.1544756889343262,2.800632953643799,0.18924959003925323
-1.1417410373687744,2.7173755168914795,0.18233348429203033
-1.135298490524292,2.652465343475342,0.17674124240875244
-1.1423869132995605,2.619788646697998,0.17332065105438232
-1.20180344581604,2.7045187950134277,0.17760947346687317
-1.186583161354065,2.6217241287231445,0.17085392773151398
-1.1928949356079102,2.5889594554901123,0.16731131076812744
-1.2349151372909546,2.6340548992156982,0.16881929337978363
-1.242943286895752,2.6045000553131104,0.16548410058021545
-1.284969449043274,2.6449902057647705,0.16657018661499023
-1.2716130018234253,2.5734899044036865,0.16054299473762512
-1.287198543548584,2.5614967346191406,0.15821994841098785
-1.3096834421157837,2.563349723815918,0.15676382184028625
-1.300502896308899,2.5023927688598633,0.15144285559654236
-1.30294930934906,2.4660093784332275,0.14763376116752625
-1.3154360055923462,2.4506497383117676,0.14505158364772797
-1.3258916139602661,2.431814670562744,0.1422833949327469
-1.3393195867538452,2.415663003921509,0.13955792784690857
-1.344450831413269,2.386110544204712,0.13609202206134796
-1.3639369010925293,2.3841521739959717,0.13414058089256287
-1.3638428449630737,2.34830904006958,0.13030588626861572
-1.3959780931472778,2.36580228805542,0.12932556867599487
-1.4083632230758667,2.349494457244873,0.12642306089401245
-1.4114090204238892,2.3204381465911865,0.12285098433494568
-1.4225322008132935,2.3046016693115234,0.11998060345649719
-1.4302873611450195,2.2815310955047607,0.11663201451301575
-1.4390931129455566,2.262258291244507,0.11345862597227097
-1.458095669746399,2.259489059448242,0.11105850338935852
-1.4756081104278564,2.252897262573242,0.1083693727850914
-1.4758387804031372,2.220149278640747,0.10437328368425369
-1.4681841135025024,2.1784369945526123,0.09998364746570587
-1.4738258123397827,2.1558706760406494,0.09642983973026276
-1.4732439517974854,2.12322998046875,0.09229773283004761
-1.4865596294403076,2.114060640335083,0.08922430872917175
-1.5005711317062378,2.104273557662964,0.08597521483898163
-1.505557894706726,2.0816023349761963,0.08205766975879669
-1.5046495199203491,2.0534181594848633,0.07794296741485596
-1.5139899253845215,2.036957025527954,0.07402115315198898
-1.4903193712234497,2.1025655269622803,-0.06996069848537445
-1.5079309940338135,2.1616480350494385,-0.07555168122053146
-1.4704867601394653,2.13995099067688,-0.07808421552181244
-1.4844605922698975,2.196434736251831,-0.08354266732931137
-1.4730119705200195,2.2133779525756836,-0.08732399344444275
-1.4654041528701782,2.2369747161865234,-0.0913207158446312
-1.459039330482483,2.26424241065979,-0.09550353139638901
-1.4410216808319092,2.2709901332855225,-0.09862708300352097
-1.4240994453430176,2.281494379043579,-0.10194101184606552
-1.4090338945388794,2.2952632904052734,-0.10535328835248947
-1.4050378799438477,2.3249759674072266,-0.10935153067111969
-1.396210789680481,2.348322629928589,-0.11306345462799072
-1.38270103931427,2.3651981353759766,-0.11647798120975494
-1.377224087715149,2.395289182662964,-0.12051591277122498
-1.3640514612197876,2.4116368293762207,-0.12379883229732513
-1.3386337757110596,2.4078433513641357,-0.12601512670516968
-1.3286339044570923,2.4310264587402344,-0.1296066790819168
-1.315321445465088,2.4469692707061768,-0.13275191187858582
-1.3027305603027344,2.466787099838257,-0.13612335920333862
-1.2882283926010132,2.483031988143921,-0.13926789164543152
-1.2990117073059082,2.5475268363952637,-0.14510156214237213
-1.2898756265640259,2.5738465785980225,-0.14879897236824036
-1.281453251838684,2.60400652885437,-0.15270008146762848
-1.2723133563995361,2.6343374252319336,-0.15669333934783936
-1.2288050651550293,2.590144157409668,-0.1561121791601181
-1.2105344533920288,2.5985798835754395,-0.15864485502243042
-1.1965434551239014,2.617769956588745,-0.16178056597709656
-1.1871424913406372,2.647556781768799,-0.16560165584087372
-1.1481987237930298,2.6092312335968018,-0.16508476436138153
-1.1619231700897217,2.69242525100708,-0.17229466140270233
-1.1591649055480957,2.740096092224121,-0.177211731672287
-1.15127694606781,2.7770614624023438,-0.1814940869808197
-1.1406440734863281,2.8065602779388428,-0.18526950478553772
-1.1238973140716553,2.821547746658325,-0.18809989094734192
-1.107499361038208,2.8404271602630615,-0.1911376416683197
-1.1148653030395508,2.9210002422332764,-0.1983589082956314
-1.083380937576294,2.899399518966675,-0.19864073395729065
-1.088582992553711,2.9762840270996094,-0.2056884765625
-1.0673986673355103,2.983794689178467,-0.20788270235061646
-1.0585174560546875,3.028123378753662,-0.21267694234848022
-1.039542317390442,3.0427744388580322,-0.2153785228729248
-1.0232151746749878,3.0645909309387207,-0.21858413517475128
-1.0027906894683838,3.0752832889556885,-0.22095543146133423
-0.9855429530143738,3.097071409225464,-0.224046528339386
-0.9722546935081482,3.133774757385254,-0.22827793657779694
-0.9593708515167236,3.170180082321167,-0.2324678897857666
-0.9427430629730225,3.195333957672119,-0.23586583137512207
-0.926524817943573,3.2242660522460938,-0.239418163895607
-0.9119943976402283,3.260643720626831,-0.2435394525527954
-0.8909897208213806,3.274380683898926,-0.2459901124238968
-0.872771680355072,3.2992947101593018,-0.24930749833583832
-0.8574257493019104,3.3353664875030518,-0.25342148542404175
-0.8375638127326965,3.3563430309295654,-0.25627341866493225
-0.8211130499839783,3.3923466205596924,-0.26030272245407104
-0.8018081784248352,3.416839361190796,-0.26346519589424133
-0.7793262004852295,3.4298925399780273,-0.2657838463783264
-0.766961395740509,3.4884092807769775,-0.2715138792991638
-0.7512359023094177,3.535522699356079,-0.27631238102912903
-0.7294050455093384,3.555875301361084,-0.2790514826774597
-0.7091363072395325,3.58367657661438,-0.2823874056339264
-0.6946812868118286,3.6458687782287598,-0.28849175572395325
-0.6718822121620178,3.6658685207366943,-0.29108187556266785
-0.6527988314628601,3.708756446838379,-0.29547443985939026
-0.6312320232391357,3.740027904510498,-0.29897239804267883
-0.6125879883766174,3.7903614044189453,-0.3040199279785156
-0.5898454189300537,3.821438789367676,-0.3075754940509796
-0.5686119794845581,3.863927125930786,-0.31181055307388306
-0.5478843450546265,3.914015531539917,-0.31668728590011597
-0.5260348320007324,3.960130214691162,-0.32127511501312256
-0.504290759563446,4.009960651397705,-0.3261919915676117
-0.47960156202316284,4.040342330932617,-0.3295344114303589
-0.45765092968940735,4.105500221252441,-0.33550283312797546
-0.43169617652893066,4.135639190673828,-0.33862850069999695
-0.4065806567668915,4.177227973937988,-0.3427164554595947
-0.3796136975288391,4.203144550323486,-0.34554293751716614
-0.35264402627944946,4.232769012451172,-0.3486495912075043
-0.31928935647010803,4.192416667938232,-0.3457561135292053
-0.2929743230342865,4.237214088439941,-0.34989431500434875
-0.2593255937099457,4.173048973083496,-0.34504854679107666
-0.22662150859832764,4.108623027801514,-0.3401827812194824
-0.19765545427799225,4.1022796630859375,-0.34007319808006287
-0.16854043304920197,4.103553771972656,-0.3403739929199219
-0.14071272313594818,4.127948760986328,-0.3426070809364319
-0.13422048091888428,4.94989538192749,-0.4110969305038452
-0.09966786205768585,4.942893981933594,-0.4108051061630249
-0.0653148740530014,4.943445205688477,-0.411080539226532
-0.030231544747948647,4.920426368713379,-0.40913817286491394
0.003975330851972103,4.904946327209473,-0.4078431725502014
0.03790498152375221,4.881443977355957,-0.4059008061885834
0.0716075524687767,4.861599922180176,-0.4042821228504181
0.1052791103720665,4.853206634521484,-0.40355050563812256
0.13835959136486053,4.829039573669434,-0.40125277638435364
0.1722080111503601,4.8201904296875,-0.4002448320388794
0.20539452135562897,4.811127185821533,-0.39924386143684387
0.23773258924484253,4.786281108856201,-0.3969537317752838
0.26988592743873596,4.7651166915893555,-0.3948993980884552
0.3036937713623047,4.774842739105225,-0.3951539397239685
0.33544349670410156,4.745458126068115,-0.3921840488910675
0.3659611940383911,4.71202278137207,-0.38891345262527466
0.39808282256126404,4.701662063598633,-0.38756901025772095
0.4292786419391632,4.68334436416626,-0.385498046875
0.4616844356060028,4.68034553527832,-0.38446786999702454
0.49172738194465637,4.649966239929199,-0.3811991810798645
0.5231093168258667,4.638788223266602,-0.37953928112983704
0.555325984954834,4.635125637054443,-0.3785128891468048
0.5825825929641724,4.592626094818115,-0.3742344081401825
0.616315484046936,4.604043960571289,-0.37415337562561035
0.6464763283729553,4.584288120269775,-0.37153851985931396
0.6782419085502625,4.57980489730835,-0.3701963424682617
0.7034856677055359,4.5327630043029785,-0.36543840169906616
0.733643651008606,4.520206928253174,-0.3633682429790497
0.7660818099975586,4.522852420806885,-0.3623550832271576
