X,Y,Z
0.842522382736206,2.852294445037842,-0.5216701626777649
0.8926158547401428,2.9467902183532715,-0.534124493598938
0.9478687047958374,3.0517165660858154,-0.5480411648750305
0.9950137138366699,3.1267893314361572,-0.5563747882843018
1.0552655458450317,3.2380003929138184,-0.5708237886428833
1.1108696460723877,3.3304083347320557,-0.5813254714012146
1.175236463546753,3.444171905517578,-0.5951106548309326
1.2400507926940918,3.5536015033721924,-0.6077386140823364
1.3161181211471558,3.687607526779175,-0.6239944100379944
1.4357929229736328,3.937056303024292,-0.6589694023132324
1.488825798034668,3.997140407562256,-0.6615363359451294
1.551141619682312,4.078312873840332,-0.667288064956665
1.589762806892395,4.093949317932129,-0.6620604991912842
1.62184739112854,4.091221332550049,-0.6535049080848694
1.6445685625076294,4.067009925842285,-0.6415426731109619
1.668582797050476,4.046195030212402,-0.6301727890968323
1.688194751739502,4.014403820037842,-0.6170991659164429
1.4297782182693481,3.335446834564209,-0.5058504939079285
1.4471176862716675,3.312347650527954,-0.49527835845947266
1.4828312397003174,3.3316826820373535,-0.4911230206489563
1.493594765663147,3.294130563735962,-0.4785151779651642
1.519878625869751,3.291853904724121,-0.470988929271698
1.5393577814102173,3.2754557132720947,-0.4613724946975708
1.5625975131988525,3.265669107437134,-0.45253947377204895
1.5925348997116089,3.269650459289551,-0.44561243057250977
1.611830472946167,3.252734422683716,-0.43575766682624817
1.637745976448059,3.249645709991455,-0.42771950364112854
1.6569057703018188,3.232387065887451,-0.41773438453674316
1.6421564817428589,3.149425745010376,-0.39934706687927246
1.6806286573410034,3.1698367595672607,-0.39396461844444275
1.7318819761276245,3.2140331268310547,-0.3914602994918823
1.732071876525879,3.1620237827301025,-0.3770383894443512
1.7297154664993286,3.106734037399292,-0.36239197850227356
1.7872328758239746,3.160228729248047,-0.3603474199771881
1.8131505250930786,3.1555097103118896,-0.3512920141220093
1.3197726011276245,2.260338068008423,-0.24539868533611298
0.9623203873634338,1.6228731870651245,-0.1716693937778473
0.8930408358573914,1.483496904373169,-0.15276402235031128
0.9338518977165222,1.5275198221206665,-0.1528514325618744
0.9816742539405823,1.5808762311935425,-0.15341252088546753
0.9943696856498718,1.5780351161956787,-0.14840978384017944
1.0051847696304321,1.5716723203659058,-0.1429741084575653
1.0099495649337769,1.5551999807357788,-0.1364910751581192
1.0246038436889648,1.5554052591323853,-0.1314929574728012
1.0353002548217773,1.5487840175628662,-0.12573997676372528
1.0418665409088135,1.53543221950531,-0.11932174116373062
1.0520225763320923,1.5289369821548462,-0.11346956342458725
2.559748411178589,3.668130397796631,-0.2590520679950714
2.590017080307007,3.657426595687866,-0.24435560405254364
2.623335123062134,3.65382719039917,-0.22985099256038666
2.6067862510681152,3.5800840854644775,-0.21075309813022614
2.6635324954986572,3.6071341037750244,-0.19709546864032745
2.627973794937134,3.7293386459350586,0.5369588136672974
2.5910604000091553,3.7341060638427734,0.5496230721473694
2.5588302612304688,3.744823694229126,0.5625295042991638
1.0567125082015991,1.572893738746643,0.24095791578292847
1.057629108428955,1.5993741750717163,0.24941422045230865
1.0418213605880737,1.599661111831665,0.2536250948905945
1.0124821662902832,1.5809246301651,0.2545689642429352
1.028957486152649,1.6338202953338623,0.26708030700683594
1.0047739744186401,1.6207717657089233,0.26862895488739014
0.9967353940010071,1.634021520614624,0.27436697483062744
0.9840012788772583,1.6409472227096558,0.27895936369895935
0.97150719165802,1.6476097106933594,0.2834451198577881
1.3377959728240967,2.3052608966827393,0.4009779989719391
1.3797438144683838,2.4182024002075195,0.42514482140541077
1.8180030584335327,3.2425079345703125,0.5757918953895569
1.7672523260116577,3.2075035572052,0.5751709938049316
1.7976590394973755,3.317065715789795,0.6002377867698669
1.7573521137237549,3.297973394393921,0.6020743250846863
2.4038021564483643,4.5945587158203125,0.8457521200180054
2.35476016998291,4.58342981338501,0.8505387306213379
2.3283262252807617,4.612436294555664,0.8625088930130005
2.2886013984680176,4.6133551597595215,0.8691334128379822
2.2612414360046387,4.642280101776123,0.8806881904602051
2.2339000701904297,4.675142765045166,0.8929302096366882
2.1986470222473145,4.690141677856445,0.901728630065918
2.165228843688965,4.704061985015869,0.9100422859191895
2.1350131034851074,4.7246904373168945,0.9196866154670715
2.1001977920532227,4.738725662231445,0.9276045560836792
2.0678932666778564,4.759769916534424,0.9367769956588745
2.00314998626709,4.7065629959106445,0.9314132332801819
1.7403064966201782,4.169645309448242,0.8294163942337036
1.7108217477798462,4.180547714233398,0.8358500599861145
1.6805365085601807,4.191582679748535,0.8420038819313049
1.6551705598831177,4.21696662902832,0.8508467674255371
1.624847412109375,4.231626510620117,0.8576542139053345
1.5930322408676147,4.238424777984619,0.862752377986908
1.5697340965270996,4.266388893127441,0.8721435070037842
1.5420504808425903,4.283468246459961,0.8792850971221924
1.508074164390564,4.28634786605835,0.8830110430717468
1.4785923957824707,4.303623199462891,0.889803946018219
1.4445890188217163,4.305992603302002,0.8935098648071289
1.419067144393921,4.329566955566406,0.9015359282493591
1.39799964427948,4.3675642013549805,0.9126371741294861
1.3667927980422974,4.376430988311768,0.9174198508262634
1.3366873264312744,4.392770767211914,0.9235184788703918
1.302573323249817,4.394075393676758,0.9264636039733887
1.2729889154434204,4.409767150878906,0.932470977306366
1.2472409009933472,4.4360833168029785,0.9407119154930115
1.2181079387664795,4.451181888580322,0.946639895439148
1.1863881349563599,4.45888614654541,0.9506545662879944
1.1555614471435547,4.474061489105225,0.956060528755188
1.1306908130645752,4.51115608215332,0.9661833643913269
1.0947518348693848,4.5034661293029785,0.9667549133300781
1.0649762153625488,4.517670631408691,0.9720200300216675
1.036756992340088,4.539125442504883,0.9789040684700012
1.0007249116897583,4.530807971954346,0.9791188836097717
0.9714584946632385,4.552145004272461,0.9854046702384949
0.9389047622680664,4.558309555053711,0.9884591698646545
0.7619143128395081,3.837266206741333,0.8335914611816406
0.7436934113502502,3.886974334716797,0.8459009528160095
0.8473593592643738,4.605311393737793,1.0040961503982544
0.8183988928794861,4.629317283630371,1.011050820350647
0.7879945635795593,4.64956521987915,1.0167087316513062
0.7585657835006714,4.677147388458252,1.0240318775177002
0.7253304719924927,4.6818952560424805,1.026411533355713
0.6940838694572449,4.701539993286133,1.032122254371643
0.6645095944404602,4.728424072265625,1.039448857307434
0.6330260038375854,4.743774890899658,1.044303297996521
0.6005001664161682,4.7552995681762695,1.047765851020813
0.5660172700881958,4.751471042633057,1.047777771949768
0.5366586446762085,4.792901039123535,1.05782949924469
0.5039148330688477,4.811419486999512,1.0629006624221802
0.4711870849132538,4.822031497955322,1.066253662109375
0.4382806420326233,4.832422733306885,1.0696145296096802
0.4045756757259369,4.835040092468262,1.071065068244934
0.37327635288238525,4.871771812438965,1.0796217918395996
0.33953651785850525,4.889311790466309,1.0839924812316895
0.3052385747432709,4.891355037689209,1.0849738121032715
0.27236413955688477,4.91599702835083,1.091021180152893
0.23977094888687134,4.951839447021484,1.0996133089065552
0.20595943927764893,4.968408584594727,1.1039844751358032
0.17040595412254333,4.962021827697754,1.10275137424469
0.13596497476100922,4.970656871795654,1.1047042608261108
0.10218819230794907,5.017176628112793,1.1151314973831177
0.06715604662895203,5.017710208892822,1.1153926849365234
0.03236030414700508,5.0370635986328125,1.1198917627334595
-0.0032904089894145727,5.059985637664795,1.1252453327178955
-0.03855539858341217,5.075051784515381,1.1288210153579712
-0.07407267391681671,5.090015888214111,1.1317458152770996
-0.10974077135324478,5.104731559753418,1.1346685886383057
-0.14589308202266693,5.126819610595703,1.1392817497253418
-0.18243315815925598,5.152464866638184,1.1447383165359497
-0.21892321109771729,5.151150703430176,1.1442559957504272
-0.25619444251060486,5.180082321166992,1.1505510807037354
-0.29212743043899536,5.178361892700195,1.1497325897216797
-0.27898967266082764,4.403822898864746,0.9770731925964355
-0.3032945990562439,4.314511775970459,0.9566256999969482
-0.3336314260959625,4.312502861022949,0.9555844664573669
-0.36516034603118896,4.329315662384033,0.9587655067443848
-0.3921799957752228,4.2927069664001465,0.9501620531082153
-0.4153459668159485,4.221761226654053,0.9340155124664307
-0.4400582015514374,4.177392959594727,0.9232844114303589
-0.4659733474254608,4.144227027893066,0.9149577617645264
-0.48861899971961975,4.092014789581299,0.9025077223777771
-0.5110924243927002,4.043460845947266,0.8909269571304321
-0.5326426029205322,3.9909751415252686,0.8785355091094971
-0.5561434030532837,3.9572761058807373,0.8703384399414062
-0.577914834022522,3.9120917320251465,0.859506368637085
-0.5965362787246704,3.8556771278381348,0.8458481431007385
-0.6162405610084534,3.8104875087738037,0.8347225785255432
-0.6385302543640137,3.7840259075164795,0.8277589082717896
-0.6580943465232849,3.7423477172851562,0.8175128698348999
-0.6766327619552612,3.6967804431915283,0.8064712285995483
-0.6971622109413147,3.662306547164917,0.7978915572166443
-0.7171474695205688,3.631707191467285,0.7898157835006714
-0.7312637567520142,3.5748467445373535,0.7759645581245422
-0.7509658336639404,3.547856330871582,0.7686644792556763
-0.7662867903709412,3.5020813941955566,0.757353663444519
-0.7877204418182373,3.482185125350952,0.75165194272995
-0.8084895610809326,3.4622445106506348,0.7460132837295532
-0.8243641257286072,3.4236714839935303,0.7362251281738281
-0.8402665257453918,3.3889036178588867,0.7270060777664185
-0.863298237323761,3.3837153911590576,0.7241814732551575
-0.8721303939819336,3.3227713108062744,0.7094565629959106
-0.8912317156791687,3.302455425262451,0.7034683227539062
-0.9061427116394043,3.2672417163848877,0.6943526268005371
-0.9267765283584595,3.2540996074676514,0.6899225115776062
-0.940248966217041,3.2190229892730713,0.6804790496826172
-0.9569500088691711,3.1948049068450928,0.6733588576316833
-0.9741523861885071,3.174252510070801,0.6670934557914734
-0.9846544861793518,3.131558656692505,0.6561992764472961
-1.0042662620544434,3.1179537773132324,0.6514362096786499
-1.0176897048950195,3.086045265197754,0.6428746581077576
-1.0291268825531006,3.050666332244873,0.6331942081451416
-1.0422875881195068,3.022611379623413,0.6251389384269714
-1.0563884973526,2.998121738433838,0.6178790330886841
-1.0772126913070679,2.9914445877075195,0.6142770648002625
-1.0902568101882935,2.9629480838775635,0.6062180399894714
-1.1082206964492798,2.9488327503204346,0.6010671257972717
-1.1119493246078491,2.89897084236145,0.5883225202560425
-1.1273272037506104,2.8814525604248047,0.5822567939758301
-1.1382211446762085,2.8531596660614014,0.5740718245506287
-1.1553435325622559,2.838782787322998,0.568639874458313
-1.1325801610946655,2.7284889221191406,0.544117271900177
-1.123156189918518,2.654090404510498,0.5266810059547424
-1.1409744024276733,2.6472816467285156,0.5226333737373352
-1.1649293899536133,2.6544299125671387,0.5213505029678345
-1.1768966913223267,2.633122682571411,0.5144397616386414
-1.1922972202301025,2.6185648441314697,0.5088212490081787
-1.2319841384887695,2.656219720840454,0.513221800327301
-1.2498060464859009,2.648768663406372,0.5086203217506409
-1.252565860748291,2.6099653244018555,0.49806278944015503
-1.2668870687484741,2.5953516960144043,0.4921530485153198
-1.2750070095062256,2.566498041152954,0.4834590256214142
-1.2865132093429565,2.544403553009033,0.4760322570800781
-1.3035211563110352,2.5366599559783936,0.47106364369392395
-1.316909670829773,2.521960735321045,0.4648338258266449
-1.3177530765533447,2.483219623565674,0.45419442653656006
-1.3317029476165771,2.467951774597168,0.4477649927139282
-1.3415433168411255,2.4459710121154785,0.44011273980140686
-1.3505703210830688,2.4243152141571045,0.432265967130661
-1.3533576726913452,2.3927011489868164,0.4227955639362335
-1.3698925971984863,2.3842384815216064,0.41731584072113037
-1.3829375505447388,2.3687360286712646,0.41052350401878357
-1.383224368095398,2.3336892127990723,0.40022149682044983
-1.3949016332626343,2.3187057971954346,0.3932681679725647
-1.4104632139205933,2.310255527496338,0.3874533176422119
-1.4107086658477783,2.274806499481201,0.37688466906547546
-1.4511528015136719,2.3053061962127686,0.37711870670318604
-1.4621951580047607,2.290177345275879,0.3696824014186859
-1.4567370414733887,2.248706817626953,0.357937216758728
-1.4536223411560059,2.210186243057251,0.34657877683639526
-1.5051558017730713,2.2561075687408447,0.3482697606086731
-1.4872580766677856,2.199167490005493,0.33396267890930176
-1.50221848487854,2.190056800842285,0.3267972469329834
-1.487180233001709,2.135585069656372,0.3125777542591095
-1.492038369178772,2.114312171936035,0.3032705783843994
-1.5058382749557495,2.105576276779175,0.29574891924858093
-1.509556770324707,2.080122470855713,0.28530973196029663
-1.5277795791625977,2.0775458812713623,0.27790433168411255
-1.5271934270858765,2.050081729888916,0.26711615920066833
-1.4910433292388916,2.1077325344085693,-0.14603853225708008
-1.5050442218780518,2.1591713428497314,-0.158451646566391
-1.5018343925476074,2.1891028881073,-0.16956795752048492
-1.4764978885650635,2.186727285385132,-0.17810969054698944
-1.4736545085906982,2.21602725982666,-0.18874076008796692
-1.461039662361145,2.2328896522521973,-0.1984216719865799
-1.459389090538025,2.2656664848327637,-0.2093409150838852
-1.4429454803466797,2.2753610610961914,-0.21800357103347778
-1.425413966178894,2.2855224609375,-0.2268626093864441
-1.4127614498138428,2.301654577255249,-0.235950767993927
-1.3741086721420288,2.2742345333099365,-0.24029166996479034
-1.3451794385910034,2.263496160507202,-0.24621766805648804
-1.3128076791763306,2.245598077774048,-0.2511262893676758
-1.2926026582717896,2.2474536895751953,-0.2580660581588745
-1.2759298086166382,2.25608229637146,-0.26563790440559387
-1.2779998779296875,2.298557758331299,-0.27729859948158264
-1.2541424036026,2.2930774688720703,-0.2829686999320984
-1.252242088317871,2.32853102684021,-0.29370880126953125
-1.2419869899749756,2.350634813308716,-0.30296894907951355
-1.2284855842590332,2.3655195236206055,-0.31115275621414185
-1.2204557657241821,2.390517473220825,-0.32062238454818726
-1.2133846282958984,2.4191982746124268,-0.3306361734867096
-1.2024561166763306,2.440948009490967,-0.339798241853714
-1.2032264471054077,2.4869916439056396,-0.3524407744407654
-1.2219947576522827,2.5714800357818604,-0.3706725239753723
-1.1966607570648193,2.5652308464050293,-0.3758922219276428
-1.1811788082122803,2.579848051071167,-0.3841612637042999
-1.1596044301986694,2.5800743103027344,-0.3901746869087219
-1.18478262424469,2.6863579750061035,-0.4123938977718353
-1.189415693283081,2.750714063644409,-0.428570955991745
-1.3053144216537476,3.078390121459961,-0.48649245500564575
-1.2715927362442017,3.057750940322876,-0.4899100363254547
-1.22200608253479,2.9975368976593018,-0.4866883456707001
-1.1703157424926758,2.929722785949707,-0.4818287193775177
-1.1249783039093018,2.8758511543273926,-0.47909101843833923
-1.0727845430374146,2.799703598022461,-0.47219279408454895
-1.016169786453247,2.7086422443389893,-0.4623044729232788
-0.9661020040512085,2.6315267086029053,-0.45434123277664185
-0.9276708364486694,2.582895278930664,-0.4510321319103241
-0.879676878452301,2.504826068878174,-0.442359060049057
-0.8393216133117676,2.444441080093384,-0.4363243281841278
-0.8059048652648926,2.401956796646118,-0.4331592619419098
-0.7743683457374573,2.362797737121582,-0.43043914437294006
-0.744736909866333,2.3269665241241455,-0.4281574487686157
-0.709580659866333,2.2726101875305176,-0.4222683608531952
-0.6810470819473267,2.236281633377075,-0.41933751106262207
-0.6541752815246582,2.203366994857788,-0.4169321656227112
-0.6354069709777832,2.1960103511810303,-0.4192711412906647
-0.6073931455612183,2.155245065689087,-0.41507387161254883
-0.5860264897346497,2.136493444442749,-0.4148033857345581
-0.5577660202980042,2.0916545391082764,-0.40943676233291626
-0.529504120349884,2.0427770614624023,-0.4030769467353821
-0.5132066011428833,2.0382776260375977,-0.4053616523742676
-0.49058207869529724,2.0076420307159424,-0.4021207392215729
-0.4745873808860779,2.0029189586639404,-0.40403494238853455
-0.45339271426200867,1.975688099861145,-0.4014052152633667
-0.43371519446372986,1.9519656896591187,-0.399371474981308
-0.4199914336204529,1.9543546438217163,-0.40234437584877014
-0.39692822098731995,1.9116650819778442,-0.39597445726394653
-0.3804859519004822,1.898796796798706,-0.3957277238368988
-0.3618309199810028,1.8745630979537964,-0.39312219619750977
-0.344478040933609,1.85395348072052,-0.39092838764190674
-0.33144915103912354,1.8558096885681152,-0.39337626099586487
-0.3158407509326935,1.8424983024597168,-0.3926093578338623
-0.30047547817230225,1.8290599584579468,-0.3917945325374603
-0.2821236550807953,1.7966973781585693,-0.3867300748825073
-0.2661691904067993,1.7755260467529297,-0.3838326930999756
-0.2483643740415573,1.7391068935394287,-0.37760084867477417
-0.2402980625629425,1.7706478834152222,-0.38613998889923096
-0.22888407111167908,1.779451847076416,-0.3896532654762268
-0.21368220448493958,1.7579233646392822,-0.38626590371131897
-0.19640687108039856,1.717341661453247,-0.37868553400039673
-0.18361839652061462,1.7107411623001099,-0.37855228781700134
-0.1716812551021576,1.7116481065750122,-0.3800511956214905
-0.16117872297763824,1.7277319431304932,-0.3845970034599304
-0.14946427941322327,1.7323498725891113,-0.38662096858024597
-0.1362980604171753,1.7216949462890625,-0.3852667510509491
-0.12376587092876434,1.7147353887557983,-0.3847300112247467
-0.11233538389205933,1.7229784727096558,-0.3872552812099457
-0.10035381466150284,1.7235424518585205,-0.38803529739379883
-0.08718685060739517,1.701188564300537,-0.38366612792015076
-0.07647938281297684,1.7320398092269897,-0.3913308382034302
-0.06330050528049469,1.7019555568695068,-0.3849465548992157
-0.05168532952666283,1.7098865509033203,-0.38704511523246765
-0.03925395384430885,1.6872671842575073,-0.38224416971206665
-0.027885152027010918,1.7102696895599365,-0.38779744505882263
-0.01556073036044836,1.687525987625122,-0.3828005790710449
-0.003836602671071887,1.695217251777649,-0.3845066428184509
0.007958032190799713,1.695207953453064,-0.3844844698905945
0.02000606618821621,1.7179722785949707,-0.38964608311653137
0.03228786215186119,1.7368659973144531,-0.39383432269096375
0.044348664581775665,1.7366971969604492,-0.39340469241142273
0.05600449815392494,1.7173994779586792,-0.38865843415260315
0.06825745850801468,1.724678874015808,-0.38995423913002014
0.08079208433628082,1.7356832027435303,-0.39208149909973145
0.09267643839120865,1.7314608097076416,-0.39039120078086853
0.10496623069047928,1.734764575958252,-0.39041683077812195
0.1198250949382782,1.7721977233886719,-0.39811351895332336
0.13272464275360107,1.7791146039962769,-0.3989686071872711
0.14573703706264496,1.7860159873962402,-0.39946749806404114
0.15885381400585175,1.79283607006073,-0.39989766478538513
0.17352470755577087,1.8147474527359009,-0.40369510650634766
0.18561886250972748,1.8061723709106445,-0.4007021486759186
0.2002965658903122,1.8241362571716309,-0.40335753560066223
0.21479466557502747,1.8382281064987183,-0.40500524640083313
0.2285739928483963,1.84463369846344,-0.404959499835968
0.2454141080379486,1.8736499547958374,-0.4098692834377289
0.26552751660346985,1.9214534759521484,-0.4186358153820038
0.28115078806877136,1.9351437091827393,-0.4197295904159546
0.29697802662849426,1.9487136602401733,-0.4207884669303894
0.31540143489837646,1.9772565364837646,-0.42505943775177
0.3279702663421631,1.9679638147354126,-0.4211048483848572
0.34303128719329834,1.9737173318862915,-0.4200795590877533
0.3604811429977417,1.9906105995178223,-0.4213755130767822
0.38433563709259033,2.041227340698242,-0.42978551983833313
0.4001065790653229,2.046570301055908,-0.4286101162433624
0.4212852120399475,2.0781290531158447,-0.4325101375579834
0.44843173027038574,2.135735034942627,-0.44173064827919006
0.47098666429519653,2.1668481826782227,-0.44532230496406555
0.48954862356185913,2.179121255874634,-0.44504791498184204
0.5117480158805847,2.2062416076660156,-0.4474552273750305
0.5316857695579529,2.221998453140259,-0.44743576645851135
0.568396806716919,2.3046059608459473,-0.46074941754341125
0.5999953746795654,2.3607656955718994,-0.46852540969848633
0.6311160922050476,2.4130280017852783,-0.4752117395401001
0.6480223536491394,2.4094297885894775,-0.4706943929195404
0.7007470726966858,2.5352349281311035,-0.49126723408699036
0.7364441156387329,2.5939714908599854,-0.49855151772499084
0.7689885497093201,2.6375722885131836,-0.5025365948677063
0.8106120228767395,2.710463285446167,-0.5117819905281067
0.8521855473518372,2.779264211654663,-0.5200169086456299
0.8937132358551025,2.8439595699310303,-0.5272389650344849
0.9456039667129517,2.937572956085205,-0.5394552946090698
0.9918593168258667,3.008708953857422,-0.5469043254852295
1.0486372709274292,3.1086761951446533,-0.5593816041946411
1.108304738998413,3.211646795272827,-0.5719838738441467
1.165591835975647,3.303114652633667,-0.582130491733551
1.204395055770874,3.33972430229187,-0.5820690989494324
1.2250986099243164,3.3253118991851807,-0.5730729103088379
1.448777198791504,3.848473072052002,-0.6555269360542297
1.5216580629348755,3.9585325717926025,-0.666452169418335
1.5817220211029053,4.032070636749268,-0.6705272197723389
1.6313709020614624,4.076333522796631,-0.669493556022644
1.657235860824585,4.059197425842285,-0.6582098603248596
1.6864662170410156,4.0488057136535645,-0.6478894352912903
1.7101348638534546,4.027926445007324,-0.6357888579368591
1.985406756401062,4.588928699493408,-0.7143450975418091
1.466914415359497,3.327181816101074,-0.5105779767036438
1.4841252565383911,3.3039190769195557,-0.49965423345565796
1.5106558799743652,3.3017516136169434,-0.49163925647735596
1.5302952527999878,3.285475730895996,-0.4816744327545166
1.550197958946228,3.268883228302002,-0.4715777039527893
1.5800700187683105,3.2730777263641357,-0.46442922949790955
1.6027277708053589,3.263347864151001,-0.45516782999038696
1.6257071495056152,3.2532665729522705,-0.44574248790740967
1.6523020267486572,3.249837636947632,-0.4371727406978607
1.6573251485824585,3.2049360275268555,-0.42306625843048096
1.6415044069290161,3.122519016265869,-0.4042113721370697
1.708896279335022,3.1978378295898438,-0.40571391582489014
1.716749668121338,3.159553050994873,-0.39248114824295044
1.7258714437484741,3.1247730255126953,-0.37965670228004456
1.7244269847869873,3.073380470275879,-0.36511844396591187
1.7901924848556519,3.1400322914123535,-0.3643262982368469
1.3486207723617554,2.327805995941162,-0.2634892761707306
0.9720917344093323,1.6524029970169067,-0.1823042780160904
0.9556490778923035,1.5994457006454468,-0.1717558354139328
0.8821795582771301,1.4535131454467773,-0.15170544385910034
0.9391217231750488,1.5241248607635498,-0.15444624423980713
0.9927322864532471,1.5875859260559082,-0.15601973235607147
0.9996548891067505,1.574569582939148,-0.1497076004743576
1.0108230113983154,1.567970633506775,-0.1438649743795395
1.0149364471435547,1.551880955696106,-0.13727667927742004
1.0321121215820312,1.5550719499588013,-0.13224314153194427
1.0408332347869873,1.5450565814971924,-0.12591774761676788
1.0379031896591187,1.5192608833312988,-0.11839471012353897
2.5345888137817383,3.6561567783355713,-0.2711191177368164
2.568837881088257,3.6523685455322266,-0.25676512718200684
2.610790967941284,3.6619362831115723,-0.24323531985282898
2.603996992111206,3.600616455078125,-0.22429119050502777
2.6283159255981445,3.583890676498413,-0.20792192220687866
2.6841301918029785,3.611511468887329,-0.19391123950481415
2.6437838077545166,3.724684715270996,0.5581305623054504
2.6166939735412598,3.741513967514038,0.5730320811271667
2.5918283462524414,3.765901565551758,0.5888545513153076
1.0614598989486694,1.5682536363601685,0.2501601278781891
1.0586272478103638,1.5879206657409668,0.25777870416641235
1.0423678159713745,1.5884963274002075,0.2622065246105194
1.0295180082321167,1.5959382057189941,0.26772719621658325
1.0092079639434814,1.589705467224121,0.27064308524131775
0.993665337562561,1.589525818824768,0.27438175678253174
0.9894248247146606,1.6095105409622192,0.28144434094429016
0.9848350286483765,1.6295576095581055,0.2885744869709015
0.9766217470169067,1.6426624059677124,0.29437172412872314
0.9569926261901855,1.635514259338379,0.2964154779911041
1.3424392938613892,2.334365129470825,0.4274804890155792
1.8556455373764038,3.2836432456970215,0.6074972152709961
1.7847521305084229,3.211388111114502,0.5998472571372986
1.7724782228469849,3.2430880069732666,0.6114897727966309
1.7717231512069702,3.299036741256714,0.6273863315582275
2.4095847606658936,4.567953109741211,0.8759555220603943
2.3718044757843018,4.577052116394043,0.8848408460617065
2.3496146202087402,4.612530708312988,0.8985546827316284
2.3087005615234375,4.614027976989746,0.9056698083877563
2.280566453933716,4.6433258056640625,0.9176456928253174
2.247063398361206,4.662062644958496,0.9276172518730164
2.2162997722625732,4.683485984802246,0.9379655718803406
2.186220169067383,4.704325199127197,0.9481062293052673
2.1457154750823975,4.704329967498779,0.9538236856460571
2.119258403778076,4.739863395690918,0.9664570093154907
2.083760976791382,4.753894805908203,0.9746907949447632
2.04313588142395,4.753150463104248,0.9797763824462891
1.74409818649292,4.136566162109375,0.8571440577507019
1.7305785417556763,4.186557292938232,0.8718949556350708
1.7018529176712036,4.205252170562744,0.8798044323921204
1.6663782596588135,4.205741882324219,0.8838874697685242
1.639717698097229,4.227231979370117,0.892379105091095
1.6125966310501099,4.244579792022705,0.8999138474464417
1.5853095054626465,4.261743545532227,0.9074674248695374
1.5536631345748901,4.2721686363220215,0.913162112236023
1.51972234249115,4.275059223175049,0.9171078205108643
1.4908002614974976,4.292157173156738,0.9241555333137512
1.4675538539886475,4.323265552520752,0.9341914057731628
1.4371105432510376,4.332335948944092,0.9394851922988892
1.4058561325073242,4.341429233551025,0.9447857141494751
1.3765164613723755,4.357813358306885,0.9511033892631531
1.3470112085342407,4.373992443084717,0.9574357271194458
1.321736454963684,4.404609203338623,0.966998279094696
1.2885358333587646,4.405460834503174,0.9699928164482117
1.2628107070922852,4.431761741638184,0.9786375164985657
1.2349907159805298,4.4544548988342285,0.9864197373390198
1.2028083801269531,4.462365627288818,0.9904232025146484
1.1705265045166016,4.470052242279053,0.9944318532943726
1.1382441520690918,4.477490425109863,0.9984337687492371
1.1085258722305298,4.491934299468994,1.0039950609207153
1.083595871925354,4.528528690338135,1.0146068334579468
1.0500472784042358,4.527738094329834,1.0167431831359863
1.0225387811660767,4.556762218475342,1.025029182434082
0.988197386264801,4.555788516998291,1.0266259908676147
0.9523584842681885,4.547091484069824,1.026525855064392
0.7762457132339478,3.8428211212158203,0.8691458702087402
0.7588695883750916,3.8961973190307617,0.8828490972518921
0.8616722226142883,4.594009876251221,1.0429370403289795
0.8350598812103271,4.633193016052246,1.0532246828079224
0.802067756652832,4.638438701629639,1.0557752847671509
0.7721960544586182,4.666093349456787,1.0635120868682861
0.7415210008621216,4.685917854309082,1.0694983005523682
0.7099462747573853,4.697936534881592,1.0737413167953491
0.6793256402015686,4.717281341552734,1.0797183513641357
0.64881831407547,4.740293025970459,1.0862537622451782
0.6166113018989563,4.759522438049316,1.0916014909744263
0.5838412046432495,4.770901679992676,1.0951919555664062
0.5526844263076782,4.797186374664307,1.1022652387619019
0.5191725492477417,4.800505638122559,1.104107141494751
0.48651808500289917,4.811156749725342,1.10768723487854
0.45445388555526733,4.829164981842041,1.1130203008651733
0.4202568233013153,4.835806846618652,1.1150907278060913
0.3874889612197876,4.853561878204346,1.1197073459625244
0.35559749603271484,4.8862786293029785,1.1278361082077026
0.3218246102333069,4.895989418029785,1.1307138204574585
0.28860753774642944,4.913053512573242,1.1353436708450317
0.25484880805015564,4.933712482452393,1.1408761739730835
0.22043201327323914,4.935162544250488,1.1417750120162964
0.18766921758651733,4.982132911682129,1.1527100801467896
0.1528605967760086,4.983234405517578,1.1530892848968506
0.11834779381752014,4.999312877655029,1.1569912433624268
0.08327493071556091,5.022767543792725,1.162662148475647
0.04854608327150345,5.042164325714111,1.1674479246139526
0.013521060347557068,5.049902439117432,1.169592261314392
-0.02171168103814125,5.080336570739746,1.1765636205673218
-0.05728495121002197,5.102980136871338,1.1814837455749512
-0.0933552235364914,5.102534294128418,1.18110990524292
-0.1292102187871933,5.117064952850342,1.1842641830444336
-0.16563931107521057,5.142755031585693,1.1900568008422852
-0.20198491215705872,5.1567769050598145,1.1932058334350586
-0.23853348195552826,5.170541286468506,1.1963527202606201
-0.27815231680870056,5.241230010986328,1.2119715213775635
-0.2625320255756378,4.36554479598999,1.0088423490524292
-0.2922263741493225,4.3562517166137695,1.0061185359954834
-0.32124263048171997,4.339163303375244,1.0016453266143799
-0.3545423746109009,4.374988555908203,1.0094290971755981
-0.37962448596954346,4.3119635581970215,0.9944570064544678
-0.40617311000823975,4.267739295959473,0.9837061166763306
-0.4289870262145996,4.200812339782715,0.9672856330871582
-0.4546624720096588,4.167829513549805,0.9587477445602417
-0.47590431571006775,4.10064697265625,0.9424104690551758
-0.4996849000453949,4.0598015785217285,0.9321868419647217
-0.5229854583740234,4.0149760246276855,0.9210947751998901
-0.5457376837730408,3.9738481044769287,0.9109245538711548
-0.5666180849075317,3.9251654148101807,0.898709237575531
-0.592972457408905,3.917889356613159,0.8957863450050354
-0.6079293489456177,3.8389251232147217,0.8765395879745483
-0.6291457414627075,3.801213026046753,0.8667663931846619
-0.6490452885627747,3.759655237197876,0.8561870455741882
-0.6698314547538757,3.725485324859619,0.8473476767539978
-0.6894111037254333,3.687469482421875,0.8376718163490295
-0.7087929844856262,3.6532936096191406,0.8283810019493103
-0.723940372467041,3.6003291606903076,0.8149036169052124
-0.742721676826477,3.5659029483795166,0.8056665658950806
-0.7568450570106506,3.512772560119629,0.7922847270965576
-0.7730684876441956,3.470712661743164,0.7814539074897766
-0.7955847978591919,3.4583349227905273,0.7773615121841431
-0.8140981197357178,3.431100368499756,0.7696627974510193
-0.8279100060462952,3.3852410316467285,0.7576017379760742
-0.849112868309021,3.3727493286132812,0.7530995011329651
-0.8644031286239624,3.3379504680633545,0.7436725497245789
-0.8808534741401672,3.3066320419311523,0.7350392937660217
-0.8999341130256653,3.286288022994995,0.7289019227027893
-0.9148280024528503,3.2511050701141357,0.7193586826324463
-0.9283992648124695,3.2161664962768555,0.7096304893493652
-0.9491646885871887,3.206824779510498,0.7056002616882324
-0.9620773792266846,3.171736717224121,0.6959577798843384
-0.9773246049880981,3.143770933151245,0.6878975033760071
-0.9927569031715393,3.1155829429626465,0.6798033118247986
-1.0120664834976196,3.102039337158203,0.6749119162559509
-1.024559497833252,3.0705039501190186,0.6657649874687195
-1.0403777360916138,3.0497922897338867,0.6590250134468079
-1.053441047668457,3.0217673778533936,0.6507615447044373
-1.0655300617218018,2.989879846572876,0.6416619420051575
-1.073835849761963,2.94698166847229,0.630219042301178
-1.0890212059020996,2.9258546829223633,0.6234396696090698
-1.125141978263855,2.9622414112091064,0.6285771131515503
-1.1202607154846191,2.8910818099975586,0.6109408140182495
-1.129963994026184,2.8593029975891113,0.6017327308654785
-1.1446480751037598,2.837794065475464,0.5946126580238342
-1.1441806554794312,2.780851125717163,0.5801945924758911
-1.1068966388702393,2.639338493347168,0.5481175780296326
-1.121622920036316,2.625619649887085,0.5425611734390259
-1.145399808883667,2.632932186126709,0.5413682460784912
-1.1699947118759155,2.6397817134857178,0.5399740934371948
-1.1823172569274902,2.6183242797851562,0.5327826142311096
-1.2071661949157715,2.6247684955596924,0.5312679409980774
-1.2394307851791382,2.648860216140747,0.5329492092132568
-1.2522451877593994,2.6309995651245117,0.526188313961029
-1.2702972888946533,2.6232831478118896,0.5214215517044067
-1.2650783061981201,2.5668771266937256,0.5069586634635925
-1.2832677364349365,2.5587854385375977,0.5021247267723083
-1.2934924364089966,2.537353992462158,0.4943942427635193
-1.3069101572036743,2.5227837562561035,0.48801127076148987
-1.3184348344802856,2.5047078132629395,0.480987012386322
-1.3220226764678955,2.4689526557922363,0.4703631103038788
-1.332198143005371,2.4469451904296875,0.4625142812728882
-1.344759225845337,2.4322898387908936,0.4557773172855377
-1.3458644151687622,2.3973817825317383,0.44531360268592834
-1.365999460220337,2.3958752155303955,0.4410235583782196
-1.3775571584701538,2.376960515975952,0.43329691886901855
-1.3861714601516724,2.355109453201294,0.4250516891479492
-1.3978008031845093,2.3402984142303467,0.4179542660713196
-1.401280164718628,2.3122074604034424,0.40855371952056885
-1.4095840454101562,2.290128469467163,0.3999828100204468
-1.4260677099227905,2.2810161113739014,0.3935711979866028
-1.4327958822250366,2.259605884552002,0.38491758704185486
-1.4643992185592651,2.277219772338867,0.3828996419906616
-1.4847458600997925,2.2744195461273193,0.37701210379600525
-1.4559497833251953,2.19724440574646,0.35882851481437683
-1.4900332689285278,2.2175498008728027,0.3563474714756012
-1.4981212615966797,2.199188470840454,0.34767666459083557
-1.483068823814392,2.1449410915374756,0.33298832178115845
-1.4931414127349854,2.129657506942749,0.3243750333786011
-1.5024362802505493,2.114759922027588,0.31577569246292114
-1.506040096282959,2.0895631313323975,0.3051372170448303
-1.5227802991867065,2.0834248065948486,0.29715222120285034
-1.524512767791748,2.0592494010925293,0.2864987552165985
-1.4805667400360107,2.077021360397339,-0.1425900012254715
-1.483262538909912,2.1126255989074707,-0.15433110296726227
-1.4963817596435547,2.164517641067505,-0.16730616986751556
-1.4666457176208496,2.155766725540161,-0.1756679117679596
-1.4772897958755493,2.204233407974243,-0.18815122544765472
-1.4735431671142578,2.233971357345581,-0.19929423928260803
-1.4628249406814575,2.2540788650512695,-0.2097177803516388
-1.4446632862091064,2.260300874710083,-0.2183004468679428
-1.4380849599838257,2.2866358757019043,-0.22888712584972382
-1.4025697708129883,2.266606569290161,-0.23472782969474792
-1.3822826147079468,2.269045114517212,-0.24245819449424744
-1.35312819480896,2.2584662437438965,-0.2488379180431366
-1.3164243698120117,2.234117031097412,-0.2534063756465912
-1.2867443561553955,2.219048500061035,-0.25853484869003296
-1.2839810848236084,2.251094102859497,-0.2691374123096466
-1.2823553085327148,2.2867586612701416,-0.28033000230789185
-1.2654480934143066,2.295182943344116,-0.28820475935935974
-1.2527216672897339,2.310025215148926,-0.2966775596141815
-1.2466037273406982,2.3387603759765625,-0.3069800138473511
-1.2365808486938477,2.3605916500091553,-0.3164660632610321
-1.2232701778411865,2.375235080718994,-0.3248632550239563
-1.2109932899475098,2.3935112953186035,-0.3338926136493683
-1.2571858167648315,2.529686212539673,-0.3596063554286957
-1.3169925212860107,2.6977436542510986,-0.3905372619628906
-1.2324471473693848,2.569705009460449,-0.378569096326828
-1.20549738407135,2.559953451156616,-0.3835572898387909
-1.1803045272827148,2.553489923477173,-0.38894978165626526
-1.1759809255599976,2.592604637145996,-0.4013674259185791
-1.1433106660842896,2.5679798126220703,-0.40377277135849
-1.1447014808654785,2.6211414337158203,-0.41831621527671814
-1.2868305444717407,3.0047028064727783,-0.4866064190864563
-1.2369773387908936,2.944803237915039,-0.48368266224861145
-1.1759452819824219,2.855954647064209,-0.47571128606796265
-1.1293141841888428,2.79868483543396,-0.4723654091358185
-1.0694013833999634,2.705051898956299,-0.4625365734100342
-1.0180972814559937,2.6286818981170654,-0.45520487427711487
-0.9802323579788208,2.584228515625,-0.45308178663253784
-0.9384921193122864,2.5287728309631348,-0.4487169086933136
-0.8979507684707642,2.4727866649627686,-0.4439234733581543
-0.8571605682373047,2.4127087593078613,-0.4380994439125061
-0.8210647106170654,2.3631362915039062,-0.43390971422195435
-0.785563588142395,2.313297986984253,-0.4292629063129425
-0.7457094788551331,2.248581647872925,-0.42170724272727966
-0.7108026146888733,2.194324254989624,-0.41576915979385376
-0.6894676685333252,2.1800308227539062,-0.41724351048469543
-0.664857804775238,2.154618501663208,-0.41627979278564453
-0.6362321972846985,2.1142711639404297,-0.4123147130012512
-0.6093528866767883,2.077324867248535,-0.40886491537094116
-0.588072657585144,2.0586283206939697,-0.40897220373153687
-0.5672722458839417,2.039764881134033,-0.40862759947776794
-0.5437622666358948,2.0096189975738525,-0.4059462249279022
-0.51978999376297,1.9755452871322632,-0.40236032009124756
-0.497288316488266,1.9449660778045654,-0.3993852436542511
-0.47774606943130493,1.9254447221755981,-0.3983974754810333
-0.45515841245651245,1.890832543373108,-0.3941150903701782
-0.44703948497772217,1.9156450033187866,-0.40220701694488525
-0.4141588509082794,1.8321932554244995,-0.3874846398830414
-0.4045429527759552,1.8493554592132568,-0.39371874928474426
-0.38181957602500916,1.8066679239273071,-0.38713374733924866
-0.36606061458587646,1.7937026023864746,-0.38681069016456604
-0.3564050495624542,1.810600996017456,-0.3929469585418701
-0.3330247104167938,1.756176471710205,-0.38337886333465576
-0.3179645538330078,1.7429004907608032,-0.38256072998046875
-0.3042076826095581,1.7370541095733643,-0.38340258598327637
-0.285064160823822,1.697208046913147,-0.3766646981239319
-0.2810368537902832,1.7476246356964111,-0.38984933495521545
-0.25778985023498535,1.6774578094482422,-0.37590107321739197
-0.237738698720932,1.622182011604309,-0.3651792109012604
-0.22882328927516937,1.6422624588012695,-0.37142741680145264
-0.22234199941158295,1.68117094039917,-0.3819028437137604
-0.20966173708438873,1.6747453212738037,-0.38182708621025085
-0.19886937737464905,1.6833581924438477,-0.3851986229419708
-0.1846027821302414,1.661616563796997,-0.3816300928592682
-0.1722378134727478,1.6549162864685059,-0.3814992606639862
-0.16272500157356262,1.6785367727279663,-0.38801631331443787
-0.15036919713020325,1.671755313873291,-0.3875153362751007
-0.14060769975185394,1.6952260732650757,-0.3940579295158386
-0.1270565688610077,1.6731058359146118,-0.390022873878479
-0.10729285329580307,1.5560815334320068,-0.3634571135044098
-0.09627934545278549,1.5566121339797974,-0.36426809430122375
-0.08751708269119263,1.595035195350647,-0.3739705979824066
-0.07913368195295334,1.6523932218551636,-0.3881736993789673
-0.06918509304523468,1.6907658576965332,-0.397676020860672
-0.0526445172727108,1.5504909753799438,-0.36502835154533386
-0.042288076132535934,1.5735293626785278,-0.3708271086215973
-0.033395472913980484,1.6763172149658203,-0.3954622447490692
-0.020613279193639755,1.5890214443206787,-0.375049889087677
-0.009860237129032612,1.6385409832000732,-0.38674792647361755
0.0015506306663155556,1.6689763069152832,-0.3939609229564667
0.012722969986498356,1.5890809297561646,-0.375148743391037
0.023148735985159874,1.5471664667129517,-0.36516138911247253
0.03533939644694328,1.611668348312378,-0.38005319237709045
0.048636943101882935,1.6836804151535034,-0.3967074453830719
0.059247937053442,1.6529903411865234,-0.38917410373687744
0.07172522693872452,1.6754413843154907,-0.39407676458358765
0.08206868171691895,1.644693374633789,-0.38613924384117126
0.09568054974079132,1.6822377443313599,-0.39426320791244507
0.10787983983755112,1.6893088817596436,-0.3952457010746002
0.11909563094377518,1.6811195611953735,-0.39265143871307373
0.12964050471782684,1.6653512716293335,-0.38792723417282104
0.14339756965637207,1.6874195337295532,-0.39201292395591736
0.15723812580108643,1.7093982696533203,-0.3960895836353302
0.1699039489030838,1.7161171436309814,-0.39663034677505493
0.18107090890407562,1.7076804637908936,-0.3933115005493164
0.19469763338565826,1.721881628036499,-0.3951803743839264
0.20920123159885406,1.739742636680603,-0.3978562653064728
0.22424426674842834,1.7612899541854858,-0.4013846218585968
0.2375684231519699,1.7676769495010376,-0.4011489450931549
0.2542146146297455,1.796632170677185,-0.4059101939201355
0.2684618830680847,1.8065965175628662,-0.4063608944416046
0.28719761967658997,1.8428051471710205,-0.4126540720462799
0.3025430142879486,1.85634183883667,-0.41363781690597534
0.32259300351142883,1.896126389503479,-0.42025530338287354
0.3398687243461609,1.9169492721557617,-0.42261743545532227
0.3560657799243927,1.9301221370697021,-0.42326971888542175
0.37389108538627625,1.9507031440734863,-0.42536965012550354
0.387798935174942,1.9486647844314575,-0.4222487807273865
0.40531280636787415,1.9652776718139648,-0.42321205139160156
0.43029147386550903,2.015395402908325,-0.43131065368652344
0.44939476251602173,2.0354278087615967,-0.4328054189682007
0.46367424726486206,2.0329806804656982,-0.42922893166542053
0.49137014150619507,2.0862605571746826,-0.4372970759868622
0.5168876647949219,2.128166913986206,-0.44290345907211304
0.5458211302757263,2.1809914112091064,-0.4506235718727112
0.569746732711792,2.211362600326538,-0.45324385166168213
0.6049428582191467,2.282273769378662,-0.4640144109725952
0.6343963742256165,2.3268868923187256,-0.46919217705726624
0.663221538066864,2.3675875663757324,-0.4735112488269806
0.7021197080612183,2.4412925243377686,-0.48393335938453674
0.7290578484535217,2.470439910888672,-0.4853181540966034
0.7742732763290405,2.5581438541412354,-0.4979989230632782
0.8165894746780396,2.630619764328003,-0.5073429346084595
0.8514231443405151,2.6771926879882812,-0.5112917423248291
0.8999994993209839,2.763673782348633,-0.5225474238395691
0.9511078000068665,2.8532962799072266,-0.5340514183044434
1.0023424625396729,2.9387378692626953,-0.5444275736808777
1.0521751642227173,3.016467332839966,-0.5528391599655151
1.1112240552902222,3.115386486053467,-0.5645516514778137
1.1766846179962158,3.228261947631836,-0.5784530639648438
1.2304800748825073,3.3042924404144287,-0.5853284001350403
1.261954426765442,3.3186066150665283,-0.5809072852134705
1.292149543762207,3.3291189670562744,-0.5756399631500244
1.5234501361846924,3.8449132442474365,-0.6564282774925232
1.6042907238006592,3.968047857284546,-0.6688373684883118
1.6704862117767334,4.051185131072998,-0.6738901734352112
1.701788306236267,4.04829740524292,-0.6643003821372986
1.7773933410644531,4.148090839385986,-0.6712813377380371
1.9884169101715088,4.551366329193115,-0.7259183526039124
1.4889875650405884,3.345256805419922,-0.5257306098937988
1.504340648651123,3.3186142444610596,-0.5136719346046448
1.517876386642456,3.288325786590576,-0.5011274218559265
1.5477639436721802,3.2929019927978516,-0.4938524067401886
1.5644692182540894,3.269273519515991,-0.48213139176368713
1.5837267637252808,3.2527658939361572,-0.47161275148391724
1.6099615097045898,3.2498953342437744,-0.4629995822906494
1.6365941762924194,3.246633768081665,-0.45418426394462585
1.6786538362503052,3.274466037750244,-0.4495260715484619
1.6027157306671143,3.074937105178833,-0.4140501618385315
1.6701922416687012,3.1503524780273438,-0.41559037566185
1.7164490222930908,3.184135913848877,-0.4113759398460388
1.7178179025650024,3.1360831260681152,-0.39650312066078186
1.7242395877838135,3.098299503326416,-0.3831345736980438
1.7749369144439697,3.1379282474517822,-0.3789852559566498
1.797199010848999,3.1265013217926025,-0.3683633506298065
1.3266717195510864,2.2727315425872803,-0.26111000776290894
0.961748480796814,1.6221437454223633,-0.1814901977777481
0.8849769830703735,1.4692884683609009,-0.15985029935836792
0.886841893196106,1.4505069255828857,-0.15328720211982727
0.9604992270469666,1.547364592552185,-0.1585719883441925
0.9922426342964172,1.5740002393722534,-0.1560971587896347
1.009347915649414,1.5775444507598877,-0.15119096636772156
1.009358286857605,1.5549248456954956,-0.14380498230457306
1.0245494842529297,1.5548491477966309,-0.13831667602062225
1.0376176834106445,1.5513948202133179,-0.13234394788742065
1.0413720607757568,1.5352813005447388,-0.12542420625686646
1.0675328969955444,1.5509644746780396,-0.12079066038131714
2.564828395843506,3.673213481903076,-0.27170851826667786
2.589005470275879,3.6573379039764404,-0.256124883890152
2.619532585144043,3.6462929248809814,-0.2397008240222931
2.6002449989318848,3.5698184967041016,-0.21932105720043182
2.6538102626800537,3.594426155090332,-0.20505015552043915
2.6246578693389893,3.723261594772339,0.5924810171127319
2.5944595336914062,3.741863250732422,0.6080917119979858
2.5608129501342773,3.7531416416168213,0.6220846772193909
1.0637127161026,1.5829583406448364,0.26719191670417786
1.0426511764526367,1.5774234533309937,0.27075937390327454
1.030036211013794,1.5847015380859375,0.2764836847782135
1.0227426290512085,1.5976921319961548,0.2828103303909302
1.0231380462646484,1.623970866203308,0.2914879620075226
0.9979324340820312,1.6114591360092163,0.2931459844112396
0.9936054944992065,1.6313234567642212,0.3005276024341583
0.9818375110626221,1.6375646591186523,0.30522435903549194
0.965604305267334,1.6373794078826904,0.30859407782554626
1.3529516458511353,2.3342342376708984,0.44461143016815186
1.8688119649887085,3.280757188796997,0.6314395070075989
1.8264288902282715,3.258859634399414,0.6332343220710754
1.7671071290969849,3.2065558433532715,0.6288056373596191
1.7882837057113647,3.303086042404175,0.6533152461051941
1.7629170417785645,3.315113067626953,0.661291778087616
2.39589262008667,4.584046840667725,0.9218152165412903
2.3630971908569336,4.598975658416748,0.9320527911186218
2.328449010848999,4.61461877822876,0.9418841600418091
2.298511028289795,4.640471935272217,0.9537672400474548
2.2603256702423096,4.648663520812988,0.9620016813278198
2.2364931106567383,4.683777332305908,0.9756676554679871
2.1997902393341064,4.690736293792725,0.9833939075469971
2.1741111278533936,4.726217746734619,0.9964883327484131
2.135399341583252,4.733580589294434,1.0037267208099365
2.100241184234619,4.747459411621094,1.012323021888733
2.066554069519043,4.760467052459717,1.0205354690551758
2.0231497287750244,4.752304553985596,1.0243383646011353
1.7446023225784302,4.18218469619751,0.9056497812271118
1.7091115713119507,4.1829633712768555,0.9099944829940796
1.682275414466858,4.204756736755371,0.9189555048942566
1.6580172777175903,4.229439735412598,0.9284300208091736
1.630328893661499,4.246968746185303,0.9364591240882874
1.594292163848877,4.242947101593018,0.9393653869628906
1.5682893991470337,4.26763916015625,0.9483632445335388
1.5342950820922852,4.270562171936035,0.9525755047798157
1.505887746810913,4.287487983703613,0.959907054901123
1.4775334596633911,4.304148197174072,0.9672157168388367
1.4520208835601807,4.3276848793029785,0.9760698676109314
1.4228624105453491,4.344244956970215,0.9828164577484131
1.3980644941329956,4.375208854675293,0.9927839636802673
