X,Y,Z
-0.18105602264404297,4.314932346343994,0.5645226836204529
-0.22090165317058563,4.514782428741455,0.5905253887176514
-0.2532237470149994,4.532559394836426,0.5924631357192993
-0.2925916016101837,4.658370018005371,0.6083780527114868
-0.36627253890037537,5.251420974731445,0.6852656006813049
-0.4020308256149292,5.233379364013672,0.6823714375495911
-0.43781018257141113,5.222846031188965,0.6804977655410767
-0.473406583070755,5.21207332611084,0.6786279082298279
-0.5124847292900085,5.239658355712891,0.6815486550331116
-0.4290820360183716,4.095701217651367,0.5320512652397156
-0.5926043391227722,5.297832012176514,0.6873278021812439
-0.6245118975639343,5.255328178405762,0.6809818148612976
-0.6566222906112671,5.2164459228515625,0.6751428246498108
-0.712332546710968,5.357872486114502,0.6926542520523071
-0.749384343624115,5.353018283843994,0.6910871267318726
-0.7856366038322449,5.3402299880981445,0.688200831413269
-0.8027795553207397,5.208569526672363,0.6700800061225891
-0.8354166150093079,5.184042930603027,0.6658057570457458
-0.8674896955490112,5.155429840087891,0.6610353589057922
-0.8993133902549744,5.126601219177246,0.6562756896018982
-0.9201340079307556,5.040441989898682,0.6440789699554443
-0.9652939438819885,5.087521076202393,0.6486021280288696
-0.9925550818443298,5.043061256408691,0.6415070295333862
-1.0239006280899048,5.021251678466797,0.6373382210731506
-1.0723260641098022,5.078795909881592,0.6432375311851501
-1.093578577041626,5.007114887237549,0.6327967643737793
-1.1390079259872437,5.044996738433838,0.6360315680503845
-1.1733125448226929,5.037473201751709,0.6333016157150269
-1.1849861145019531,4.93544340133667,0.6187502145767212
-1.209288239479065,4.889944553375244,0.6113606691360474
-1.2135119438171387,4.765275478363037,0.5941255688667297
-1.2403249740600586,4.730642795562744,0.5881615281105042
-1.272737741470337,4.722378730773926,0.5853174328804016
-1.2964400053024292,4.684109687805176,0.5786139965057373
-1.3218019008636475,4.653194427490234,0.5728673338890076
-1.3512358665466309,4.63701868057251,0.5689685940742493
-1.3951176404953003,4.664895534515381,0.5704132318496704
-1.1181401014328003,3.6464626789093018,0.4443783462047577
-1.1440223455429077,3.642815351486206,0.4421781003475189
-1.1626309156417847,3.6168696880340576,0.4372543394565582
-1.4937574863433838,4.541999816894531,0.5468837022781372
-1.52048921585083,4.517162799835205,0.5416315793991089
-1.6101386547088623,4.67567253112793,0.5583136081695557
-1.6307929754257202,4.63192892074585,0.55068039894104
-1.6816675662994385,4.676101207733154,0.5532388687133789
-1.6770389080047607,4.566714286804199,0.5376757979393005
-1.7105793952941895,4.563010215759277,0.5346289873123169
-1.7401782274246216,4.543969631195068,0.5296767354011536
-1.7775369882583618,4.5466389656066895,0.5273230075836182
-1.7936586141586304,4.499017238616943,0.5188327431678772
-1.8238046169281006,4.487377166748047,0.5145276188850403
-1.8850939273834229,4.550900936126709,0.5188144445419312
-1.9065648317337036,4.512962341308594,0.5113732218742371
-1.922627568244934,4.464379787445068,0.5028276443481445
-1.965071439743042,4.480357646942139,0.5013048052787781
-1.9790340662002563,4.43221378326416,0.4925728440284729
-2.0246028900146484,4.454840660095215,0.49172788858413696
-2.029906749725342,4.384542465209961,0.4804638624191284
-2.052297592163086,4.353170394897461,0.4735775589942932
-4.435174465179443,9.247676849365234,0.9981400370597839
-4.493220806121826,9.212149620056152,0.9863483905792236
-2.1217539310455322,4.278052806854248,0.45435023307800293
-2.182023763656616,4.322407245635986,0.4550516605377197
-2.2030460834503174,4.290460586547852,0.44771695137023926
-2.2098147869110107,4.234984397888184,0.4377608895301819
-2.241424083709717,4.227727890014648,0.43284720182418823
-2.266444206237793,4.20612096786499,0.4263651371002197
-2.2678492069244385,4.139531135559082,0.4152715504169464
-2.2372734546661377,4.019211292266846,0.39870744943618774
-2.26364803314209,4.004998207092285,0.39281725883483887
-2.294142961502075,3.9971706867218018,0.3875049352645874
-2.3260393142700195,3.9883177280426025,0.3818539083003998
-2.348888874053955,3.9664645195007324,0.37483975291252136
-2.3711819648742676,3.944709300994873,0.36767295002937317
-2.401268482208252,3.936197280883789,0.361782044172287
-2.424710750579834,3.9132707118988037,0.3542734384536743
-2.4506866931915283,3.8976824283599854,0.3473135232925415
-2.475851058959961,3.8823657035827637,0.34032177925109863
-2.4938769340515137,3.852903127670288,0.33180245757102966
-2.525068759918213,3.842510461807251,0.32477185130119324
-2.5259594917297363,3.791160821914673,0.314154714345932
-2.6004409790039062,3.849759817123413,0.31260251998901367
-2.0675771236419678,3.015493631362915,0.23932722210884094
-2.054183006286621,2.9542131423950195,0.2288251519203186
-2.0638997554779053,2.928877592086792,0.2212969809770584
-2.08417010307312,2.915022134780884,0.2141461968421936
-2.1121833324432373,2.914602279663086,0.20779810845851898
-1.1032994985580444,1.5027767419815063,0.10383525490760803
-1.1044951677322388,1.4827736616134644,0.09877485781908035
-2.0622754096984863,2.9160823822021484,-0.13610541820526123
-2.487783193588257,3.5707476139068604,-0.17550557851791382
-2.4559173583984375,3.5827934741973877,-0.18487107753753662
-2.4423959255218506,3.6198112964630127,-0.19526982307434082
-2.4202539920806885,3.6435348987579346,-0.20455756783485413
-2.38834810256958,3.6546993255615234,-0.21313627064228058
-2.362412452697754,3.6710221767425537,-0.221502885222435
-2.3354310989379883,3.6877377033233643,-0.22981025278568268
-2.307272434234619,3.7048861980438232,-0.2382686734199524
-2.28108286857605,3.7205586433410645,-0.2460988163948059
-2.2498624324798584,3.7298946380615234,-0.2534339427947998
-2.226027727127075,3.752704381942749,-0.2616738975048065
-2.1953513622283936,3.7611823081970215,-0.268634170293808
-2.1717610359191895,3.783308982849121,-0.27656289935112
-2.143777847290039,3.7986960411071777,-0.283872127532959
-2.1200754642486572,3.8203537464141846,-0.2915416657924652
-2.096937894821167,3.84144926071167,-0.29903262853622437
-2.0686614513397217,3.8562076091766357,-0.3059478998184204
-2.0398006439208984,3.8709895610809326,-0.3129780888557434
-2.016096830368042,3.8916256427764893,-0.3201688826084137
-1.9847222566604614,3.898435592651367,-0.3261561989784241
-1.9614133834838867,3.9227354526519775,-0.33354729413986206
-1.9398863315582275,3.9502367973327637,-0.34120213985443115
-1.9184075593948364,3.977457284927368,-0.3488234877586365
-1.8897755146026611,3.990593194961548,-0.3550269901752472
-1.8640414476394653,4.010715007781982,-0.36182788014411926
-1.8385604619979858,4.0304670333862305,-0.36855483055114746
-1.8166627883911133,4.056900978088379,-0.3758358657360077
-1.7843445539474487,4.062173366546631,-0.38102853298187256
-1.7606135606765747,4.088910102844238,-0.3883049190044403
-1.7314742803573608,4.100785732269287,-0.39405786991119385
-1.71311354637146,4.137434482574463,-0.40216895937919617
-1.6922283172607422,4.170679569244385,-0.40982455015182495
-1.6593332290649414,4.174962520599365,-0.4146175980567932
-1.6318570375442505,4.193572998046875,-0.4208911061286926
-1.6052510738372803,4.21161413192749,-0.4269907474517822
-1.5725939273834229,4.215088367462158,-0.4314424991607666
-1.5477044582366943,4.2403244972229,-0.43806350231170654
-1.5174329280853271,4.2507219314575195,-0.4431706964969635
-1.4922778606414795,4.275557041168213,-0.44981101155281067
-1.4645971059799194,4.292815208435059,-0.45549046993255615
-1.19314444065094,3.5799975395202637,-0.38292986154556274
-1.1555659770965576,3.5510385036468506,-0.3828893303871155
-1.1353378295898438,3.573453187942505,-0.3883386254310608
-1.1121459007263184,3.588451385498047,-0.39303451776504517
-1.0742043256759644,3.5549814701080322,-0.3921084403991699
-1.0466973781585693,3.5546884536743164,-0.39482131600379944
-1.031278371810913,3.5951809883117676,-0.40207695960998535
-1.0082814693450928,3.6093711853027344,-0.4064144492149353
-0.9849164485931396,3.6234939098358154,-0.4105575978755951
-0.9627972841262817,3.645129919052124,-0.4155243933200836
-0.9370227456092834,3.6514737606048584,-0.4187348783016205
-0.9170992970466614,3.6801724433898926,-0.42451968789100647
-0.8876422047615051,3.671052932739258,-0.4259103238582611
-0.8687224388122559,3.7071423530578613,-0.4322948157787323
-0.840300977230072,3.7053868770599365,-0.4343390166759491
-0.815900981426239,3.718447208404541,-0.43808889389038086
-0.789957582950592,3.7237093448638916,-0.44092831015586853
-0.7653427124023438,3.736457347869873,-0.44445112347602844
-0.7412682771682739,3.7528767585754395,-0.4482985734939575
-0.7157865166664124,3.7654147148132324,-0.4517498314380646
-0.6936895251274109,3.7929139137268066,-0.45698097348213196
-0.6658705472946167,3.7897207736968994,-0.4585389494895935
-0.6405248045921326,3.8017008304595947,-0.4615521728992462
-0.6162785887718201,3.821167230606079,-0.46550655364990234
-0.591381847858429,3.8405356407165527,-0.46950942277908325
-0.5668711066246033,3.859652280807495,-0.4734800457954407
-0.5447454452514648,3.8978383541107178,-0.47968026995658875
-0.5214939117431641,3.932101011276245,-0.4851683974266052
-0.49682295322418213,3.9585301876068115,-0.4897313117980957
-0.47011420130729675,3.9693875312805176,-0.49239566922187805
-0.4419950544834137,3.9724009037017822,-0.4941343367099762
-0.41546159982681274,3.986781358718872,-0.4969831109046936
-0.3883281648159027,3.997148036956787,-0.4992065727710724
-0.3624613881111145,4.022770881652832,-0.5033671855926514
-0.33767297863960266,4.063665390014648,-0.5094735026359558
-0.30660560727119446,4.0348687171936035,-0.5068845152854919
-0.28007742762565613,4.060003280639648,-0.5106351375579834
-0.25221577286720276,4.069493293762207,-0.5124220252037048
-0.22749510407447815,4.136835098266602,-0.5215280652046204
-0.19645872712135315,4.091760635375977,-0.5164898633956909
-0.16637101769447327,4.065851211547852,-0.5137973427772522
-0.14105570316314697,4.155953407287598,-0.5253934264183044
-0.1090603843331337,4.04444694519043,-0.5115259289741516
-0.08059625327587128,4.029567241668701,-0.5098966956138611
-0.052377909421920776,4.01448917388916,-0.5082644820213318
-0.02378726191818714,3.979865789413452,-0.5039753317832947
0.003837303724139929,3.9566996097564697,-0.500898540019989
0.031048711389303207,3.917842149734497,-0.49586138129234314
0.057463571429252625,3.859423875808716,-0.488374799489975
0.08306640386581421,3.8008296489715576,-0.48089227080345154
0.10884116590023041,3.7769711017608643,-0.47752436995506287
0.13474559783935547,3.752941608428955,-0.474004328250885
0.1595190465450287,3.7210094928741455,-0.46952444314956665
0.18366190791130066,3.6850438117980957,-0.46456608176231384
0.20838096737861633,3.668271541595459,-0.46205589175224304
0.23133866488933563,3.6281774044036865,-0.45625123381614685
0.2511778473854065,3.545386552810669,-0.4450744688510895
0.2742709517478943,3.524354934692383,-0.44170644879341125
0.2967856824398041,3.4993081092834473,-0.4378643333911896
0.1700924038887024,1.8528687953948975,-0.23145325481891632
0.1859646737575531,1.8825969696044922,-0.23459529876708984
0.3629365861415863,3.427259922027588,-0.4260404407978058
0.3814662992954254,3.378593921661377,-0.41900211572647095
0.4113987386226654,3.429914951324463,-0.4243796467781067
0.435200572013855,3.427157163619995,-0.422914057970047
0.4568224549293518,3.4089009761810303,-0.41934317350387573
0.4683586061000824,3.3174946308135986,-0.40680956840515137
0.4902556538581848,3.3066892623901367,-0.4042348563671112
0.5120792388916016,3.2957310676574707,-0.4016636908054352
0.5336909890174866,3.284670114517212,-0.39885613322257996
0.5525057315826416,3.258195161819458,-0.39410439133644104
0.5750557780265808,3.254528045654297,-0.3921394348144531
0.5953035950660706,3.235351085662842,-0.3882964551448822
0.6112691164016724,3.1970667839050293,-0.38222435116767883
0.6242994070053101,3.147364854812622,-0.37452882528305054
0.6390154361724854,3.1090309619903564,-0.3682484030723572
0.6556783318519592,3.0820202827453613,-0.36335617303848267
0.6758790612220764,3.0699706077575684,-0.36021915078163147
0.6954835057258606,3.057899236679077,-0.3570292890071869
0.7147806286811829,3.0457606315612793,-0.3536801040172577
0.730315625667572,3.0184009075164795,-0.34859707951545715
0.7512849569320679,3.0135345458984375,-0.3461296558380127
0.7678255438804626,2.989612340927124,-0.3414633572101593
0.7904422283172607,2.992048501968384,-0.33965691924095154
0.8049252033233643,2.9643564224243164,-0.3343956470489502
0.8253475427627563,2.9590401649475098,-0.3316880166530609
0.8395505547523499,2.9311141967773438,-0.32645389437675476
0.8394535183906555,2.8546054363250732,-0.31580325961112976
0.8399971127510071,2.7858524322509766,-0.3059866726398468
0.8430546522140503,2.7283551692962646,-0.29751473665237427
0.8690038323402405,2.7449681758880615,-0.29713982343673706
0.8857631087303162,2.7317419052124023,-0.2935227155685425
0.9024555087089539,2.7184054851531982,-0.2897355556488037
0.9110997915267944,2.6830203533172607,-0.28363069891929626
0.925695538520813,2.665989875793457,-0.2795122563838959
0.9638363718986511,2.7147159576416016,-0.2822211980819702
0.9826748371124268,2.7082767486572266,-0.2791001796722412
0.9957746863365173,2.6872382164001465,-0.274381548166275
1.0117233991622925,2.673292636871338,-0.27037379145622253
1.030288815498352,2.666520833969116,-0.2671172618865967
1.046046257019043,2.6523447036743164,-0.2631230652332306
1.0553793907165527,2.623838424682617,-0.2576002776622772
1.073248028755188,2.616910457611084,-0.25422731041908264
1.087098240852356,2.598874568939209,-0.24971820414066315
1.1052507162094116,2.591536521911621,-0.24627217650413513
1.1167638301849365,2.5699660778045654,-0.24139024317264557
1.121610403060913,2.534170389175415,-0.23520629107952118
1.1325788497924805,2.5125439167022705,-0.2303696721792221
1.1471872329711914,2.4976744651794434,-0.22608283162117004
1.1527069807052612,2.4654040336608887,-0.22024796903133392
1.159323811531067,2.436772108078003,-0.21477442979812622
1.1759674549102783,2.4291014671325684,-0.2111511081457138
1.1895140409469604,2.4141364097595215,-0.20684146881103516
1.1992876529693604,2.3922040462493896,-0.20185117423534393
1.2154024839401245,2.384371042251587,-0.19810791313648224
1.2316992282867432,2.376307249069214,-0.1943092793226242
1.2355808019638062,2.3438167572021484,-0.18848560750484467
1.2513809204101562,2.335728883743286,-0.1846100240945816
1.2595574855804443,2.3139002323150635,-0.1796690821647644
1.2757409811019897,2.305327892303467,-0.17563876509666443
1.2917176485061646,2.2967183589935303,-0.17161262035369873
1.2992711067199707,2.2748124599456787,-0.1665758639574051
1.3143973350524902,2.2663979530334473,-0.16255782544612885
1.3262968063354492,2.25070858001709,-0.1578570455312729
1.341808795928955,2.241793394088745,-0.15356425940990448
1.3566603660583496,2.2331230640411377,-0.14934779703617096
1.3637065887451172,2.2108044624328613,-0.14413823187351227
1.3788971900939941,2.201646566390991,-0.1397252231836319
1.39332115650177,2.1928226947784424,-0.13532361388206482
1.3997889757156372,2.17043137550354,-0.12996354699134827
1.4105967283248901,2.1543774604797363,-0.12491749227046967
1.4203202724456787,2.1388821601867676,-0.11991659551858902
1.4279718399047852,2.1199400424957275,-0.1146836206316948
1.4448702335357666,2.1134510040283203,-0.10991843044757843
1.4587345123291016,2.1041600704193115,-0.10492635518312454
1.4615594148635864,2.0786335468292236,-0.09908187389373779
1.4235018491744995,1.995814323425293,-0.09049851447343826
1.4522206783294678,2.0090582370758057,-0.08639903366565704
1.4613745212554932,1.9929652214050293,-0.08064240962266922
1.4485118389129639,1.9492946863174438,-0.07379201054573059
1.4310270547866821,2.01173996925354,0.13817717134952545
1.4771965742111206,2.1076836585998535,0.1492919623851776
1.4650501012802124,2.1252501010894775,0.15496349334716797
1.4534790515899658,2.142241954803467,0.16042722761631012
1.4423445463180542,2.158782482147217,0.16561450064182281
1.4298813343048096,2.1760292053222656,0.17080383002758026
1.4176515340805054,2.192941427230835,0.1759045124053955
1.3978241682052612,2.1960549354553223,0.17963626980781555
1.3892470598220825,2.2195513248443604,0.18495547771453857
1.3724730014801025,2.229612350463867,0.18913568556308746
1.3648555278778076,2.2521910667419434,0.19417807459831238
1.351792335510254,2.2687880992889404,0.19869199395179749
1.3385008573532104,2.2853474617004395,0.20314233005046844
1.3219422101974487,2.2946362495422363,0.20682933926582336
1.3076963424682617,2.3069379329681396,0.2107112854719162
1.2941367626190186,2.323168992996216,0.21483270823955536
1.280098795890808,2.339481830596924,0.2190355360507965
1.270737886428833,2.361961603164673,0.22367605566978455
1.257718801498413,2.3774170875549316,0.22762711346149445
1.2435625791549683,2.393319606781006,0.23149757087230682
1.239830493927002,2.429945707321167,0.23742172122001648
1.2255405187606812,2.445579767227173,0.24129220843315125
1.2238410711288452,2.485219717025757,0.24748489260673523
1.2022125720977783,2.486816167831421,0.2497698962688446
1.193778157234192,2.516435146331787,0.25486627221107483
1.1884809732437134,2.553006410598755,0.26069602370262146
1.1754084825515747,2.5715928077697754,0.2646467387676239
1.1567604541778564,2.5797388553619385,0.2675154507160187
1.140880823135376,2.595015287399292,0.2709846794605255
1.1279376745224,2.6173253059387207,0.2752164602279663
1.106144905090332,2.617888927459717,0.27713248133659363
1.0967319011688232,2.6468353271484375,0.28203466534614563
1.0744346380233765,2.6473021507263184,0.2838341295719147
1.0607913732528687,2.6692721843719482,0.28784266114234924
1.0497013330459595,2.698422908782959,0.2926632761955261
1.0360832214355469,2.720059394836426,0.2966550588607788
1.0184060335159302,2.730614185333252,0.29944097995758057
0.9984884262084961,2.7377054691314697,0.30175817012786865
0.9838145971298218,2.7592735290527344,0.305587500333786
0.95865398645401,2.7514195442199707,0.3061743378639221
0.9303349256515503,2.732173442840576,0.30545634031295776
0.9161553978919983,2.7531049251556396,0.309215247631073
0.9022677540779114,2.777881383895874,0.3133586049079895
0.8845544457435608,2.791504383087158,0.3161189556121826
0.8884453773498535,2.875518560409546,0.3269064128398895
0.8857954144477844,2.9410600662231445,0.33565786480903625
0.8718329071998596,2.969294548034668,0.3401726484298706
0.8521398901939392,2.97882080078125,0.34255531430244446
0.834559977054596,2.9997119903564453,0.3460507094860077
0.8130229115486145,3.0054190158843994,0.34780004620552063
0.7953940033912659,3.025987386703491,0.3512926995754242
0.779883086681366,3.0538649559020996,0.355642169713974
0.7623030543327332,3.0740981101989746,0.35912472009658813
0.7419537305831909,3.086866617202759,0.3616372346878052
0.724285364151001,3.1108133792877197,0.3653375804424286
0.7105457186698914,3.153597593307495,0.3712867200374603
0.6930232644081116,3.1811506748199463,0.3754754066467285
0.6796280741691589,3.22749662399292,0.38189971446990967
0.658269464969635,3.2396585941314697,0.3843294382095337
0.6352623105049133,3.244096279144287,0.3856107294559479
0.6179375648498535,3.278883695602417,0.3904811441898346
0.5960015058517456,3.2906785011291504,0.39264175295829773
0.5760922431945801,3.3137638568878174,0.39616987109184265
0.5551119446754456,3.3329243659973145,0.39926132559776306
0.534329891204834,3.351884126663208,0.4023345708847046
0.5129231810569763,3.3708062171936035,0.40514490008354187
0.49461331963539124,3.4126229286193848,0.41073617339134216
0.47630226612091064,3.4581820964813232,0.4168112277984619
0.45912227034568787,3.519063949584961,0.4247778058052063
0.4346081614494324,3.5220553874969482,0.42577216029167175
0.4118421971797943,3.5402910709381104,0.42860519886016846
0.38689932227134705,3.5430195331573486,0.4293004870414734
0.36745214462280273,3.5995850563049316,0.436546266078949
0.34466060996055603,3.6290225982666016,0.4405326247215271
0.321540892124176,3.662200927734375,0.4450065493583679
0.29855239391326904,3.6951851844787598,0.44947636127471924
0.27710583806037903,3.755098342895508,0.45723095536231995
0.25183171033859253,3.772376298904419,0.4595049321651459
0.22725382447242737,3.8049659729003906,0.4636688530445099
0.20198599994182587,3.8412892818450928,0.4683178961277008
0.17551285028457642,3.8503050804138184,0.46965891122817993
0.1509505957365036,3.9095046520233154,0.4771479070186615
0.1258981078863144,3.9801723957061768,0.48606929183006287
0.09897292405366898,4.015833854675293,0.49038851261138916
0.07096865773200989,4.047443866729736,0.49423423409461975
0.0430423766374588,4.078850746154785,0.4980798065662384
0.01471105869859457,4.106186866760254,0.5014526844024658
-0.013950120657682419,4.144956588745117,0.50624680519104
-0.04374919459223747,4.241683483123779,0.5181464552879333
-0.07416379451751709,4.268439769744873,0.5211911201477051
-0.1041228249669075,4.283366680145264,0.5227759480476379
-0.13361132144927979,4.274827003479004,0.5215212106704712
-0.16283826529979706,4.262209892272949,0.5197950601577759
-0.1970159113407135,4.361726760864258,0.5317656397819519
-0.23435412347316742,4.49582576751709,0.5479699373245239
-0.26902711391448975,4.544461727142334,0.5534557104110718
-0.3050503432750702,4.61223030090332,0.561195433139801
-0.3428215980529785,4.691323280334473,0.5703242421150208
-0.37870651483535767,4.731450080871582,0.5747289061546326
-0.4334747791290283,4.979914665222168,0.6044378876686096
-0.4883829951286316,5.185312747955322,0.6288983225822449
-0.5273407697677612,5.212818622589111,0.6314991116523743
-0.5832656621932983,5.394296169281006,0.6526017189025879
-0.6049072742462158,5.255455017089844,0.6349743604660034
-0.6411694288253784,5.251311779022217,0.6336716413497925
-0.6772907972335815,5.239114761352539,0.6314099431037903
-0.7189003229141235,5.272874355316162,0.6347274780273438
-0.7469513416290283,5.21039342880249,0.6262154579162598
-0.7855288982391357,5.2245402336120605,0.6267751455307007
-0.8170989155769348,5.192418575286865,0.6218150854110718
-0.8533159494400024,5.186801910400391,0.6200446486473083
-0.8853951692581177,5.158017158508301,0.6155443787574768
-0.9184813499450684,5.136673450469971,0.611969530582428
-0.9445964694023132,5.080881118774414,0.6040655374526978
-0.9733725786209106,5.044092178344727,0.5983048677444458
-1.0016906261444092,5.007145404815674,0.5925699472427368
-1.0365087985992432,5.000308990478516,0.5904089212417603
-1.0697029829025269,4.985631465911865,0.5873506665229797
-1.1228634119033813,5.061671257019043,0.5949904322624207
-1.1341748237609863,4.951997756958008,0.5805302858352661
-1.1705389022827148,4.955791473388672,0.5793075561523438
-1.2003028392791748,4.9289984703063965,0.5745078921318054
-1.2359203100204468,4.928490161895752,0.5728244781494141
-1.2216691970825195,4.73214054107666,0.5484399795532227
-1.2485454082489014,4.7013139724731445,0.5433374047279358
-1.2743289470672607,4.670573711395264,0.537939190864563
-1.3064712285995483,4.662014961242676,0.5350721478462219
-1.3359123468399048,4.645907878875732,0.5313957333564758
-1.3623487949371338,4.618312358856201,0.5264143347740173
-1.1133091449737549,3.6798059940338135,0.41798335313796997
-1.1306593418121338,3.6463286876678467,0.4126705229282379
-1.1592363119125366,3.64986515045166,0.4113248586654663
-1.47202730178833,4.5287885665893555,0.5082628130912781
-1.507447600364685,4.533855438232422,0.506733238697052
-1.5678458213806152,4.608175754547119,0.5128476023674011
-1.6076456308364868,4.619504451751709,0.5119258761405945
-1.6259746551513672,4.572268486022949,0.5042725205421448
-1.6546884775161743,4.554098129272461,0.4997483491897583
-1.6880565881729126,4.550525665283203,0.49689599871635437
-1.7303307056427002,4.568287372589111,0.49632665514945984
-1.7831575870513916,4.610902309417725,0.49840208888053894
-1.798950433731079,4.559261322021484,0.4901401996612549
-1.821262001991272,4.525711536407471,0.48364827036857605
-1.8456003665924072,4.499473571777344,0.4780343770980835
-1.8596775531768799,4.447793960571289,0.4697255492210388
-1.9166756868362427,4.495921611785889,0.47188568115234375
-1.911914348602295,4.401061534881592,0.45896804332733154
-4.168385028839111,9.420553207397461,0.9755643606185913
-1.9551209211349487,4.3403472900390625,0.4463632106781006
-2.0251145362854004,4.4158034324646,0.4509095549583435
-2.0558583736419678,4.4020514488220215,0.44622063636779785
-2.079118013381958,4.374375343322754,0.44001805782318115
-2.1051549911499023,4.353761672973633,0.4343489706516266
-2.1082067489624023,4.2878265380859375,0.4242854416370392
-2.14107346534729,4.280706405639648,0.41997262835502625
-2.1445772647857666,4.214055061340332,0.409799188375473
-2.1620774269104004,4.179332733154297,0.40259310603141785
-2.2060132026672363,4.196429252624512,0.4003363847732544
-2.24175763130188,4.195618629455566,0.3962544798851013
-2.2859654426574707,4.207701683044434,0.3932360112667084
-2.220609664916992,4.022063732147217,0.3718005120754242
-2.2545981407165527,4.021485805511475,0.3675042986869812
-2.280965805053711,4.007095813751221,0.361947238445282
-2.3052725791931152,3.98470139503479,0.3553781509399414
-2.328700304031372,3.9625487327575684,0.3488524854183197
-2.362434148788452,3.961209297180176,0.3440198600292206
-2.3841686248779297,3.9395816326141357,0.3374270796775818
-2.411386489868164,3.923525094985962,0.33104056119918823
-2.4343807697296143,3.9006693363189697,0.3238973617553711
-2.4636995792388916,3.891984462738037,0.3179001212120056
-2.480649471282959,3.8632259368896484,0.31022632122039795
-2.49924635887146,3.83318829536438,0.3020917773246765
-2.528771162033081,3.8236825466156006,0.29548341035842896
-2.6210718154907227,3.9079692363739014,0.2958177924156189
-2.6565587520599365,3.9033989906311035,0.28897082805633545
-2.095743417739868,3.035628080368042,0.21944713592529297
-2.063565254211426,2.9492123126983643,0.20796558260917664
-2.0743422508239746,2.9229865074157715,0.20057852566242218
-2.0987915992736816,2.9155654907226562,0.1941172033548355
-2.1124062538146973,2.896510124206543,0.18693646788597107
-1.1136091947555542,1.5055571794509888,0.09379355609416962
-2.073251247406006,2.908796548843384,-0.12478607147932053
-2.0612034797668457,2.9361088275909424,-0.13298088312149048
-2.447540521621704,3.541907548904419,-0.16857030987739563
-2.4560129642486572,3.6113808155059814,-0.1799645870923996
-2.430246114730835,3.6283442974090576,-0.18836843967437744
-2.398320198059082,3.6397387981414795,-0.19643236696720123
-2.3754656314849854,3.6635491847991943,-0.20501048862934113
-2.344899892807007,3.6734933853149414,-0.21240349113941193
-2.3172826766967773,3.690521240234375,-0.22017119824886322
-2.2947609424591064,3.713291883468628,-0.2280316799879074
-2.26825213432312,3.729093074798584,-0.23528367280960083
-2.2400131225585938,3.745652198791504,-0.24267517030239105
-2.2168362140655518,3.768004894256592,-0.25019147992134094
-2.1824557781219482,3.769550323486328,-0.2561280429363251
-2.1623246669769287,3.7986249923706055,-0.26385682821273804
-2.134403944015503,3.813908338546753,-0.2706335783004761
-2.110837936401367,3.835430860519409,-0.27773332595825195
-2.0829150676727295,3.850194215774536,-0.2842024266719818
-2.054523229598999,3.8649396896362305,-0.2906486392021179
-2.0323147773742676,3.8893868923187256,-0.297689288854599
-1.9996029138565063,3.892695426940918,-0.3030072748661041
-1.9707064628601074,3.906923532485962,-0.3091348707675934
-1.9543131589889526,3.945128917694092,-0.31712058186531067
-1.9231377840042114,3.9512834548950195,-0.32239437103271484
-1.8916704654693604,3.9573378562927246,-0.3275865912437439
-1.872813105583191,3.991652250289917,-0.33505305647850037
-1.8503801822662354,4.018775939941406,-0.3419610559940338
-1.8249216079711914,4.038466930389404,-0.34820273518562317
-1.7993340492248535,4.057979583740234,-0.3542856276035309
-1.7730623483657837,4.077547073364258,-0.3603112995624542
-1.7543809413909912,4.114783763885498,-0.36792948842048645
-1.728550672531128,4.133668422698975,-0.3738419711589813
-1.7075488567352295,4.167158126831055,-0.38109320402145386
-1.6775257587432861,4.178865432739258,-0.3862018883228302
-1.647451639175415,4.1903395652771,-0.3913048207759857
-1.6180741786956787,4.201304912567139,-0.39627590775489807
-1.5884032249450684,4.212149143218994,-0.40117302536964417
-1.5630391836166382,4.237757205963135,-0.4073888659477234
-1.5299805402755737,4.241076469421387,-0.41142702102661133
-1.5001206398010254,4.251276969909668,-0.41607630252838135
-1.4779298305511475,4.283283710479736,-0.42286279797554016
-1.442307710647583,4.278563976287842,-0.4257720410823822
-1.1778181791305542,3.579277992248535,-0.35905879735946655
-1.1501343250274658,3.579740285873413,-0.3619062602519989
-1.3729990720748901,4.377481460571289,-0.4459438920021057
-1.3318071365356445,4.353193759918213,-0.4466204345226288
-1.3041926622390747,4.373307704925537,-0.4517596662044525
-1.2731393575668335,4.382034778594971,-0.45574989914894104
-1.2420270442962646,4.390539169311523,-0.4597397744655609
-1.2153840065002441,4.4137115478515625,-0.4651575982570648
-1.1840909719467163,4.421829700469971,-0.46875113248825073
-1.156657338142395,4.444765090942383,-0.47394832968711853
-1.1472975015640259,4.539037704467773,-0.48681697249412537
-1.0919535160064697,4.452332973480225,-0.48031991720199585
-1.0506865978240967,4.4179863929748535,-0.47908028960227966
-1.030814528465271,4.474161148071289,-0.4875715374946594
-1.0118547677993774,4.5378522872924805,-0.49696609377861023
-0.8188573122024536,3.7965362071990967,-0.4178217351436615
-0.7918528318405151,3.801968574523926,-0.4204680919647217
-0.7734386324882507,3.84908127784729,-0.4274274408817291
-0.7462789416313171,3.854179859161377,-0.42976146936416626
-0.7178205847740173,3.8514227867126465,-0.43122705817222595
-0.6937351822853088,3.871354818344116,-0.4352451264858246
-0.6661802530288696,3.8759469985961914,-0.437415212392807
-0.6414682865142822,3.8956329822540283,-0.4410896897315979
-0.6128893494606018,3.8921515941619873,-0.4421655237674713
-0.5903218388557434,3.926823377609253,-0.44759759306907654
-0.5640633702278137,3.9383015632629395,-0.45041874051094055
-0.5297152400016785,3.895879030227661,-0.44679439067840576
-0.5033485889434814,3.9070239067077637,-0.4492122530937195
-0.4839176833629608,3.975771903991699,-0.4582955837249756
-0.450453519821167,3.9287476539611816,-0.45405322313308716
-0.428458034992218,3.981774091720581,-0.46138083934783936
-0.4013429880142212,3.99226713180542,-0.4634150564670563
-0.37576454877853394,4.02579927444458,-0.4681698679924011
-0.3489360213279724,4.04365873336792,-0.4711189270019531
-0.3220454454421997,4.0613250732421875,-0.4740698039531708
-0.2932206094264984,4.055606842041016,-0.4741964042186737
-0.2648920714855194,4.057471752166748,-0.4749150276184082
-0.2365264594554901,4.066911220550537,-0.47655346989631653
-0.21318143606185913,4.165240287780762,-0.48863446712493896
-0.1802888959646225,4.077390670776367,-0.4788978099822998
-0.15080276131629944,4.0474700927734375,-0.4757586419582367
-0.12285450100898743,4.056144714355469,-0.47694945335388184
-0.0935954675078392,4.033608913421631,-0.474496066570282
-0.06516635417938232,4.010855674743652,-0.4720344543457031
-0.03738033026456833,4.018937587738037,-0.47322356700897217
-0.009390434250235558,4.003584861755371,-0.47137853503227234
0.01840733364224434,3.99969220161438,-0.47076335549354553
0.04642699658870697,3.976205825805664,-0.4678633511066437
0.07321733981370926,3.9292593002319336,-0.4622301161289215
0.10001884400844574,3.909282922744751,-0.45979371666908264
0.12588952481746674,3.8697800636291504,-0.45471882820129395
0.15044747292995453,3.810730457305908,-0.44732314348220825
0.1750917285680771,3.770905017852783,-0.44221699237823486
0.20010559260845184,3.7386443614959717,-0.4380194842815399
0.22256246209144592,3.6791393756866455,-0.4306466281414032
0.24466603994369507,3.6272921562194824,-0.4238334596157074
0.26807722449302673,3.602400064468384,-0.4202052652835846
0.293073832988739,3.6005594730377197,-0.41928985714912415
0.3171706795692444,3.5830435752868652,-0.4165593385696411
0.18191853165626526,1.9043890237808228,-0.22100120782852173
0.35934701561927795,3.505214214324951,-0.40578773617744446
0.3785251975059509,3.456495761871338,-0.3991938829421997
0.4007255733013153,3.438506841659546,-0.39618179202079773
0.42076751589775085,3.4010627269744873,-0.3909434378147125
0.4413805305957794,3.3751232624053955,-0.3869151771068573
0.4615534842014313,3.349093437194824,-0.3827318847179413
0.4825003743171692,3.33062744140625,-0.3794449269771576
0.5027128458023071,3.308180570602417,-0.3757306933403015
0.5249030590057373,3.2970468997955322,-0.37330737709999084
0.5438819527626038,3.2705559730529785,-0.3689626455307007
0.5638245344161987,3.2516229152679443,-0.3654104471206665
0.5862635374069214,3.247856616973877,-0.36358848214149475
0.605998694896698,3.228635787963867,-0.3600488603115082
0.6203205585479736,3.182609796524048,-0.35356029868125916
0.6349762678146362,3.1403424739837646,-0.3472277820110321
0.6494802832603455,3.1018998622894287,-0.3413929343223572
0.6692893505096436,3.089963674545288,-0.33850932121276855
0.6874170899391174,3.070286989212036,-0.3347945511341095
0.7035036087036133,3.042955160140991,-0.33020099997520447
0.7248401045799255,3.038196325302124,-0.32786616683006287
0.7420675158500671,3.018280506134033,-0.32395151257514954
0.7610824704170227,3.005772113800049,-0.3208504319190979
0.7771397233009338,2.981832265853882,-0.3165498375892639
0.7957007884979248,2.969146251678467,-0.31331467628479004
0.8164654970169067,2.963773012161255,-0.31075283885002136
0.8326092958450317,2.943387985229492,-0.30667564272880554
0.8487660884857178,2.9228460788726807,-0.30259209871292114
0.8602281808853149,2.8873205184936523,-0.2969801723957062
0.8629835247993469,2.825854778289795,-0.2885846495628357
0.8606356382369995,2.7495310306549072,-0.2787414491176605
0.8725080490112305,2.721559524536133,-0.27390313148498535
0.8963313698768616,2.73044490814209,-0.27277475595474243
0.9102116227149963,2.709714412689209,-0.26859161257743835
0.9338061809539795,2.7184042930603027,-0.2672632932662964
0.9549837708473206,2.719557285308838,-0.2651887536048889
0.9742565155029297,2.7129945755004883,-0.2622906267642975
0.9904181957244873,2.699126720428467,-0.25871217250823975
1.0060856342315674,2.6853039264678955,-0.255022794008255
1.0188298225402832,2.664119243621826,-0.25066545605659485
1.034398078918457,2.6500422954559326,-0.2469770759344101
1.0532137155532837,2.6429076194763184,-0.24388784170150757
1.0712380409240723,2.635942220687866,-0.24074794352054596
1.081710934638977,2.610893726348877,-0.2359602004289627
1.0995962619781494,2.603696346282959,-0.2327953279018402
1.111633539199829,2.5819201469421387,-0.22830139100551605
1.1296422481536865,2.574384927749634,-0.22497497498989105
1.128033995628357,2.524277925491333,-0.21798093616962433
1.1339313983917236,2.4919939041137695,-0.2125953733921051
1.1480461359024048,2.4772214889526367,-0.2086826115846634
1.1550655364990234,2.4484193325042725,-0.20357857644557953
1.1718584299087524,2.4407083988189697,-0.20016568899154663
1.1849621534347534,2.4259798526763916,-0.19623030722141266
1.194960355758667,2.403956174850464,-0.1916530281305313
1.2078845500946045,2.3890345096588135,-0.1876320093870163
1.2203608751296997,2.3741977214813232,-0.18360477685928345
1.2274149656295776,2.348862648010254,-0.1787782907485962
1.2459204196929932,2.3437910079956055,-0.17538025975227356
1.2599384784698486,2.332124948501587,-0.17150062322616577
1.275519847869873,2.3239049911499023,-0.16786666214466095
1.2837837934494019,2.3017749786376953,-0.16318818926811218
1.2921556234359741,2.279439926147461,-0.1584685891866684
1.3036664724349976,2.2641451358795166,-0.15417540073394775
1.3186945915222168,2.255679130554199,-0.15042102336883545
1.3343768119812012,2.2466976642608643,-0.14648738503456116
1.345612645149231,2.2311365604400635,-0.1421070247888565
1.356269121170044,2.2157812118530273,-0.13774928450584412
1.367424726486206,2.1999855041503906,-0.13324074447155
1.3825931549072266,2.190732479095459,-0.12910105288028717
1.3969064950942993,2.1818735599517822,-0.12497565895318985
1.4071617126464844,2.166210889816284,-0.12041271477937698
1.4179563522338867,2.1500580310821533,-0.11566635221242905
1.427803635597229,2.1343817710876465,-0.11089504510164261
1.4375115633010864,2.11865496635437,-0.10614699870347977
1.4455517530441284,2.0992047786712646,-0.10101624578237534
1.4545783996582031,2.0836639404296875,-0.09610763192176819
1.4594444036483765,2.061370611190796,-0.09077568352222443
1.4461994171142578,2.0134921073913574,-0.08415666967630386
1.4520597457885742,1.9949977397918701,-0.078949935734272
1.4681353569030762,1.9882547855377197,-0.07382754236459732
1.4803972244262695,2.096905469894409,0.13385824859142303
1.4789936542510986,2.1261579990386963,0.1398860514163971
1.458003044128418,2.1308438777923584,0.14423368871212006
1.4460121393203735,2.1480872631073,0.14936062693595886
1.4306697845458984,2.158034086227417,0.15366344153881073
1.418253779411316,2.1752209663391113,0.1584210991859436
1.4103878736495972,2.198573350906372,0.16355876624584198
1.399052619934082,2.214735269546509,0.16799935698509216
1.3818140029907227,2.2252283096313477,0.17196990549564362
1.3648474216461182,2.235372543334961,0.17585907876491547
1.3571851253509521,2.257956027984619,0.18050839006900787
1.3445757627487183,2.274258852005005,0.18461889028549194
1.3312956094741821,2.2907862663269043,0.1887182593345642
1.3142106533050537,2.300340175628662,0.19222445785999298
1.2999721765518188,2.3126091957092285,0.19581224024295807
1.2902895212173462,2.335566997528076,0.2002142071723938
1.2802060842514038,2.358572244644165,0.20463939011096954
1.2668064832687378,2.374354362487793,0.20838415622711182
1.24983549118042,2.383057117462158,0.2114964723587036
1.2357521057128906,2.3988900184631348,0.2150854468345642
1.2213847637176514,2.4146997928619385,0.21867991983890533
1.2142283916473389,2.444153070449829,0.2234921157360077
1.2124614715576172,2.4838180541992188,0.22921888530254364
1.2008590698242188,2.5064618587493896,0.23335674405097961
1.1922869682312012,2.536123275756836,0.23808974027633667
1.1800603866577148,2.558727502822876,0.2422027438879013
1.162131905555725,2.56666898727417,0.2448478788137436
1.1487607955932617,2.5852091312408447,0.2485044151544571
1.132855772972107,2.600466012954712,0.2517160177230835
1.1164745092391968,2.6157541275024414,0.2549826204776764
1.097576379776001,2.6234970092773438,0.2574728727340698
1.0910416841506958,2.659651517868042,0.26272737979888916
1.0692331790924072,2.659876585006714,0.26438429951667786
1.0555078983306885,2.6818525791168213,0.26810380816459656
1.0384095907211304,2.6966238021850586,0.27115437388420105
1.0246177911758423,2.7182986736297607,0.27486902475357056
1.0096375942230225,2.736112594604492,0.27818864583969116
0.9928534626960754,2.7502994537353516,0.281072199344635
0.9690057039260864,2.7462174892425537,0.28198307752609253
0.9411394000053406,2.731017827987671,0.2817733585834503
0.91913902759552,2.730093240737915,0.2829943001270294
0.90248703956604,2.7436273097991943,0.2856990396976471
0.8807454705238342,2.7423226833343506,0.2868196666240692
0.8737314343452454,2.789217710494995,0.29285311698913574
0.8929376602172852,2.9254722595214844,0.30837592482566833
0.8785557150840759,2.9539635181427,0.3125917613506317
0.8633545637130737,2.9784858226776123,0.31638428568840027
0.8446576595306396,2.9917242527008057,0.31900572776794434
0.8252837657928467,3.005012035369873,0.3214397430419922
0.8057389259338379,3.0181822776794434,0.3238600790500641
0.7875806093215942,3.038851261138916,0.32712918519973755
0.7680769562721252,3.051680326461792,0.32954052090644836
0.7522997260093689,3.0794360637664795,0.33358141779899597
0.7305983901023865,3.0844929218292236,0.3350908160209656
0.7163970470428467,3.123551607131958,0.3401683270931244
0.7004213929176331,3.158855676651001,0.3448874056339264
0.68682861328125,3.2053942680358887,0.35085511207580566
0.6676187515258789,3.225165605545044,0.3539058566093445
0.6497206091880798,3.2524325847625732,0.35780566930770874
0.6296608448028564,3.2720625400543213,0.3607012927532196
0.6074525117874146,3.2840285301208496,0.36271217465400696
0.58819180727005,3.31107234954834,0.3664025366306305
0.5654531717300415,3.318842887878418,0.36798006296157837
0.544816792011261,3.337904691696167,0.37082234025001526
0.5251396894454956,3.3645107746124268,0.3745292127132416
0.5020778775215149,3.3757784366607666,0.3763042092323303
0.48635074496269226,3.4368107318878174,0.38362762331962585
0.47129911184310913,3.509331226348877,0.39227294921875
0.44763123989105225,3.520153760910034,0.3940483629703522
0.42316529154777527,3.5230772495269775,0.39495405554771423
0.39994269609451294,3.537409543991089,0.3971500098705292
0.3779185116291046,3.570991039276123,0.40125036239624023
0.3558506369590759,3.604395627975464,0.40535131096839905
0.3336857557296753,3.6415293216705322,0.4098982512950897
0.3101889193058014,3.66690993309021,0.413146048784256
0.29093462228775024,3.7501840591430664,0.42294713854789734
0.2654407322406769,3.7675681114196777,0.42533305287361145
0.24096935987472534,3.8002891540527344,0.42918458580970764
0.2158738523721695,3.828972101211548,0.43260350823402405
0.18977361917495728,3.8458595275878906,0.43471336364746094
0.16422636806964874,3.878075122833252,0.4385787844657898
0.13855044543743134,3.929527521133423,0.44464966654777527
0.1133146584033966,4.004075050354004,0.4533439576625824
0.08586350828409195,4.028047561645508,0.4560185968875885
0.05823749676346779,4.059591770172119,0.45957234501838684
0.030075501650571823,4.083183288574219,0.46224793791770935
0.0011532295029610395,4.110458850860596,0.465364009141922
-0.027913307771086693,4.180227756500244,0.4733141362667084
-0.05800357460975647,4.253668308258057,0.48170509934425354
-0.08795367181301117,4.2726006507873535,0.48359736800193787
-0.11784831434488297,4.27968168258667,0.4841640293598175
-0.14731040596961975,4.271036624908447,0.4829748868942261
-0.17747622728347778,4.269925117492676,0.48265841603279114
-0.2180490493774414,4.49349308013916,0.5077569484710693
-0.2510308623313904,4.522909164428711,0.5109313130378723
-0.2854352295398712,4.571506023406982,0.5159424543380737
-0.32426929473876953,4.6740617752075195,0.527018129825592
-0.3609444200992584,4.722068786621094,0.5319443941116333
-0.3962450325489044,4.750484943389893,0.5346877574920654
-0.4480849802494049,4.956479072570801,0.5574214458465576
-0.5069975256919861,5.204476356506348,0.5848643779754639
-0.5666539669036865,5.428796768188477,0.6092574000358582
-0.5973379611968994,5.359251022338867,0.6005985140800476
-0.6228171586990356,5.258767604827881,0.5885403156280518
-0.659074604511261,5.254486560821533,0.5872900485992432
-0.6945562362670898,5.242222309112549,0.585171103477478
-0.7465366125106812,5.348924160003662,0.5963460206985474
-0.765895664691925,5.220824718475342,0.5810020565986633
-0.7957741618156433,5.1772565841674805,0.5750803351402283
-0.8250914812088013,5.133523464202881,0.5691829323768616
-0.8629999160766602,5.143218994140625,0.5692365169525146
-0.8927516341209412,5.102844715118408,0.5637690424919128
-0.9240187406539917,5.073775768280029,0.5595903396606445
-0.9636552333831787,5.090339183807373,0.5600783228874207
-0.9879669547080994,5.030500888824463,0.5521747469902039
-1.0269443988800049,5.046694278717041,0.5526525378227234
-1.073650598526001,5.096744060516357,0.5568339228630066
-1.084290862083435,4.975519180297852,0.542328953742981
-1.1194074153900146,4.967965602874756,0.5402266383171082
-1.146186113357544,4.930216312408447,0.534541130065918
-1.179697036743164,4.922563552856445,0.5321555733680725
-1.2150185108184814,4.9222259521484375,0.5305830240249634
-1.2154653072357178,4.782191753387451,0.5139936804771423
-1.2306500673294067,4.702296257019043,0.5039167404174805
-1.259045958518982,4.67894172668457,0.4998622536659241
-1.2907471656799316,4.670580863952637,0.497193306684494
-1.3181504011154175,4.647049427032471,0.49293795228004456
-1.3496366739273071,4.638284683227539,0.4902772605419159
-1.376886248588562,4.61028528213501,0.4855383038520813
-1.1187869310379028,3.6531832218170166,0.3833642303943634
-1.141329288482666,3.6383018493652344,0.3802517056465149
-1.178956151008606,3.6714706420898438,0.3820873200893402
-1.4925758838653564,4.542646884918213,0.470742404460907
-1.519251823425293,4.5177130699157715,0.46611475944519043
-1.6214991807937622,4.713226795196533,0.48417139053344727
-1.6565468311309814,4.709607124328613,0.4816092848777771
-1.6829025745391846,4.684089660644531,0.47659367322921753
-1.678226113319397,4.574443817138672,0.463094562292099
-3.637629747390747,9.713112831115723,0.978347897529602
-3.7036406993865967,9.680583953857422,0.9698909521102905
-1.7574743032455444,4.499757289886475,0.4484691917896271
-3.83276629447937,9.62338638305664,0.9534614682197571
-1.8190888166427612,4.480154514312744,0.44125282764434814
-1.8921926021575928,4.572490692138672,0.4476725459098816
-1.8927428722381592,4.484107971191406,0.4362531900405884
-1.9393556118011475,4.506922721862793,0.435739129781723
-1.9507397413253784,4.451479911804199,0.4273938238620758
-1.9692507982254028,4.413913249969482,0.4208087921142578
-2.0098752975463867,4.425900459289551,0.4189668297767639
-2.023348331451416,4.373052597045898,0.41081440448760986
-2.0621178150177,4.376841068267822,0.40805327892303467
-4.4214067459106445,9.225326538085938,0.8529809713363647
-4.4794020652771,9.189542770385742,0.8425970077514648
-2.101102590560913,4.238196849822998,0.3853064775466919
-2.1679110527038574,4.2966389656066895,0.3870963156223297
-2.193490982055664,4.275321960449219,0.38162264227867126
-2.232351779937744,4.281968116760254,0.3785127103328705
-2.2349326610565186,4.219453811645508,0.3693293035030365
-2.260308265686035,4.197519302368164,0.3635803163051605
-2.2896602153778076,4.182032108306885,0.35834771394729614
-2.238114356994629,4.024069309234619,0.34077924489974976
-2.25689697265625,3.9961140155792236,0.3344643712043762
-2.2917494773864746,3.9946508407592773,0.33025550842285156
-2.3196420669555664,3.9789721965789795,0.32475101947784424
-2.349703788757324,3.9708092212677,0.3196765184402466
-2.3639326095581055,3.9355602264404297,0.31235191226005554
-2.398671865463257,3.933217763900757,0.3075587749481201
-2.426116466522217,3.9168193340301514,0.30150601267814636
-2.443129301071167,3.888293981552124,0.2943888008594513
-2.472442626953125,3.879429578781128,0.2887807786464691
-2.4954068660736084,3.8559024333953857,0.28167200088500977
-2.517047166824341,3.832963466644287,0.2745942771434784
-2.5415639877319336,3.8172223567962646,0.26796403527259827
-2.5712215900421143,3.8072028160095215,0.26153799891471863
-2.5821051597595215,3.7672698497772217,0.2527615427970886
-2.0499448776245117,2.9501869678497314,0.19301050901412964
-2.0646564960479736,2.9307496547698975,0.18675720691680908
-2.084899425506592,2.916778564453125,0.18048571050167084
-2.0985419750213623,2.8977320194244385,0.17383435368537903
-1.099198818206787,1.4971638917922974,0.08681705594062805
-1.113837480545044,1.4962546825408936,0.08352790027856827
-2.063014030456543,2.9162285327911377,-0.12092875689268112
-2.5061397552490234,3.596935749053955,-0.1568974405527115
-2.452106475830078,3.5769591331481934,-0.16364935040473938
-2.448028564453125,3.6265671253204346,-0.17316654324531555
-2.4122836589813232,3.631333827972412,-0.18035082519054413
-2.3893017768859863,3.6554348468780518,-0.1883956789970398
