X,Y,Z
-0.1858697086572647,3.638659715652466,0.09063543379306793
-0.20501428842544556,3.5320258140563965,0.08790074288845062
-0.23108279705047607,3.553899049758911,0.08837015926837921
-0.25764000415802,3.5716514587402344,0.08873923867940903
-0.2802044153213501,3.5425357818603516,0.08790574967861176
-0.3076792359352112,3.5755367279052734,0.08859322965145111
-0.3277008831501007,3.522779941558838,0.0871603935956955
-0.3513505458831787,3.512655258178711,0.08678827434778214
-0.3720579445362091,3.47125506401062,0.08564676344394684
-0.38953709602355957,3.410390853881836,0.08403148502111435
-0.4120759665966034,3.3998799324035645,0.08359149843454361
-0.4325349032878876,3.373722553253174,0.0827721655368805
-0.45576006174087524,3.3706698417663574,0.08252507448196411
-0.4795808792114258,3.3673694133758545,0.08227140456438065
-0.5012235641479492,3.352376937866211,0.08173972368240356
-0.5261948108673096,3.3604135513305664,0.08174571394920349
-0.551742434501648,3.372150182723999,0.08181434869766235
-0.5774756669998169,3.3836936950683594,0.08188018202781677
-0.5953522324562073,3.3488752841949463,0.08082748204469681
-0.6054949760437012,3.2716338634490967,0.07875648140907288
-0.6156862378120422,3.202159881591797,0.07688823342323303
-0.631430447101593,3.167250633239746,0.07580409944057465
-0.6475082039833069,3.136103630065918,0.07481664419174194
-0.6901395916938782,3.230907440185547,0.07683160901069641
-0.7020375728607178,3.1763787269592285,0.07528667151927948
-0.7023870348930359,3.0762453079223633,0.07267986238002777
-0.7253286838531494,3.0789504051208496,0.07248347997665405
-0.7287763953208923,3.0018434524536133,0.07039438933134079
-0.7018720507621765,2.807380437850952,0.06557990610599518
-0.7069865465164185,2.7456564903259277,0.06388392299413681
-0.7260224223136902,2.7406930923461914,0.06352027505636215
-0.7500740885734558,2.7544596195220947,0.06358056515455246
-0.7655643224716187,2.7380409240722656,0.06291013211011887
-0.7916619777679443,2.7590701580047607,0.06310106068849564
-0.8980361819267273,3.0494465827941895,0.06941214948892593
-0.9497405886650085,3.144069194793701,0.07122831791639328
-0.9761883020401001,3.1523263454437256,0.07107795029878616
-1.0399857759475708,3.279679298400879,0.07354915142059326
-1.087493896484375,3.3505797386169434,0.07473132014274597
-1.1181045770645142,3.365203380584717,0.07463958114385605
-1.1464853286743164,3.372157335281372,0.07437621057033539
-1.1647253036499023,3.349379062652588,0.0734611451625824
-1.1951247453689575,3.363544464111328,0.07331804186105728
-1.2150757312774658,3.3480947017669678,0.07252874225378036
-1.2499990463256836,3.3727378845214844,0.07260383665561676
-1.2710458040237427,3.3565261363983154,0.07178068161010742
-1.2872847318649292,3.329418420791626,0.07073827087879181
-1.325347900390625,3.3606889247894287,0.07088866829872131
-1.359488606452942,3.380737781524658,0.07079561799764633
-1.4136077165603638,3.4472954273223877,0.07165475189685822
-1.5450066328048706,3.6930229663848877,0.07616741210222244
-1.57346773147583,3.6894967555999756,0.07549814134836197
-1.604313611984253,3.6932449340820312,0.07494214177131653
-2.445765972137451,5.529063701629639,0.11124743521213531
-2.546403646469116,5.650968074798584,0.11270031332969666
-2.5488767623901367,5.551185131072998,0.10970044881105423
-3.097236156463623,6.627223968505859,0.1297266036272049
-3.1076819896698,6.535975456237793,0.1266932487487793
-3.1193323135375977,6.448119640350342,0.12374094128608704
-2.618882656097412,5.319064140319824,0.10100933164358139
-1.7863301038742065,3.5652387142181396,0.06696726381778717
-1.8027735948562622,3.5394465923309326,0.06573867052793503
-1.8261116743087769,3.527480363845825,0.06477348506450653
-1.8378568887710571,3.4905247688293457,0.06331853568553925
-1.850903868675232,3.457082986831665,0.06193709000945091
-1.8735488653182983,3.4448814392089844,0.06091015040874481
-1.178733229637146,2.1332156658172607,0.03720583766698837
-1.1896512508392334,2.1182034015655518,0.03641520440578461
-1.9322458505630493,3.3854029178619385,0.057343490421772
-1.9876116514205933,3.4301767349243164,0.05720893666148186
-1.9922415018081665,3.386787176132202,0.055595919489860535
-2.0001001358032227,3.345818519592285,0.05397140979766846
-1.2606239318847656,2.0768067836761475,0.03291261941194534
-1.2617441415786743,2.048664093017578,0.03187552094459534
-2.140875816345215,3.4246087074279785,0.05225682258605957
-2.3300347328186035,3.6701560020446777,0.05485113710165024
-2.3330881595611572,3.621860980987549,0.05294898524880409
-2.345792293548584,3.590359687805176,0.05132129043340683
-2.3814966678619385,3.5902576446533203,0.05005691200494766
-2.3985025882720947,3.5648245811462402,0.04842803254723549
-2.4166977405548096,3.5430824756622314,0.04685002565383911
-2.4326770305633545,3.5131640434265137,0.04503476992249489
-2.4554944038391113,3.497274398803711,0.04341958835721016
-2.547861337661743,3.5802879333496094,0.04297235980629921
-2.5977463722229004,3.5974152088165283,0.04154530167579651
-2.659362554550171,3.634740114212036,0.04032237082719803
-2.7297892570495605,3.67991042137146,0.03902314975857735
-2.4861111640930176,3.5044760704040527,-0.03215205296874046
-2.4412009716033936,3.4978511333465576,-0.03364647179841995
-2.699066162109375,3.9274256229400635,-0.0393957644701004
-2.713707685470581,4.01197624206543,-0.0418427474796772
-2.6743881702423096,4.0195207595825195,-0.04346248880028725
-2.6506049633026123,4.044569969177246,-0.04513881728053093
-2.6165595054626465,4.057366847991943,-0.04667430743575096
-2.100674867630005,3.311605215072632,-0.03921104595065117
-2.0854415893554688,3.33963942527771,-0.04059900343418121
-1.2554436922073364,2.043456792831421,-0.025461316108703613
-1.2562963962554932,2.0795183181762695,-0.026530420407652855
-2.0043458938598633,3.370722532272339,-0.0439368337392807
-1.9980541467666626,3.4152324199676514,-0.045442141592502594
-1.9761203527450562,3.43696928024292,-0.04665312170982361
-1.1958825588226318,2.114802837371826,-0.029240867123007774
-1.1963425874710083,2.1503632068634033,-0.030258161947131157
-1.9058701992034912,3.485279083251953,-0.04986066743731499
-1.8727794885635376,3.4854304790496826,-0.050673700869083405
-1.8625426292419434,3.5262746810913086,-0.052056826651096344
-1.855780839920044,3.573892831802368,-0.053535159677267075
-1.8348889350891113,3.5978076457977295,-0.05464645475149155
-2.1479620933532715,4.288578987121582,-0.06602860987186432
-2.1180801391601562,4.303399085998535,-0.0671067088842392
-2.0974652767181396,4.339510917663574,-0.06852815300226212
-2.0725152492523193,4.3687639236450195,-0.06979931890964508
-2.047347068786621,4.3978376388549805,-0.07107406854629517
-2.0247597694396973,4.429747104644775,-0.07237197458744049
-2.0001068115234375,4.458045959472656,-0.07361433655023575
-1.980319857597351,4.501012325286865,-0.07505466789007187
-1.9377710819244385,4.4939680099487305,-0.07567926496267319
-1.5213468074798584,3.5972983837127686,-0.06114251911640167
-1.4813168048858643,3.571706533432007,-0.06126286834478378
-1.4586032629013062,3.589463233947754,-0.0620916485786438
-1.4297806024551392,3.592622756958008,-0.06266216188669205
-1.3938982486724854,3.5773580074310303,-0.06290988624095917
-1.3717790842056274,3.5942482948303223,-0.06370491534471512
-1.3560831546783447,3.6293888092041016,-0.06481374800205231
-1.3554762601852417,3.708714723587036,-0.06669475883245468
-1.3288569450378418,3.7183239459991455,-0.0673336386680603
-1.3075670003890991,3.742405414581299,-0.06823557615280151
-1.28905189037323,3.7735838890075684,-0.0692656859755516
-1.2671836614608765,3.79744553565979,-0.07012894749641418
-1.249632477760315,3.8361215591430664,-0.07125888019800186
-1.2223217487335205,3.844899892807007,-0.07183734327554703
-0.9706668257713318,3.129749059677124,-0.05881315842270851
-0.9534129500389099,3.151364803314209,-0.05955497920513153
-0.834905743598938,2.832134485244751,-0.05379078909754753
-0.794228196144104,2.766679048538208,-0.052810296416282654
-0.7609967589378357,2.723315477371216,-0.05224050581455231
-0.7461433410644531,2.743608236312866,-0.052887070924043655
-0.7276670932769775,2.7525994777679443,-0.05332205072045326
-0.7080793976783752,2.757697105407715,-0.053634125739336014
-0.6884805560112,2.7626490592956543,-0.05394582077860832
-1.3526703119277954,5.595592498779297,-0.10970114916563034
-1.2878021001815796,5.494597434997559,-0.10814914107322693
-1.2383930683135986,5.457884311676025,-0.10785792768001556
-1.291743278503418,5.886140823364258,-0.11669415980577469
-1.2499672174453735,5.895142555236816,-0.11725098639726639
-0.6460952162742615,3.156597375869751,-0.06298674643039703
-0.6332259774208069,3.2069826126098633,-0.06419883668422699
-0.6105244755744934,3.2113757133483887,-0.06450013071298599
-0.5864409804344177,3.207915782928467,-0.0645967572927475
-0.5705551505088806,3.2504334449768066,-0.06562191247940063
-0.5534803867340088,3.2890281677246094,-0.06657472997903824
-0.5399519205093384,3.3506224155426025,-0.0679987445473671
-0.5174357891082764,3.3620712757110596,-0.06841517984867096
-0.4961089789867401,3.381070137023926,-0.06893773376941681
-0.4755570888519287,3.407679319381714,-0.06960560381412506
-0.45670560002326965,3.4496521949768066,-0.07059303671121597
-0.43511679768562317,3.472118377685547,-0.07118556648492813
-0.4127785563468933,3.4905717372894287,-0.07170061767101288
-0.39136582612991333,3.5244712829589844,-0.0725105032324791
-0.3718640208244324,3.577627420425415,-0.0736907422542572
-0.3482465445995331,3.5956954956054688,-0.07415349781513214
-0.32526060938835144,3.6213722229003906,-0.07477717846632004
-0.3013567328453064,3.6391124725341797,-0.07524137198925018
-0.2743915319442749,3.6255757808685303,-0.07505107671022415
-0.24183417856693268,3.5222041606903076,-0.07294885069131851
-0.2171897143125534,3.5238077640533447,-0.07302328944206238
-0.19920535385608673,3.646123170852661,-0.07560417801141739
-0.17981639504432678,3.772249221801758,-0.07827078551054001
-0.15532295405864716,3.828056812286377,-0.07948572188615799
-0.13035966455936432,3.8797872066497803,-0.0805683508515358
-0.10411446541547775,3.911834239959717,-0.081236831843853
-0.07754206657409668,3.947606086730957,-0.08198671042919159
-0.050501395016908646,3.979290008544922,-0.08265577256679535
-0.022628121078014374,4.034222602844238,-0.08381234854459763
0.005399090237915516,4.0264716148376465,-0.08363860100507736
0.03354399651288986,4.045864105224609,-0.0839962363243103
0.06285147368907928,4.123633861541748,-0.0855688750743866
0.09211496263742447,4.1504292488098145,-0.08608686178922653
0.12277800589799881,4.212149620056152,-0.08733265101909637
0.14926621317863464,4.121413707733154,-0.08541522920131683
0.23003697395324707,5.329834938049316,-0.11032706499099731
0.21420788764953613,4.274974346160889,-0.08838953822851181
0.24472695589065552,4.288985252380371,-0.08858109265565872
0.2719973027706146,4.248211860656738,-0.08764578402042389
0.3020362854003906,4.246184825897217,-0.08751331269741058
0.32956814765930176,4.220636367797852,-0.08685989677906036
0.362047404050827,4.257174968719482,-0.08746899664402008
0.4690714180469513,5.098493576049805,-0.10458888113498688
0.5044491291046143,5.095119476318359,-0.10435763746500015
0.4811442494392395,4.532183647155762,-0.0926850214600563
0.52088862657547,4.602477550506592,-0.09395701438188553
0.5563220381736755,4.629805088043213,-0.09429720044136047
0.596633791923523,4.691723823547363,-0.09534160792827606
0.645186722278595,4.807482719421387,-0.09747560322284698
0.7010641098022461,4.957482814788818,-0.10029122233390808
0.7417929172515869,4.994994163513184,-0.10083021968603134
0.770739734172821,4.95504903793335,-0.09973262250423431
0.8035146594047546,4.941934108734131,-0.09918265044689178
0.8336227536201477,4.913186073303223,-0.09832463413476944
0.8650009036064148,4.891903877258301,-0.09762068837881088
0.8967466950416565,4.870307922363281,-0.0969119742512703
0.9279891848564148,4.852532386779785,-0.09623731672763824
0.9581459760665894,4.830751419067383,-0.09547097235918045
0.988091766834259,4.808777809143066,-0.09470696747303009
1.0166302919387817,4.778879165649414,-0.09378928691148758
1.047079086303711,4.756314277648926,-0.0930168628692627
1.0798636674880981,4.748988151550293,-0.09251011908054352
1.1096571683883667,4.7300920486450195,-0.09174589067697525
1.138324499130249,4.70721435546875,-0.09091093391180038
1.1690341234207153,4.6916422843933105,-0.09021826833486557
1.1983027458190918,4.668136119842529,-0.08937136828899384
1.2264474630355835,4.6446757316589355,-0.08851595968008041
1.253945231437683,4.621153831481934,-0.08763397485017776
1.2780743837356567,4.586174964904785,-0.08654211461544037
1.3108147382736206,4.58099889755249,-0.0860128328204155
1.335451364517212,4.545401096343994,-0.08490900695323944
1.3667371273040771,4.53610372543335,-0.08428478986024857
1.392891526222229,4.511805534362793,-0.08334788680076599
1.423488736152649,4.502257347106934,-0.08268892765045166
1.4425595998764038,4.455160617828369,-0.08133924007415771
1.4789681434631348,4.459681987762451,-0.08092710375785828
1.5070505142211914,4.44203519821167,-0.0801004096865654
1.520443320274353,4.38377571105957,-0.07852567732334137
1.2852087020874023,3.6260907649993896,-0.06452079862356186
1.304966688156128,3.602426052093506,-0.06366089731454849
1.5997956991195679,4.322179794311523,-0.075852170586586
1.6241581439971924,4.2963995933532715,-0.07483657449483871
1.6586689949035645,4.299956798553467,-0.07433091849088669
1.693472981452942,4.303175926208496,-0.07381556928157806
1.708808422088623,4.255061626434326,-0.0724106878042221
1.738343358039856,4.2430949211120605,-0.07162865996360779
1.7703102827072144,4.238337993621826,-0.07092457264661789
1.795654058456421,4.219188213348389,-0.06999409943819046
1.8229566812515259,4.203220367431641,-0.06910861283540726
1.8458064794540405,4.176174640655518,-0.06803786754608154
1.8741822242736816,4.163531303405762,-0.0671873465180397
1.8926242589950562,4.129429340362549,-0.06596813350915909
1.9203553199768066,4.116620063781738,-0.06510138511657715
1.9489097595214844,4.1031928062438965,-0.06420605629682541
1.9737269878387451,4.082652568817139,-0.06319646537303925
2.0007967948913574,4.0694684982299805,-0.062274813652038574
2.014289379119873,4.0279154777526855,-0.060913845896720886
2.045671224594116,4.020849227905273,-0.06006360054016113
2.073514699935913,4.006576061248779,-0.0591028593480587
2.1072006225585938,4.0066375732421875,-0.05832406505942345
2.122568130493164,3.9719796180725098,-0.05704374238848686
2.1443541049957275,3.94694447517395,-0.05587480217218399
2.1815342903137207,3.9488582611083984,-0.05506731569766998
2.1978774070739746,3.917421340942383,-0.053795307874679565
2.2255523204803467,3.906275510787964,-0.05280556157231331
2.2468059062957764,3.8805696964263916,-0.05157528817653656
2.2731969356536865,3.8651840686798096,-0.050481539219617844
2.298830986022949,3.8500072956085205,-0.04936331510543823
2.3205201625823975,3.8278555870056152,-0.04815203323960304
2.342968225479126,3.8050005435943604,-0.04690270125865936
2.3678996562957764,3.7895495891571045,-0.04574395343661308
2.384011745452881,3.7609620094299316,-0.04442977532744408
2.4189438819885254,3.7572011947631836,-0.0433230847120285
2.4440419673919678,3.7409374713897705,-0.042077451944351196
2.463683605194092,3.7186779975891113,-0.04076045751571655
2.4846930503845215,3.695276975631714,-0.039366524666547775
2.5093765258789062,3.6785736083984375,-0.038032274693250656
2.5286309719085693,3.655884027481079,-0.03662100061774254
2.558152675628662,3.644850254058838,-0.03525346890091896
2.577432155609131,3.6216719150543213,-0.033750761300325394
2.6004726886749268,3.6051769256591797,-0.03229053318500519
2.6299760341644287,3.5934109687805176,-0.030755935236811638
2.1914479732513428,2.9558544158935547,-0.024111011996865273
2.5931687355041504,3.6296982765197754,0.02702554687857628
2.5660500526428223,3.648909330368042,0.028485294431447983
2.5354764461517334,3.6607093811035156,0.029795415699481964
2.511587619781494,3.686586380004883,0.031200619414448738
2.4855518341064453,3.704179048538208,0.032437410205602646
2.4627432823181152,3.7287380695343018,0.033705536276102066
2.4297139644622803,3.741020917892456,0.03486170247197151
2.395207166671753,3.7446632385253906,0.035834092646837234
2.367818832397461,3.762030601501465,0.036926787346601486
2.339426279067993,3.779741048812866,0.03801824524998665
2.3007025718688965,3.776008129119873,0.038827698677778244
2.2851431369781494,3.812783718109131,0.04005845636129379
2.252617835998535,3.823014497756958,0.04098668694496155
2.232996702194214,3.852567672729492,0.04209199175238609
2.1984119415283203,3.854419708251953,0.042873453348875046
2.181370735168457,3.89096999168396,0.04402056708931923
2.1482253074645996,3.9004404544830322,0.04487622529268265
2.1285207271575928,3.92899751663208,0.0458967499434948
2.1044881343841553,3.950765609741211,0.04683535918593407
2.0844566822052,3.9834165573120117,0.04788069427013397
2.055384874343872,3.9984846115112305,0.04871441796422005
2.0270254611968994,4.012925624847412,0.049524709582328796
2.019411087036133,4.06914758682251,0.05083400383591652
1.9998234510421753,4.104885101318359,0.05186327174305916
1.9850598573684692,4.151036262512207,0.05303076282143593
1.9760829210281372,4.207150936126709,0.05431216582655907
1.9743980169296265,4.2811665534973145,0.05583630129694939
1.9523355960845947,4.316997051239014,0.056857842952013016
1.9208903312683105,4.331070423126221,0.057589318603277206
1.8936080932617188,4.351579189300537,0.058390334248542786
1.869369626045227,4.379030227661133,0.05928702652454376
1.8377985954284668,4.392364978790283,0.05995216220617294
1.8097604513168335,4.416647911071777,0.06076864153146744
1.7782829999923706,4.429406642913818,0.061413396149873734
1.7531180381774902,4.456212043762207,0.062247324734926224
1.7301995754241943,4.4902753829956055,0.06317839026451111
1.7005469799041748,4.50993013381958,0.06388503313064575
1.3282678127288818,3.6024248600006104,0.05138018727302551
1.3030256032943726,3.6116251945495605,0.05184740200638771
1.2726712226867676,3.6058621406555176,0.05209895223379135
1.5859917402267456,4.596919536590576,0.0668134018778801
1.5529508590698242,4.608178615570068,0.06735048443078995
1.5192707777023315,4.619384288787842,0.06789662688970566
1.4918897151947021,4.644704818725586,0.0686367005109787
1.4642293453216553,4.669866561889648,0.06938011199235916
1.4379087686538696,4.702542304992676,0.07020259648561478
1.4020271301269531,4.705207347869873,0.07056325674057007
1.377066969871521,4.745110034942627,0.07148752361536026
1.3434516191482544,4.754729747772217,0.07195798307657242
1.3123914003372192,4.771492004394531,0.07253525406122208
1.285679578781128,4.807058811187744,0.07337190210819244
1.2553156614303589,4.831214904785156,0.07402441650629044
1.2228059768676758,4.847595691680908,0.07456252723932266
1.198615312576294,4.8978705406188965,0.07562755793333054
1.1644811630249023,4.906091690063477,0.07604420185089111
1.1334344148635864,4.929382801055908,0.07666180282831192
1.1051743030548096,4.967806339263916,0.07748604565858841
1.0682604312896729,4.967878818511963,0.07771676778793335
1.037614107131958,4.9983015060424805,0.07842782884836197
1.00747549533844,5.028360843658447,0.07913336157798767
0.9634450078010559,4.989250183105469,0.07873715460300446
0.9595340490341187,5.164896488189697,0.08168985694646835
0.9188737869262695,5.148476600646973,0.0816139504313469
0.8873288631439209,5.185705661773682,0.08239489793777466
1.8073605298995972,11.023313522338867,0.17555023729801178
1.705209732055664,10.87354850769043,0.1735696792602539
1.610150933265686,10.761664390563965,0.1720782220363617
1.513891577720642,10.629667282104492,0.17025233805179596
1.4234987497329712,10.535737991333008,0.1690431386232376
1.3293871879577637,10.382658004760742,0.1668766587972641
1.2412265539169312,10.259808540344238,0.16519580781459808
1.1539912223815918,10.132406234741211,0.1633770912885666
1.0749505758285522,10.0664644241333,0.16247153282165527
0.996021568775177,9.992151260375977,0.16143664717674255
0.3914346396923065,4.231381893157959,0.06843742728233337
0.3653329014778137,4.272914886474609,0.06918531656265259
0.33317050337791443,4.244199752807617,0.06879924237728119
0.304634153842926,4.26200532913208,0.0691148191690445
0.276314377784729,4.287417411804199,0.06955371052026749
0.2457684874534607,4.289275646209717,0.06961462646722794
0.21277832984924316,4.22846794128418,0.0686606913805008
0.1811538189649582,4.1791181564331055,0.06789519637823105
0.15061864256858826,4.141246795654297,0.06729716062545776
0.12194283306598663,4.150004863739014,0.06742545962333679
0.09231763333082199,4.142956256866455,0.06730005890130997
0.06392061710357666,4.174741744995117,0.06780894845724106
0.03464458882808685,4.1438398361206055,0.06730291992425919
0.005679967347532511,4.026808261871338,0.06540130823850632
-0.021376991644501686,3.8588075637817383,0.06263753026723862
-0.049178242683410645,3.8976144790649414,0.06322500854730606
-0.07672533392906189,3.92060923576355,0.0635591670870781
-0.10231611132621765,3.8575122356414795,0.06250106543302536
-0.12768705189228058,3.813769578933716,0.06176048889756203
-0.15180493891239166,3.7542531490325928,0.06075943633913994
-0.17799118161201477,3.757014751434326,0.060736846178770065
-0.1944706290960312,3.5723705291748047,0.0576896108686924
-0.21541623771190643,3.5085623264312744,0.056601688265800476
-0.24248111248016357,3.5459470748901367,0.05714923143386841
-0.2697828412055969,3.579228162765503,0.05763227865099907
-0.29456982016563416,3.577275037765503,0.05751964822411537
-0.3197305500507355,3.5751163959503174,0.05738675221800804
-0.3436775803565979,3.5650484561920166,0.05713162198662758
-0.3700142502784729,3.578119993209839,0.05724947899580002
-0.39272478222846985,3.556053638458252,0.056807853281497955
-0.4174070358276367,3.5532431602478027,0.0566735677421093
-0.44274070858955383,3.554114580154419,0.056556157767772675
-0.45649075508117676,3.469665765762329,0.055088676512241364
-0.47127681970596313,3.4006707668304443,0.053874194622039795
-0.4853251874446869,3.3316118717193604,0.05266488343477249
-0.5049254298210144,3.3049957752227783,0.05213209241628647
-0.5280850529670715,3.301377296447754,0.05194230005145073
-0.5397775769233704,3.232189655303955,0.05071255564689636
-0.5605930089950562,3.2207188606262207,0.050393957644701004
-0.580095648765564,3.201390504837036,0.04995446652173996
-0.596555233001709,3.166576385498047,0.049277160316705704
-0.6162670850753784,3.1508641242980957,0.04889660328626633
-0.6405356526374817,3.1579806804656982,0.04883260279893875
-0.7038477063179016,3.3522989749908447,0.05165760591626167
-0.7160725593566895,3.29777193069458,0.050641678273677826
-0.7389720678329468,3.292720079421997,0.050388436764478683
-0.7768257856369019,3.352194309234619,0.051121655851602554
-0.83648681640625,3.4986565113067627,0.05314026027917862
-0.6781537532806396,2.7533462047576904,0.041647493839263916
-0.7036150097846985,2.7751681804656982,0.041805148124694824
-0.7179018259048462,2.7513318061828613,0.04127354174852371
-0.7370038032531738,2.7462804317474365,0.04102645069360733
-0.749945878982544,2.718475341796875,0.040426429361104965
-0.7821899652481079,2.762188673019409,0.04087873920798302
-0.798740029335022,2.749319076538086,0.040492307394742966
-0.9381501078605652,3.148014783859253,0.0461377277970314
-0.9623079895973206,3.148888111114502,0.045923080295324326
-0.9867231845855713,3.149515151977539,0.04569210484623909
-1.0712441205978394,3.3398895263671875,0.04818318784236908
-1.0986993312835693,3.347411870956421,0.04802132397890091
-1.13908851146698,3.3916242122650146,0.04837848246097565
-1.1601251363754272,3.376232862472534,0.0478806346654892
-1.2027814388275146,3.423441171646118,0.04825969785451889
-1.228853702545166,3.4224765300750732,0.0479264035820961
-1.3056645393371582,3.560814142227173,0.04953737556934357
-1.3643712997436523,3.6432015895843506,0.05034337192773819
-1.4133905172348022,3.695653200149536,0.0507199726998806
-1.4557452201843262,3.7295424938201904,0.05082502216100693
-1.4898369312286377,3.741299867630005,0.05060389265418053
-1.4914054870605469,3.6733179092407227,0.04931644722819328
-1.5137795209884644,3.6557071208953857,0.048703037202358246
-1.5482838153839111,3.6666877269744873,0.0484691746532917
-1.582311749458313,3.677666664123535,0.048213932663202286
-1.6197929382324219,3.6954634189605713,0.0480278804898262
-2.4964282512664795,5.592698574066162,0.07205519080162048
-2.575723648071289,5.664085865020752,0.07231497764587402
-2.532766819000244,5.468928813934326,0.06918085366487503
-3.0569570064544678,6.487233638763428,0.08125171810388565
-2.573854923248291,5.367545127868652,0.06654468178749084
-2.5970094203948975,5.321642875671387,0.06528578698635101
-1.8069287538528442,3.6382641792297363,0.04415636509656906
-1.797789454460144,3.559847593307495,0.04272516071796417
-1.810566782951355,3.527050256729126,0.04185226932168007
-1.8452699184417725,3.5354840755462646,0.041458118706941605
-1.8519134521484375,3.4878523349761963,0.04038897901773453
-1.8548988103866577,3.437527656555176,0.039296627044677734
-1.8962290287017822,3.4595208168029785,0.03902357444167137
-1.1973145008087158,2.149902105331421,0.02391544170677662
-1.192994236946106,2.1075363159179688,0.023103302344679832
-1.966737151145935,3.419952154159546,0.03691234812140465
-1.9851151704788208,3.400282144546509,0.036125946789979935
-2.0001630783081055,3.373307943344116,0.035245515406131744
-1.2455551624298096,2.06781005859375,0.021230757236480713
-1.2447344064712524,2.036330223083496,0.020528530701994896
-2.0859055519104004,3.3624379634857178,0.033255305141210556
-2.204960823059082,3.4999196529388428,0.033907610923051834
-2.3293960094451904,3.643018960952759,0.034551382064819336
-2.3527212142944336,3.628007411956787,0.0336628258228302
-2.3986549377441406,3.644665479660034,0.03302270919084549
-2.4152188301086426,3.614943265914917,0.03192378580570221
-2.4425442218780518,3.6059842109680176,0.031024565920233727
-2.4488723278045654,3.5638465881347656,0.029804864898324013
-2.444052219390869,3.505434274673462,0.02843054197728634
-2.4660656452178955,3.4899911880493164,0.027410516515374184
-2.6812126636505127,3.7396087646484375,0.028314262628555298
-2.680544137954712,3.6871047019958496,0.026844818145036697
-2.7246203422546387,3.698420763015747,0.02581968903541565
-2.754636764526367,3.8552405834198,-0.02012093923985958
-2.4497742652893066,3.4824140071868896,-0.01911415159702301
-2.42795991897583,3.5071585178375244,-0.020162316039204597
-2.6235201358795166,3.8467228412628174,-0.023034418001770973
-2.543992280960083,3.792046070098877,-0.023572038859128952
-2.507803201675415,3.797358989715576,-0.02442047744989395
-2.4760501384735107,3.808818817138672,-0.025283245369791985
-2.478768825531006,3.876774549484253,-0.026505494490265846
-2.0931143760681152,3.3257739543914795,-0.023359831422567368
-1.2796534299850464,2.0653440952301025,-0.014877419918775558
-1.280465841293335,2.1015186309814453,-0.015506861731410027
-2.015986919403076,3.363964319229126,-0.025399018079042435
-1.9925142526626587,3.377915620803833,-0.026050489395856857
-1.9812170267105103,3.416194438934326,-0.02688099443912506
-1.9423828125,3.4069788455963135,-0.027334703132510185
-1.2077600955963135,2.1530752182006836,-0.01758561097085476
-1.1544232368469238,2.0933449268341064,-0.0173997450619936
-1.896469235420227,3.4995229244232178,-0.029570620507001877
-1.8712736368179321,3.5130555629730225,-0.030156411230564117
-1.8611899614334106,3.5537164211273193,-0.030966999009251595
-1.8586945533752441,3.6122212409973145,-0.031925395131111145
-1.824583649635315,3.6120691299438477,-0.032368917018175125
-2.1166634559631348,4.265231609344482,-0.03871893137693405
-2.1058082580566406,4.318450927734375,-0.03969302028417587
-2.0679352283477783,4.319392204284668,-0.04016803577542305
-2.04641056060791,4.355534553527832,-0.040963806211948395
-2.0023789405822754,4.34155797958374,-0.04127795994281769
-1.9635772705078125,4.3378095626831055,-0.0416853129863739
-1.9231528043746948,4.330245494842529,-0.042026299983263016
-1.8823825120925903,4.322567939758301,-0.042350612580776215
-1.543111801147461,3.613858461380005,-0.035735927522182465
-1.5209214687347412,3.6317200660705566,-0.03623438999056816
-1.480088472366333,3.60636043548584,-0.03629862517118454
-1.439419150352478,3.580716371536255,-0.0363292321562767
-1.4163953065872192,3.598278522491455,-0.03679744899272919
-1.3912502527236938,3.6080715656280518,-0.03717900440096855
-1.3854432106018066,3.6688144207000732,-0.03809038922190666
-1.3764351606369019,3.726379871368408,-0.03895692899823189
-1.3522884845733643,3.743513822555542,-0.039394065737724304
-1.3256442546844482,3.75302791595459,-0.039750851690769196
-1.2994931936264038,3.7621593475341797,-0.04010017216205597
-1.27570641040802,3.778533935546875,-0.04052675887942314
-1.2505671977996826,3.7951509952545166,-0.04093966260552406
-1.2281312942504883,3.818882465362549,-0.04142870008945465
-0.971953272819519,3.0969808101654053,-0.03378390148282051
-0.9618396759033203,3.141007661819458,-0.03445183113217354
-0.9308826923370361,3.117720603942871,-0.034376367926597595
-0.7995626330375671,2.749209403991699,-0.030457399785518646
-0.7700439095497131,2.7211039066314697,-0.030292244628071785
-0.7561062574386597,2.745270013809204,-0.030705124139785767
-0.7389791011810303,2.7580158710479736,-0.03099207580089569
-0.7196162343025208,2.7631289958953857,-0.03118375688791275
-0.7056745290756226,2.790900468826294,-0.031614046543836594
-1.2853196859359741,5.242855072021484,-0.05961433798074722
-1.2512861490249634,5.263123512268066,-0.06006603688001633
-0.7174083590507507,3.1135311126708984,-0.035664718598127365
-0.7015551328659058,3.1451592445373535,-0.036152951419353485
-0.6809322834014893,3.1576786041259766,-0.036407221108675
-0.6565813422203064,3.154850721359253,-0.036488380283117294
-0.6344735622406006,3.1593692302703857,-0.03665290027856827
-0.6154766082763672,3.1790385246276855,-0.03699464350938797
-0.5990147590637207,3.213970899581909,-0.03751181811094284
-1.0466231107711792,5.8441267013549805,-0.0683605819940567
-0.5618260502815247,3.272209644317627,-0.0383637472987175
-0.5413891673088074,3.2914860248565674,-0.03867772966623306
-0.5257798433303833,3.341470956802368,-0.03935529291629791
-0.5042786598205566,3.3566315174102783,-0.03962617367506027
-0.48065245151519775,3.3600947856903076,-0.039726950228214264
-0.459759384393692,3.3866684436798096,-0.0401015467941761
-0.4399520754814148,3.420804977416992,-0.04056756570935249
-0.41991308331489563,3.454801321029663,-0.04103444889187813
-0.39808928966522217,3.4770407676696777,-0.041364625096321106
-0.3762558400630951,3.503041982650757,-0.04172508791089058
-0.3555522859096527,3.5444605350494385,-0.04226145148277283
-0.3334517180919647,3.5819146633148193,-0.04275441914796829
-0.3105427026748657,3.6074957847595215,-0.04310724511742592
-0.2885598838329315,3.6485025882720947,-0.04364725947380066
-0.25756049156188965,3.5725035667419434,-0.04277864471077919
-0.23032426834106445,3.539134979248047,-0.04239131882786751
-0.20610712468624115,3.5562775135040283,-0.042611267417669296
-0.19124183058738708,3.752673387527466,-0.044981829822063446
-0.16699084639549255,3.7968380451202393,-0.045530933886766434
-0.14112280309200287,3.81352162361145,-0.04575301706790924
-0.11578154563903809,3.857360363006592,-0.046277232468128204
-0.08978917449712753,3.920565128326416,-0.04703134670853615
-0.06295975297689438,3.9562456607818604,-0.04745759069919586
-0.03586044907569885,3.99564528465271,-0.04793073609471321
-0.008163362741470337,4.027045726776123,-0.04831026494503021
0.01983274705708027,4.038723468780518,-0.048435937613248825
0.04932178929448128,4.116596221923828,-0.04932989925146103
0.07928250730037689,4.1903557777404785,-0.05017629265785217
0.11095605045557022,4.287320137023926,-0.05130138248205185
0.14103344082832336,4.294252872467041,-0.05135076865553856
0.16705754399299622,4.195594787597656,-0.050140589475631714
0.25909772515296936,5.5404253005981445,-0.06612072885036469
0.22973288595676422,4.2669548988342285,-0.05085305497050285
0.25888189673423767,4.257460117340088,-0.05067382752895355
0.2890070080757141,4.263352394104004,-0.05068008974194527
0.3168964087963104,4.237870216369629,-0.05031606927514076
0.3449822664260864,4.220001697540283,-0.05002106726169586
0.38118165731430054,4.291399002075195,-0.050764843821525574
0.42684829235076904,4.455854892730713,-0.0526079498231411
0.45975711941719055,4.472214698791504,-0.052700385451316833
0.49760371446609497,4.531040191650391,-0.05329397693276405
0.6070045232772827,5.194769859313965,-0.06098340451717377
0.6323397159576416,5.1012349128723145,-0.05974084511399269
0.6568028926849365,5.015430927276611,-0.05859891325235367
0.6769574880599976,4.906312942504883,-0.05719221755862236
0.7071221470832825,4.874431610107422,-0.05669108405709267
0.7451031804084778,4.8964314460754395,-0.05681934580206871
0.7830337882041931,4.914244174957275,-0.056858718395233154
0.8154944777488708,4.901045799255371,-0.05653423070907593
0.8457633852958679,4.876095294952393,-0.056078024208545685
0.8768686652183533,4.854724884033203,-0.055664606392383575
0.9062315821647644,4.825488090515137,-0.05516522377729416
0.9365276098251343,4.803785800933838,-0.05473538860678673
0.9683775901794434,4.7895002365112305,-0.05436871200799942
0.9979546070098877,4.767466068267822,-0.05392080172896385
1.0267926454544067,4.741360664367676,-0.05342874675989151
1.0597542524337769,4.734105587005615,-0.0531514436006546
1.0872392654418945,4.703821182250977,-0.052610233426094055
1.114493489265442,4.673351764678955,-0.05204049497842789
1.1463905572891235,4.665633201599121,-0.05173176899552345
1.1727339029312134,4.634913921356201,-0.05116979777812958
1.204943299293518,4.626648426055908,-0.050856977701187134
1.2349646091461182,4.610642433166504,-0.05045804753899574
1.2647666931152344,4.594458103179932,-0.05001809448003769
1.2949483394622803,4.5819878578186035,-0.049625854939222336
1.3241692781448364,4.5654988288879395,-0.04919108748435974
1.3536609411239624,4.5486955642700195,-0.048752546310424805
1.3829435110092163,4.531715393066406,-0.04831376671791077
1.4094785451889038,4.507169246673584,-0.04776403307914734
1.4328644275665283,4.475191116333008,-0.047144729644060135
1.4659154415130615,4.472699165344238,-0.046836379915475845
1.4920388460159302,4.447580337524414,-0.04628925025463104
1.5177419185638428,4.42236328125,-0.04574263468384743
1.2657500505447388,3.60848331451416,-0.037074897438287735
1.2905300855636597,3.599698781967163,-0.036732133477926254
1.3178765773773193,3.5981016159057617,-0.036464542150497437
1.6179908514022827,4.324191570281982,-0.043517570942640305
1.6476942300796509,4.312964916229248,-0.043094463646411896
1.676661729812622,4.301791191101074,-0.04266110807657242
1.708953619003296,4.2974772453308105,-0.04229147732257843
1.729791522026062,4.263855457305908,-0.0416334830224514
1.7593767642974854,4.25173807144165,-0.04118725284934044
1.7820940017700195,4.225318431854248,-0.04058896005153656
1.808802843093872,4.209707260131836,-0.040089383721351624
1.8392575979232788,4.2007598876953125,-0.03964587673544884
1.8604801893234253,4.1700310707092285,-0.03899553045630455
1.8892443180084229,4.157083034515381,-0.03851008787751198
1.9169310331344604,4.144393444061279,-0.038005243986845016
1.9345520734786987,4.110313892364502,-0.03730793297290802
1.9701281785964966,4.110718727111816,-0.036905549466609955
1.9884055852890015,4.075852870941162,-0.03619281202554703
2.0086662769317627,4.048476219177246,-0.035540107637643814
2.031949520111084,4.028097152709961,-0.03495095297694206
2.062944173812866,4.021099090576172,-0.03446769714355469
2.0835750102996826,3.9928369522094727,-0.03379714488983154
2.114368438720703,3.985466480255127,-0.03329509124159813
2.131312847137451,3.9542622566223145,-0.032602645456790924
2.1599833965301514,3.9431333541870117,-0.03206552565097809
2.191131591796875,3.9348597526550293,-0.03154141828417778
2.2133841514587402,3.913417339324951,-0.03090418316423893
2.2374677658081055,3.895198106765747,-0.030284075066447258
2.2660763263702393,3.883152723312378,-0.029699815437197685
2.2830111980438232,3.850536823272705,-0.02895357832312584
2.3120830059051514,3.842276096343994,-0.028390511870384216
2.337252378463745,3.8270223140716553,-0.02777247503399849
2.364185094833374,3.810447931289673,-0.027108389884233475
2.381214141845703,3.7813820838928223,-0.026363054290413857
2.409742593765259,3.7725441455841064,-0.02575697936117649
2.422635793685913,3.736380100250244,-0.02493644692003727
2.456556797027588,3.732889413833618,-0.02432471327483654
2.480799436569214,3.716827154159546,-0.023616796359419823
2.4969961643218994,3.6871144771575928,-0.022804733365774155
2.5176215171813965,3.663591146469116,-0.022012919187545776
2.5497219562530518,3.660386085510254,-0.02134048379957676
2.5699336528778076,3.6366665363311768,-0.020503666251897812
2.5897815227508545,3.6129560470581055,-0.019641971215605736
2.6078953742980957,3.5902552604675293,-0.01879775896668434
2.1831347942352295,2.9620604515075684,-0.01484805066138506
2.584758996963501,3.645352840423584,0.012319774366915226
2.56180477142334,3.671048879623413,0.013053283095359802
2.5137197971343994,3.6568338871002197,0.013594535179436207
2.5069525241851807,3.7087180614471436,0.014382980763912201
2.484743356704712,3.7330210208892822,0.015020293183624744
2.4492781162261963,3.7377161979675293,0.01555668842047453
2.43359637260437,3.7758569717407227,0.016222575679421425
2.4027154445648193,3.786330461502075,0.01673760637640953
2.3750109672546387,3.803766965866089,0.01728096976876259
2.3463704586029053,3.821498394012451,0.01781204342842102
2.3231794834136963,3.844769239425659,0.01834663562476635
2.298116445541382,3.864345073699951,0.018853599205613136
2.2633824348449707,3.871220350265503,0.019280361011624336
2.2346363067626953,3.8878824710845947,0.019754240289330482
2.2132883071899414,3.913541078567505,0.020252199843525887
2.1792142391204834,3.9192113876342773,0.020633775740861893
2.1426641941070557,3.9215147495269775,0.020989401265978813
2.127747058868408,3.960692882537842,0.021529996767640114
2.094139575958252,3.9653146266937256,0.021884966641664505
2.0704290866851807,3.990950107574463,0.022339047864079475
2.032177209854126,3.9886534214019775,0.022636109963059425
2.016357421875,4.027274131774902,0.02315327525138855
1.9848346710205078,4.034196376800537,0.023487919941544533
1.9649828672409058,4.069942474365234,0.02397635579109192
1.9318263530731201,4.077138900756836,0.02429303340613842
1.906477451324463,4.09766960144043,0.024679232388734818
1.8877344131469727,4.13211727142334,0.025149457156658173
1.8515475988388062,4.131340026855469,0.025389036163687706
1.8278263807296753,4.158959865570068,0.02579982951283455
1.8039323091506958,4.186397075653076,0.026211455464363098
1.7748006582260132,4.198828220367432,0.026522168889641762
1.7480612993240356,4.218486309051514,0.026872817426919937
1.7278051376342773,4.256346225738525,0.027333561331033707
1.6970949172973633,4.26868200302124,0.02763238362967968
1.6781198978424072,4.309727191925049,0.028116488829255104
1.6536073684692383,4.335916519165039,0.028503522276878357
1.648322582244873,4.41723108291626,0.029227308928966522
1.3164591789245605,3.6070427894592285,0.02401883527636528
1.2908234596252441,3.6162946224212646,0.024231232702732086
1.5882744789123535,4.551027774810791,0.03068414144217968
1.5589443445205688,4.569411277770996,0.030992776155471802
1.5311282873153687,4.595277786254883,0.031343068927526474
1.5138953924179077,4.654410362243652,0.031924277544021606
1.4787317514419556,4.657503604888916,0.03212127462029457
1.4526441097259521,4.690245151519775,0.03252600133419037
1.4219220876693726,4.707809925079346,0.032812658697366714
1.3926488161087036,4.732840538024902,0.0331292450428009
1.3566350936889648,4.735161304473877,0.033288780599832535
1.3297265768051147,4.767122745513916,0.033655956387519836
1.2975751161575317,4.780020236968994,0.03388988599181175
1.273424744606018,4.826918601989746,0.034358710050582886
1.2332408428192139,4.813150405883789,0.03437211364507675
1.2121691703796387,4.874869346618652,0.03492705523967743
1.1779053211212158,4.883260250091553,0.03510143235325813
1.1519436836242676,4.925559043884277,0.035520877689123154
1.1134295463562012,4.9183878898620605,0.03558339551091194
1.0868744850158691,4.964317798614502,0.03601199761033058
1.0548737049102783,4.987185955047607,0.036276157945394516
1.0213178396224976,5.002138614654541,0.036484234035015106
0.9894837737083435,5.024457931518555,0.03674723207950592
0.95387202501297,5.031338691711426,0.03690117597579956
0.9231805801391602,5.064855575561523,0.03722710534930229
0.8873313665390015,5.071258068084717,0.037355199456214905
0.859237790107727,5.123626708984375,0.03782440349459648
0.8223614692687988,5.121761322021484,0.037894364446401596
0.7908477783203125,5.158337593078613,0.03825249522924423
0.7558192610740662,5.171481132507324,0.03841104730963707
0.725323498249054,5.219229698181152,0.038813721388578415
0.6936825513839722,5.262930393218994,0.03918897360563278
0.6603144407272339,5.294776439666748,0.039478104561567307
0.6262306571006775,5.322514057159424,0.03973880037665367
1.1090998649597168,10.040210723876953,0.07505259662866592
1.033332347869873,9.997241973876953,0.07476779818534851
0.9645867943763733,10.019804954528809,0.07497666776180267
0.3804210424423218,4.264195442199707,0.031926870346069336
0.3488273620605469,4.243380069732666,0.031790897250175476
0.31881123781204224,4.2457404136657715,0.03183034807443619
0.2907683849334717,4.271245002746582,0.03202612325549126
0.26134976744651794,4.280972003936768,0.0320994108915329
0.22847825288772583,4.228087902069092,0.03170476481318474
0.19703030586242676,4.186655044555664,0.031397465616464615
0.16491065919399261,4.125495433807373,0.030943727120757103
0.14098629355430603,4.270991325378418,0.03203446790575981
0.10908582806587219,4.189868927001953,0.031405944377183914
0.07802511006593704,4.092891216278076,0.03066093474626541
0.04879368469119072,4.034748077392578,0.030208993703126907
0.020090285688638687,3.9959311485290527,0.029903410002589226
-0.00767167191952467,3.9725377559661865,0.029715152457356453
-0.0349610298871994,3.937234878540039,0.029423939064145088
-0.061202287673950195,3.86659574508667,0.028864650055766106
-0.08845822513103485,3.881696939468384,0.02894723042845726
-0.11437999457120895,3.84584903717041,0.028651442378759384
-0.1420486718416214,3.8566534519195557,0.02870425581932068
-0.16984865069389343,3.878988742828369,0.028841126710176468
-0.19416002929210663,3.8270039558410645,0.028410417959094048
-0.20426154136657715,3.540891170501709,0.02624676004052162
-0.22728952765464783,3.5160021781921387,0.026024119928479195
-0.2614244520664215,3.642876148223877,0.02692408673465252
-0.29198917746543884,3.7071681022644043,0.027361469343304634
-0.3099668025970459,3.6155457496643066,0.02663668990135193
-0.3281082510948181,3.539416790008545,0.026022350415587425
-0.3502488434314728,3.513742446899414,0.025781668722629547
-0.3742099702358246,3.503415584564209,0.025654247030615807
-0.3945491909980774,3.465803861618042,0.025329723954200745
-0.41204091906547546,3.4086904525756836,0.024862170219421387
-0.43645742535591125,3.413526773452759,0.024830345064401627
-0.4567835032939911,3.3872194290161133,0.024573447182774544
-0.47669684886932373,3.3568599224090576,0.02428796887397766
-0.4908018112182617,3.2916510105133057,0.02375383861362934
-0.513670027256012,3.2881603240966797,0.023667410016059875
-0.5337936282157898,3.2691235542297363,0.023459553718566895
-0.5476803779602051,3.2153267860412598,0.022999588400125504
-0.56699538230896,3.196110486984253,0.022789563983678818
-0.5895336270332336,3.192030668258667,0.02268686331808567
-0.6087408661842346,3.172515869140625,0.022477075457572937
-0.6207730174064636,3.1184241771698,0.022020023316144943
-0.7824985384941101,3.795076608657837,0.02669418975710869
-0.8010717630386353,3.7552616596221924,0.0263124518096447
-0.8298870325088501,3.7610013484954834,0.026249194517731667
-0.8516688942909241,3.736100912094116,0.025974377989768982
-0.8740052580833435,3.714890241622925,0.0257275253534317
-0.8938001394271851,3.6860666275024414,0.025411052629351616
-0.6917763352394104,2.7703402042388916,0.019010307267308235
-0.7080950140953064,2.754117250442505,0.018810460343956947
-0.728217363357544,2.7529067993164062,0.018714305013418198
-0.7473319172859192,2.7477800846099854,0.018592307344079018
-0.7608354687690735,2.723799705505371,0.018335774540901184
-0.7933042049407959,2.7673861980438232,0.018530702218413353
-0.8587132692337036,2.9192280769348145,0.019442187622189522
-0.9534456133842468,3.1600096225738525,0.020931823179125786
-0.9707610607147217,3.138382911682129,0.0206759013235569
-1.098362922668457,3.466815233230591,0.022706300020217896
-1.2025082111358643,3.708261728286743,0.024139225482940674
-1.2255370616912842,3.692485809326172,0.0238865427672863
-1.227271556854248,3.6136159896850586,0.02322871796786785
-1.2280017137527466,3.534893035888672,0.022578511387109756
-1.2220137119293213,3.4417755603790283,0.021838665008544922
-1.2851051092147827,3.5436384677886963,0.022333012893795967
-1.3849189281463623,3.740032196044922,0.023410417139530182
-1.4196275472640991,3.7520663738250732,0.023317258805036545
-1.458297610282898,3.7749202251434326,0.02329321764409542
-1.440826177597046,3.6559488773345947,0.022391946986317635
-1.462414026260376,3.6389503479003906,0.0221197959035635
-1.481080174446106,3.6145145893096924,0.02180304005742073
-1.526219367980957,3.6507906913757324,0.02184416726231575
-1.5606876611709595,3.661681890487671,0.021732477471232414
-1.5913585424423218,3.6654982566833496,0.021561261266469955
-2.4340145587921143,5.505388259887695,0.03209247067570686
-1.8959133625030518,4.209909439086914,0.024311766028404236
-1.919154167175293,4.182182788848877,0.02391672320663929
-1.9293169975280762,4.130128860473633,0.02338479459285736
-1.9685300588607788,4.141880512237549,0.023211851716041565
-1.9844236373901367,4.103940010070801,0.022759346291422844
-2.005911111831665,4.076075077056885,0.022358691319823265
-2.00803804397583,4.009604454040527,0.021745217964053154
-1.8395241498947144,3.6133456230163574,0.019370270892977715
-1.8327958583831787,3.5421595573425293,0.01876675896346569
-1.8609930276870728,3.5362589359283447,0.018501412123441696
-1.8706914186477661,3.4957363605499268,0.01805678755044937
-1.8899186849594116,3.4764912128448486,0.017726074904203415
-1.1860343217849731,2.1473302841186523,0.010803009383380413
-1.181795358657837,2.1049816608428955,0.010440932586789131
-1.9511629343032837,3.420027732849121,0.016720201820135117
-1.977413535118103,3.413949966430664,0.016445763409137726
-1.9682176113128662,3.346953868865967,0.01587989740073681
-2.0038676261901855,3.353066921234131,0.01564645767211914
-1.2685259580612183,2.090527057647705,0.009589998982846737
-1.2697628736495972,2.062303066253662,0.00929335132241249
-2.0786938667297363,3.325645685195923,0.014703987166285515
-2.409501552581787,3.7959046363830566,0.016449104994535446
-2.451241970062256,3.806309700012207,0.01615004613995552
-2.4718239307403564,3.783649444580078,0.01570986956357956
-2.4526333808898926,3.6980764865875244,0.014996211044490337
-2.4307808876037598,3.6140294075012207,0.014318334870040417
-2.4407131671905518,3.5789971351623535,0.013844775035977364
-2.4236865043640137,3.5006484985351562,0.013178500346839428
-2.4371273517608643,3.472233295440674,0.01269402913749218
