X,Y,Z
-0.7828026413917542,4.421562671661377,1.0056740045547485
-0.8122098445892334,4.409072399139404,1.0014655590057373
-0.8364136219024658,4.370179653167725,0.9913231134414673
-0.7240121364593506,3.6467742919921875,0.8259726166725159
-0.7477770447731018,3.6347851753234863,0.821647047996521
-0.9138826727867126,4.29428768157959,0.9689006805419922
-0.9497604966163635,4.318442344665527,0.9725502729415894
-0.983259916305542,4.327300548553467,0.9727450609207153
-1.011651873588562,4.313621997833252,0.9679204225540161
-1.0422731637954712,4.307045936584473,0.964707612991333
-1.0679389238357544,4.285845756530762,0.9577031135559082
-1.0932421684265137,4.264530181884766,0.9506717920303345
-1.1183507442474365,4.243049144744873,0.9436596035957336
-1.1497628688812256,4.243402481079102,0.9415094256401062
-1.1748437881469727,4.217565059661865,0.9335414171218872
-1.204411506652832,4.210062026977539,0.9297221899032593
-1.2290488481521606,4.18792200088501,0.9223401546478271
-1.25748872756958,4.180431365966797,0.917976438999176
-1.2791262865066528,4.150819778442383,0.9088117480278015
-1.3128507137298584,4.157303333282471,0.9075114130973816
-1.3348681926727295,4.127150058746338,0.8982707858085632
-1.3637856245040894,4.118658065795898,0.8937989473342896
-1.392113208770752,4.110191822052002,0.8890854716300964
-1.419848918914795,4.101771354675293,0.8840994238853455
-1.437320590019226,4.064281940460205,0.8729101419448853
-1.4683538675308228,4.062420845031738,0.869318425655365
-1.4916328191757202,4.038707733154297,0.8610804677009583
-1.5227211713790894,4.036376953125,0.8574545383453369
-1.5476906299591064,4.019811153411865,0.8505068421363831
-1.573440670967102,4.006877422332764,0.8441075682640076
-1.5952380895614624,3.9829392433166504,0.8353871703147888
-1.630102515220642,3.9907305240631104,0.8333216905593872
-1.653778076171875,3.9697415828704834,0.8252232074737549
-1.681697130203247,3.9592132568359375,0.8193556070327759
-1.6992872953414917,3.927912473678589,0.8087245225906372
-1.7322992086410522,3.9315714836120605,0.8051986694335938
-1.7430994510650635,3.886038303375244,0.7917100191116333
-1.7801644802093506,3.895899772644043,0.7893574237823486
-1.788268804550171,3.8427257537841797,0.7742956280708313
-1.831243634223938,3.8663690090179443,0.7745012044906616
-1.857655644416809,3.855180263519287,0.7673439383506775
-1.8902854919433594,3.857823371887207,0.7630470991134644
-1.9070302248001099,3.8252522945404053,0.7516140341758728
-1.9410837888717651,3.8268091678619385,0.746882438659668
-1.9676495790481567,3.8146913051605225,0.7393198013305664
-1.9859163761138916,3.7893409729003906,0.7288861274719238
-2.011641025543213,3.7772698402404785,0.720956027507782
-2.0272226333618164,3.7442245483398438,0.7088816165924072
-1.7007355690002441,3.0896570682525635,0.5801356434822083
-1.7220244407653809,3.079151153564453,0.573148250579834
-0.8379356861114502,1.4757635593414307,0.2721896469593048
-0.8441828489303589,1.463944673538208,0.2674483060836792
-0.8428851366043091,1.4385756254196167,0.2601933181285858
-0.8689122796058655,1.4597218036651611,0.26135265827178955
-0.8705697655677795,1.4413858652114868,0.2552444338798523
-0.8679538369178772,1.4165016412734985,0.24805141985416412
-0.898512601852417,1.4437497854232788,0.24972599744796753
-0.9006034135818481,1.4248895645141602,0.24338926374912262
-0.8934648633003235,1.3934580087661743,0.23486407101154327
-0.9068540930747986,1.394706130027771,0.2318633794784546
-0.8953239917755127,1.3567137718200684,0.22220046818256378
-0.948334813117981,1.4151756763458252,0.22812378406524658
-2.3722634315490723,3.4921083450317383,0.5536355972290039
-1.3166730403900146,1.8839284181594849,0.2879653871059418
-1.3514537811279297,2.1435158252716064,-0.21354618668556213
-1.3071023225784302,2.106165885925293,-0.2170097380876541
-1.1795703172683716,1.9636183977127075,-0.21543139219284058
-1.1653980016708374,1.971273422241211,-0.22253809869289398
-0.8810345530509949,1.515421986579895,-0.17586129903793335
-0.8564498424530029,1.4975756406784058,-0.1783747673034668
-0.9981331825256348,1.773845911026001,-0.21655847132205963
-0.981090784072876,1.7737025022506714,-0.22184620797634125
-0.9401271343231201,1.7290008068084717,-0.22130046784877777
-0.9058276414871216,1.6938658952713013,-0.2215391844511032
-0.8737617135047913,1.6618462800979614,-0.22196908295154572
-0.8437026739120483,1.6330634355545044,-0.22260507941246033
-0.8123329877853394,1.6004996299743652,-0.22254754602909088
-0.7870802879333496,1.5778096914291382,-0.2235441505908966
-0.7569015622138977,1.5445071458816528,-0.2228326052427292
-0.7388797998428345,1.5353590250015259,-0.225457102060318
-0.7212250828742981,1.5259501934051514,-0.22791416943073273
-0.6972840428352356,1.502304196357727,-0.22812940180301666
-0.6685308814048767,1.4680147171020508,-0.22657182812690735
-0.6420332193374634,1.4368908405303955,-0.22525806725025177
-0.6286754608154297,1.4337139129638672,-0.22815468907356262
-0.6123672723770142,1.4233070611953735,-0.22985216975212097
-0.5855427384376526,1.3879226446151733,-0.227314755320549
-0.5753129720687866,1.3915642499923706,-0.23113970458507538
0.582254946231842,1.3645154237747192,-0.22153253853321075
0.6074254512786865,1.3963602781295776,-0.2234402447938919
0.6343934535980225,1.4315757751464844,-0.22574011981487274
0.6508416533470154,1.4417893886566162,-0.22395110130310059
0.6675522923469543,1.4518078565597534,-0.22204573452472687
0.6925029754638672,1.4792598485946655,-0.22265686094760895
0.7229588627815247,1.5169044733047485,-0.22453367710113525
0.7302578687667847,1.50545072555542,-0.21908468008041382
0.7546697854995728,1.5286552906036377,-0.2186049073934555
0.7879131436347961,1.5690351724624634,-0.22036799788475037
0.812859058380127,1.5918256044387817,-0.2194642275571823
0.8402081727981567,1.6176739931106567,-0.21874025464057922
0.8936070799827576,1.69112229347229,-0.2240656167268753
0.908946692943573,1.6924415826797485,-0.21964088082313538
0.9503898620605469,1.7413251399993896,-0.22121553122997284
0.9759225249290466,1.759015679359436,-0.2184920459985733
1.0226120948791504,1.8137246370315552,-0.2201274186372757
1.079638123512268,1.8848412036895752,-0.22324155271053314
1.1220542192459106,1.9284167289733887,-0.2227284461259842
1.1614786386489868,1.9646493196487427,-0.22096577286720276
1.2070246934890747,2.0107011795043945,-0.22001105546951294
1.2712867259979248,2.0862467288970947,-0.22187066078186035
1.3211921453475952,2.1340386867523193,-0.21992827951908112
1.3361355066299438,2.125509262084961,-0.212107852101326
1.367235541343689,2.143446683883667,-0.20685289800167084
1.3885276317596436,2.144423007965088,-0.1996157467365265
1.399365782737732,2.128810167312622,-0.190709188580513
1.3986762762069702,2.0972940921783447,-0.1803581416606903
1.773464322090149,2.6208884716033936,-0.21577627956867218
1.8074252605438232,2.6316373348236084,-0.2066410481929779
1.9317235946655273,2.7740538120269775,-0.20720133185386658
1.9169522523880005,2.7138376235961914,-0.19182448089122772
1.4089635610580444,1.9655152559280396,-0.13057641685009003
1.4561275243759155,2.00421142578125,-0.12471864372491837
1.4792791604995728,2.0071887969970703,-0.1158062294125557
1.5915006399154663,2.2527434825897217,0.35724449157714844
1.551055669784546,2.2322590351104736,0.3617149293422699
1.5474590063095093,2.261521339416504,0.37359553575515747
1.5261948108673096,2.2651610374450684,0.38118821382522583
1.512307047843933,2.282318115234375,0.3906823694705963
1.4990098476409912,2.2989203929901123,0.3998616933822632
1.5220938920974731,2.3700966835021973,0.4183523952960968
1.60720956325531,2.543473958969116,0.4552761912345886
1.5990688800811768,2.574413299560547,0.46714356541633606
1.88197922706604,3.078616142272949,0.565590500831604
1.8856195211410522,3.133401870727539,0.5825506448745728
1.8498729467391968,3.1261250972747803,0.5877189040184021
2.9553041458129883,5.081323623657227,0.9656865000724792
2.940220355987549,5.140789031982422,0.987057626247406
2.910876750946045,5.172603130340576,1.0028632879257202
2.885334014892578,5.215192794799805,1.0204464197158813
2.8709614276885986,5.282010555267334,1.0425989627838135
2.842207431793213,5.321226596832275,1.0592594146728516
2.805245876312256,5.342698097229004,1.0722242593765259
2.798715591430664,5.421688079833984,1.0967235565185547
2.7661654949188232,5.457557678222656,1.1118659973144531
2.7588932514190674,5.54480504989624,1.1376639604568481
1.2327362298965454,2.522413969039917,0.521048903465271
1.2210447788238525,2.5440773963928223,0.5290552973747253
1.1863545179367065,2.517031669616699,0.5267976522445679
1.1834980249404907,2.559720039367676,0.5388370752334595
1.1515265703201294,2.539602279663086,0.5376978516578674
1.1518070697784424,2.588951587677002,0.5511947870254517
2.578190326690674,5.90531063079834,1.2640907764434814
2.5460426807403564,5.946192264556885,1.2798441648483276
2.5195252895355225,6.005288600921631,1.298614263534546
2.4907472133636475,6.060754299163818,1.3167611360549927
2.4578332901000977,6.105125904083252,1.3325228691101074
2.4314756393432617,6.163041591644287,1.351180076599121
2.4049956798553467,6.224686622619629,1.3709214925765991
2.3774280548095703,6.286489963531494,1.390147089958191
2.3443145751953125,6.337784767150879,1.4067771434783936
2.3079686164855957,6.381708145141602,1.421900987625122
2.2866411209106445,6.464573383331299,1.445683240890503
2.253918170928955,6.518616199493408,1.4632216691970825
2.2201216220855713,6.568625450134277,1.4798980951309204
2.1901557445526123,6.637278079986572,1.4999713897705078
2.139218330383301,6.644097328186035,1.506068229675293
2.073427677154541,6.603174686431885,1.5013806819915771
2.013728618621826,6.57602071762085,1.4997490644454956
1.9544099569320679,6.54445219039917,1.4970334768295288
1.897763729095459,6.519718170166016,1.4958993196487427
1.8391491174697876,6.4914469718933105,1.4929519891738892
1.7798893451690674,6.4590535163879395,1.4890434741973877
1.7261972427368164,6.444554328918457,1.489294409751892
1.668501853942871,6.411067008972168,1.485156536102295
1.613218903541565,6.380591869354248,1.4816710948944092
1.5557197332382202,6.338570594787598,1.475525140762329
0.7846940755844116,3.2983250617980957,0.7692824602127075
1.4535717964172363,6.309630393981934,1.4743107557296753
1.3990966081619263,6.281759262084961,1.470595121383667
1.3442524671554565,6.241981029510498,1.4640339612960815
1.294406771659851,6.220302581787109,1.461724877357483
1.244179606437683,6.194509029388428,1.4584914445877075
1.196062684059143,6.179727554321289,1.4574342966079712
1.1379656791687012,6.116279125213623,1.4444159269332886
1.092996597290039,6.11588191986084,1.4463026523590088
1.0418740510940552,6.077630043029785,1.4392832517623901
0.9957427382469177,6.061391830444336,1.4374926090240479
0.9481868147850037,6.0335307121276855,1.4329924583435059
0.8957292437553406,5.975335121154785,1.4213656187057495
0.8561517000198364,5.999723434448242,1.4284268617630005
0.8136317133903503,6.005026817321777,1.4309921264648438
0.7629254460334778,5.9459228515625,1.4182640314102173
0.6082525253295898,5.018517017364502,1.1982450485229492
0.5780268907546997,5.06366491317749,1.2102771997451782
0.5538225769996643,5.176700115203857,1.2386577129364014
0.40390196442604065,4.041905403137207,0.9679951667785645
0.379962682723999,4.093577861785889,0.9808560013771057
0.3579598665237427,4.175384998321533,1.0010013580322266
0.3252917230129242,4.135872840881348,0.9921159148216248
0.29435965418815613,4.1150736808776855,0.9877632260322571
0.26818451285362244,4.154669761657715,0.9979469180107117
0.44473791122436523,7.724565029144287,1.8567832708358765
0.39113014936447144,7.734765529632568,1.8598825931549072
0.3355635702610016,7.7029619216918945,1.85248863697052
0.27969032526016235,7.674589157104492,1.8460142612457275
0.22536684572696686,7.653383731842041,1.8413465023040771
0.17153942584991455,7.627993583679199,1.8357558250427246
0.11801706999540329,7.598430156707764,1.8292455673217773
0.06504447013139725,7.583683967590332,1.8263870477676392
0.011316904798150063,7.542231559753418,1.8161145448684692
-0.04104076698422432,7.519434452056885,1.8102400302886963
-0.09308063983917236,7.496275901794434,1.804368019104004
-0.14465303719043732,7.46516227722168,1.7966704368591309
-0.19572065770626068,7.437496185302734,1.7898911237716675
-0.24687819182872772,7.420865535736084,1.7858543395996094
-0.3001224398612976,7.441818714141846,1.7908803224563599
-0.25173258781433105,5.3267059326171875,1.2810940742492676
-0.29180583357810974,5.385790824890137,1.294575572013855
-0.32813677191734314,5.368746280670166,1.289812445640564
-0.3648250102996826,5.359031677246094,1.286873698234558
-0.401013046503067,5.333861351013184,1.280278205871582
-0.4367959499359131,5.316070079803467,1.2755299806594849
-0.4115464389324188,4.616912364959717,1.1072180271148682
-0.4419141709804535,4.599238395690918,1.101917028427124
-0.4743407964706421,4.604046821594238,1.1020585298538208
-0.5053682923316956,4.589682102203369,1.0976459980010986
-0.5336853265762329,4.5562663078308105,1.0887484550476074
-0.5644261837005615,4.545299053192139,1.08527410030365
-0.595093309879303,4.534117698669434,1.081802248954773
-0.6232723593711853,4.507785320281982,1.0743999481201172
-0.6536620855331421,4.496362209320068,1.070227026939392
-0.6833525896072388,4.484807968139648,1.0661048889160156
-0.7135655283927917,4.476804733276367,1.0628780126571655
-0.7397913932800293,4.442263126373291,1.0533918142318726
-0.7720284461975098,4.4450531005859375,1.0528180599212646
-0.8003288507461548,4.425139427185059,1.0469177961349487
-0.8227640390396118,4.375270366668701,1.0333575010299683
-0.7134658694267273,3.6568117141723633,0.862173318862915
-0.7354804873466492,3.6375041007995605,0.8561657667160034
-0.7605895400047302,3.6329264640808105,0.8536598086357117
-0.9326700568199158,4.3053669929504395,1.010001301765442
-0.9715508818626404,4.336511135101318,1.0156465768814087
-0.9964123368263245,4.308169841766357,1.00721275806427
-1.0275120735168457,4.309540748596191,1.0053071975708008
-1.0587238073349,4.310677528381348,1.0033824443817139
-1.0787897109985352,4.2672529220581055,0.9911469221115112
-1.1052436828613281,4.245600700378418,0.9839569330215454
-1.1348724365234375,4.238633155822754,0.9802631735801697
-1.1665271520614624,4.238796234130859,0.9782597422599792
-1.1880699396133423,4.206053256988525,0.9680992364883423
-1.2176384925842285,4.20254373550415,0.9646660685539246
-1.2488423585891724,4.202339172363281,0.9619801044464111
-1.2724502086639404,4.17631196975708,0.9534236788749695
-1.2926099300384521,4.13914155960083,0.9423753023147583
-1.3239881992340088,4.138228893280029,0.9396380186080933
-1.3523163795471191,4.130140781402588,0.9348692893981934
-1.3807560205459595,4.121857643127441,0.9298421144485474
-1.4061965942382812,4.106286525726318,0.9232717752456665
-1.4320838451385498,4.090365886688232,0.9166116714477539
-1.4556218385696411,4.066954135894775,0.9082923531532288
-1.484153389930725,4.057764530181885,0.9032050967216492
-1.5038508176803589,4.027227878570557,0.893004298210144
-1.5341607332229614,4.025225639343262,0.888910174369812
-1.5612949132919312,4.016013145446777,0.8833167552947998
-1.5849798917770386,3.995640993118286,0.8752095103263855
-1.6203440427780151,4.00337028503418,0.8732420206069946
-1.6456224918365479,3.986037015914917,0.8658465147018433
-1.6656752824783325,3.9583077430725098,0.8556538820266724
-1.677221655845642,3.913128137588501,0.841782808303833
-1.7036395072937012,3.9030439853668213,0.8355251550674438
-1.7280702590942383,3.885296583175659,0.8274896144866943
-1.7555338144302368,3.874356746673584,0.8209473490715027
-1.7893353700637817,3.877213716506958,0.8170731067657471
-1.8022687435150146,3.838794708251953,0.8042663931846619
-1.837957501411438,3.848832607269287,0.8016504049301147
-1.8748046159744263,3.858161449432373,0.798700213432312
-1.902209758758545,3.8462603092193604,0.7912662029266357
-1.9229391813278198,3.820300817489624,0.7808477282524109
-1.9555271863937378,3.822594404220581,0.7758273482322693
-1.9634270668029785,3.776841402053833,0.7611127495765686
-1.9787510633468628,3.7443597316741943,0.7490209937095642
-2.016333818435669,3.7521274089813232,0.7448520660400391
-2.0354182720184326,3.7259175777435303,0.7338868379592896
-1.7094649076461792,3.0807297229766846,0.6015601754188538
-1.7337565422058105,3.077355146408081,0.5957540273666382
-0.8384352326393127,1.464714527130127,0.2809716761112213
-0.856643557548523,1.4727054834365845,0.27985453605651855
-0.8667725920677185,1.4674760103225708,0.2761116325855255
-0.8647558689117432,1.442467451095581,0.26855072379112244
-0.8785253167152405,1.4438765048980713,0.2659339904785156
-0.8604704141616821,1.3923009634017944,0.25348135828971863
-0.8949292898178101,1.4261515140533447,0.2565707862377167
-0.9126430153846741,1.433980107307434,0.2547256350517273
-0.8930268883705139,1.3830510377883911,0.24243991076946259
-0.915658712387085,1.3967692852020264,0.24137353897094727
-0.908315122127533,1.3653115034103394,0.23249104619026184
-0.9713013172149658,1.4402979612350464,0.24145959317684174
-2.4186487197875977,3.5367844104766846,0.5832327008247375
-1.3095762729644775,1.8861361742019653,0.30534887313842773
-1.4762557744979858,2.096858024597168,0.3330593705177307
-1.3017826080322266,2.0818214416503906,-0.21641626954078674
-1.2066928148269653,1.992476463317871,-0.22090452909469604
-1.14240562915802,1.9168707132339478,-0.21890860795974731
-0.8383170366287231,1.4539809226989746,-0.175556480884552
-0.8642953038215637,1.5234949588775635,-0.1887059360742569
-0.958873987197876,1.7190661430358887,-0.2182401418685913
-0.9387835264205933,1.711663842201233,-0.22249269485473633
-0.8804687261581421,1.6322033405303955,-0.21697111427783966
-0.8756099939346313,1.6516380310058594,-0.2244594544172287
-0.8383013606071472,1.609163761138916,-0.22334642708301544
-0.807283341884613,1.5764662027359009,-0.22322781383991241
-0.7751228213310242,1.5399287939071655,-0.22231923043727875
-0.7587078213691711,1.5344187021255493,-0.225697860121727
-0.7438885569572449,1.5323222875595093,-0.22960829734802246
-0.7029328942298889,1.4740134477615356,-0.22475731372833252
-0.6874136328697205,1.4678155183792114,-0.2276584506034851
-0.6605148315429688,1.4369726181030273,-0.22657272219657898
-0.6500617861747742,1.4410464763641357,-0.23088973760604858
-0.6241479516029358,1.4096252918243408,-0.22936949133872986
-0.6061803698539734,1.395735740661621,-0.23060879111289978
0.608680009841919,1.386624813079834,-0.22695070505142212
0.624854564666748,1.397011160850525,-0.22525276243686676
0.6460276246070862,1.4178085327148438,-0.22501514852046967
0.6656842231750488,1.4349666833877563,-0.22414489090442657
0.6923978328704834,1.465847134590149,-0.22522279620170593
0.7078673839569092,1.4720101356506348,-0.22238677740097046
0.7385404109954834,1.5094462633132935,-0.22408609092235565
0.7664795517921448,1.5395444631576538,-0.22442969679832458
0.7896859049797058,1.5589423179626465,-0.22304248809814453
0.807852566242218,1.5677711963653564,-0.22004210948944092
0.8456816077232361,1.614357352256775,-0.2221250832080841
0.8787821531295776,1.6502230167388916,-0.22246114909648895
0.918245255947113,1.6958247423171997,-0.22374607622623444
0.937859833240509,1.7035540342330933,-0.2197592407464981
0.9817907214164734,1.7553917169570923,-0.22132843732833862
1.0209414958953857,1.7964895963668823,-0.22115010023117065
1.0745289325714111,1.8605834245681763,-0.22336424887180328
1.1089811325073242,1.8907678127288818,-0.22117289900779724
1.1618967056274414,1.9505904912948608,-0.22202417254447937
1.2220542430877686,2.0196022987365723,-0.2233273983001709
1.2789678573608398,2.0813872814178467,-0.22336144745349884
1.3239401578903198,2.1230034828186035,-0.22083932161331177
1.3512084484100342,2.134277582168579,-0.2147369533777237
1.3771731853485107,2.1416409015655518,-0.20783531665802002
1.3915730714797974,2.1331100463867188,-0.19948682188987732
1.3868211507797241,2.0950636863708496,-0.18834030628204346
1.3973827362060547,2.0794224739074707,-0.17903876304626465
1.7779659032821655,2.608459949493408,-0.21462804079055786
1.940057635307312,2.8054304122924805,-0.21965445578098297
1.9352424144744873,2.7574679851531982,-0.20452627539634705
1.9308583736419678,2.713697910308838,-0.1900252401828766
1.4379279613494873,1.9928455352783203,-0.1309301257133484
1.468033790588379,2.005340814590454,-0.12259043753147125
1.476332664489746,1.9901031255722046,-0.11250434070825577
2.203237295150757,3.0983731746673584,0.510141909122467
2.173093795776367,3.103224515914917,0.5218334197998047
2.1546270847320557,3.1233222484588623,0.5356331467628479
1.5411661863327026,2.271414041519165,0.39678826928138733
1.5194205045700073,2.2752063274383545,0.40432503819465637
1.5113576650619507,2.297618865966797,0.41484594345092773
1.4847956895828247,2.2950048446655273,0.4207324981689453
1.5265648365020752,2.3996853828430176,0.4463300406932831
1.5991661548614502,2.5531351566314697,0.48107749223709106
1.6818972826004028,2.7271788120269775,0.5204248428344727
1.8743230104446411,3.091282606124878,0.5968585014343262
1.8575607538223267,3.1174795627593994,0.6090080142021179
2.974635362625122,5.0723042488098145,1.0013158321380615
2.945692300796509,5.104158401489258,1.0180721282958984
2.9253599643707275,5.157377243041992,1.0385006666183472
2.889071226119995,5.183825969696045,1.0536085367202759
2.878140449523926,5.253056526184082,1.0771907567977905
2.8513665199279785,5.291202068328857,1.0942342281341553
2.8248050212860107,5.3332600593566895,1.1118146181106567
2.819420099258423,5.42022705078125,1.1385480165481567
2.774827241897583,5.431950569152832,1.1495593786239624
2.7714767456054688,5.521437644958496,1.1768405437469482
2.7388055324554443,5.5522918701171875,1.191672921180725
1.2350720167160034,2.550349473953247,0.5508713722229004
1.2059038877487183,2.5377163887023926,0.5515164136886597
1.1804907321929932,2.531639337539673,0.5535256266593933
1.1656463146209717,2.545886993408203,0.5598483085632324
1.1628756523132324,2.5881104469299316,0.5724645256996155
2.588649272918701,5.874154090881348,1.3061190843582153
2.5583083629608154,5.92267370223999,1.3234692811965942
2.534834861755371,5.9886393547058105,1.3448821306228638
2.5011534690856934,6.025413990020752,1.3595370054244995
2.4763243198394775,6.087063789367676,1.3800709247589111
2.4509429931640625,6.148626327514648,1.4003427028656006
2.4219753742218018,6.207221984863281,1.4193612337112427
2.3868191242218018,6.251410007476807,1.4352285861968994
2.3615856170654297,6.320063591003418,1.4567288160324097
2.3318076133728027,6.3777899742126465,1.4758415222167969
2.2931084632873535,6.409976005554199,1.4890745878219604
2.261782646179199,6.467636585235596,1.507648229598999
2.240119695663452,6.557940483093262,1.5336267948150635
2.205183982849121,6.612044334411621,1.5513097047805786
2.166667938232422,6.654898166656494,1.5664219856262207
2.1071276664733887,6.628113269805908,1.5650657415390015
2.044612169265747,6.589939117431641,1.5610367059707642
1.982669472694397,6.555404186248779,1.5570393800735474
1.9242442846298218,6.531447887420654,1.5553020238876343
1.8630493879318237,6.496041774749756,1.5508747100830078
1.8099863529205322,6.485688209533691,1.5524365901947021
1.7494691610336304,6.44155740737915,1.5458334684371948
1.696460485458374,6.422670364379883,1.5453121662139893
0.8328454494476318,3.2460720539093018,0.7827267646789551
1.5774106979370117,6.336577892303467,1.5309559106826782
0.8024473786354065,3.326714515686035,0.8053993582725525
1.4822789430618286,6.341239929199219,1.5383259057998657
1.4252997636795044,6.294561386108398,1.5301051139831543
1.3714152574539185,6.258566856384277,1.524511694908142
1.321811556816101,6.240849494934082,1.5230785608291626
1.2642037868499756,6.189700603485107,1.5128200054168701
1.2176527976989746,6.186390399932861,1.5142710208892822
1.1635798215866089,6.141664028167725,1.5056308507919312
1.1179273128509521,6.133708477020264,1.5060057640075684
1.0678592920303345,6.099241733551025,1.4999229907989502
1.0156750679016113,6.053266525268555,1.491091251373291
0.9673551917076111,6.025796413421631,1.485968828201294
0.92107093334198,6.009267330169678,1.4834263324737549
0.8793860673904419,6.022436141967773,1.4882887601852417
0.8291835188865662,5.971366882324219,1.4773184061050415
0.7838529348373413,5.953794479370117,1.4747005701065063
0.6246776580810547,5.013626575469971,1.2433180809020996
0.5896255970001221,5.017299175262451,1.2456159591674805
0.5717343688011169,5.179235935211182,1.2865983247756958
0.5289961695671082,5.1223602294921875,1.2733020782470703
0.3926708698272705,4.083829879760742,1.0158617496490479
0.3663391172885895,4.116391181945801,1.0247371196746826
0.340512752532959,4.1525115966796875,1.0345442295074463
0.3096158802509308,4.127983570098877,1.0292941331863403
0.28232529759407043,4.152476787567139,1.035995602607727
0.25574153661727905,4.195803642272949,1.0470552444458008
0.41672536730766296,7.747498035430908,1.9339420795440674
0.361430823802948,7.727196216583252,1.929524302482605
0.3065657913684845,7.702705383300781,1.9241466522216797
0.2512800991535187,7.651312351226807,1.9121323823928833
0.19770435988903046,7.637413024902344,1.9095728397369385
0.14304402470588684,7.611987113952637,1.9033887386322021
0.08984217792749405,7.597641944885254,1.899598479270935
0.036699797958135605,7.552608966827393,1.8882288932800293
-0.01583482325077057,7.518575191497803,1.8797014951705933
-0.06797580420970917,7.5031256675720215,1.8759112358093262
-0.120585598051548,7.479724407196045,1.8702261447906494
-0.17189177870750427,7.4483962059021,1.8626463413238525
-0.2231494039297104,7.435901165008545,1.8588485717773438
-0.27360695600509644,7.404174327850342,1.850084662437439
-0.32845550775527954,7.48190975189209,1.8687564134597778
-0.2729458808898926,5.3675537109375,1.3401787281036377
-0.3125714659690857,5.395985126495361,1.3468577861785889
-0.34859299659729004,5.371203422546387,1.3403260707855225
-0.3848288059234619,5.353743553161621,1.3356879949569702
-0.42050954699516296,5.336263179779053,1.3302576541900635
-0.4479193687438965,5.224116325378418,1.3012679815292358
-0.4281577169895172,4.61344051361084,1.1482830047607422
-0.45933452248573303,4.603187561035156,1.1449264287948608
-0.48974740505218506,4.585165977478027,1.1396925449371338
-0.5204147696495056,4.570704936981201,1.135401725769043
-0.548521876335144,4.537245750427246,1.1263518333435059
-0.5792661905288696,4.526325702667236,1.1222671270370483
-0.6094093918800354,4.5152506828308105,1.1182228326797485
-0.6383082270622253,4.496466636657715,1.112330675125122
-0.6694764494895935,4.4924726486206055,1.1101441383361816
-0.6977978348731995,4.469499111175537,1.10332190990448
-0.7257919907569885,4.442514896392822,1.0955538749694824
-0.7552024722099304,4.430514335632324,1.0912551879882812
-0.7828863859176636,4.410988807678223,1.0847129821777344
-0.8116653561592102,4.3987627029418945,1.0800281763076782
-0.8338823914527893,4.352776527404785,1.0671228170394897
-0.7250210046768188,3.6471776962280273,0.8927987813949585
-0.7508869767189026,3.64254093170166,0.8903447389602661
-0.9237947463989258,4.328943252563477,1.056627631187439
-0.9567031264305115,4.338179111480713,1.0568746328353882
-0.9795445799827576,4.302761077880859,1.0461266040802002
-1.0105881690979004,4.304239749908447,1.04441237449646
-1.0354089736938477,4.275744915008545,1.0354214906692505
-1.0671013593673706,4.27665376663208,1.0336190462112427
-1.0969632863998413,4.269959926605225,1.0300260782241821
-1.122678279876709,4.248439311981201,1.0227248668670654
-1.149548053741455,4.234373092651367,1.0167580842971802
-1.1767858266830444,4.220006465911865,1.0107306241989136
-1.2034178972244263,4.205574989318848,1.0047842264175415
-1.2306873798370361,4.190767765045166,0.9987373352050781
-1.2588597536087036,4.179436206817627,0.9935781359672546
-1.2836064100265503,4.15697717666626,0.9858290553092957
-1.3122923374176025,4.149173259735107,0.9809253215789795
-1.340381145477295,4.141333103179932,0.9760642051696777
-1.368422269821167,4.133297443389893,0.9712018966674805
-1.392351508140564,4.110372066497803,0.9628095626831055
-1.413787603378296,4.080012798309326,0.9527223706245422
-1.4425091743469238,4.0711164474487305,0.9477102160453796
-1.4655579328536987,4.047933101654053,0.9388380646705627
-1.4982359409332275,4.053519248962402,0.9366165995597839
-1.5230083465576172,4.037398815155029,0.9294111728668213
-1.548450231552124,4.020839691162109,0.9220567941665649
-1.5767732858657837,4.01113748550415,0.9162957072257996
-1.5984485149383545,3.9833056926727295,0.9063887596130371
-1.635507583618164,3.99857497215271,0.9057931900024414
-1.6565674543380737,3.97475004196167,0.8963242173194885
-1.6804051399230957,3.9578335285186768,0.8884696364402771
-1.7083982229232788,3.947303533554077,0.8819060921669006
-1.7352771759033203,3.9328694343566895,0.8744438290596008
-1.753295660018921,3.9011805057525635,0.8631154894828796
-1.7827588319778442,3.8977770805358887,0.8576521873474121
-1.8057475090026855,3.88026762008667,0.8491303324699402
-1.82597815990448,3.855398654937744,0.8389406204223633
-1.863777756690979,3.864450216293335,0.835953950881958
-1.8945679664611816,3.8595921993255615,0.8300489187240601
-1.8930983543395996,3.7934908866882324,0.8105366826057434
-1.9428130388259888,3.830271005630493,0.8129958510398865
-1.954797625541687,3.7913217544555664,0.7993044853210449
-1.978258728981018,3.7721986770629883,0.78962242603302
-1.9911168813705444,3.732372283935547,0.7756084203720093
-2.0163047313690186,3.7205841541290283,0.7671292424201965
-1.6907932758331299,3.0720980167388916,0.628361165523529
-1.7249599695205688,3.085411787033081,0.6258790493011475
-0.8326260447502136,1.4653376340866089,0.29466331005096436
-0.8509082794189453,1.4733518362045288,0.29361099004745483
-0.85680091381073,1.4617666006088257,0.28849929571151733
-0.8586339354515076,1.443532943725586,0.28212636709213257
-0.8807756900787354,1.4579938650131226,0.2819686233997345
-0.8831868171691895,1.4392627477645874,0.27533775568008423
-0.893181324005127,1.4338867664337158,0.27111494541168213
-0.8944393992424011,1.4156646728515625,0.26449233293533325
-0.8959047794342041,1.3972344398498535,0.25776049494743347
-0.9017359018325806,1.3850899934768677,0.2521199584007263
-0.9069508910179138,1.3732432126998901,0.24646928906440735
-0.9612901210784912,1.4353911876678467,0.25380444526672363
-2.401078701019287,3.533832311630249,0.6149898171424866
-1.319839358329773,1.9137084484100342,0.32746511697769165
-1.2549480199813843,1.7950823307037354,0.30171242356300354
-1.3091615438461304,2.0771074295043945,-0.21720072627067566
-1.2628943920135498,2.0363035202026367,-0.22046664357185364
-1.1854872703552246,1.9415075778961182,-0.21704258024692535
-1.1408448219299316,1.8994849920272827,-0.21911156177520752
-0.8630196452140808,1.484371304512024,-0.18126454949378967
-0.8406797647476196,1.4696718454360962,-0.18427397310733795
-0.9648546576499939,1.7154088020324707,-0.22064650058746338
-0.9408653378486633,1.7013040781021118,-0.22429534792900085
-0.897136926651001,1.6492682695388794,-0.22253729403018951
-0.8556978702545166,1.6003304719924927,-0.22082728147506714
-0.8384305238723755,1.5955365896224976,-0.2250082939863205
-0.7985407114028931,1.545644998550415,-0.2224898636341095
-0.7714086174964905,1.5196046829223633,-0.2232314944267273
-0.7533029317855835,1.5106232166290283,-0.22624501585960388
-0.7320816516876221,1.4944566488265991,-0.22804805636405945
-0.6996060609817505,1.4535788297653198,-0.22582173347473145
-0.6758918762207031,1.4298886060714722,-0.22604049742221832
-0.65894615650177,1.4200307130813599,-0.22830985486507416
-0.6308974027633667,1.3854176998138428,-0.22649438679218292
-0.6146634817123413,1.3750896453857422,-0.22842742502689362
0.6261215209960938,1.3872928619384766,-0.22826321423053741
0.6408560276031494,1.394012689590454,-0.22573180496692657
0.6573256850242615,1.4041070938110352,-0.2236843854188919
0.6839439868927002,1.4350125789642334,-0.22469936311244965
0.7075109481811523,1.4587270021438599,-0.22448194026947021
0.7333344221115112,1.4855884313583374,-0.2245296835899353
0.7612338662147522,1.5156711339950562,-0.22487914562225342
0.7876166701316833,1.5421135425567627,-0.2244754284620285
0.8055702447891235,1.5510343313217163,-0.2213640958070755
0.827687680721283,1.566455364227295,-0.21893636882305145
0.8735594749450684,1.6262383460998535,-0.22252590954303741
0.903388500213623,1.6549513339996338,-0.22156260907649994
0.9470338821411133,1.7069981098175049,-0.2233716994524002
0.9782349467277527,1.7348062992095947,-0.22168448567390442
1.0155011415481567,1.7724833488464355,-0.2209087759256363
1.064754843711853,1.8300515413284302,-0.22237417101860046
1.1193287372589111,1.893467664718628,-0.22389279305934906
1.1826905012130737,1.9696646928787231,-0.2264263778924942
1.2123191356658936,1.9889307022094727,-0.2220490276813507
1.2735381126403809,2.0571746826171875,-0.22252164781093597
1.3358356952667236,2.1246497631073,-0.2223612368106842
1.3503005504608154,2.116347312927246,-0.21400953829288483
1.383808970451355,2.137300491333008,-0.20843873918056488
1.396867036819458,2.1249842643737793,-0.19922202825546265
1.3900320529937744,2.0836174488067627,-0.18729732930660248
1.746819019317627,2.5816447734832764,-0.22216923534870148
1.773962140083313,2.582974910736084,-0.21171768009662628
1.9542266130447388,2.805225133895874,-0.21837188303470612
1.9391156435012817,2.7453367710113525,-0.20225472748279572
1.9634588956832886,2.7385480403900146,-0.18922680616378784
1.4564690589904785,2.0036673545837402,-0.12938141822814941
1.460632562637329,1.981899380683899,-0.11866794526576996
2.175180435180664,3.079935312271118,0.5366330742835999
2.132352352142334,3.0697810649871826,0.545750081539154
1.5307198762893677,2.238765001296997,0.4054880440235138
1.5118945837020874,2.24524188041687,0.4138209819793701
1.5005182027816772,2.265160083770752,0.42425715923309326
1.4908257722854614,2.2883710861206055,0.43529054522514343
1.4783865213394165,2.304098606109619,0.44436243176460266
1.469602346420288,2.326448917388916,0.45472466945648193
1.471205711364746,2.3693525791168213,0.46905598044395447
1.4589340686798096,2.388953685760498,0.4786694049835205
1.5268778800964355,2.5398340225219727,0.5146094560623169
1.4924894571304321,2.52296781539917,0.5167520046234131
1.4456944465637207,2.486496686935425,0.5144464373588562
1.4127779006958008,2.472911834716797,0.5167945623397827
1.3761235475540161,2.448147773742676,0.5162920355796814
1.3621922731399536,2.4633381366729736,0.5241912603378296
1.34697687625885,2.479097843170166,0.5318896770477295
2.84907865524292,5.338277339935303,1.1545872688293457
2.819730520248413,5.377010822296143,1.172053337097168
2.8004696369171143,5.431822776794434,1.1927921772003174
2.7747533321380615,5.476655960083008,1.2112795114517212
2.7552034854888916,5.539523601531982,1.2332426309585571
1.2347124814987183,2.529313564300537,0.5667791366577148
1.2127954959869385,2.53021240234375,0.570553183555603
1.181683897972107,2.509934902191162,0.5694310069084167
1.1731271743774414,2.5381088256835938,0.5792046785354614
1.163476824760437,2.566653251647949,0.5888240933418274
1.1441446542739868,2.5742123126983643,0.5936875939369202
2.5746662616729736,5.905239582061768,1.3688713312149048
2.540945291519165,5.94227933883667,1.3844687938690186
2.5193254947662354,6.007022380828857,1.4065608978271484
2.490530490875244,6.062119007110596,1.425566554069519
2.4653260707855225,6.127700328826904,1.447169303894043
2.432727098464966,6.175291061401367,1.464625358581543
2.4045560359954834,6.233072757720947,1.4845300912857056
2.375154733657837,6.286884784698486,1.5035326480865479
2.348255157470703,6.351656913757324,1.5248855352401733
2.310392141342163,6.3917622566223145,1.5397855043411255
2.280940294265747,6.45676326751709,1.5608290433883667
2.247130870819092,6.510771751403809,1.5793516635894775
2.221888303756714,6.585665225982666,1.6028839349746704
2.1896708011627197,6.6424241065979,1.6221758127212524
2.1418962478637695,6.655981540679932,1.63037109375
2.0784764289855957,6.622356414794922,1.6265411376953125
2.0047154426574707,6.555707931518555,1.6146882772445679
1.9523627758026123,6.549822807312012,1.617646336555481
1.8871980905532837,6.495887756347656,1.6086875200271606
1.8301281929016113,6.466982364654541,1.6059354543685913
1.7779552936553955,6.456214904785156,1.6071890592575073
1.7184215784072876,6.419686317443848,1.6014667749404907
0.8374761343002319,3.2226510047912598,0.8056867718696594
0.8255399465560913,3.2719674110412598,0.8197889924049377
0.8142908215522766,3.324843406677246,0.8348404169082642
1.4977701902389526,6.305016994476318,1.5866190195083618
1.451612114906311,6.306601047515869,1.5903867483139038
1.3939790725708008,6.263975143432617,1.5821760892868042
1.343342661857605,6.246676921844482,1.5803743600845337
1.2892452478408813,6.2104105949401855,1.5738210678100586
1.2382923364639282,6.180953502655029,1.5689740180969238
1.190041184425354,6.1622514724731445,1.5669023990631104
1.1420258283615112,6.147034168243408,1.5658226013183594
1.0871500968933105,6.090588569641113,1.5534741878509521
1.0399150848388672,6.0748820304870605,1.5512466430664062
0.9905083179473877,6.0438666343688965,1.5451709032058716
0.9448086023330688,6.0311360359191895,1.543817400932312
0.898637592792511,6.014338493347168,1.5414938926696777
0.8513919711112976,5.982108116149902,1.5352346897125244
0.807575523853302,5.9720587730407715,1.5346624851226807
0.762005627155304,5.950726509094238,1.530266523361206
0.6040685772895813,4.997244358062744,1.2860490083694458
0.5751764178276062,5.057279109954834,1.3025487661361694
0.5499721765518188,5.162319183349609,1.3307489156723022
0.40385669469833374,4.058612823486328,1.0471659898757935
0.3797592520713806,4.106125354766846,1.060417652130127
0.35397422313690186,4.142240524291992,1.070572853088379
0.324858695268631,4.144388675689697,1.071491003036499
0.2938406765460968,4.127501010894775,1.0675474405288696
0.2684646546840668,4.1858439445495605,1.083111047744751
0.4434295892715454,7.759292125701904,2.0087292194366455
0.3883291482925415,7.739086627960205,2.0045580863952637
0.3325515389442444,7.695824146270752,1.9945025444030762
0.27696555852890015,7.671250820159912,1.9887548685073853
0.22209106385707855,7.627532005310059,1.9774144887924194
0.16858544945716858,7.621229648590088,1.9758710861206055
0.11498430371284485,7.59564733505249,1.9694243669509888
0.06205279380083084,7.573469161987305,1.9639533758163452
0.008401458151638508,7.520674228668213,1.9506422281265259
-0.04379750043153763,7.516664505004883,1.9500688314437866
-0.09538133442401886,7.47089147567749,1.9379847049713135
-0.14705827832221985,7.46270227432251,1.935202956199646
-0.1982232630252838,7.439034938812256,1.9285032749176025
-0.24953709542751312,7.426352500915527,1.9247454404830933
-0.3028053045272827,7.443510055541992,1.9288089275360107
-0.2574653625488281,5.405433177947998,1.4004844427108765
-0.2950288951396942,5.403667449951172,1.3998886346817017
-0.33080458641052246,5.3753814697265625,1.391850233078003
-0.36690762639045715,5.358255863189697,1.3864681720733643
-0.40228867530822754,5.3257575035095215,1.3771675825119019
-0.4384639263153076,5.3156890869140625,1.3737547397613525
-0.41137993335723877,4.596967697143555,1.187364935874939
-0.4447629451751709,4.609390735626221,1.1899818181991577
-0.47449788451194763,4.583931922912598,1.1828765869140625
-0.5037457346916199,4.554651737213135,1.1741894483566284
-0.5368058085441589,4.566633224487305,1.1760566234588623
-0.5654314756393433,4.540812015533447,1.1682441234588623
-0.5918592810630798,4.499784469604492,1.1565858125686646
-0.6231555938720703,4.4960737228393555,1.1545766592025757
-0.6517356634140015,4.469590187072754,1.1467622518539429
-0.6822549104690552,4.4617156982421875,1.1438030004501343
-0.7134527564048767,4.461362838745117,1.142053246498108
-0.7396313548088074,4.430912971496582,1.1326556205749512
-0.7726193070411682,4.441351890563965,1.1337652206420898
-0.7965932488441467,4.399312973022461,1.1215267181396484
-0.8221360445022583,4.364473342895508,1.1111667156219482
-0.7106920480728149,3.63401198387146,0.9240278005599976
-0.7373759746551514,3.637040853500366,0.9235036373138428
-0.7645640969276428,3.643766164779663,0.923485517501831
-0.9333217740058899,4.302535533905029,1.0884571075439453
-0.9706385731697083,4.330125331878662,1.0934489965438843
-0.9931343793869019,4.290857791900635,1.0816011428833008
-1.0248711109161377,4.292058944702148,1.0800155401229858
-1.0529954433441162,4.27829647064209,1.0747201442718506
-1.0767748355865479,4.249856472015381,1.0653071403503418
-1.1061726808547974,4.243337631225586,1.0611660480499268
-1.1291625499725342,4.214712619781494,1.0515992641448975
-1.1642351150512695,4.229825019836426,1.0529676675796509
-1.1897046566009521,4.207984447479248,1.045145034790039
-1.2191613912582397,4.200582027435303,1.0409680604934692
-1.248894214630127,4.19293212890625,1.0365527868270874
-1.2673423290252686,4.152813911437988,1.0236902236938477
-1.3011835813522339,4.1634345054626465,1.0233925580978394
-1.3237245082855225,4.13753604888916,1.0141563415527344
-1.3503687381744385,4.122115135192871,1.007468581199646
-1.3798571825027466,4.113562107086182,1.0024574995040894
-1.408692479133606,4.104977130889893,0.9975318312644958
-1.4364832639694214,4.096670627593994,0.9920323491096497
-1.4616549015045166,4.080996990203857,0.9848005771636963
-1.4787830114364624,4.043702125549316,0.9724315404891968
-1.5045170783996582,4.027421474456787,0.9650633931159973
-1.5415105819702148,4.039280891418457,0.9644085168838501
-1.5699278116226196,4.029679775238037,0.9587165117263794
-1.5858714580535889,3.9920895099639893,0.9457723498344421
-1.6156591176986694,3.9898245334625244,0.9412676692008972
-1.6353307962417603,3.9626214504241943,0.9309271574020386
-1.668327808380127,3.9628207683563232,0.9268161654472351
-1.6918537616729736,3.941880464553833,0.9178829193115234
-1.7240185737609863,3.9419682025909424,0.9137299656867981
-1.7474677562713623,3.9248781204223633,0.905137836933136
-1.766025185585022,3.8971879482269287,0.8941710591316223
-1.7965703010559082,3.8932852745056152,0.8885294198989868
-1.8112387657165527,3.854358673095703,0.8749004602432251
-1.8518333435058594,3.870647430419922,0.8738558292388916
-1.8715300559997559,3.8458659648895264,0.8630832433700562
-1.8973846435546875,3.8349132537841797,0.8553340435028076
-1.9272345304489136,3.8303494453430176,0.8489124774932861
-1.9544733762741089,3.818340301513672,0.8406965136528015
-1.9780892133712769,3.799321413040161,0.830989420413971
-1.9790781736373901,3.73998761177063,0.8122332096099854
-2.0076961517333984,3.735262393951416,0.8051910996437073
-2.0511105060577393,3.7572412490844727,0.8038608431816101
-1.7168593406677246,3.0927116870880127,0.6562463641166687
-1.7390409708023071,3.0819084644317627,0.6486191749572754
-0.8408568501472473,1.467427372932434,0.30613425374031067
-0.8545337915420532,1.4691978693008423,0.3037232756614685
-0.8567518591880798,1.4508627653121948,0.297120600938797
-0.867354154586792,1.445391297340393,0.29299813508987427
-0.8816031217575073,1.4465934038162231,0.29025018215179443
-0.8911920785903931,1.4415425062179565,0.2860651910305023
-0.8884641528129578,1.4168318510055542,0.27803465723991394
-0.8944961428642273,1.4047728776931763,0.27229756116867065
-0.892239511013031,1.3796032667160034,0.26402169466018677
-0.8971503376960754,1.3680514097213745,0.2583034932613373
-0.9019075036048889,1.3564996719360352,0.25262215733528137
-0.9246353507041931,1.370064616203308,0.25127390027046204
-2.421313524246216,3.535034656524658,0.6381732821464539
-1.333763837814331,1.9209296703338623,0.3408840000629425
-1.3533964157104492,1.9226539134979248,0.33517971634864807
-1.3143810033798218,2.0691585540771484,-0.2172539383172989
-1.257601022720337,2.0120229721069336,-0.21908527612686157
-1.1293492317199707,1.8654236793518066,-0.21685558557510376
-1.0916216373443604,1.8327925205230713,-0.21965332329273224
-0.8455834984779358,1.4666473865509033,-0.18592675030231476
-0.8710047602653503,1.536329746246338,-0.19998033344745636
-0.93932044506073,1.6841148138046265,-0.22470594942569733
-0.8992092609405518,1.6389766931533813,-0.22396652400493622
-0.859440803527832,1.5935719013214111,-0.22285456955432892
-0.8293997645378113,1.5648555755615234,-0.2238432615995407
-0.7948793172836304,1.5253050327301025,-0.222863107919693
-0.7766779661178589,1.5164812803268433,-0.22618059813976288
-0.7550234794616699,1.5006283521652222,-0.22833788394927979
-0.7270206809043884,1.4705724716186523,-0.22808276116847992
-0.7010868191719055,1.4437298774719238,-0.22818045318126678
-0.6738831400871277,1.4131524562835693,-0.2273862063884735
-0.6422191262245178,1.371795654296875,-0.22462870180606842
-0.632365882396698,1.3756327629089355,-0.229073628783226
-0.612970232963562,1.3582699298858643,-0.22993189096450806
0.621315598487854,1.363405704498291,-0.2284967005252838
0.6503681540489197,1.376920223236084,-0.22321553528308868
0.6719163060188293,1.3973523378372192,-0.22262872755527496
0.702180027961731,1.4349853992462158,-0.2245810627937317
0.7192535400390625,1.444567084312439,-0.2218920737504959
0.7451984286308289,1.4712647199630737,-0.22172890603542328
0.7840886116027832,1.5217300653457642,-0.2248573750257492
0.8073592782020569,1.5409663915634155,-0.2231149971485138
0.8399180173873901,1.577130913734436,-0.2236272394657135
0.8677043914794922,1.602601170539856,-0.2223179191350937
0.9130342602729797,1.6582012176513672,-0.22477887570858002
0.9453445672988892,1.6898834705352783,-0.22376684844493866
0.980034351348877,1.7245969772338867,-0.22290949523448944
1.0253506898880005,1.775538444519043,-0.22366371750831604
1.0634058713912964,1.8126459121704102,-0.2223530113697052
1.115824580192566,1.872778296470642,-0.22337955236434937
1.181230068206787,1.9522403478622437,-0.22618305683135986
1.2236396074295044,1.991019368171692,-0.22369083762168884
1.2887324094772339,2.065957546234131,-0.22481589019298553
1.3340362310409546,2.107297658920288,-0.22178930044174194
1.3535535335540771,2.105005979537964,-0.21347936987876892
1.3915538787841797,2.132293462753296,-0.20816215872764587
1.4037957191467285,2.120443105697632,-0.198905348777771
1.3883476257324219,2.066052198410034,-0.18548037111759186
1.7451061010360718,2.5593814849853516,-0.2193320095539093
1.8244843482971191,2.638223648071289,-0.2150631546974182
1.9505202770233154,2.7794692516326904,-0.2143915891647339
1.9561183452606201,2.7478606700897217,-0.1996733844280243
1.9627923965454102,2.7200136184692383,-0.1853988617658615
1.4542343616485596,1.9861674308776855,-0.12568385899066925
1.481475591659546,1.9957990646362305,-0.11644785106182098
1.5720340013504028,2.2114005088806152,0.39750295877456665
1.7672491073608398,2.5256738662719727,0.46331390738487244
1.5865333080291748,2.3013603687286377,0.43005138635635376
1.5205333232879639,2.2418437004089355,0.4262717366218567
1.5025625228881836,2.252180814743042,0.4354071617126465
1.4988181591033936,2.2807793617248535,0.4475177228450775
1.4813594818115234,2.2904858589172363,0.4559934735298157
1.4713510274887085,2.3135597705841064,0.4668179750442505
1.4536433219909668,2.3231241703033447,0.4747275412082672
1.4609681367874146,2.3713722229003906,0.49036556482315063
1.4729496240615845,2.4300756454467773,0.5082290768623352
1.4495594501495361,2.4335415363311768,0.5145442485809326
1.4116696119308472,2.409757614135742,0.514752984046936
1.384656548500061,2.401780843734741,0.5180132389068604
1.391581416130066,2.453836679458618,0.5341964960098267
1.3688020706176758,2.456383228302002,0.5393901467323303
