X,Y,Z
1.244977355003357,4.414543151855469,0.7785521149635315
1.2090144157409668,4.407914638519287,0.7795717716217041
1.1852961778640747,4.445596694946289,0.7884631752967834
1.149793267250061,4.438366889953613,0.7894172668457031
1.1300339698791504,4.49045467376709,0.8009364008903503
1.0963066816329956,4.490301132202148,0.8028696775436401
1.0641018152236938,4.497499942779541,0.8058992028236389
1.0344271659851074,4.51571798324585,0.8109491467475891
1.0016635656356812,4.522546291351318,0.8140217661857605
0.974894106388092,4.551466941833496,0.8210525512695312
0.9376364946365356,4.531259059906006,0.8192593455314636
0.76629638671875,3.8395438194274902,0.6955161094665527
0.7381930947303772,3.840758800506592,0.6968779563903809
0.8492977023124695,4.598124980926514,0.8357282876968384
0.8206483125686646,4.626312732696533,0.8423013091087341
0.7896165251731873,4.639071464538574,0.8460915684700012
0.7591155767440796,4.655406475067139,0.8505791425704956
0.7311031818389893,4.690616607666016,0.8583052158355713
0.6949869394302368,4.680215835571289,0.857409656047821
0.6661285161972046,4.71512508392334,0.8648434281349182
0.633694052696228,4.727006912231445,0.8681069016456604
0.6017516255378723,4.738590240478516,0.8713412880897522
0.5705936551094055,4.757586479187012,0.8759865760803223
0.5374055504798889,4.761129379272461,0.877721905708313
0.506118655204773,4.791365623474121,0.8839389681816101
0.47394126653671265,4.809864521026611,0.8880284428596497
0.44077521562576294,4.820497989654541,0.8907141089439392
0.4090447425842285,4.846191883087158,0.8962253928184509
0.37589970231056213,4.856347560882568,0.8989088535308838
0.34316784143447876,4.881635665893555,0.9044563174247742
0.3089835047721863,4.883779525756836,0.9052091240882874
0.2758810818195343,4.904874801635742,0.9094189405441284
0.24263200163841248,4.929583549499512,0.9143465161323547
0.2084578573703766,4.938713073730469,0.9164310097694397
0.17404848337173462,4.955293655395508,0.9199500679969788
0.1399732381105423,4.971619129180908,0.9234626293182373
0.10588885843753815,4.999278545379639,0.9288484454154968
0.071163110435009,5.007569313049316,0.9303078055381775
0.03632604703307152,5.0233001708984375,0.9331943988800049
0.0006490035448223352,5.038786888122559,0.9360817074775696
-0.034506652504205704,5.054025173187256,0.9389684200286865
-0.06992720812559128,5.072857856750488,0.9425689578056335
-0.10537249594926834,5.079922199249268,0.9440291523933411
-0.14111652970314026,5.0945329666137695,0.9462896585464478
-0.17701026797294617,5.108896255493164,0.9485372304916382
-0.21406343579292297,5.130656719207764,0.9521949291229248
-0.25042274594306946,5.144505500793457,0.9544342756271362
-0.2872559726238251,5.161927700042725,0.9573802947998047
-0.27531853318214417,4.3970513343811035,0.815314769744873
-0.29965153336524963,4.30705451965332,0.79817134141922
-0.3311060070991516,4.320357799530029,0.7999475002288818
-0.3621819019317627,4.333477020263672,0.8017363548278809
-0.3865751326084137,4.269848346710205,0.7893696427345276
-0.41360390186309814,4.240487098693848,0.7833850979804993
-0.4383397698402405,4.191840171813965,0.7738829851150513
-0.46326735615730286,4.146838665008545,0.765027642250061
-0.4827216863632202,4.0675225257873535,0.7494367957115173
-0.5092513561248779,4.052944183349609,0.7458297610282898
-0.5280240774154663,3.981048107147217,0.7317277789115906
-0.5529160499572754,3.958538055419922,0.7267516255378723
-0.5731459856033325,3.9015581607818604,0.715478241443634
-0.5950120091438293,3.863553285598755,0.7077525854110718
-0.614267110824585,3.8141531944274902,0.697616457939148
-0.6378660798072815,3.795032501220703,0.6929483413696289
-0.6552625894546509,3.741680145263672,0.6820818781852722
-0.6713082790374756,3.6844708919525146,0.6705729365348816
-0.6937920451164246,3.661081075668335,0.6652409434318542
-0.71183180809021,3.6187667846679688,0.6565369963645935
-0.7321906685829163,3.591524362564087,0.6503990292549133
-0.7415814995765686,3.5153439044952393,0.635225236415863
-0.7639013528823853,3.5030853748321533,0.6316628456115723
-0.7848062515258789,3.483091115951538,0.6267210841178894
-0.8011850118637085,3.44421648979187,0.6184267997741699
-0.8197906613349915,3.4164934158325195,0.6121839284896851
-0.8452298641204834,3.4186336994171143,0.6112037301063538
-0.85707026720047,3.368506669998169,0.6006240248680115
-0.8618230223655701,3.292203187942505,0.585433840751648
-0.8841637372970581,3.2867188453674316,0.5829271078109741
-0.9008591175079346,3.2586731910705566,0.576419472694397
-0.9214815497398376,3.245347738265991,0.5725532174110413
-0.9342436194419861,3.2060718536376953,0.5640528798103333
-0.9607477784156799,3.214829683303833,0.5637168884277344
-0.9689768552780151,3.1645429134368896,0.5531030893325806
-0.9834861159324646,3.136338710784912,0.5464118719100952
-0.9947491884231567,3.0968804359436035,0.5377649068832397
-1.014000654220581,3.0830178260803223,0.5336068272590637
-1.023327112197876,3.039815664291382,0.524235188961029
-1.0413477420806885,3.0260822772979736,0.5198096632957458
-1.0553613901138306,3.0013339519500732,0.5135360360145569
-1.0757521390914917,2.9946272373199463,0.5103706121444702
-1.0914236307144165,2.9730751514434814,0.5046460628509521
-1.0932681560516357,2.915327548980713,0.4928499758243561
-1.1327306032180786,2.9587299823760986,0.4978836476802826
-1.123175024986267,2.8761203289031982,0.48169973492622375
-1.1310960054397583,2.8403759002685547,0.47347262501716614
-1.1390588283538818,2.8044629096984863,0.4652292728424072
-1.1454124450683594,2.764874219894409,0.45641109347343445
-1.127297043800354,2.6683809757232666,0.438192754983902
-1.1268471479415894,2.618769407272339,0.42763274908065796
-1.1536697149276733,2.6329731941223145,0.4275358021259308
-1.1747170686721802,2.6327056884765625,0.4250435531139374
-1.1836298704147339,2.603863000869751,0.4178883731365204
-1.2281880378723145,2.652085065841675,0.4230204224586487
-1.2491858005523682,2.6514554023742676,0.42008259892463684
-1.2535361051559448,2.6157748699188232,0.4116290211677551
-1.2610282897949219,2.58701229095459,0.4043067991733551
-1.311935305595398,2.6445529460906982,0.41031673550605774
-1.2871696949005127,2.5494437217712402,0.39260542392730713
-1.3006008863449097,2.534590244293213,0.3871871531009674
-1.3085179328918457,2.5093636512756348,0.38023123145103455
-1.3110932111740112,2.473679542541504,0.3716927468776703
-1.3285081386566162,2.4650492668151855,0.3671649098396301
-1.3305155038833618,2.429368734359741,0.3585664629936218
-1.343052625656128,2.4142892360687256,0.35286396741867065
-1.3532658815383911,2.3959076404571533,0.3467772901058197
-1.3661885261535645,2.3803317546844482,0.3409278094768524
-1.3713189363479614,2.3511879444122314,0.3331542909145355
-1.3867961168289185,2.3428025245666504,0.3281254768371582
-1.4024739265441895,2.3341643810272217,0.3230094015598297
-1.4145076274871826,2.3185315132141113,0.3168371915817261
-1.4145736694335938,2.28277850151062,0.30787551403045654
-1.4234319925308228,2.264249801635742,0.30113473534584045
-1.457003116607666,2.285067558288574,0.2995859384536743
-1.4730385541915894,2.2755320072174072,0.29369086027145386
-1.4762005805969238,2.246406078338623,0.2852635979652405
-1.4799237251281738,2.221402168273926,0.2772607207298279
-1.4899550676345825,2.20605206489563,0.2705061435699463
-1.4704747200012207,2.1448731422424316,0.25780320167541504
-1.5161470174789429,2.180262327194214,0.2565367817878723
-1.4942774772644043,2.1203794479370117,0.24411866068840027
-1.4976389408111572,2.0949292182922363,0.2354166954755783
-1.5117253065109253,2.085570812225342,0.22837218642234802
-1.5110384225845337,2.0579302310943604,0.21929901838302612
-1.5206630229949951,2.041940212249756,0.21093162894248962
-1.517008662223816,2.1429200172424316,-0.13313788175582886
-1.4838581085205078,2.127544641494751,-0.13977362215518951
-1.4674532413482666,2.1383354663848877,-0.14805659651756287
-1.486438274383545,2.2003164291381836,-0.15981295704841614
-1.4660521745681763,2.2040152549743652,-0.1671372354030609
-1.4727574586868286,2.2503507137298584,-0.17781051993370056
-1.4503037929534912,2.25039005279541,-0.18449917435646057
-1.4380003213882446,2.2668890953063965,-0.19245103001594543
-1.4309427738189697,2.2936856746673584,-0.20147153735160828
-1.4145264625549316,2.3032124042510986,-0.2085913121700287
-1.4057594537734985,2.326140880584717,-0.21691633760929108
-1.4002467393875122,2.356001138687134,-0.225982666015625
-1.3872288465499878,2.3720414638519287,-0.23354893922805786
-1.3543870449066162,2.3544106483459473,-0.23775863647460938
-1.3331060409545898,2.356903314590454,-0.243795707821846
-1.3083648681640625,2.3522510528564453,-0.24896112084388733
-1.28233802318573,2.343719005584717,-0.2535081207752228
-1.254055142402649,2.331831216812134,-0.25756579637527466
-1.2401723861694336,2.34732985496521,-0.2647119164466858
-1.230645775794983,2.3691799640655518,-0.2723459005355835
-1.2225109338760376,2.394519329071045,-0.2804099917411804
-1.2014763355255127,2.3957414627075195,-0.2856355607509613
-1.2046840190887451,2.445466995239258,-0.2966811954975128
-1.1904505491256714,2.4603188037872314,-0.3035755455493927
-1.186020851135254,2.4961469173431396,-0.3129805624485016
-1.1678268909454346,2.503962993621826,-0.3189069628715515
-1.180553913116455,2.5785341262817383,-0.33340269327163696
-1.1622929573059082,2.586047887802124,-0.33931228518486023
-1.1827303171157837,2.682295799255371,-0.35690954327583313
-1.127549648284912,2.6082839965820312,-0.35194677114486694
-1.1785130500793457,2.779621124267578,-0.38009440898895264
-1.2718753814697266,3.0589711666107178,-0.42377492785453796
-1.3009328842163086,3.192729949951172,-0.447812557220459
-1.2864279747009277,3.222691774368286,-0.45756006240844727
-1.2701892852783203,3.248962640762329,-0.46686431765556335
-1.2638874053955078,3.3002538681030273,-0.47975820302963257
-1.248409628868103,3.3300070762634277,-0.4893924593925476
-1.2271875143051147,3.3451738357543945,-0.49694326519966125
-1.1955995559692383,3.3309905529022217,-0.5000821352005005
-1.1768102645874023,3.3530995845794678,-0.5087432265281677
-1.1377843618392944,3.31660532951355,-0.5081374645233154
-1.098059058189392,3.2761001586914062,-0.506761908531189
-1.0579819679260254,3.2314817905426025,-0.5045855641365051
-1.015225887298584,3.1753969192504883,-0.5004433989524841
-0.9727414846420288,3.1190969944000244,-0.49595212936401367
-0.9291861057281494,3.0549254417419434,-0.48987042903900146
-0.8844858407974243,2.982900381088257,-0.4823375344276428
-0.8441733717918396,2.9215283393859863,-0.4763360619544983
-0.817245364189148,2.9043824672698975,-0.47727248072624207
-0.7752261757850647,2.8312559127807617,-0.46872153878211975
-0.7418867945671082,2.787606954574585,-0.4649777114391327
-0.7126719355583191,2.7547192573547363,-0.46284809708595276
-0.6773651242256165,2.6954214572906494,-0.4560971260070801
-0.6500995755195618,2.665820598602295,-0.4540073573589325
-0.6206251382827759,2.6247329711914062,-0.44989749789237976
-0.6001847982406616,2.620964765548706,-0.45217740535736084
-0.5743311643600464,2.590654134750366,-0.44980183243751526
-0.5464207530021667,2.5489048957824707,-0.44503191113471985
-0.5222598314285278,2.521991014480591,-0.4427697956562042
-0.49925756454467773,2.4986484050750732,-0.4411018192768097
-0.47268933057785034,2.456267833709717,-0.4360639154911041
-0.452629953622818,2.4439167976379395,-0.4360433518886566
-0.43204745650291443,2.4276561737060547,-0.435163289308548
-0.4136950671672821,2.4226009845733643,-0.4362867474555969
-0.3930433988571167,2.4022154808044434,-0.4346342980861664
-0.37239372730255127,2.3817243576049805,-0.432880163192749
-0.3511757254600525,2.3534862995147705,-0.4293615221977234
-0.3341561257839203,2.351714611053467,-0.4306689202785492
-0.31670016050338745,2.3460073471069336,-0.43126505613327026
-0.29840072989463806,2.332545518875122,-0.4304369390010834
-0.2747276723384857,2.273245096206665,-0.42077043652534485
-0.2572613060474396,2.2634005546569824,-0.4202040433883667
-0.24268583953380585,2.276315450668335,-0.4238605201244354
-0.22569407522678375,2.266200065612793,-0.4232464134693146
-0.203535795211792,2.198641538619995,-0.4116867780685425
-0.19017527997493744,2.222757577896118,-0.4170784652233124
-0.1755947470664978,2.239152193069458,-0.421073853969574
-0.1611028015613556,2.25542950630188,-0.4250624477863312
-0.14441697299480438,2.2409703731536865,-0.4232426583766937
-0.1301153600215912,2.2647857666015625,-0.4282764196395874
-0.11279763281345367,2.2348389625549316,-0.4231618046760559
-0.09762796014547348,2.2507879734039307,-0.426764577627182
-0.08169608563184738,2.2436115741729736,-0.4259946942329407
-0.06586352735757828,2.236377239227295,-0.42493849992752075
-0.05046091228723526,2.24440336227417,-0.4266689419746399
-0.0346096009016037,2.2293002605438232,-0.4240220785140991
-0.019104817882180214,2.2601349353790283,-0.43013933300971985
-0.0033724044915288687,2.252509832382202,-0.4288286864757538
0.012236052192747593,2.2448348999023438,-0.42720720171928406
0.028040532022714615,2.2600743770599365,-0.42996659874916077
0.044057607650756836,2.275202751159668,-0.4327237904071808
0.05988254398107529,2.274872064590454,-0.4325610101222992
0.07599607110023499,2.2744932174682617,-0.4320225417613983
0.0928930789232254,2.3008642196655273,-0.4365299642086029
0.10925302654504776,2.3079428672790527,-0.4373907446861267
0.1261500120162964,2.3225693702697754,-0.4396980106830597
0.14276379346847534,2.3294496536254883,-0.44035011529922485
0.16080904006958008,2.3515589237213135,-0.4436374604701996
0.1785939335823059,2.3697216510772705,-0.4462016820907593
0.19569359719753265,2.3762733936309814,-0.4465915262699127
0.21427737176418304,2.3980040550231934,-0.4498162269592285
0.23240478336811066,2.4120280742645264,-0.4511790871620178
0.25340723991394043,2.4488141536712646,-0.4567714333534241
0.27045485377311707,2.4472758769989014,-0.45523709058761597
0.29065170884132385,2.472323417663574,-0.458655446767807
0.3087952435016632,2.4782068729400635,-0.45822885632514954
0.3320591449737549,2.5220818519592285,-0.4646637737751007
0.3525632321834564,2.539078712463379,-0.46609702706336975
0.3780660629272461,2.590177536010742,-0.473789781332016
0.40254226326942444,2.6296803951263428,-0.47919318079948425
0.42329978942871094,2.642463207244873,-0.47938135266304016
0.4493112862110138,2.6854336261749268,-0.48502275347709656
0.47532182931900024,2.724385976791382,-0.4898875653743744
0.5042999982833862,2.7744181156158447,-0.49665531516075134
0.5257424116134644,2.7827391624450684,-0.4955635070800781
0.5584272146224976,2.8475537300109863,-0.5044428706169128
0.5852023959159851,2.878108263015747,-0.5071735382080078
0.6164416074752808,2.927265167236328,-0.5131205320358276
0.6577255725860596,3.0175130367279053,-0.5258572697639465
0.6914319396018982,3.069899320602417,-0.5317088961601257
0.7276674509048462,3.1294798851013184,-0.5387007594108582
0.7639402151107788,3.184962749481201,-0.5448711514472961
0.8056424260139465,3.258833885192871,-0.5539737939834595
0.8524730801582336,3.3472540378570557,-0.5649601221084595
0.8884491324424744,3.3905441761016846,-0.5682555437088013
0.9312431216239929,3.455817699432373,-0.575095534324646
0.9915194511413574,3.5801525115966797,-0.5915453433990479
1.0502218008041382,3.6928467750549316,-0.605391800403595
1.1033990383148193,3.7789089679718018,-0.6144925951957703
1.1774346828460693,3.931095600128174,-0.634109377861023
1.2242670059204102,3.9865000247955322,-0.6378393769264221
1.2856863737106323,4.085762977600098,-0.6481083035469055
1.3472113609313965,4.1808013916015625,-0.6572778820991516
1.3841073513031006,4.194305419921875,-0.6533582210540771
1.4086410999298096,4.170951843261719,-0.6437692642211914
1.44538414478302,4.18405818939209,-0.6396690607070923
1.4666837453842163,4.15321683883667,-0.6286299824714661
1.4928721189498901,4.13681173324585,-0.6198505759239197
1.5045963525772095,4.080156326293945,-0.6050615906715393
1.2799304723739624,3.3968801498413086,-0.4983349144458771
1.3089945316314697,3.40336012840271,-0.4937342405319214
1.3297418355941772,3.387962579727173,-0.4859658181667328
1.3535540103912354,3.379493474960327,-0.4791460633277893
1.3802719116210938,3.378009080886841,-0.4732903838157654
1.398043155670166,3.354909896850586,-0.4641212522983551
1.4212124347686768,3.3461296558380127,-0.45708250999450684
1.4477792978286743,3.344144582748413,-0.4508861005306244
1.4681669473648071,3.327735185623169,-0.4427397847175598
1.4910732507705688,3.3185081481933594,-0.4353830814361572
1.511075496673584,3.3018929958343506,-0.4269868731498718
1.5342350006103516,3.2921578884124756,-0.41950246691703796
1.575679898262024,3.3208014965057373,-0.4168094992637634
1.6085917949676514,3.331836700439453,-0.4116608202457428
1.62458074092865,3.3077285289764404,-0.4021819829940796
1.6082998514175415,3.217071294784546,-0.38453662395477295
1.6307919025421143,3.2066547870635986,-0.3767330050468445
1.6294703483581543,3.1514785289764404,-0.36368227005004883
1.6546696424484253,3.147998571395874,-0.35666874051094055
1.7153431177139282,3.209139823913574,-0.35662853717803955
1.7449722290039062,3.2117488384246826,-0.3498675227165222
1.7239148616790771,3.1222007274627686,-0.3330592215061188
1.7264586687088013,3.0771350860595703,-0.3212602734565735
1.7790207862854004,3.1197898387908936,-0.31843435764312744
1.353562355041504,2.337251901626587,-0.23303267359733582
1.3101564645767212,2.228005886077881,-0.2168365865945816
0.9546172618865967,1.5975492000579834,-0.15143026411533356
0.9616096615791321,1.584678292274475,-0.14620964229106903
0.9783750176429749,1.5885412693023682,-0.14251694083213806
0.9872578382492065,1.5788627862930298,-0.1374891847372055
0.9982919096946716,1.572324275970459,-0.13265982270240784
1.0089243650436401,1.5659302473068237,-0.12776312232017517
1.0216666460037231,1.5627003908157349,-0.12311093509197235
1.0262404680252075,1.546079158782959,-0.11723775416612625
1.0408169031143188,1.5460927486419678,-0.11263387650251389
1.0424202680587769,1.5265291929244995,-0.10654481500387192
2.5487916469573975,3.6767446994781494,-0.24456527829170227
2.577211380004883,3.6672616004943848,-0.2320404201745987
2.606492280960083,3.6569254398345947,-0.2189793884754181
2.599519729614258,3.595496416091919,-0.2024715542793274
2.627269983291626,3.5857040882110596,-0.18902043998241425
2.675372362136841,3.599470615386963,-0.17567941546440125
2.653244972229004,3.7325363159179688,0.45038121938705444
2.617302417755127,3.7372288703918457,0.46224576234817505
2.5962350368499756,3.769115686416626,0.4771853983402252
1.0440040826797485,1.539922833442688,0.19921141862869263
1.0588160753250122,1.5854825973510742,0.20918399095535278
1.0506020784378052,1.599579095840454,0.21497753262519836
1.0380443334579468,1.6070901155471802,0.2199055552482605
1.0015655755996704,1.5745551586151123,0.21893149614334106
1.0101916790008545,1.6143652200698853,0.2279074341058731
0.9976181983947754,1.621540904045105,0.23230823874473572
0.9937383532524109,1.6414755582809448,0.23838411271572113
0.9738781452178955,1.6347161531448364,0.2405586540699005
0.9495468735694885,1.6215074062347412,0.24150200188159943
1.3524647951126099,2.3499393463134766,0.3541623651981354
1.8220281600952148,3.218101739883423,0.49033913016319275
1.7595727443695068,3.158853054046631,0.48646390438079834
1.7537201642990112,3.2052412033081055,0.4985479414463043
1.7714648246765137,3.2958016395568848,0.5176182985305786
1.7601186037063599,3.3314871788024902,0.5280373692512512
2.38360857963562,4.5886969566345215,0.7337675094604492
2.346102476119995,4.5979132652282715,0.7413432002067566
2.3038976192474365,4.6005144119262695,0.7477979063987732
2.279808521270752,4.636976718902588,0.7596414089202881
2.2436296939849854,4.644690990447998,0.7665308117866516
2.213921308517456,4.666155815124512,0.7756800055503845
2.182337760925293,4.688263893127441,0.7844659686088562
2.1505422592163086,4.710145950317383,0.7932730317115784
2.115508794784546,4.724701881408691,0.8008792400360107
2.0759356021881104,4.72413969039917,0.8056898713111877
2.0361034870147705,4.72342586517334,0.8103744983673096
1.7683948278427124,4.186375617980957,0.7220931053161621
1.722648024559021,4.162669658660889,0.7218523621559143
1.6917917728424072,4.174282073974609,0.7277475595474243
1.6680735349655151,4.199436187744141,0.7358628511428833
1.6356281042099,4.202925682067871,0.7401965856552124
1.607456922531128,4.22111701965332,0.7466487288475037
1.5791456699371338,4.239097595214844,0.7531106472015381
1.5501989126205444,4.257033348083496,0.7596652507781982
1.5228183269500732,4.274193286895752,0.7659465074539185
1.4953128099441528,4.291156768798828,0.7722367644309998
1.4656122922897339,4.304615497589111,0.777579665184021
1.4341896772384644,4.31436824798584,0.7821053266525269
1.4069265127182007,4.338689804077148,0.7893698811531067
1.3701190948486328,4.329466342926025,0.7904655337333679
1.3431633710861206,4.349193096160889,0.7968304753303528
1.3070844411849976,4.339292049407959,0.7977803349494934
1.2778581380844116,4.355299472808838,0.8029853701591492
1.2537490129470825,4.389595031738281,0.8116217255592346
1.2276278734207153,4.420192718505859,0.8196833729743958
1.2004612684249878,4.44287633895874,0.8262403607368469
1.1713134050369263,4.4578962326049805,0.8314071893692017
1.1398872137069702,4.465348720550537,0.8350863456726074
1.1096432209014893,4.4802703857421875,0.8397393822669983
1.0795150995254517,4.4988579750061035,0.8451678156852722
1.0489312410354614,4.513361930847168,0.8498445153236389
1.0189679861068726,4.527495384216309,0.8544535040855408
0.9873684048652649,4.533890247344971,0.8576382398605347
0.9571192860603333,4.547640323638916,0.8621371984481812
0.780514657497406,3.8464019298553467,0.7304452061653137
0.753088653087616,3.8514440059661865,0.7326640486717224
0.7284278869628906,3.871389865875244,0.7377623319625854
0.8352665901184082,4.616420269012451,0.8813071846961975
0.8043322563171387,4.62920618057251,0.8853533864021301
0.7733508348464966,4.645657062530518,0.8901390433311462
0.7463842630386353,4.688545227050781,0.8994335532188416
0.7119817137718201,4.685738563537598,0.9000126123428345
0.6798547506332397,4.697871685028076,0.9035065770149231
0.6499440670013428,4.724954605102539,0.9099190831184387
0.616446852684021,4.7290472984313965,0.9119649529457092
0.5853791832923889,4.748067855834961,0.9169167280197144
0.5541500449180603,4.770827293395996,0.9221384525299072
0.5213422775268555,4.781970024108887,0.9250146150588989
0.4891826808452606,4.80051851272583,0.9293726086616516
0.45756545662879944,4.826479911804199,0.935217022895813
0.42404937744140625,4.8369646072387695,0.9381197690963745
0.39038926362991333,4.839526653289795,0.9395179152488708
0.3588675856590271,4.872504711151123,0.9466190934181213
0.32495999336242676,4.878575325012207,0.948142945766449
0.2921251058578491,4.903548717498779,0.9533892273902893
0.25794169306755066,4.920670032501221,0.9571670889854431
0.2250623106956482,4.95283842086792,0.9639127254486084
0.19032946228981018,4.946467876434326,0.9632058143615723
0.15617921948432922,4.955183506011963,0.9654833078384399
0.12209143489599228,4.975283622741699,0.9693907499313354
0.08716634660959244,4.999000549316406,0.9740023612976074
0.052594155073165894,5.022465705871582,0.9786126613616943
0.01766897179186344,5.05335807800293,0.9847186207771301
-0.017436781898140907,5.045665740966797,0.9833533763885498
-0.05279386043548584,5.072234153747559,0.9887137413024902
-0.08860649168491364,5.0717668533325195,0.9885478615760803
-0.12418559193611145,5.086465835571289,0.9910037517547607
-0.16045376658439636,5.116243839263916,0.9964419007301331
-0.19655413925647736,5.13043737411499,0.9988896250724792
-0.23326443135738373,5.152034759521484,1.0028244256973267
-0.2712848484516144,5.1925153732299805,1.010480284690857
-0.3071824610233307,5.175258636474609,1.0069448947906494
-0.29146480560302734,4.396489143371582,0.854752242565155
-0.3137744665145874,4.2836503982543945,0.8321725726127625
-0.34802761673927307,4.3389129638671875,0.8422979712486267
-0.3763989806175232,4.317492961883545,0.8375720381736755
-0.4004379212856293,4.246191024780273,0.8232097625732422
-0.4257241487503052,4.20151948928833,0.81407231092453
-0.45641469955444336,4.2139716148376465,0.8157762289047241
-0.47268617153167725,4.10051155090332,0.7928628325462341
-0.49482038617134094,4.04794979095459,0.7818002104759216
-0.5202338695526123,4.021843910217285,0.7758836150169373
-0.5408897399902344,3.9651975631713867,0.7641370892524719
-0.5625064969062805,3.9198360443115234,0.7546189427375793
-0.5828851461410522,3.870579242706299,0.7443835735321045
-0.6052480936050415,3.840320348739624,0.7373658418655396
-0.6257699131965637,3.7985081672668457,0.7281661033630371
-0.6446758508682251,3.7528719902038574,0.7183102369308472
-0.6665276885032654,3.7260162830352783,0.7120949029922485
-0.684028685092926,3.676351308822632,0.7015656232833862
-0.7030960917472839,3.637917995452881,0.693234384059906
-0.72055983543396,3.5957553386688232,0.6839102506637573
-0.7384942770004272,3.5572597980499268,0.6751777529716492
-0.7531305551528931,3.507488489151001,0.6643895506858826
-0.7721877098083496,3.4801595211029053,0.657905101776123
-0.7929935455322266,3.460139513015747,0.6528275012969971
-0.8126733303070068,3.4362547397613525,0.6470649838447571
-0.8313030004501343,3.4085328578948975,0.6403841376304626
-0.8544628620147705,3.403294086456299,0.6377584934234619
-0.8612487316131592,3.334627389907837,0.6233062744140625
-0.8799649477005005,3.3143112659454346,0.6179577112197876
-0.8970425724983215,3.286314010620117,0.6111810803413391
-0.9162258505821228,3.2655398845672607,0.6057701110839844
-0.9312944412231445,3.2337779998779297,0.5982305407524109
-0.9466912150382996,3.205794334411621,0.5911841988563538
-0.9594892859458923,3.170386791229248,0.5828286409378052
-0.9764397144317627,3.1496331691741943,0.5772165656089783
-0.9883151650428772,3.1101605892181396,0.5681463479995728
-1.0076394081115723,3.0963993072509766,0.5638564229011536
-1.0240455865859985,3.0753517150878906,0.5581000447273254
-1.039823293685913,3.054380178451538,0.5521973967552185
-1.0528326034545898,3.0260539054870605,0.5450149774551392
-1.0707848072052002,3.0121583938598633,0.5404645800590515
-1.0777586698532104,2.965230941772461,0.5299458503723145
-1.0985256433486938,2.9581897258758545,0.5266450643539429
-1.1186261177062988,2.951272964477539,0.5231276750564575
-1.1329293251037598,2.9299261569976807,0.5169845223426819
-1.1286084651947021,2.861888885498047,0.5026867985725403
-1.1429028511047363,2.8402328491210938,0.49652719497680664
-1.1453111171722412,2.789935827255249,0.485422819852829
-1.1230287551879883,2.682888984680176,0.464521199464798
-1.1228963136672974,2.633326768875122,0.45346829295158386
-1.1375184059143066,2.619260787963867,0.4485951066017151
-1.1524733304977417,2.604917526245117,0.44364267587661743
-1.1834760904312134,2.625542640686035,0.4446008503437042
-1.2019580602645874,2.617785692214966,0.44074416160583496
-1.2358553409576416,2.6453335285186768,0.4425138831138611
-1.2435846328735352,2.616762399673462,0.43488049507141113
-1.2580692768096924,2.6019463539123535,0.42952480912208557
-1.2986515760421753,2.6387646198272705,0.43256354331970215
-1.2809596061706543,2.5576417446136475,0.4163217544555664
-1.2945950031280518,2.542823076248169,0.41071081161499023
-1.3328897953033447,2.5760550498962402,0.4128134846687317
-1.3088408708572388,2.4889936447143555,0.39567431807518005
-1.3229941129684448,2.4734814167022705,0.3898427188396454
-1.3328161239624023,2.4513347148895264,0.38301873207092285
-1.341487169265747,2.429676055908203,0.3761133849620819
-1.3480331897735596,2.4046175479888916,0.36874234676361084
-1.3607063293457031,2.3893158435821533,0.36277344822883606
-1.3740071058273315,2.373525619506836,0.3565963804721832
-1.3781770467758179,2.3449532985687256,0.34844475984573364
-1.3975507020950317,2.343254327774048,0.3442550301551819
-1.3972300291061401,2.308041572570801,0.3351020812988281
-1.4257832765579224,2.318671703338623,0.3324078619480133
-1.445910096168518,2.31614351272583,0.3276025354862213
-1.4486099481582642,2.287752866744995,0.31915414333343506
-1.4597526788711548,2.272244453430176,0.31245726346969604
-1.484384536743164,2.275630474090576,0.3080843389034271
-1.450317144393921,2.192009210586548,0.2919265329837799
-1.490742564201355,2.2218852043151855,0.29082760214805603
-1.5126420259475708,2.222001552581787,0.2854955494403839
-1.4774194955825806,2.1386661529541016,0.269400417804718
-1.491191029548645,2.1299185752868652,0.26274532079696655
-1.4963343143463135,2.1081056594848633,0.25434741377830505
-1.5093064308166504,2.094935178756714,0.2465340495109558
-1.522559642791748,2.086177110671997,0.23919914662837982
-1.5177477598190308,2.0519514083862305,0.22878950834274292
-1.486120343208313,2.083535671234131,-0.12935318052768707
-1.4844675064086914,2.112827777862549,-0.13923680782318115
-1.4685673713684082,2.1233301162719727,-0.14782492816448212
-1.4941989183425903,2.1949853897094727,-0.16074979305267334
-1.4785829782485962,2.204926013946533,-0.16889485716819763
-1.4704023599624634,2.228450298309326,-0.17813390493392944
-1.4536960124969482,2.238723039627075,-0.18625882267951965
-1.4418127536773682,2.2549967765808105,-0.1945279836654663
-1.4247970581054688,2.265105962753296,-0.20229464769363403
-1.422545313835144,2.2979588508605957,-0.21197201311588287
-1.4141898155212402,2.3206748962402344,-0.22063098847866058
-1.4085060358047485,2.350666046142578,-0.23017385601997375
-1.3674989938735962,2.3199803829193115,-0.23350192606449127
-1.358801245689392,2.3423798084259033,-0.24190272390842438
-1.3375860452651978,2.3448712825775146,-0.24824310839176178
-1.2992358207702637,2.316663980484009,-0.25121989846229553
-1.27128267288208,2.304783821105957,-0.25565075874328613
-1.2583519220352173,2.3199880123138428,-0.2629314661026001
-1.255896806716919,2.3558595180511475,-0.27262628078460693
-1.2352944612503052,2.3572049140930176,-0.2782762944698334
-1.2150039672851562,2.358238697052002,-0.2837837338447571
-1.220205307006836,2.4114859104156494,-0.29569754004478455
-1.2059531211853027,2.4265270233154297,-0.30296412110328674
-1.188669204711914,2.434257984161377,-0.30918705463409424
-1.1712217330932617,2.4419095516204834,-0.3153719902038574
-1.1814756393432617,2.5092508792877197,-0.329318106174469
-1.1827385425567627,2.559185743331909,-0.34118980169296265
-1.1786521673202515,2.598585367202759,-0.35179272294044495
-1.1426268815994263,2.567185640335083,-0.35265016555786133
-1.1502987146377563,2.634953498840332,-0.3671160340309143
-1.3066257238388062,3.0518319606781006,-0.43110716342926025
-1.3090332746505737,3.1171250343322754,-0.4462387263774872
-1.30845046043396,3.17923903465271,-0.4611092507839203
-1.29131281375885,3.2019171714782715,-0.4702207148075104
-1.2626965045928955,3.195643663406372,-0.47506439685821533
-1.2484694719314575,3.2251031398773193,-0.4851875305175781
-1.2432183027267456,3.2799272537231445,-0.49911126494407654
-1.209811806678772,3.2624969482421875,-0.5020846724510193
-1.181219458580017,3.2554855346679688,-0.5064908266067505
-1.125944972038269,3.171665906906128,-0.49872416257858276
-1.0882210731506348,3.1347994804382324,-0.4979741871356964
-1.0372934341430664,3.0574121475219727,-0.4904690682888031
-0.9871939420700073,2.9795982837677,-0.4827292859554291
-0.9435826539993286,2.9158003330230713,-0.47691741585731506
-0.9054555892944336,2.866344928741455,-0.4731547236442566
-0.8668318390846252,2.812898874282837,-0.46839696168899536
-0.8323434591293335,2.770158290863037,-0.46529096364974976
-0.7901191711425781,2.6974196434020996,-0.4569304585456848
-0.7559893131256104,2.6503167152404785,-0.45274287462234497
-0.7258739471435547,2.614025592803955,-0.4499744176864624
-0.6972943544387817,2.5811831951141357,-0.44772323966026306
-0.6663938760757446,2.536882162094116,-0.4433726370334625
-0.6447399854660034,2.525872230529785,-0.4447754919528961
-0.6108115315437317,2.466262102127075,-0.437252014875412
-0.5897675156593323,2.454913854598999,-0.43815356492996216
-0.5620056986808777,2.413400411605835,-0.4336094856262207
-0.5374492406845093,2.3828861713409424,-0.4309602379798889
-0.5173768401145935,2.371009111404419,-0.43138447403907776
-0.49005481600761414,2.3251819610595703,-0.425525963306427
-0.47217532992362976,2.3204891681671143,-0.4271067678928375
-0.4499969780445099,2.293022871017456,-0.42446935176849365
-0.43107345700263977,2.2805051803588867,-0.42440780997276306
-0.40887871384620667,2.2489843368530273,-0.4205726981163025
-0.3914995491504669,2.243802785873413,-0.42168179154396057
-0.3732866048812866,2.2308666706085205,-0.42128944396972656
-0.3516256511211395,2.1950528621673584,-0.4165028929710388
-0.3350852131843567,2.1894845962524414,-0.4170949459075928
-0.318656325340271,2.1837918758392334,-0.4176703691482544
-0.30047714710235596,2.1666042804718018,-0.4160764813423157
-0.2853388488292694,2.1682651042938232,-0.4180772006511688
-0.2692113220691681,2.1622679233551025,-0.4182989299297333
-0.2514043152332306,2.1409294605255127,-0.41546905040740967
-0.23390880227088928,2.1194539070129395,-0.4126051068305969
-0.2183661311864853,2.1130967140197754,-0.41267991065979004
-0.20264701545238495,2.1066837310791016,-0.4125906527042389
-0.18625828623771667,2.0887258052825928,-0.40999969840049744
-0.1710713654756546,2.082106828689575,-0.40964263677597046
-0.15542685985565186,2.067734479904175,-0.4077683091163635
-0.14051146805286407,2.0609025955200195,-0.40735211968421936
-0.12497489899396896,2.0463995933532715,-0.4050642251968384
-0.11155366897583008,2.062382221221924,-0.40882056951522827
-0.09648888558149338,2.047654151916504,-0.4065082371234894
-0.0834791511297226,2.078758478164673,-0.4133192300796509
-0.06902123242616653,2.0792033672332764,-0.4137483835220337
-0.05430692806839943,2.0795745849609375,-0.41407662630081177
-0.039990492165088654,2.087498188018799,-0.4159255027770996
-0.02528604306280613,2.072338819503784,-0.4131942391395569
-0.011039736680686474,2.1069090366363525,-0.4202331304550171
0.0035918396897614002,2.0954606533050537,-0.41784948110580444
0.018535099923610687,2.106893301010132,-0.42004743218421936
0.03288412094116211,2.0875799655914307,-0.4161376357078552
0.047590143978595734,2.0949814319610596,-0.41755858063697815
0.06249828636646271,2.106189012527466,-0.4193383753299713
0.07856272161006927,2.144092082977295,-0.42644253373146057
0.09280449897050858,2.1282858848571777,-0.422880619764328
0.10825113952159882,2.13533353805542,-0.42387494444847107
0.1231110617518425,2.13468861579895,-0.42306649684906006
0.13943195343017578,2.156913995742798,-0.42666301131248474
0.15442492067813873,2.156080722808838,-0.4257103502750397
0.17183265089988708,2.185711145401001,-0.4307814836502075
0.18765214085578918,2.1884782314300537,-0.4304097592830658
0.20641957223415375,2.2255656719207764,-0.43651282787323
0.22114455699920654,2.2167201042175293,-0.43361157178878784
0.23901377618312836,2.2382798194885254,-0.43667104840278625
0.25632625818252563,2.2520804405212402,-0.438218355178833
0.27823254466056824,2.300079345703125,-0.4459506869316101
0.2952035665512085,2.3060646057128906,-0.4455296993255615
0.3123061954975128,2.311922073364258,-0.44509172439575195
0.333843857049942,2.3480465412139893,-0.4504701793193817
0.3553165793418884,2.3802478313446045,-0.4547981917858124
0.37575578689575195,2.4008889198303223,-0.4566934406757355
0.3993298411369324,2.4403493404388428,-0.46216970682144165
0.42155176401138306,2.4682488441467285,-0.4654172658920288
0.44416987895965576,2.4959895610809326,-0.46848443150520325
0.4678635597229004,2.5273804664611816,-0.47189974784851074
0.4927223026752472,2.562349319458008,-0.4759386479854584
0.5237312912940979,2.6234278678894043,-0.48469966650009155
0.5452027916908264,2.6353280544281006,-0.48436230421066284
0.577243983745575,2.6960318088531494,-0.49252086877822876
0.6118375062942505,2.7639505863189697,-0.5018543601036072
0.6414240598678589,2.8052873611450195,-0.5062530636787415
0.6746993660926819,2.857509136199951,-0.5124613642692566
0.70921790599823,2.913302183151245,-0.5189792513847351
0.7510666251182556,2.9949488639831543,-0.5298059582710266
0.7864094376564026,3.046353816986084,-0.5351288318634033
0.8324849009513855,3.134638786315918,-0.5467554330825806
0.8720629811286926,3.1926779747009277,-0.5527055859565735
0.9244830012321472,3.2950379848480225,-0.5659352540969849
0.9613226652145386,3.3375940322875977,-0.5687036514282227
1.0251801013946533,3.4685213565826416,-0.586276113986969
1.079758882522583,3.56186842918396,-0.5971440672874451
1.1267385482788086,3.625204086303711,-0.6023033261299133
1.2034965753555298,3.780130624771118,-0.622455894947052
1.2754889726638794,3.9121625423431396,-0.6383805274963379
1.3555313348770142,4.061737537384033,-0.6567513346672058
1.4025137424468994,4.1082682609558105,-0.6577820181846619
1.4450457096099854,4.139797687530518,-0.6562538146972656
1.4823461771011353,4.152507781982422,-0.6515021920204163
1.51426100730896,4.150477886199951,-0.6444997191429138
1.5405384302139282,4.133845806121826,-0.6349700093269348
1.5596309900283813,4.099025726318359,-0.622633159160614
1.568679928779602,4.038806438446045,-0.6065550446510315
1.3494399785995483,3.4028327465057373,-0.5050498843193054
1.3644315004348755,3.3728854656219482,-0.4946068227291107
1.3877869844436646,3.3644139766693115,-0.4872695505619049
1.4082248210906982,3.348573923110962,-0.4788641631603241
1.4379695653915405,3.3538382053375244,-0.47340625524520874
1.4524517059326172,3.323319435119629,-0.4627056419849396
1.4785927534103394,3.321317672729492,-0.45603328943252563
1.5016822814941406,3.3119935989379883,-0.4483317732810974
1.518570065498352,3.288259267807007,-0.4386267066001892
1.5447171926498413,3.2856757640838623,-0.43167832493782043
1.5677261352539062,3.2758166790008545,-0.4235835671424866
1.600705623626709,3.286783456802368,-0.4182051718235016
1.62394118309021,3.2764058113098145,-0.40997570753097534
1.6256213188171387,3.2245032787323,-0.3965635299682617
69.5998306274414,135.76980590820312,-16.403757095336914
1.6288224458694458,3.124455213546753,-0.3706001937389374
1.6821925640106201,3.172011375427246,-0.36899787187576294
1.7259540557861328,3.202477216720581,-0.36521878838539124
1.740278720855713,3.1779654026031494,-0.3551276624202728
1.7304730415344238,3.1088435649871826,-0.3399930000305176
1.7674520015716553,3.12471342086792,-0.33419281244277954
1.8142063617706299,3.1572201251983643,-0.3298187553882599
1.3161110877990723,2.2550175189971924,-0.22995775938034058
0.9747133851051331,1.643728256225586,-0.1633870154619217
0.9477317333221436,1.5741665363311768,-0.15237517654895782
0.9705092310905457,1.5881221294403076,-0.14956358075141907
0.977754533290863,1.5749796628952026,-0.14391173422336578
0.9927601218223572,1.5752289295196533,-0.13953512907028198
1.003296136856079,1.5689737796783447,-0.13456402719020844
1.0056495666503906,1.5493484735488892,-0.1283423751592636
1.0206589698791504,1.549269199371338,-0.12367628514766693
1.0462373495101929,1.5654592514038086,-0.12013636529445648
1.0328916311264038,1.5231517553329468,-0.11205895245075226
1.0677554607391357,1.551681399345398,-0.1090448796749115
2.5642573833465576,3.6754162311553955,-0.24610930681228638
2.5940372943878174,3.664935350418091,-0.2325502187013626
2.623871088027954,3.654146671295166,-0.21836824715137482
2.6062088012695312,3.581071376800537,-0.20089595019817352
2.663736581802368,3.607470989227295,-0.18796610832214355
2.6337575912475586,3.732697010040283,0.4825279712677002
2.599318504333496,3.7454519271850586,0.4959372878074646
2.541027307510376,3.717859983444214,0.5029157996177673
1.0461937189102173,1.5553408861160278,0.21471115946769714
1.0552445650100708,1.5952162742614746,0.22444996237754822
1.0391420125961304,1.595802664756775,0.22847668826580048
1.0108355283737183,1.5764789581298828,0.22941966354846954
0.9984960556030273,1.58364999294281,0.23402030766010284
0.9983168840408325,1.6104942560195923,0.24159593880176544
0.994865357875824,1.630165696144104,0.2478628307580948
0.9787582755088806,1.6302131414413452,0.2510806918144226
0.9661666750907898,1.6370611190795898,0.2552579343318939
1.3481953144073486,2.3231863975524902,0.3665478229522705
1.8588615655899048,3.256089210510254,0.5195435881614685
1.811980128288269,3.228088855743408,0.5204961895942688
1.7592625617980957,3.189861536026001,0.5194992423057556
1.7849702835083008,3.2936172485351562,0.5416394472122192
1.7743011713027954,3.328937292098999,0.5524376034736633
2.397062301635742,4.576361656188965,0.7662565112113953
2.362480878829956,4.592788219451904,0.7753170132637024
2.3277812004089355,4.608940124511719,0.7843752503395081
2.294560194015503,4.6240949630737305,0.793016791343689
2.25835919380188,4.631834506988525,0.8003256320953369
2.226903200149536,4.654150009155273,0.8098926544189453
2.19851016998291,4.683269023895264,0.8204454779624939
2.1698837280273438,4.712168216705322,0.8310253620147705
2.127037525177002,4.704928874969482,0.8349601626396179
2.10003399848938,4.732560634613037,0.8451175093650818
2.062089204788208,4.7395148277282715,0.851101815700531
2.0111618041992188,4.718179702758789,0.8519877791404724
1.7400646209716797,4.166432857513428,0.7564671039581299
1.7077382802963257,4.170382499694824,0.7611142992973328
1.6811383962631226,4.188389778137207,0.7683701515197754
1.656302571296692,4.213788986206055,0.7766481637954712
1.6247289180755615,4.225027084350586,0.7822668552398682
1.5962826013565063,4.243055820465088,0.7891362309455872
1.5686523914337158,4.2605509757995605,0.7958471775054932
1.5386180877685547,4.2704973220825195,0.8011512160301208
1.505588412284851,4.273132801055908,0.8049328327178955
1.4800047874450684,4.301474571228027,0.8132703304290771
1.450976014137268,4.3185505867004395,0.8194864988327026
1.411299467086792,4.302461624145508,0.8194108605384827
1.3892968893051147,4.336993217468262,0.8289253115653992
1.3634815216064453,4.360396862030029,0.8363767862319946
1.3271745443344116,4.3546881675720215,0.8379001021385193
1.2934075593948364,4.3560309410095215,0.8405942320823669
1.2725353240966797,4.401373386383057,0.8518361449241638
1.2369725704193115,4.39475679397583,0.8530423045158386
1.2102327346801758,4.41734504699707,0.8599157929420471
1.1872366666793823,4.454590320587158,0.8697060942649841
1.156623125076294,4.4698591232299805,0.8747786283493042
1.1253747940063477,4.481102466583252,0.8789975047111511
1.0949320793151855,4.495851516723633,0.8839545249938965
1.064818024635315,4.510285377502441,0.8888706564903259
1.03670072555542,4.531900882720947,0.89522784948349
1.006089687347412,4.545963764190674,0.900187075138092
0.9736220836639404,4.552451133728027,0.9031009674072266
0.939513623714447,4.551220893859863,0.9044393301010132
0.7647450566291809,3.8428425788879395,0.7650407552719116
0.7310695052146912,3.8137989044189453,0.7606398463249207
0.8492149710655212,4.606234550476074,0.9204043745994568
0.8203914761543274,4.630361557006836,0.9269643425941467
0.7889951467514038,4.643112659454346,0.9308545589447021
0.7596848607063293,4.670853137969971,0.9376034140586853
0.7300724387168884,4.698396682739258,0.9443700313568115
0.6950921416282654,4.695501804351807,0.9450905323028564
0.663375735282898,4.707387447357178,0.9487923383712769
0.6356445550918579,4.7494215965271,0.9586278200149536
0.6013652086257935,4.7457685470581055,0.9590452909469604
0.5687134861946106,4.757193565368652,0.9621286392211914
0.5372134447097778,4.779809951782227,0.9675278663635254
0.5044793486595154,4.798457622528076,0.9721927642822266
0.4746720492839813,4.83966064453125,0.9814619421958923
0.4403115212917328,4.83490514755249,0.9814595580101013
0.4072684049606323,4.845170974731445,0.9845557808876038
0.37476590275764465,4.866804599761963,0.9893593192100525
0.34002184867858887,4.86916971206665,0.9902740120887756
0.3072567880153656,4.8941779136657715,0.9958384037017822
0.273898720741272,4.91131067276001,0.9998506903648376
0.2401113659143448,4.920560359954834,1.002306580543518
0.20684850215911865,4.944873809814453,1.007883071899414
0.17236150801181793,4.961392879486084,1.0116064548492432
0.13803726434707642,4.973904132843018,1.0141874551773071
0.10378512740135193,4.997657775878906,1.0191104412078857
0.06931352615356445,5.028828144073486,1.0255969762802124
0.03437066078186035,5.0367937088012695,1.0274012088775635
-0.0012580155162140727,5.0521697998046875,1.030772089958191
-0.036493126302957535,5.0711259841918945,1.0349211692810059
-0.07174981385469437,5.070832252502441,1.0345174074172974
-0.1072671115398407,5.0856099128723145,1.0371891260147095
-0.14326584339141846,5.107789516448975,1.0414177179336548
-0.17978732287883759,5.137367248535156,1.047202467918396
-0.2164684683084488,5.143709659576416,1.0482962131500244
-0.25322312116622925,5.161286354064941,1.051733374595642
-0.28946033120155334,5.167195796966553,1.0525673627853394
-0.27641794085502625,4.389742374420166,0.8935445547103882
-0.3006361424922943,4.300090312957764,0.8746974468231201
-0.3320884108543396,4.313333511352539,0.8768230676651001
-0.3643101453781128,4.337823867797852,0.8812796473503113
-0.3906435966491699,4.293440818786621,0.8717880845069885
-0.4152573347091675,4.237468242645264,0.8599951267242432
-0.4408593773841858,4.200521469116211,0.8516124486923218
-0.4621322751045227,4.125337600708008,0.8354368209838867
-0.4878021478652954,4.099541664123535,0.8293389678001404
-0.5094004273414612,4.0431742668151855,0.8171089887619019
-0.5299625992774963,3.9828741550445557,0.8041389584541321
-0.5544947385787964,3.9566195011138916,0.7980970144271851
-0.5823720097541809,3.9529476165771484,0.7964322566986084
-0.598427951335907,3.8773045539855957,0.7799957394599915
-0.615871250629425,3.8167524337768555,0.7666730880737305
-0.6369659304618835,3.782585382461548,0.7587123513221741
-0.6558824181556702,3.736938953399658,0.7484952211380005
-0.6750084757804871,3.6949541568756104,0.7390648722648621
-0.6940272450447083,3.6527998447418213,0.7296401262283325
-0.7122676968574524,3.6145875453948975,0.7205864191055298
-0.732346773147583,3.587554931640625,0.7138029336929321
-0.7386168837547302,3.496631145477295,0.6943821310997009
-0.7642844915390015,3.4994075298309326,0.6936231255531311
-0.7857558727264404,3.4793827533721924,0.6883385181427002
-0.8039161562919617,3.4481148719787598,0.6809026598930359
-0.822187066078186,3.42063570022583,0.6739491820335388
-0.838092029094696,3.385683536529541,0.6654292345046997
-0.855453372001648,3.3581013679504395,0.6584137678146362
-0.8759283423423767,3.3414430618286133,0.6535502672195435
-0.887255072593689,3.2912909984588623,0.642191469669342
-0.9061239361763,3.2707290649414062,0.636665403842926
-0.922305166721344,3.2428088188171387,0.6295238137245178
-0.9389120936393738,3.2186243534088135,0.6229491233825684
-0.9478890299797058,3.16849684715271,0.6113877892494202
-0.9694401621818542,3.1625401973724365,0.6084291934967041
-0.9846630096435547,3.1342613697052,0.6011660695075989
-1.0030685663223267,3.1168899536132812,0.5960437059402466
-1.014870047569275,3.0813205242156982,0.5872716903686523
-1.0311343669891357,3.0603394508361816,0.5811084508895874
-1.0493276119232178,3.046647310256958,0.5764061808586121
-1.0598713159561157,3.011028289794922,0.5675916075706482
-1.0718739032745361,2.9788172245025635,0.5594239234924316
-1.0794626474380493,2.9357497692108154,0.5492910742759705
-1.1048802137374878,2.9433939456939697,0.5484034419059753
-1.130553960800171,2.9508163928985596,0.5473397970199585
-1.1294423341751099,2.8900115489959717,0.5337156057357788
-1.1408017873764038,2.8613719940185547,0.526067852973938
-1.1434389352798462,2.8111732006073,0.5144960880279541
