X,Y,Z
2.1107094287872314,3.7972309589385986,-0.4820823669433594
2.144379138946533,3.7977652549743652,-0.47108128666877747
2.1595678329467773,3.7639050483703613,-0.4555326998233795
2.18245267868042,3.743263006210327,-0.44157713651657104
2.2203001976013184,3.7496063709259033,-0.43074506521224976
2.2298636436462402,3.709172248840332,-0.41456344723701477
2.2478604316711426,3.681567668914795,-0.39959484338760376
2.294721841812134,3.699892520904541,-0.38923877477645874
2.2948317527770996,3.6461713314056396,-0.37154990434646606
2.3199594020843506,3.6316215991973877,-0.35774582624435425
2.3627705574035645,3.642491340637207,-0.34595152735710144
2.3702330589294434,3.6017260551452637,-0.3292916715145111
2.390763759613037,3.5800743103027344,-0.31413406133651733
2.429241895675659,3.5836501121520996,-0.3007957339286804
2.444460153579712,3.5556106567382812,-0.28480902314186096
2.4861152172088623,3.565884828567505,-0.271671861410141
2.515850782394409,3.5557212829589844,-0.2560575008392334
2.526087522506714,3.520829677581787,-0.2385052591562271
2.5773301124572754,3.542635917663574,-0.2244972437620163
2.1711320877075195,2.941614866256714,-0.17271947860717773
2.7984776496887207,3.966202974319458,0.6278456449508667
2.7660837173461914,3.986131191253662,0.6449632048606873
2.7169082164764404,3.9751667976379395,0.6557309627532959
2.710357904434204,4.028480052947998,0.6769677400588989
2.6652426719665527,4.028142929077148,0.6886740326881409
2.6641337871551514,4.091163635253906,0.7107167840003967
2.6219749450683594,4.088418483734131,0.7209137082099915
2.5901782512664795,4.106272220611572,0.734257698059082
2.5693445205688477,4.14418888092041,0.7513435482978821
2.5471010208129883,4.173744201660156,0.7660945653915405
2.505107879638672,4.169861793518066,0.7746027708053589
2.480552911758423,4.200235366821289,0.788906991481781
2.4575071334838867,4.233828067779541,0.8039022088050842
2.42988657951355,4.2564592361450195,0.8165057301521301
2.4030954837799072,4.278369903564453,0.8287670612335205
2.3669850826263428,4.287591934204102,0.838101327419281
2.2716054916381836,4.188540935516357,0.8259692788124084
2.2258596420288086,4.176217555999756,0.8305294513702393
2.220418691635132,4.238064289093018,0.8497515320777893
2.19836688041687,4.26926851272583,0.8627020120620728
2.1693308353424072,4.290850639343262,0.8732826113700867
2.1366310119628906,4.305350303649902,0.8824895620346069
2.108741283416748,4.325825214385986,0.8926846981048584
2.0840141773223877,4.353010654449463,0.90433269739151
2.0490057468414307,4.3593597412109375,0.9113357663154602
2.016214609146118,4.372920036315918,0.9194689989089966
1.9896091222763062,4.400218486785889,0.9305663704872131
2.0262858867645264,4.566998481750488,0.9711868166923523
3.5852789878845215,8.234755516052246,1.760676622390747
3.507045269012451,8.215336799621582,1.7659096717834473
1.9409092664718628,4.640498161315918,1.002160906791687
1.9223071336746216,4.692180156707764,1.0180706977844238
1.8695191144943237,4.658276081085205,1.0153635740280151
1.8435949087142944,4.687626838684082,1.0263220071792603
1.8056889772415161,4.688477039337158,1.03118896484375
1.794299602508545,4.760956764221191,1.0512127876281738
1.7539185285568237,4.758236408233643,1.054568886756897
1.3312335014343262,3.6940903663635254,0.8218276500701904
1.3099822998046875,3.7168078422546387,0.8299298882484436
1.6528816223144531,4.798092842102051,1.0753834247589111
1.6261905431747437,4.830007553100586,1.0864635705947876
1.624205470085144,4.942110538482666,1.1149988174438477
1.5798027515411377,4.927125453948975,1.1149767637252808
1.5517077445983887,4.962761878967285,1.12646484375
1.5183566808700562,4.979774475097656,1.133736491203308
1.4800971746444702,4.978083610534668,1.1367380619049072
1.444960594177246,4.987163543701172,1.1421301364898682
1.408756971359253,4.996413707733154,1.1469204425811768
1.383642554283142,5.045838832855225,1.1610107421875
1.3116838932037354,4.9219970703125,1.1352472305297852
1.276465654373169,4.930178165435791,1.139882206916809
1.2539888620376587,4.985995769500732,1.1555591821670532
1.2245209217071533,5.015789985656738,1.165296196937561
1.184975266456604,5.008718967437744,1.1657298803329468
1.1574724912643433,5.0533342361450195,1.178237795829773
1.1279313564300537,5.094201564788818,1.1900012493133545
1.0887696743011475,5.086243629455566,1.1903516054153442
1.0577728748321533,5.115220546722412,1.1993904113769531
1.0175421237945557,5.09919548034668,1.1979320049285889
0.7917197346687317,4.118783473968506,0.969092071056366
0.7576619982719421,4.101385116577148,0.9662749767303467
0.72968590259552,4.113613605499268,0.9704625606536865
0.7017163634300232,4.125626087188721,0.974646806716919
0.6729616522789001,4.129854202270508,0.9770160913467407
0.6458908319473267,4.1451616287231445,0.9820599555969238
0.6164330840110779,4.149087429046631,0.9844110012054443
0.5912758111953735,4.183056354522705,0.9933165311813354
0.5616728663444519,4.186715126037598,0.9950790405273438
0.5310407280921936,4.182626724243164,0.9950498938560486
0.5062170028686523,4.223577499389648,1.0057826042175293
0.48147034645080566,4.268133163452148,1.017435073852539
0.451978474855423,4.278572082519531,1.0210368633270264
0.4205346703529358,4.266153335571289,1.0188828706741333
0.38669633865356445,4.227118968963623,1.0100288391113281
0.3604585528373718,4.271127223968506,1.0210679769515991
0.3327416479587555,4.303603172302246,1.0294097661972046
0.3000728487968445,4.275269508361816,1.0232619047164917
0.26526015996932983,4.197371959686279,1.0052731037139893
0.2328263372182846,4.141968250274658,0.9926983118057251
0.20274491608142853,4.120591640472412,0.9878125786781311
0.17293033003807068,4.099044322967529,0.9827409386634827
0.14453987777233124,4.122856140136719,0.988595187664032
0.11258401721715927,4.013557434082031,0.962573766708374
0.12351644039154053,5.852231502532959,1.4038819074630737
0.08314545452594757,5.875606060028076,1.409896969795227
0.04249810427427292,5.894901752471924,1.4150035381317139
0.0007927538244985044,5.948304176330566,1.4274660348892212
-0.040702156722545624,5.974842071533203,1.4334810972213745
-0.08289854973554611,6.020080089569092,1.4440475702285767
-0.12502478063106537,6.03463888168335,1.4473224878311157
-0.16809263825416565,6.07548189163208,1.4569696187973022
-0.20963099598884583,6.0552754402160645,1.4520459175109863
-0.2545150816440582,6.103098392486572,1.4633907079696655
-0.17641083896160126,3.627514362335205,0.8692384958267212
-0.2002350240945816,3.6036360263824463,0.8630006313323975
-0.22515937685966492,3.6023519039154053,0.8622180819511414
-0.4334365427494049,6.239016056060791,1.4925459623336792
-0.4937983751296997,6.448290824890137,1.5418919324874878
-0.5592800974845886,6.691169738769531,1.5993118286132812
-0.5998471975326538,6.623214244842529,1.5821683406829834
-0.6292508840560913,6.4530792236328125,1.5399807691574097
-0.6737143397331238,6.449163436889648,1.5375730991363525
-0.7215148210525513,6.467525005340576,1.540519118309021
-0.7619104385375977,6.42518949508667,1.529102087020874
-0.8004814386367798,6.371265888214111,1.5150141716003418
-0.8398389220237732,6.32841682434082,1.5036497116088867
-0.8793519139289856,6.293023109436035,1.493592619895935
-0.924449622631073,6.29504919052124,1.491984248161316
-0.9746001362800598,6.33445405960083,1.499327301979065
-1.0283558368682861,6.392253398895264,1.511061191558838
-1.07794988155365,6.4157562255859375,1.5147026777267456
-1.1325167417526245,6.465117454528809,1.5244978666305542
-1.1850934028625488,6.499065399169922,1.5307048559188843
-1.240314245223999,6.544034004211426,1.5385971069335938
-1.2946109771728516,6.585011005401611,1.545478343963623
-1.3487657308578491,6.62183141708374,1.5514178276062012
-1.4092859029769897,6.684253215789795,1.563364028930664
-1.4478076696395874,6.638145446777344,1.5499531030654907
-1.4856656789779663,6.587944507598877,1.5356520414352417
-1.524321436882019,6.548973560333252,1.5237948894500732
-0.6755457520484924,2.8159799575805664,0.6537359356880188
-0.6929052472114563,2.804466485977173,0.6496152281761169
-0.7016539573669434,2.759601593017578,0.6378259658813477
-0.7192667722702026,2.7477502822875977,0.6336658596992493
-0.7493894100189209,2.783709764480591,0.6405642032623291
-0.7708656191825867,2.7863194942474365,0.6397978663444519
-1.7610247135162354,6.201809406280518,1.4202053546905518
-1.7914128303527832,6.150851249694824,1.4046417474746704
-1.8207542896270752,6.095913887023926,1.388227105140686
-1.8550732135772705,6.059071063995361,1.376037836074829
-1.8838372230529785,6.003650188446045,1.3596863746643066
-1.917820692062378,5.966259002685547,1.3475228548049927
-1.2210798263549805,3.712040662765503,0.8357523679733276
-1.2418116331100464,3.6900594234466553,0.8279479146003723
-1.2643616199493408,3.675312042236328,0.8218693137168884
-1.2946810722351074,3.681962251663208,0.8205746412277222
-2.062960386276245,5.739178657531738,1.274661660194397
-2.0927460193634033,5.697405815124512,1.2610678672790527
-2.1290762424468994,5.677446365356445,1.2518583536148071
-2.1626083850860596,5.650146007537842,1.240664005279541
-2.2146735191345215,5.672786235809326,1.2405647039413452
-2.272188425064087,5.705379962921143,1.242521047592163
-1.4142743349075317,3.4805989265441895,0.7548002004623413
-1.4270617961883545,3.443331718444824,0.7435716986656189
-1.4538476467132568,3.4416165351867676,0.7395866513252258
-1.4649189710617065,3.404740810394287,0.7280643582344055
-1.5124831199645996,3.4521310329437256,0.7345651984214783
-1.5210440158843994,3.4076340198516846,0.7213831543922424
-3.814378023147583,8.3884859085083,1.766631007194519
-3.890040159225464,8.39908504486084,1.75917649269104
-3.9676852226257324,8.421070098876953,1.7533607482910156
-4.04073429107666,8.432044982910156,1.7452467679977417
-4.145854949951172,8.503939628601074,1.7493900060653687
-4.206275939941406,8.477595329284668,1.7329336404800415
-4.305610179901123,8.525851249694824,1.7314817905426025
-2.756309747695923,5.370424270629883,1.0829061269760132
-2.7780425548553467,5.326753616333008,1.0664128065109253
-4.590890407562256,8.66171932220459,1.721347451210022
-1.1576366424560547,2.1479804515838623,0.4235788583755493
-1.1784042119979858,2.1507718563079834,0.4208180904388428
-2.4982528686523438,4.489366054534912,0.8707429766654968
-2.5280656814575195,4.474647521972656,0.8603958487510681
-5.112026214599609,8.90827465057373,1.6974055767059326
-5.220273494720459,8.952312469482422,1.6896306276321411
-1.2478729486465454,2.1072421073913574,0.3937883675098419
-1.248160719871521,2.0766539573669434,0.3839600086212158
-2.933842897415161,4.810787677764893,0.8800671696662903
-2.9723622798919678,4.798645496368408,0.8676844835281372
-3.006486415863037,4.7797932624816895,0.8540645241737366
-3.033783435821533,4.755823612213135,0.8390076160430908
-3.0656256675720215,4.737843990325928,0.8248687386512756
-3.0548925399780273,4.650518417358398,0.7981244921684265
-3.075216293334961,4.61180305480957,0.7797915935516357
-3.094674587249756,4.577983856201172,0.7619268298149109
-3.1118907928466797,4.540693759918213,0.7434967160224915
-3.1539509296417236,4.533204555511475,0.7287212014198303
-6.727050304412842,9.534918785095215,1.5040099620819092
-2.866895914077759,4.010573863983154,0.6202244758605957
-2.91764497756958,4.02428674697876,0.6088065505027771
-2.9368276596069336,3.9936017990112305,0.5900206565856934
-2.9369349479675293,3.9428906440734863,0.5681478977203369
-2.4558563232421875,3.46966290473938,-0.2432628720998764
-2.896446704864502,4.154834270477295,-0.30926769971847534
-2.883504629135132,4.200260162353516,-0.33019042015075684
-2.8703062534332275,4.2501115798950195,-0.352022260427475
-2.839923858642578,4.2689619064331055,-0.3698957562446594
-2.7975780963897705,4.271989822387695,-0.38634055852890015
-2.7693686485290527,4.2979536056518555,-0.40481287240982056
-2.7574243545532227,4.345563888549805,-0.4245271682739258
-1.2696540355682373,2.0336267948150635,-0.2058628350496292
-2.7081871032714844,4.4095282554626465,-0.46157971024513245
-2.155297040939331,3.564979314804077,-0.38480350375175476
-2.6602115631103516,4.471373081207275,-0.49704456329345703
-2.644406795501709,4.519477844238281,-0.5168300271034241
-2.6264615058898926,4.563952445983887,-0.5362427830696106
-2.60722017288208,4.604372501373291,-0.5548721551895142
-2.580557107925415,4.635225772857666,-0.5723941326141357
-2.5574944019317627,4.672591686248779,-0.5907685160636902
-1.6594573259353638,3.082538366317749,-0.3984604775905609
-1.6131254434585571,3.0487587451934814,-0.40278664231300354
-1.5798996686935425,3.0385899543762207,-0.4098740518093109
-1.524364948272705,2.9830267429351807,-0.41047289967536926
-1.1029188632965088,2.1959173679351807,-0.3080233037471771
-1.0868616104125977,2.2029531002044678,-0.3147883713245392
-1.0568636655807495,2.182135820388794,-0.31760814785957336
-1.0412462949752808,2.1886796951293945,-0.32409918308258057
-1.0256528854370117,2.1950693130493164,-0.33054548501968384
-1.0225616693496704,2.229642391204834,-0.34121057391166687
-1.007902979850769,2.2395567893981934,-0.34819740056991577
-0.9981798529624939,2.259835720062256,-0.356740266084671
-0.9878526926040649,2.2802016735076904,-0.365456223487854
-0.9652439951896667,2.272076368331909,-0.3694005310535431
-0.9546933770179749,2.2922556400299072,-0.377961128950119
-0.9442242383956909,2.3122596740722656,-0.38647332787513733
-0.9363293647766113,2.339395046234131,-0.3962356746196747
-0.9191417694091797,2.3451550006866455,-0.40238162875175476
-0.9119265675544739,2.375864028930664,-0.4127820134162903
-0.897739827632904,2.3884479999542236,-0.42006224393844604
-0.8753958344459534,2.379256010055542,-0.42347341775894165
-1.0317639112472534,2.8664157390594482,-0.5160014629364014
-1.018480658531189,2.8943870067596436,-0.527011513710022
-1.0017013549804688,2.911189079284668,-0.5359082221984863
-0.972449004650116,2.8914244174957275,-0.5380356907844543
-0.9517946839332581,2.8970706462860107,-0.544558048248291
-0.9357798099517822,2.9172024726867676,-0.5538643598556519
-0.9204527139663696,2.940948724746704,-0.5640052556991577
-0.8827645778656006,2.8910343647003174,-0.559881865978241
-0.7986329793930054,2.6826348304748535,-0.5242152214050293
-0.7698848843574524,2.6539831161499023,-0.5232656598091125
-0.7531741857528687,2.6656627655029297,-0.5302201509475708
-0.7384073138237,2.6846089363098145,-0.5386753678321838
-0.7091661095619202,2.651752233505249,-0.5364732146263123
-0.7019444108009338,2.7001895904541016,-0.5506047010421753
-0.7006966471672058,2.774599552154541,-0.5702308416366577
-0.6665585041046143,2.7188720703125,-0.563147783279419
-0.6323517560958862,2.6591761112213135,-0.5547824501991272
-0.6020923852920532,2.614192247390747,-0.5492426753044128
-0.572020411491394,2.5651490688323975,-0.5426589250564575
-0.5483304262161255,2.5420098304748535,-0.5414643287658691
-0.5226513147354126,2.507491111755371,-0.5375823974609375
-0.49597403407096863,2.4653220176696777,-0.5316982865333557
-0.471807599067688,2.434222936630249,-0.5281800627708435
-0.44490957260131836,2.384107828140259,-0.5203936100006104
-0.4221108555793762,2.35257887840271,-0.516477108001709
-0.40431928634643555,2.3472766876220703,-0.517903745174408
-0.3798017203807831,2.300424337387085,-0.5101227164268494
-0.35985589027404785,2.2797794342041016,-0.5081419348716736
-0.3382164537906647,2.243863582611084,-0.5026710629463196
-0.32146525382995605,2.238070487976074,-0.5034267902374268
-0.3022323548793793,2.213270664215088,-0.49989554286003113
-0.27698296308517456,2.1391913890838623,-0.4851653277873993
-0.26156342029571533,2.136762857437134,-0.4866369366645813
-0.2463921308517456,2.138110399246216,-0.4886329770088196
-0.2282104343175888,2.1090610027313232,-0.4835338890552521
-0.21272985637187958,2.1026065349578857,-0.4836122691631317
-0.19877773523330688,2.111201524734497,-0.4871758222579956
-0.1814056634902954,2.0818417072296143,-0.48170706629753113
-0.1654326319694519,2.0675928592681885,-0.4795142114162445
-0.14963527023792267,2.0494189262390137,-0.47639790177345276
-0.13286076486110687,2.0121474266052246,-0.46883338689804077
-0.11975821107625961,2.0279581546783447,-0.473474383354187
-0.10605847090482712,2.0361573696136475,-0.47602877020835876
-0.09199529141187668,2.0442702770233154,-0.4786030054092407
-0.0780487060546875,2.0522782802581787,-0.48117056488990784
-0.06435003876686096,2.071607828140259,-0.4863557815551758
-0.04948950186371803,2.0529286861419678,-0.4821799099445343
-0.03520279377698898,2.0531561374664307,-0.48246631026268005
-0.020612623542547226,2.045680284500122,-0.48096922039985657
-0.0063127377070486546,2.0152881145477295,-0.47409769892692566
0.007794178556650877,2.0457470417022705,-0.48106494545936584
0.022185811772942543,2.0647096633911133,-0.4853053390979767
0.036348216235637665,2.0531530380249023,-0.48239415884017944
0.05024217814207077,2.037698268890381,-0.4785928726196289
0.06528247147798538,2.0564353466033936,-0.4824621379375458
0.08018754422664642,2.071305274963379,-0.48528915643692017
0.09423094242811203,2.0632715225219727,-0.48277223110198975
0.10896632820367813,2.0703368186950684,-0.4838116765022278
0.12471883744001389,2.0925450325012207,-0.48814287781715393
0.13952495157718658,2.091907024383545,-0.48686864972114563
0.15631912648677826,2.1215386390686035,-0.4926660656929016
0.17108406126499176,2.1206939220428467,-0.4913944900035858
0.18817929923534393,2.14632248878479,-0.4961182475090027
0.20278818905353546,2.1415820121765137,-0.49344831705093384
0.21990689635276794,2.159451484680176,-0.4959748685359955
0.2304365187883377,2.116628408432007,-0.4846284091472626
0.24696028232574463,2.1305184364318848,-0.48627567291259766
0.2678956985473633,2.178422689437866,-0.49518319964408875
0.2811405062675476,2.1619062423706055,-0.48944151401519775
0.29860010743141174,2.175487756729126,-0.49050045013427734
0.3192441761493683,2.211611032485962,-0.4966557025909424
0.34444117546081543,2.2740516662597656,-0.5082157850265503
0.3651354908943176,2.302380323410034,-0.5120034217834473
0.3856185972690582,2.326777696609497,-0.5148797035217285
0.399272620677948,2.309638023376465,-0.5085824131965637
0.4184200167655945,2.322495937347412,-0.5085611343383789
0.45789626240730286,2.4441587924957275,-0.5320799946784973
0.4691619277000427,2.4116768836975098,-0.5219513773918152
0.49890998005867004,2.4727978706359863,-0.5320611596107483
0.530338704586029,2.537431001663208,-0.5425909757614136
0.5605630874633789,2.59057879447937,-0.5501717925071716
0.5820895433425903,2.6024343967437744,-0.5489664673805237
0.6132832765579224,2.6551384925842285,-0.5563039183616638
0.6470347046852112,2.7150256633758545,-0.5649136304855347
0.6770458817481995,2.756093740463257,-0.5690931677818298
0.7145981788635254,2.822826862335205,-0.5783380270004272
0.7460917234420776,2.8633005619049072,-0.5821095108985901
0.7910923957824707,2.951637029647827,-0.5954245328903198
0.8271000981330872,3.0026695728302,-0.6005598902702332
0.8597031831741333,3.0386009216308594,-0.6025236248970032
0.8964954614639282,3.085198163986206,-0.6063681244850159
0.9522756338119507,3.1940979957580566,-0.6222913265228271
1.0129051208496094,3.313551425933838,-0.6395405530929565
1.0522537231445312,3.3590776920318604,-0.6421352028846741
1.1205525398254395,3.4920713901519775,-0.6611109972000122
1.173294186592102,3.569416046142578,-0.6690346598625183
1.278140902519226,3.7995967864990234,-0.7048854827880859
1.3411166667938232,3.8976943492889404,-0.7154317498207092
1.4273658990859985,4.056869029998779,-0.7366557121276855
1.4938815832138062,4.15348482131958,-0.7459858655929565
1.5590168237686157,4.242279529571533,-0.7533536553382874
1.5987497568130493,4.258178234100342,-0.7471669912338257
1.6314438581466675,4.255859851837158,-0.737881064414978
1.6503949165344238,4.217261791229248,-0.7223048210144043
1.6801695823669434,4.207311630249023,-0.7116065621376038
1.6935886144638062,4.1579437255859375,-0.6941391229629517
1.4076628684997559,3.3879454135894775,-0.5580040812492371
1.4407261610031128,3.4006733894348145,-0.5525259375572205
1.4616124629974365,3.3847944736480713,-0.542331337928772
1.4851548671722412,3.375992774963379,-0.5331569910049438
1.4992419481277466,3.3457934856414795,-0.5206471085548401
1.5298784971237183,3.3503856658935547,-0.5133125185966492
1.54696786403656,3.326895236968994,-0.5017908215522766
1.5700935125350952,3.317462682723999,-0.49232491850852966
1.5899043083190918,3.3008205890655518,-0.4817905128002167
1.6065430641174316,3.2769041061401367,-0.4701272249221802
1.6368565559387207,3.2806031703948975,-0.4622533619403839
1.649019718170166,3.2498068809509277,-0.44961756467819214
2.0345311164855957,3.9425768852233887,-0.5352548956871033
2.0661568641662598,3.9364969730377197,-0.5240209102630615
2.082627296447754,3.9030466079711914,-0.5091310143470764
2.0780136585235596,3.8321645259857178,-0.4895666241645813
2.1372969150543213,3.876558780670166,-0.4843297302722931
2.113595485687256,3.7712996006011963,-0.46057337522506714
2.1432852745056152,3.7649364471435547,-0.449100136756897
2.184619665145874,3.7785191535949707,-0.4399188160896301
2.1878502368927,3.724121332168579,-0.42246490716934204
2.2222704887390137,3.7232673168182373,-0.41097837686538696
2.251580238342285,3.716108560562134,-0.3989317715167999
2.2692577838897705,3.6884658336639404,-0.3844504654407501
2.2871811389923096,3.6604037284851074,-0.36978235840797424
2.3368217945098877,3.6856701374053955,-0.3604440689086914
2.341277837753296,3.637939214706421,-0.3435972332954407
2.362790107727051,3.6159982681274414,-0.329048752784729
2.4044957160949707,3.627098798751831,-0.31745514273643494
2.4156877994537354,3.5927133560180664,-0.30183637142181396
2.4367733001708984,3.570227861404419,-0.28653645515441895
2.4923641681671143,3.5994131565093994,-0.2750391364097595
2.4849157333374023,3.5391685962677,-0.2568509876728058
2.500929594039917,3.5098438262939453,-0.2402304708957672
2.5606796741485596,3.544827938079834,-0.2278931587934494
2.22479248046875,3.0375123023986816,-0.18215970695018768
2.1807281970977783,2.935089588165283,-0.16254180669784546
2.797651767730713,3.934598445892334,0.5861589908599854
2.8083722591400146,4.0099873542785645,0.6110599637031555
2.736276626586914,3.9726362228393555,0.6184310913085938
2.6995856761932373,3.9812734127044678,0.6319473385810852
2.674900531768799,4.004923343658447,0.6473179459571838
2.657747745513916,4.046466827392578,0.6652060151100159
2.6382267475128174,4.084538459777832,0.6825962662696838
2.5921549797058105,4.075153350830078,0.6910748481750488
2.5901072025299072,4.138265132904053,0.7116538882255554
2.5535385608673096,4.149670600891113,0.723185658454895
2.5303964614868164,4.179776191711426,0.7376048564910889
2.4998579025268555,4.19602108001709,0.7494056224822998
2.4741227626800537,4.222632884979248,0.7625856399536133
2.44140362739563,4.239589691162109,0.7738709449768066
2.417267084121704,4.269137382507324,0.7872475981712341
2.3942043781280518,4.2978410720825195,0.8002139329910278
2.2805731296539307,4.1649017333984375,0.7827745079994202
2.255958080291748,4.193955898284912,0.7950941920280457
2.202305316925049,4.168325901031494,0.7970334887504578
2.2009289264678955,4.236861705780029,0.8165946006774902
2.1777071952819824,4.264374732971191,0.8283869028091431
2.1468334197998047,4.282561779022217,0.838019073009491
2.117755651473999,4.3038787841796875,0.8481136560440063
2.0958199501037598,4.3385467529296875,0.8608050346374512
2.061628580093384,4.344749927520752,0.8676719665527344
2.0404345989227295,4.378545761108398,0.8801112174987793
2.007601022720337,4.392127513885498,0.8879117369651794
1.986594796180725,4.4337544441223145,0.9015319347381592
2.00018572807312,4.552169322967529,0.9307951331138611
1.99530827999115,4.628096103668213,0.9513950943946838
1.9639968872070312,4.644057750701904,0.9597959518432617
1.925452709197998,4.646222114562988,0.9648072123527527
3.3913676738739014,8.35869026184082,1.7438693046569824
1.8529576063156128,4.6643805503845215,0.9776229858398438
1.8268526792526245,4.693819522857666,0.9881455302238464
1.812799096107483,4.755297660827637,1.005513310432434
1.7840198278427124,4.781124591827393,1.0152008533477783
1.3452599048614502,3.6882996559143066,0.7861217260360718
1.3206487894058228,3.7042863368988037,0.7924876809120178
1.2887743711471558,3.6982672214508057,0.7941321134567261
1.6552802324295044,4.858333110809326,1.047012209892273
1.6210534572601318,4.868559837341309,1.053043246269226
1.601936936378479,4.929997444152832,1.0697860717773438
1.5439989566802979,4.871092319488525,1.0601320266723633
1.516412615776062,4.906611919403076,1.0710523128509521
1.4857652187347412,4.9308037757873535,1.0795202255249023
1.480207085609436,5.038992881774902,1.1064527034759521
1.438500165939331,5.0260491371154785,1.1068907976150513
1.407920241355896,5.057428359985352,1.1166374683380127
1.3383699655532837,4.944779872894287,1.0943055152893066
1.2957781553268433,4.9274797439575195,1.0930557250976562
1.2672756910324097,4.96150541305542,1.1032085418701172
1.2306846380233765,4.961874961853027,1.1058979034423828
1.2095636129379272,5.028920650482178,1.1235809326171875
1.1721205711364746,5.029053688049316,1.1258896589279175
1.1452049016952515,5.077472686767578,1.1387243270874023
1.1120209693908691,5.099640369415283,1.1457494497299194
1.0724599361419678,5.0916900634765625,1.1460564136505127
1.0392605066299438,5.11331844329834,1.1530728340148926
1.0049177408218384,5.127139568328857,1.1583610773086548
1.4993343353271484,7.943488597869873,1.79780113697052
1.4507633447647095,7.998005390167236,1.8124185800552368
1.3937374353408813,8.007135391235352,1.81685209274292
1.3330451250076294,8.000980377197266,1.8179535865783691
0.3258574903011322,2.0436818599700928,0.4649945795536041
0.31274500489234924,2.053187608718872,0.46781647205352783
0.616054356098175,4.242102146148682,0.9679619073867798
0.5788422226905823,4.193086624145508,0.9577121734619141
0.556574285030365,4.257200717926025,0.9731897115707397
0.5227055549621582,4.230408668518066,0.9679273366928101
0.49555760622024536,4.256308555603027,0.9747636914253235
0.46588486433029175,4.2592854499816895,0.9763935804367065
0.4396842122077942,4.2961506843566895,0.9858474731445312
0.41042277216911316,4.306338310241699,0.9891462922096252
0.3719131052494049,4.221691131591797,0.9701127409934998
0.3434233069419861,4.239160060882568,0.9745795726776123
0.3158791661262512,4.271618843078613,0.9825451970100403
0.2839796543121338,4.243107795715332,0.9765319228172302
0.25492095947265625,4.252357482910156,0.9792509078979492
0.22444294393062592,4.246223449707031,0.978485643863678
0.19187960028648376,4.182882785797119,0.9642651677131653
0.22533608973026276,5.796806812286377,1.3363959789276123
0.18409450352191925,5.775308609008789,1.331583023071289
0.1455315798521042,5.8486504554748535,1.3487039804458618
0.10417275130748749,5.8570404052734375,1.3509206771850586
0.06345050036907196,5.857519149780273,1.3513730764389038
0.02284887433052063,5.9071946144104,1.3632452487945557
-0.01833922415971756,5.922474384307861,1.366588830947876
-0.06013000011444092,5.983202934265137,1.3801960945129395
-0.10296408832073212,6.009372234344482,1.3858866691589355
-0.14555111527442932,6.039054870605469,1.392458200454712
-0.18730323016643524,6.030391216278076,1.3902546167373657
-0.23168979585170746,6.093711853027344,1.4047123193740845
-0.2754262387752533,6.122479438781738,1.4112712144851685
-0.1871236264705658,3.604008913040161,0.8302055597305298
-0.2138233631849289,3.625596761703491,0.8346226811408997
-0.4094443619251251,6.211320400238037,1.4289956092834473
-0.4577465057373047,6.280807971954346,1.4441715478897095
-0.5014206767082214,6.277802467346191,1.4427365064620972
-0.5487000346183777,6.316221237182617,1.4508867263793945
-0.5968491435050964,6.350480556488037,1.4579455852508545
-0.6470921039581299,6.411182880401611,1.4703203439712524
-0.6937055587768555,6.429847717285156,1.4731028079986572
-0.738868236541748,6.433040142059326,1.4724035263061523
-0.7797242403030396,6.39807653427124,1.4630392789840698
-0.8196316361427307,6.351404190063477,1.4510550498962402
-0.8565683960914612,6.29325532913208,1.4365622997283936
-0.8972941637039185,6.26898193359375,1.4294160604476929
-0.9475765228271484,6.312436103820801,1.4372520446777344
-0.9967211484909058,6.344207763671875,1.442467451095581
-1.0501658916473389,6.394307613372803,1.4518561363220215
-1.101136565208435,6.425192356109619,1.4569233655929565
-1.153258204460144,6.459436416625977,1.4627995491027832
-1.208769679069519,6.508255481719971,1.4720165729522705
-1.2605793476104736,6.538236618041992,1.476163625717163
-1.3179525136947632,6.594061374664307,1.4860178232192993
-1.3746496438980103,6.638062477111816,1.493180751800537
-1.4259753227233887,6.655575275421143,1.4944512844085693
-1.464928150177002,6.612986087799072,1.4822708368301392
-1.5042808055877686,6.573869228363037,1.470961570739746
-1.5365713834762573,6.508683204650879,1.4535837173461914
-0.6806784868240356,2.796999931335449,0.6231643557548523
-0.6969528794288635,2.7817087173461914,0.6183243989944458
-0.7158793210983276,2.7774219512939453,0.6159673929214478
-0.7313510775566101,2.758119821548462,0.6102810502052307
-0.7596502900123596,2.7866482734680176,0.6151988506317139
-1.733198642730713,6.185270309448242,1.3624048233032227
-1.7688642740249634,6.152678966522217,1.3513332605361938
-1.8041551113128662,6.11987829208374,1.3402984142303467
-1.8356976509094238,6.075904846191406,1.326918601989746
-1.8664964437484741,6.027863025665283,1.3126739263534546
-1.181577205657959,3.7224907875061035,0.808284342288971
-1.1958742141723633,3.6785624027252197,0.7964886426925659
-1.2233459949493408,3.67850661277771,0.7937946319580078
-1.2482374906539917,3.6710755825042725,0.789433479309082
-1.2856879234313965,3.6996238231658936,0.7928146719932556
-1.308700442314148,3.6843831539154053,0.7867733240127563
-1.3428943157196045,3.6975109577178955,0.7867228984832764
-2.109973192214966,5.686077117919922,1.2055597305297852
-2.140467882156372,5.651708602905273,1.1933625936508179
-2.1758577823638916,5.631593227386475,1.1841181516647339
-1.3676867485046387,3.470909357070923,0.7267445921897888
-1.3893978595733643,3.4550578594207764,0.7202510237693787
-1.4049899578094482,3.4249160289764404,0.7108581066131592
-1.4260451793670654,3.4089176654815674,0.704416036605835
-1.444442868232727,3.389747142791748,0.6969215273857117
-1.4779274463653564,3.405688762664795,0.6966631412506104
-1.5106874704360962,3.4176111221313477,0.6954822540283203
-1.5506057739257812,3.4430103302001953,0.6969231963157654
-1.579771876335144,3.443568706512451,0.6933165192604065
-1.5984718799591064,3.423401117324829,0.6852831244468689
-4.103952407836914,8.64039134979248,1.719099998474121
-4.19804048538208,8.68796443939209,1.7178564071655273
-4.29784631729126,8.74092960357666,1.7173030376434326
-4.397655963897705,8.789155960083008,1.7155654430389404
-4.46366024017334,8.772086143493652,1.7005884647369385
-4.5611138343811035,8.820682525634766,1.697544813156128
-4.661191463470459,8.871807098388672,1.6948453187942505
-2.828688859939575,5.2943572998046875,1.0034605264663696
-1.1682541370391846,2.1504454612731934,0.4043406546115875
-1.183082103729248,2.1432108879089355,0.39961111545562744
-5.104304790496826,9.106467247009277,1.6829835176467896
-2.5261852741241455,4.439094066619873,0.8130941390991211
-2.5543394088745117,4.416029453277588,0.8009836673736572
-5.404232501983643,9.195353507995605,1.6516414880752563
-1.2501691579818726,2.0959560871124268,0.3725215196609497
-2.927992105484009,4.838107585906982,0.8506896495819092
-2.945147752761841,4.793676376342773,0.8333210945129395
-3.0005452632904053,4.807161808013916,0.8254943490028381
-3.012603282928467,4.75620698928833,0.8064588904380798
-3.0606420040130615,4.764545440673828,0.7972931265830994
-3.0487940311431885,4.677770614624023,0.7719547152519226
-3.0566935539245605,4.619405269622803,0.751047670841217
-3.0970113277435303,4.613550662994385,0.7382089495658875
-3.090033531188965,4.541128158569336,0.7148851752281189
-3.1260547637939453,4.5282673835754395,0.7002843618392944
-3.1672706604003906,4.520962238311768,0.6860784292221069
-2.8821792602539062,4.060146808624268,0.6039385795593262
-6.777809143066406,9.417439460754395,1.3709425926208496
-2.9157967567443848,3.9927492141723633,0.5676778554916382
-2.9648513793945312,4.007165908813477,0.5556731820106506
-2.4694464206695557,3.460942268371582,-0.22952212393283844
-2.465362071990967,3.510484218597412,-0.24824059009552002
-2.895082712173462,4.1841020584106445,-0.31286385655403137
-2.863182783126831,4.204582691192627,-0.33131787180900574
-2.864485263824463,4.2728095054626465,-0.3531804382801056
-2.814572334289551,4.262440204620361,-0.3679538071155548
-2.7965168952941895,4.305307865142822,-0.3875897228717804
-2.773282527923584,4.337271213531494,-0.4056183099746704
-2.7546918392181396,4.375174522399902,-0.42387810349464417
-1.282991647720337,2.0713260173797607,-0.20759105682373047
-2.7055699825286865,4.438953399658203,-0.45927634835243225
-2.1270506381988525,3.546069860458374,-0.3781583309173584
-2.661885976791382,4.511646270751953,-0.49507060647010803
-2.6166343688964844,4.509342670440674,-0.5085697174072266
-1.2025882005691528,2.1061367988586426,-0.24367041885852814
-2.5913329124450684,4.614251613616943,-0.5471765398979187
-2.563912868499756,4.645430564880371,-0.5644078254699707
-2.5488812923431396,4.696093559265137,-0.5835522413253784
-1.6251602172851562,3.0444631576538086,-0.3865770101547241
-1.5918872356414795,3.0345051288604736,-0.3934248089790344
-1.5660279989242554,3.037973642349243,-0.40193212032318115
-1.5369693040847778,3.0341622829437256,-0.4093415141105652
-1.4995824098587036,3.0126614570617676,-0.4140791594982147
-2.3677122592926025,4.843391418457031,-0.6778196096420288
-1.071542501449585,2.23187255859375,-0.31784573197364807
-1.0622342824935913,2.2525458335876465,-0.3262310326099396
-1.0313228368759155,2.227602005004883,-0.32790935039520264
-1.0195715427398682,2.2448277473449707,-0.3358064591884613
-1.0065773725509644,2.2582345008850098,-0.34301984310150146
-0.9843267202377319,2.250216245651245,-0.34691956639289856
-0.9772637486457825,2.277634382247925,-0.3562074303627014
-0.9607617259025574,2.283705949783325,-0.36217567324638367
-0.9499945044517517,2.3039731979370117,-0.37048056721687317
-0.9422863721847534,2.3311972618103027,-0.37987643480300903
-0.9255227446556091,2.33695125579834,-0.38569000363349915
-0.9184038639068604,2.3678016662597656,-0.39567142724990845
-0.904223620891571,2.380540370941162,-0.4026593565940857
-0.8951058983802795,2.4076943397521973,-0.41221484541893005
-0.8805152773857117,2.4203057289123535,-0.41910719871520996
-0.8631558418273926,2.4255802631378174,-0.4246888756752014
-0.9040982127189636,2.5980758666992188,-0.45986732840538025
-0.952644407749176,2.800262928009033,-0.5009942650794983
-0.943264365196228,2.838846445083618,-0.5132019519805908
-0.9419502019882202,2.9029812812805176,-0.530002236366272
-0.928254246711731,2.930476188659668,-0.5402573347091675
-0.908662736415863,2.939488172531128,-0.5471450090408325
-0.8312150239944458,2.7569971084594727,-0.517923891544342
-0.7899200320243835,2.6880602836608887,-0.509416401386261
-0.7694344520568848,2.688972234725952,-0.5141140222549438
-0.746341347694397,2.6785192489624023,-0.516526997089386
-0.7234280705451965,2.667898416519165,-0.5187739133834839
-0.715293288230896,2.7128326892852783,-0.5315976738929749
-0.7056244015693665,2.754025459289551,-0.543828010559082
-0.7303085923194885,2.936671018600464,-0.5844057202339172
-0.7060104608535767,2.925788402557373,-0.5866501927375793
-0.6783824563026428,2.8998804092407227,-0.585375189781189
-0.6435112953186035,2.840113401412964,-0.5771718621253967
-0.6145008206367493,2.8024749755859375,-0.5733396410942078
-0.5849260687828064,2.7609000205993652,-0.5686774253845215
-0.5593697428703308,2.7341043949127197,-0.5665026903152466
-0.5349542498588562,2.7108728885650635,-0.5649383068084717
-0.49806952476501465,2.6197831630706787,-0.5491088032722473
-0.47422656416893005,2.5923211574554443,-0.546486496925354
-0.45310527086257935,2.5798370838165283,-0.5467556715011597
-0.4280606210231781,2.5408036708831787,-0.5410938858985901
-0.40540996193885803,2.512885332107544,-0.5377518534660339
-0.3843163251876831,2.492342948913574,-0.5359624028205872
-0.3596594035625458,2.445213556289673,-0.5282442569732666
-0.34119942784309387,2.439595937728882,-0.5291423797607422
-0.31912553310394287,2.403528928756714,-0.5233853459358215
-0.3032672107219696,2.4127426147460938,-0.5274903774261475
-0.28414908051490784,2.3953213691711426,-0.5257588624954224
-0.26149553060531616,2.34373140335083,-0.5159845352172852
-0.24274936318397522,2.322319269180298,-0.5128287076950073
-0.2244274616241455,2.3045825958251953,-0.5105066895484924
-0.2076714038848877,2.298086643218994,-0.5106545686721802
-0.19167430698871613,2.2991607189178467,-0.512073814868927
-0.17625458538532257,2.307749032974243,-0.5150871276855469
-0.15861324965953827,2.285804271697998,-0.5113030076026917
-0.14101625978946686,2.2637438774108887,-0.5075147151947021
-0.1261187195777893,2.279665470123291,-0.5119459629058838
-0.10880324989557266,2.2498574256896973,-0.5058741569519043
-0.09269636869430542,2.2389636039733887,-0.5040678977966309
-0.07723752409219742,2.2431912422180176,-0.5056896209716797
-0.061353761702775955,2.243540048599243,-0.5063192844390869
-0.04573700204491615,2.243858814239502,-0.506557047367096
-0.030067643150687218,2.2402591705322266,-0.5059342384338379
-0.014409808441996574,2.2251198291778564,-0.502727746963501
0.001050563296303153,2.240354537963867,-0.5064038038253784
0.016757888719439507,2.2251181602478027,-0.5026633739471436
0.03209778293967247,2.217393636703491,-0.5006523132324219
0.04751089587807655,2.2171823978424072,-0.5003623962402344
0.06357130408287048,2.239718437194824,-0.5052278637886047
0.07930216193199158,2.243184804916382,-0.5053982734680176
0.09474935382604599,2.238955497741699,-0.503721296787262
0.10984309762716293,2.223188877105713,-0.4994673430919647
0.12571005523204803,2.230165958404541,-0.5003634095191956
0.1407202184200287,2.2218687534332275,-0.49759283661842346
0.15617787837982178,2.221132278442383,-0.4962676167488098
0.17279092967510223,2.2354960441589355,-0.498333603143692
0.1880209892988205,2.2269153594970703,-0.4952814280986786
0.205292209982872,2.2448627948760986,-0.4980478584766388
0.22171393036842346,2.2513749599456787,-0.49788790941238403
0.24304117262363434,2.303302526473999,-0.5077531933784485
0.26974672079086304,2.3967783451080322,-0.5267044305801392
0.28900718688964844,2.4141931533813477,-0.5288584232330322
0.30871596932411194,2.43538761138916,-0.5313316583633423
0.32974743843078613,2.4640040397644043,-0.5353893041610718
0.3490794897079468,2.4773240089416504,-0.5361069440841675
0.36917251348495483,2.494277238845825,-0.5376071333885193
0.39043205976486206,2.5148890018463135,-0.5394670367240906
0.41781049966812134,2.5731334686279297,-0.549225389957428
0.43196356296539307,2.548213005065918,-0.5412189960479736
0.45445674657821655,2.5721609592437744,-0.5436117053031921
0.48489126563072205,2.6373603343963623,-0.5544319152832031
0.4301088750362396,2.251329183578491,-0.4705233573913574
0.539238691329956,2.718195676803589,-0.5647343993186951
0.5667734742164612,2.756410837173462,-0.5693382620811462
0.5940686464309692,2.790663480758667,-0.5729646682739258
0.6259742379188538,2.8434765338897705,-0.5798912644386292
0.6603253483772278,2.9034841060638428,-0.5881533622741699
0.6898093223571777,2.9369828701019287,-0.5908598899841309
0.7158365845680237,2.9553864002227783,-0.590545117855072
0.7504346370697021,3.0071749687194824,-0.5963721871376038
0.7896277904510498,3.0735208988189697,-0.6048858165740967
0.8357400894165039,3.161752700805664,-0.6174747943878174
0.8815746307373047,3.2420263290405273,-0.6281732320785522
0.934333324432373,3.3442211151123047,-0.6425989866256714
0.9821793437004089,3.4237735271453857,-0.6522420048713684
1.0312107801437378,3.502859115600586,-0.6615426540374756
1.0903171300888062,3.6109111309051514,-0.6760129332542419
1.1525415182113647,3.7219817638397217,-0.6903592944145203
1.2076793909072876,3.8069469928741455,-0.6993964314460754
1.3080861568450928,4.02681303024292,-0.7326813340187073
1.3754289150238037,4.13592529296875,-0.745181679725647
1.4356119632720947,4.218876838684082,-0.7525034546852112
1.4892226457595825,4.279529571533203,-0.7552368640899658
1.5326569080352783,4.306825160980225,-0.7517771124839783
1.5578426122665405,4.283074855804443,-0.7394704818725586
1.5907436609268188,4.280881404876709,-0.7308967113494873
1.615164041519165,4.256948947906494,-0.7183090448379517
1.6365309953689575,4.225653171539307,-0.7045860290527344
1.3573992252349854,3.432704210281372,-0.5653016567230225
1.3788251876831055,3.4171900749206543,-0.5558056235313416
1.4114573001861572,3.4303083419799805,-0.5507023334503174
1.4264131784439087,3.4003546237945557,-0.5387035608291626
1.4534634351730347,3.398658514022827,-0.5311500430107117
1.4717611074447632,3.375279664993286,-0.5201035737991333
1.4983224868774414,3.3733973503112793,-0.512334942817688
1.5153635740280151,3.3501315116882324,-0.5013474822044373
1.5390434265136719,3.340658664703369,-0.49234506487846375
1.559458613395691,3.323946952819824,-0.48228660225868225
1.582867980003357,3.3142051696777344,-0.47297918796539307
1.6024333238601685,3.297471523284912,-0.4628428816795349
1.615495204925537,3.2664647102355957,-0.450609415769577
2.001168727874756,3.976743221282959,-0.5389388203620911
2.02858829498291,3.964369058609009,-0.5274711847305298
2.048807382583618,3.937985897064209,-0.5141802430152893
2.073619842529297,3.9177474975585938,-0.5013189315795898
2.0550954341888428,3.8191006183624268,-0.47882723808288574
2.109226942062378,3.8574461936950684,-0.47355082631111145
2.115253210067749,3.8067688941955566,-0.45720183849334717
2.146057605743408,3.7998454570770264,-0.4459967613220215
2.164975643157959,3.772601842880249,-0.43222036957740784
2.1749706268310547,3.7322449684143066,-0.41724473237991333
2.2210235595703125,3.7516562938690186,-0.4085938334465027
2.235430955886841,3.7172255516052246,-0.39394286274909973
2.2565298080444336,3.6966400146484375,-0.38084298372268677
2.2905969619750977,3.6952638626098633,-0.3693414032459259
2.3043177127838135,3.660432815551758,-0.3543929159641266
2.3290963172912598,3.6459476947784424,-0.3414946496486664
2.3662872314453125,3.6509974002838135,-0.3303418755531311
2.3793420791625977,3.6157732009887695,-0.3148941099643707
2.3957817554473877,3.5873560905456543,-0.2999582886695862
2.4371180534362793,3.598240613937378,-0.2884916663169861
2.4580869674682617,3.5756278038024902,-0.27351582050323486
2.468862295150757,3.5407869815826416,-0.2577161192893982
2.510140895843506,3.5509440898895264,-0.24514752626419067
2.535703182220459,3.5337986946105957,-0.2293175458908081
2.559013843536377,3.517928123474121,-0.2138647437095642
2.165635585784912,2.93634033203125,-0.1659647524356842
2.7824738025665283,3.9436516761779785,0.5647810697555542
2.7605974674224854,3.970961570739746,0.5814833641052246
2.717784881591797,3.9746856689453125,0.5942873954772949
2.70158314704895,4.016210556030273,0.6125572919845581
2.6618690490722656,4.017332077026367,0.6237146854400635
2.6369826793670654,4.045482158660889,0.6387078166007996
2.6174204349517822,4.083646297454834,0.6552691459655762
2.592038869857788,4.106976509094238,0.6686184406280518
2.5778448581695557,4.150345325469971,0.6853445768356323
2.553502082824707,4.18150520324707,0.6995744109153748
2.5053999423980713,4.172479152679443,0.7069664001464844
2.471607208251953,4.18174409866333,0.7168048024177551
2.456596851348877,4.22449254989624,0.7323212027549744
2.4119439125061035,4.221587657928467,0.7396892309188843
2.40415620803833,4.2818121910095215,0.758021891117096
2.3566925525665283,4.26671028137207,0.7625812292098999
2.2727088928222656,4.1833648681640625,0.7547607421875
2.2134897708892822,4.147859573364258,0.7547775506973267
2.2116034030914307,4.221290588378906,0.7747959494590759
2.1878702640533447,4.249351978302002,0.7862220406532288
2.164597988128662,4.276922225952148,0.7974845170974731
2.1333727836608887,4.290987014770508,0.8060283660888672
2.109440803527832,4.322673320770264,0.8176069259643555
2.0795722007751465,4.344051361083984,0.8274152874946594
2.051804304122925,4.364233493804932,0.8366602659225464
2.01755428314209,4.370185375213623,0.8431923389434814
1.9887986183166504,4.390326023101807,0.8521458506584167
2.0152475833892822,4.537180423736572,0.8856083154678345
1.9966334104537964,4.585873603820801,0.9001445174217224
1.9482665061950684,4.563407897949219,0.9006097316741943
1.9307794570922852,4.611093044281006,0.914850652217865
1.9092583656311035,4.651879787445068,0.9275726675987244
1.8819634914398193,4.682342052459717,0.9378963112831116
1.8430718183517456,4.684051990509033,0.9425182938575745
3.2958080768585205,8.557591438293457,1.7297648191452026
1.7796016931533813,4.71818733215332,0.9578562378883362
1.372868299484253,3.717931032180786,0.7580939531326294
1.3352686166763306,3.6980433464050293,0.7568329572677612
1.3055633306503296,3.6995654106140137,0.7599256038665771
1.6639552116394043,4.828324794769287,0.9955116510391235
1.648266315460205,4.893234729766846,1.0125000476837158
1.5982475280761719,4.8561835289001465,1.0084407329559326
1.581347107887268,4.920954704284668,1.0254276990890503
1.5363316535949707,4.902017116546631,1.0244526863098145
1.5234893560409546,4.9890947341918945,1.0457714796066284
1.491685152053833,5.013596534729004,1.0540190935134888
1.4543315172195435,5.01553201675415,1.0574843883514404
1.4232654571533203,5.0392913818359375,1.0656076669692993
1.3723653554916382,4.992859840393066,1.0586977005004883
1.3135533332824707,4.916706085205078,1.0449166297912598
1.2792880535125732,4.932725429534912,1.0507862567901611
1.247482419013977,4.955747604370117,1.0581623315811157
1.2209296226501465,4.996918678283691,1.069422721862793
1.189451813697815,5.019340515136719,1.076746940612793
1.1593538522720337,5.049050807952881,1.0855876207351685
1.1224925518035889,5.056613922119141,1.0891189575195312
1.0950813293457031,5.10488224029541,1.1014543771743774
1.0584546327590942,5.111847400665283,1.1049532890319824
1.019592046737671,5.103415489196777,1.105129599571228
0.9940743446350098,5.162191867828369,1.1199190616607666
1.5189001560211182,8.199515342712402,1.7822688817977905
1.456049919128418,8.182790756225586,1.7809728384017944
1.399134874343872,8.19953727722168,1.7868605852127075
1.332112193107605,8.155599594116211,1.779604434967041
1.281654715538025,8.209144592285156,1.7936846017837524
1.2210419178009033,8.202012062072754,1.7946250438690186
1.1562647819519043,8.15650749206543,1.787192940711975
0.2632888853549957,1.9557886123657227,0.42904171347618103
1.0450382232666016,8.200837135314941,1.8004533052444458
0.5139897465705872,4.274202823638916,0.9391732811927795
0.48544344305992126,4.292562484741211,0.9440500736236572
0.4550052285194397,4.2955546379089355,0.945598840713501
0.424344539642334,4.290688514709473,0.9454463720321655
0.39591801166534424,4.30839729309082,0.9503140449523926
0.36956140398979187,4.3564629554748535,0.9613870978355408
0.338409960269928,4.351140975952148,0.9606138467788696
0.3000774085521698,4.250500202178955,0.9388414025306702
0.271766722202301,4.275143146514893,0.9447708129882812
0.32171061635017395,5.685814380645752,1.2572214603424072
0.2846255302429199,5.737179279327393,1.2693490982055664
0.2456735223531723,5.761654376983643,1.2754502296447754
0.20468322932720184,5.763178825378418,1.2757993936538696
