X,Y,Z
1.3115088939666748,3.5629522800445557,-0.4582180380821228
1.6018625497817993,4.258527755737305,-0.5422040820121765
1.6353580951690674,4.259132385253906,-0.5365980267524719
1.667490839958191,4.2558698654174805,-0.5304912328720093
1.6870605945587158,4.219789981842041,-0.5202706456184387
1.7137181758880615,4.201524257659912,-0.5122801065444946
1.7432035207748413,4.190276145935059,-0.5048683285713196
1.7719167470932007,4.179097652435303,-0.49751874804496765
1.7947207689285278,4.153317451477051,-0.4884064495563507
1.8207638263702393,4.1343584060668945,-0.48006993532180786
1.8429454565048218,4.108369827270508,-0.4708409905433655
1.8714908361434937,4.096333026885986,-0.4630562365055084
1.8965595960617065,4.07708740234375,-0.454515665769577
1.9251989126205444,4.064513683319092,-0.44665566086769104
1.9464694261550903,4.037980079650879,-0.4372020661830902
1.9654130935668945,4.008007526397705,-0.4273699223995209
1.9970769882202148,4.001889228820801,-0.41990262269973755
2.0216469764709473,3.9816644191741943,-0.4109891951084137
2.0453619956970215,3.961625337600708,-0.4020301103591919
2.072206497192383,3.948484182357788,-0.3937571346759796
2.0995757579803467,3.9348371028900146,-0.3852918744087219
2.119755268096924,3.907130718231201,-0.37540683150291443
2.1390812397003174,3.8796424865722656,-0.3653903007507324
2.1290247440338135,3.8013947010040283,-0.35087674856185913
2.1595542430877686,3.79390287399292,-0.342706561088562
2.193682909011841,3.7930707931518555,-0.33507198095321655
2.1993727684020996,3.7454423904418945,-0.32331210374832153
2.2294118404388428,3.7374956607818604,-0.31475749611854553
2.267758846282959,3.7424874305725098,-0.30717673897743225
2.2683489322662354,3.688084125518799,-0.29474151134490967
2.2887516021728516,3.666994571685791,-0.2850620150566101
2.3312315940856934,3.677859306335449,-0.2773718535900116
2.3313565254211426,3.6229989528656006,-0.264608770608902
2.359530448913574,3.6147215366363525,-0.2554797828197479
2.406214952468872,3.6314001083374023,-0.2475641667842865
2.4091482162475586,3.583235263824463,-0.23515406250953674
2.4413135051727295,3.5809555053710938,-0.2258124202489853
2.479928731918335,3.5835108757019043,-0.21592898666858673
2.490516185760498,3.54824161529541,-0.2038469910621643
2.513538360595703,3.5325846672058105,-0.19290658831596375
2.5474085807800293,3.528141975402832,-0.1817430853843689
2.570150852203369,3.5121991634368896,-0.16997046768665314
2.1748945713043213,2.9312078952789307,-0.1321689337491989
2.7813825607299805,3.9009816646575928,0.3623223602771759
2.759169578552246,3.9345743656158447,0.37618762254714966
2.7298574447631836,3.953824996948242,0.3880186080932617
2.714141607284546,3.9917850494384766,0.40125009417533875
2.673990249633789,3.9989328384399414,0.4112204313278198
2.644487142562866,4.0174126625061035,0.4217512011528015
2.6279046535491943,4.055034160614014,0.43413639068603516
2.596459150314331,4.074159622192383,0.4441658556461334
2.561627149581909,4.085903644561768,0.45317909121513367
2.546928882598877,4.126079559326172,0.46494996547698975
2.5161325931549072,4.143899917602539,0.47405123710632324
2.4737682342529297,4.145655632019043,0.48131904006004333
2.449660539627075,4.172481060028076,0.49098968505859375
2.4318487644195557,4.2088518142700195,0.5016973614692688
2.400221824645996,4.2259931564331055,0.5098384618759155
2.371927261352539,4.24985408782959,0.5187850594520569
2.2773609161376953,4.150315761566162,0.5123204588890076
2.244415283203125,4.158492088317871,0.5188133716583252
2.217174768447876,4.180976867675781,0.5268182158470154
2.1911368370056152,4.206918716430664,0.5352227687835693
2.167576313018799,4.235672950744629,0.5438848733901978
2.1406304836273193,4.257164001464844,0.5516012907028198
2.1098339557647705,4.271655559539795,0.5581823587417603
2.0880305767059326,4.307394027709961,0.5673601031303406
2.0491838455200195,4.307986736297607,0.5719422698020935
2.032029151916504,4.349565505981445,0.581743597984314
1.99171781539917,4.341775417327881,0.5849825143814087
1.9784423112869263,4.398101806640625,0.5966508388519287
2.008488178253174,4.553660869598389,0.6218042969703674
1.9566832780838013,4.524728775024414,0.6218480467796326
1.9308966398239136,4.5518598556518555,0.6294476985931396
1.9018868207931519,4.571670055389404,0.6360794305801392
1.8824639320373535,4.620804786682129,0.6465048789978027
1.8513695001602173,4.640950679779053,0.6528084874153137
1.82733952999115,4.678838729858398,0.6616448163986206
1.8028273582458496,4.712501525878906,0.6698133945465088
1.7466914653778076,4.662647724151611,0.666114866733551
1.3422530889511108,3.664106845855713,0.5259114503860474
1.3129186630249023,3.6659765243530273,0.5284922122955322
1.286184310913086,3.6749184131622314,0.5321159362792969
1.6561968326568604,4.840365409851074,0.7038587927818298
1.6247200965881348,4.858515739440918,0.7095082402229309
1.5896536111831665,4.869442462921143,0.7140191197395325
1.556679129600525,4.887598991394043,0.7192258834838867
1.523524284362793,4.9055280685424805,0.724444568157196
1.4716283082962036,4.860161781311035,0.7202922105789185
1.4409364461898804,4.880861759185791,0.7258867025375366
1.4175093173980713,4.927377223968506,0.7353808283805847
1.387920618057251,4.959333896636963,0.7424229979515076
1.338018536567688,4.916433811187744,0.7380994558334351
1.2937467098236084,4.8917694091796875,0.7365149259567261
1.2573330402374268,4.892764568328857,0.7387704849243164
1.2231427431106567,4.900917053222656,0.7421214580535889
1.2073862552642822,4.98784065246582,0.7575099468231201
1.1734617948532104,5.003427028656006,0.7615609169006348
1.1376285552978516,5.011256217956543,0.7644492387771606
1.1050565242767334,5.033921241760254,0.7696452140808105
1.0730171203613281,5.056212425231934,0.7747941017150879
1.0410130023956299,5.0821733474731445,0.780579686164856
1.0085285902023315,5.10403299331665,0.7857491970062256
1.911291241645813,10.046893119812012,1.5492092370986938
1.834213376045227,10.029143333435059,1.5490659475326538
1.7755135297775269,10.113502502441406,1.564784049987793
1.68356454372406,10.00714111328125,1.5510635375976562
1.6186591386795044,10.048446655273438,1.560225486755371
1.5437517166137695,10.02828598022461,1.5599238872528076
1.468885898590088,10.011682510375977,1.5591610670089722
1.4017260074615479,10.048076629638672,1.5666499137878418
1.3292638063430786,10.057390213012695,1.5700359344482422
1.2535566091537476,10.0238037109375,1.5667388439178467
1.1819870471954346,10.016438484191895,1.5675933361053467
1.1113225221633911,10.01624870300293,1.5696452856063843
1.035875916481018,9.97350788116455,1.5642528533935547
0.9672035574913025,9.995576858520508,1.5688008069992065
0.3896178901195526,4.351329326629639,0.6834551095962524
0.35566577315330505,4.311496734619141,0.6777310371398926
0.3268841505050659,4.329111099243164,0.6810627579689026
0.29809096455574036,4.3503851890563965,0.6850085258483887
0.34783342480659485,5.654070854187012,0.8908164501190186
0.3067966103553772,5.640896320343018,0.8889678716659546
0.2680494785308838,5.658233165740967,0.8919677734375
0.23007161915302277,5.698432445526123,0.8986180424690247
0.19044746458530426,5.699804306030273,0.8991894125938416
0.15187415480613708,5.743330478668213,0.9064581990242004
0.11294722557067871,5.832910537719727,0.920972466468811
0.07223885506391525,5.833564758300781,0.9209205508232117
0.03146631270647049,5.810783863067627,0.9172143936157227
-0.009248667396605015,5.915049076080322,0.9336059093475342
-0.05121784284710884,6.011308670043945,0.9487776160240173
-0.09382208436727524,6.018521785736084,0.9499412775039673
-0.1355133205652237,6.010016441345215,0.9486700892448425
-0.18023602664470673,6.113158226013184,0.9645311236381531
-0.22208186984062195,6.096453666687012,0.9613555073738098
-0.26330289244651794,6.071755409240723,0.9569695591926575
-0.179802805185318,3.5725669860839844,0.5628094673156738
-0.20598533749580383,3.586684226989746,0.5647922158241272
-0.23193781077861786,3.6006360054016113,0.5667788982391357
-0.5583664774894714,7.8216423988342285,1.2304646968841553
-0.6082002520561218,7.764016628265381,1.2201942205429077
-0.5657589435577393,6.6332221031188965,1.0414974689483643
-0.6088528037071228,6.590892314910889,1.0339093208312988
-0.6355347037315369,6.394710540771484,1.0022796392440796
-0.6778979897499084,6.371184825897217,0.997787594795227
-0.7260251641273499,6.401081562042236,1.0016649961471558
-0.7658219337463379,6.361794471740723,0.9940868616104126
-0.805382251739502,6.318339824676514,0.9858971238136292
-0.844650149345398,6.282387733459473,0.9789637327194214
-0.8800837397575378,6.21937894821167,0.9678666591644287
-0.9232632517814636,6.213451385498047,0.9657091498374939
-0.9765685796737671,6.272070407867432,0.9736158847808838
-0.5673051476478577,3.4833805561065674,0.5397747159004211
-1.0781835317611694,6.346373558044434,0.9816028475761414
-1.1297160387039185,6.384913921356201,0.9857820272445679
-1.180704116821289,6.415404796600342,0.9887309074401855
-1.2348262071609497,6.456790924072266,0.9933639168739319
-1.2925200462341309,6.512906074523926,1.0002833604812622
-1.3427764177322388,6.526928901672363,1.000291109085083
-1.4041354656219482,6.597541809082031,1.0087144374847412
-1.445839285850525,6.573279857635498,1.0026520490646362
-1.4815605878829956,6.522317886352539,0.9925695061683655
-1.519976258277893,6.482302665710449,0.9841910004615784
-0.6807461380958557,2.8133914470672607,0.4261566400527954
-0.6888958215713501,2.7639031410217285,0.4175688922405243
-0.7134554386138916,2.781899929046631,0.4190641939640045
-0.7264912128448486,2.7548305988311768,0.41378822922706604
-0.7412974238395691,2.735149621963501,0.40965214371681213
-0.7772631049156189,2.7897145748138428,0.4165958762168884
-1.0572627782821655,3.6953542232513428,0.5502595901489258
-1.0825334787368774,3.6884477138519287,0.547455370426178
-1.0985581874847412,3.651845693588257,0.5401176810264587
-1.1254922151565552,3.652163505554199,0.53827965259552
-1.1474553346633911,3.6335999965667725,0.5336254835128784
-1.1680587530136108,3.6112112998962402,0.5284462571144104
-1.1957030296325684,3.610745906829834,0.5265050530433655
-1.2102720737457275,3.5736939907073975,0.5189779996871948
-1.2445087432861328,3.5951783657073975,0.5198954939842224
-1.2610197067260742,3.5652778148651123,0.513401448726654
-1.2808700799942017,3.5422310829162598,0.5078458189964294
-1.3082709312438965,3.5409491062164307,0.5054616332054138
-1.3327885866165161,3.5322911739349365,0.5019741654396057
-1.3592236042022705,3.5310325622558594,0.49927547574043274
-1.3772398233413696,3.5079331398010254,0.4935126304626465
-1.4072378873825073,3.5132429599761963,0.49169376492500305
-1.4377316236495972,3.518167495727539,0.48978614807128906
-1.4593851566314697,3.5013904571533203,0.48487943410873413
-1.483022928237915,3.4920144081115723,0.4807567596435547
-1.5125854015350342,3.49678373336792,0.478526771068573
-1.5333013534545898,3.4798624515533447,0.473295122385025
-1.5608490705490112,3.476688861846924,0.4698766767978668
-2.5721206665039062,5.624273777008057,0.7553009390830994
-2.580744504928589,5.544406414031982,0.7394847273826599
-2.582777738571167,5.454459190368652,0.7223133444786072
-2.6163439750671387,5.430812835693359,0.713939905166626
-2.657899856567383,5.420253276824951,0.7071259021759033
-2.676908254623413,5.364234924316406,0.6944475769996643
-2.712975263595581,5.347109317779541,0.6865143775939941
-4.904482841491699,9.511198997497559,1.2107629776000977
-2.769780397415161,5.284924030303955,0.66692054271698
-2.7928876876831055,5.238653659820557,0.6549104452133179
-2.829334259033203,5.220109462738037,0.6464888453483582
-1.1892883777618408,2.160590171813965,0.2648933529853821
-1.175065040588379,2.102287530899048,0.2551243007183075
-2.5364770889282227,4.4661383628845215,0.5361294150352478
-2.5528481006622314,4.421914577484131,0.5247923135757446
-6.029272079467773,10.286776542663574,1.2063822746276855
-1.2201025485992432,2.051191806793213,0.23762188851833344
-1.2541368007659912,2.076573371887207,0.23746584355831146
-2.9380738735198975,4.789216995239258,0.5402346253395081
-2.9500155448913574,4.737231254577637,0.5266236066818237
-2.989107131958008,4.732155799865723,0.5182998776435852
-3.0045924186706543,4.686529636383057,0.505192220211029
-3.041818380355835,4.672873497009277,0.4953305125236511
-3.057142496109009,4.631378650665283,0.48227840662002563
-3.0657846927642822,4.580013751983643,0.46814367175102234
-3.0849220752716064,4.540107250213623,0.45462217926979065
-3.1000704765319824,4.497861385345459,0.44084176421165466
-3.133171558380127,4.485494136810303,0.4298900067806244
-2.967864751815796,4.188653469085693,0.3916255831718445
-5.047747611999512,7.022339344024658,0.6390748023986816
-2.9013750553131104,3.9843649864196777,0.3526357114315033
-2.9587275981903076,4.006226062774658,0.3435392677783966
-2.485572099685669,3.481194019317627,-0.17978394031524658
-2.4421145915985107,3.4731030464172363,-0.19008024036884308
-2.430037498474121,3.5094480514526367,-0.20238636434078217
-2.357132911682129,3.4594666957855225,-0.20952783524990082
-2.282693386077881,3.4008662700653076,-0.21502478420734406
-2.222888708114624,3.3650662899017334,-0.22162704169750214
-2.178262233734131,3.3516833782196045,-0.22947578132152557
-2.150360345840454,3.3597631454467773,-0.2381308376789093
-2.1169021129608154,3.3618741035461426,-0.24628916382789612
-1.2852132320404053,2.074415683746338,-0.15677830576896667
-2.0601398944854736,3.3773975372314453,-0.26267191767692566
-2.0628609657287598,3.438835859298706,-0.27503660321235657
-2.0868735313415527,3.5372047424316406,-0.2904681861400604
-2.0541207790374756,3.5376272201538086,-0.2976527512073517
-1.190055251121521,2.083649158477783,-0.17948418855667114
-1.1708213090896606,2.0851666927337646,-0.18373873829841614
-2.5710694789886475,4.656821250915527,-0.419342577457428
-2.5418360233306885,4.680774211883545,-0.4302124083042145
-2.5220792293548584,4.725835800170898,-0.4429616332054138
-2.4948370456695557,4.75690221786499,-0.4544287323951721
-2.4737422466278076,4.797628402709961,-0.46663326025009155
-2.449246644973755,4.835383892059326,-0.47869959473609924
-2.4173152446746826,4.859140872955322,-0.48920777440071106
-2.3961005210876465,4.903319358825684,-0.5016967058181763
-2.370022773742676,4.93657922744751,-0.513008177280426
-2.3444132804870605,4.97361421585083,-0.524642288684845
-1.541029691696167,3.3310322761535645,-0.35652124881744385
-1.5136638879776,3.334347724914551,-0.36200451850891113
-1.482257604598999,3.3265023231506348,-0.3661137521266937
-1.4660649299621582,3.3542327880859375,-0.3739995062351227
-1.4540066719055176,3.3926594257354736,-0.38312554359436035
-1.4584901332855225,3.470275402069092,-0.3967413306236267
-1.4395685195922852,3.4942870140075684,-0.40439823269844055
-1.4145139455795288,3.503835439682007,-0.41015318036079407
-1.8432807922363281,4.661478042602539,-0.5517876148223877
-1.3502990007400513,3.4861433506011963,-0.41716229915618896
-1.331284523010254,3.5093958377838135,-0.4244362413883209
-1.7568875551223755,4.733482360839844,-0.5783889293670654
-2.0103330612182617,5.536520481109619,-0.6831543445587158
-1.0491117238998413,2.9539549350738525,-0.3680054247379303
-1.0232934951782227,2.946037769317627,-0.370482474565506
-0.9887293577194214,2.9122695922851562,-0.3695588707923889
-0.9651414752006531,2.9114830493927,-0.3726954162120819
-0.9420160055160522,2.910386085510254,-0.37573379278182983
-0.8970929980278015,2.838778018951416,-0.36954501271247864
-0.8086588978767395,2.62227201461792,-0.34415435791015625
-0.7710477113723755,2.564427137374878,-0.3390878140926361
-0.7593763470649719,2.5917186737060547,-0.34525299072265625
-0.7493388652801514,2.6264495849609375,-0.352497935295105
-0.7485652565956116,2.69464373588562,-0.36428946256637573
-0.7355833053588867,2.7218775749206543,-0.37042468786239624
-0.7162900567054749,2.7266039848327637,-0.37346023321151733
-0.6932430267333984,2.7161593437194824,-0.3744099736213684
-0.6739102602005005,2.720601797103882,-0.37744131684303284
-0.6593311429023743,2.743678569793701,-0.38295820355415344
-0.6434662938117981,2.7629623413085938,-0.3877744972705841
-0.6290416121482849,2.789706230163574,-0.3936885893344879
-0.6128438115119934,2.8087689876556396,-0.3985430598258972
-0.5944780707359314,2.820227861404419,-0.40239277482032776
-0.5816048979759216,2.8580970764160156,-0.40973469614982605
-0.5689417719841003,2.8997232913970947,-0.41761714220046997
-0.5485878586769104,2.9032905101776123,-0.42005956172943115
-0.5352192521095276,2.9447431564331055,-0.42802056670188904
-0.5162531733512878,2.9595532417297363,-0.4320894479751587
-0.49672552943229675,2.9704270362854004,-0.4352993071079254
-0.47829198837280273,2.9888036251068115,-0.4396427273750305
-0.46325021982192993,3.02997088432312,-0.44738027453422546
-0.44600847363471985,3.0595860481262207,-0.4534681737422943
-0.42845502495765686,3.0930278301239014,-0.4599137604236603
-0.4087769091129303,3.1110191345214844,-0.46395376324653625
-0.3908243477344513,3.144214391708374,-0.4703010618686676
-0.3680305480957031,3.138918876647949,-0.47091761231422424
-0.35082435607910156,3.1833863258361816,-0.4789973795413971
-0.3317578434944153,3.216299295425415,-0.48496490716934204
-0.3118543028831482,3.249129056930542,-0.4909816384315491
-0.2908990681171417,3.270256757736206,-0.4952511191368103
-0.27126792073249817,3.3104913234710693,-0.5024561882019043
-0.24990737438201904,3.3352341651916504,-0.5071297883987427
-0.22896677255630493,3.37143611907959,-0.5133253931999207
-0.20644278824329376,3.395960569381714,-0.5177920460700989
-0.18449655175209045,3.4280202388763428,-0.5234294533729553
-0.1630464494228363,3.479219675064087,-0.5320317149162292
-0.13914266228675842,3.487905502319336,-0.5337424278259277
-0.11591046303510666,3.519594430923462,-0.5389111638069153
-0.09208229184150696,3.5627167224884033,-0.5458702445030212
-0.06789884716272354,3.594085454940796,-0.5510559678077698
-0.04339108616113663,3.6368844509124756,-0.5579335689544678
-0.018371134996414185,3.6911654472351074,-0.5661420822143555
0.0073400684632360935,3.6989388465881348,-0.5672427415847778
0.03368506208062172,3.7181122303009033,-0.5701178312301636
0.06065009534358978,3.787292718887329,-0.5806885361671448
0.08795349299907684,3.829298496246338,-0.5868229866027832
0.11407645791769028,3.8132565021514893,-0.5838137865066528
0.06061483547091484,1.6438381671905518,-0.2514478266239166
0.17621178925037384,4.019819736480713,-0.6143648028373718
0.20617984235286713,4.049432277679443,-0.6183862686157227
0.09259958565235138,1.5999577045440674,-0.24393752217292786
0.2676292359828949,4.127487659454346,-0.6282321810722351
0.2929547429084778,4.079502105712891,-0.6199048161506653
0.32318755984306335,4.100660800933838,-0.6221166849136353
0.35352030396461487,4.1138834953308105,-0.6230055689811707
0.38206717371940613,4.111614227294922,-0.6211276054382324
0.40487077832221985,4.05148458480835,-0.6105581521987915
0.43589556217193604,4.075742244720459,-0.6127467155456543
0.4642471969127655,4.0728912353515625,-0.610878050327301
0.4878959357738495,4.027648448944092,-0.6023463606834412
0.5118701457977295,3.993865728378296,-0.5953721404075623
0.5353995561599731,3.9599390029907227,-0.5884343981742859
0.5694987773895264,4.002383708953857,-0.5928577780723572
0.5887952446937561,3.941333532333374,-0.5819846391677856
0.6165831089019775,3.937509059906006,-0.5790902376174927
0.6469539403915405,3.9526443481445312,-0.5790079832077026
0.6659415364265442,3.8989315032958984,-0.5688778162002563
0.6944067478179932,3.902235984802246,-0.5671162009239197
0.7214844822883606,3.8977596759796143,-0.5640855431556702
0.7469542622566223,3.8855671882629395,-0.5596358776092529
0.7682115435600281,3.8503592014312744,-0.5518786907196045
0.7848805785179138,3.796133041381836,-0.5414988994598389
0.816245436668396,3.8137288093566895,-0.5414060354232788
0.8343204259872437,3.770712375640869,-0.5324047207832336
0.8638832569122314,3.7804582118988037,-0.5307785868644714
0.8906049132347107,3.7747902870178223,-0.5269408822059631
0.9114697575569153,3.746433734893799,-0.5200172662734985
0.9338040351867676,3.7254996299743652,-0.5140896439552307
0.9595462083816528,3.7195231914520264,-0.5099440217018127
0.9832628965377808,3.705878257751465,-0.5047780275344849
1.0044704675674438,3.680692195892334,-0.49799928069114685
1.0218015909194946,3.644303321838379,-0.48982831835746765
1.0427560806274414,3.6228256225585938,-0.48345842957496643
1.0765436887741089,3.6458587646484375,-0.4829387962818146
1.1163983345031738,3.687124490737915,-0.48476848006248474
1.3782408237457275,4.4385986328125,-0.5790908336639404
1.4032528400421143,4.4111552238464355,-0.5710234045982361
1.4335912466049194,4.402153491973877,-0.5651032328605652
1.4639029502868652,4.392924785614014,-0.5591755509376526
1.489580750465393,4.368658542633057,-0.5513085722923279
1.5124996900558472,4.336888790130615,-0.5425514578819275
1.273150086402893,3.5704758167266846,-0.4424362778663635
1.2977036237716675,3.5622668266296387,-0.4372386634349823
1.319761037826538,3.546515464782715,-0.4310993254184723
1.6300723552703857,4.288916110992432,-0.5162184834480286
1.6513426303863525,4.2565836906433105,-0.5070520043373108
1.678171992301941,4.238528728485107,-0.4994378983974457
1.706032633781433,4.223989009857178,-0.49232205748558044
1.7297313213348389,4.198327541351318,-0.48388272523880005
1.758886456489563,4.186982154846191,-0.477039098739624
1.7844619750976562,4.168484687805176,-0.469261109828949
1.8042693138122559,4.135319709777832,-0.45976927876472473
1.8332581520080566,4.123336315155029,-0.452667236328125
1.8523153066635132,4.089999198913574,-0.4432148337364197
1.889938473701477,4.099233627319336,-0.4382418692111969
1.904726266860962,4.058820724487305,-0.4279737174510956
1.9403995275497437,4.059931755065918,-0.42185837030410767
1.9651843309402466,4.0401177406311035,-0.41364604234695435
1.9839589595794678,4.010012149810791,-0.4043002724647522
2.011288642883301,3.997135639190674,-0.39670664072036743
2.0393590927124023,3.9836585521698,-0.38887983560562134
2.06691575050354,3.9701919555664062,-0.38103237748146057
2.08691668510437,3.942871332168579,-0.3716970384120941
2.1102209091186523,3.9223546981811523,-0.36308109760284424
2.134016752243042,3.901334762573242,-0.35428929328918457
2.1171441078186035,3.8090875148773193,-0.3391365110874176
2.1503899097442627,3.8090298175811768,-0.33228790760040283
2.161684513092041,3.7674717903137207,-0.321533203125
2.18804669380188,3.752930164337158,-0.3131740093231201
2.2289345264434814,3.765753746032715,-0.3070027828216553
2.2461941242218018,3.7379932403564453,-0.2974534332752228
2.248060941696167,3.682875156402588,-0.28551700711250305
2.3022069931030273,3.714322328567505,-0.2801302969455719
2.3102188110351562,3.6732077598571777,-0.26934918761253357
2.3314969539642334,3.6511545181274414,-0.2596874237060547
2.364962339401245,3.648820161819458,-0.25134146213531494
2.3802850246429443,3.620814085006714,-0.24123330414295197
2.4055967330932617,3.604691743850708,-0.23139874637126923
2.4303548336029053,3.5886685848236084,-0.22153444588184357
2.4537503719329834,3.573308229446411,-0.2117123305797577
2.47385835647583,3.5505106449127197,-0.20098374783992767
2.515812397003174,3.5597901344299316,-0.19184616208076477
2.516364097595215,3.5120596885681152,-0.17948850989341736
2.568545341491699,3.532728672027588,-0.16988910734653473
2.174473762512207,2.9509284496307373,-0.13295654952526093
2.777254581451416,3.9247422218322754,0.3444857895374298
2.7420496940612793,3.9388859272003174,0.35566580295562744
2.7298223972320557,3.9841737747192383,0.36924511194229126
2.6966421604156494,3.9963104724884033,0.3793601393699646
2.669675827026367,4.022723197937012,0.39043474197387695
2.6351373195648193,4.035153388977051,0.39985066652297974
2.6149637699127197,4.065834045410156,0.41062915325164795
2.5880773067474365,4.091259002685547,0.4206915497779846
2.5581042766571045,4.1136674880981445,0.4305182993412018
2.518853187561035,4.114126205444336,0.4373277723789215
2.50299334526062,4.15470552444458,0.44832926988601685
2.4672651290893555,4.166070938110352,0.4560279846191406
2.4559216499328613,4.216926574707031,0.4679253101348877
2.396591901779175,4.182960033416748,0.47022080421447754
2.3754303455352783,4.216474533081055,0.479770302772522
2.334059953689575,4.216454982757568,0.4853740632534027
2.252910614013672,4.1404619216918945,0.4819512665271759
2.231083393096924,4.169099807739258,0.49040770530700684
2.2093822956085205,4.201785564422607,0.49933478236198425
2.1921398639678955,4.245015621185303,0.5092997550964355
2.1535987854003906,4.246490001678467,0.5142524838447571
2.1167497634887695,4.24686861038208,0.5188269019126892
2.097005605697632,4.28184175491333,0.5276445746421814
2.0645389556884766,4.296835899353027,0.5337496399879456
2.042475938796997,4.332381725311279,0.5423818826675415
2.008063554763794,4.339157581329346,0.5473112463951111
1.9743541479110718,4.345358371734619,0.5520912408828735
2.0221707820892334,4.535863399505615,0.5803146362304688
1.979313611984253,4.528623104095459,0.5831491947174072
1.951378345489502,4.556884765625,0.5906453728675842
1.9251633882522583,4.5841593742370605,0.5978401303291321
1.8989033699035645,4.611185550689697,0.6050270795822144
1.8847767114639282,4.670700550079346,0.6163357496261597
1.8377172946929932,4.6512603759765625,0.617029070854187
1.7723132371902466,4.584589958190918,0.6114647388458252
1.3927156925201416,3.6792728900909424,0.49323195219039917
1.3467508554458618,3.633913278579712,0.4896185100078583
1.328894019126892,3.664738178253174,0.49616509675979614
1.30478036403656,3.681154727935791,0.5005537271499634
1.2749996185302734,3.6829066276550293,0.5030096173286438
1.6272417306900024,4.810642242431641,0.6598544716835022
1.5886874198913574,4.806613445281982,0.6620816588401794
1.5634020566940308,4.842808246612549,0.6698845028877258
1.520288109779358,4.827569961547852,0.6701516509056091
1.49721097946167,4.878809452056885,0.6796939969062805
1.470771312713623,4.9186482429504395,0.6876760721206665
1.4450669288635254,4.958006858825684,0.6955707669258118
1.434692621231079,5.05310583114624,0.7113787531852722
1.3649678230285645,4.939478397369385,0.6976465582847595
1.3103322982788086,4.877688407897949,0.6908568143844604
1.2746223211288452,4.8866777420043945,0.6941334009170532
1.2265026569366455,4.842658519744873,0.689841628074646
1.2130210399627686,4.933315277099609,0.7047410607337952
1.18666410446167,4.975075721740723,0.7127367854118347
1.1584250926971436,5.013083457946777,0.7199437022209167
1.121965765953064,5.020977020263672,0.7226732969284058
1.090932011604309,5.051169395446777,0.7286317348480225
1.0576331615447998,5.069715976715088,0.7329362034797668
1.0153918266296387,5.0424628257751465,0.7306286692619324
0.9867947101593018,5.083215236663818,0.738213062286377
0.9857162237167358,5.279898166656494,0.7682053446769714
1.8663206100463867,10.405433654785156,1.5164185762405396
1.7812035083770752,10.353019714355469,1.5113050937652588
1.7095316648483276,10.372307777404785,1.516696810722351
1.6264101266860962,10.314604759216309,1.510861873626709
1.5492963790893555,10.298479080200195,1.511211633682251
1.4818110466003418,10.343032836914062,1.5198100805282593
1.4049201011657715,10.3259859085083,1.5190218687057495
1.325986385345459,10.289191246032715,1.515389323234558
1.2592978477478027,10.343833923339844,1.5252878665924072
1.176288366317749,10.255895614624023,1.5142093896865845
1.098612904548645,10.217403411865234,1.5105150938034058
1.0240774154663086,10.193693161010742,1.5085169076919556
0.404173880815506,4.328702449798584,0.6410026550292969
0.3710860013961792,4.300511837005615,0.6372745633125305
0.3390715718269348,4.279773712158203,0.6346758008003235
0.31347858905792236,4.347464084625244,0.6452321410179138
0.2832070589065552,4.3494181632995605,0.6460624933242798
0.32574620842933655,5.604841709136963,0.8331445455551147
0.2875467538833618,5.6262054443359375,0.8364889025688171
0.25087442994117737,5.689770698547363,0.8461517691612244
0.2106315791606903,5.699062347412109,0.8477922677993774
0.17132744193077087,5.711904048919678,0.849997341632843
0.13343103229999542,5.790138244628906,0.8619793057441711
0.09370791912078857,5.825622081756592,0.8676459193229675
0.05346227437257767,5.857051372528076,0.8721786737442017
0.011936669237911701,5.857300281524658,0.8720619082450867
-0.029241325333714485,5.930667400360107,0.8828754425048828
-0.07130881398916245,6.0037431716918945,0.8936863541603088
-0.1148965060710907,6.099694728851318,0.9079442024230957
-0.1584596186876297,6.145116329193115,0.9147245287895203
-0.20112483203411102,6.143945217132568,0.9142045378684998
-0.24378688633441925,6.127050399780273,0.9111151695251465
-0.1699226349592209,3.6358282566070557,0.5403510332107544
-0.19161130487918854,3.569038152694702,0.5301457047462463
-0.21643663942813873,3.5676863193511963,0.5296905040740967
-0.5278864502906799,7.803146839141846,1.1580238342285156
-0.5836493968963623,7.807112216949463,1.1579029560089111
-0.5318349003791809,6.509052753448486,0.9643689393997192
-0.5880555510520935,6.632474899291992,0.9816675782203674
-0.6290837526321411,6.578469276428223,0.9727402925491333
-0.6526405811309814,6.358875274658203,0.9394065737724304
-0.7000638246536255,6.377379894256592,0.9413053393363953
-0.7465530037879944,6.391783237457275,0.9426383972167969
-0.7851688861846924,6.344631195068359,0.9342801570892334
-0.8201668858528137,6.274250507354736,0.922568678855896
-0.49672263860702515,3.607327699661255,0.5296720266342163
-0.5160674452781677,3.5618321895599365,0.5222535729408264
-0.5385202169418335,3.543044328689575,0.5187984704971313
-0.5571292042732239,3.5012011528015137,0.5120018124580383
-0.5792809724807739,3.4860618114471436,0.5088593363761902
-1.0954413414001465,6.324410438537598,0.9213924407958984
-1.1504806280136108,6.381844997406006,0.9280009865760803
-1.2045340538024902,6.423439979553223,0.9322791695594788
-1.2625117301940918,6.483649730682373,0.9392886161804199
-1.3129633665084839,6.501667022705078,0.940205991268158
-1.3717550039291382,6.56114387512207,0.9466938376426697
-1.4205400943756104,6.571063995361328,0.9458066821098328
-1.4635286331176758,6.550261974334717,0.9405006766319275
-1.4964598417282104,6.487768173217773,0.9292895793914795
-1.5246555805206299,6.406182765960693,0.9154043793678284
-0.686916708946228,2.799619674682617,0.39910396933555603
-0.6966467499732971,2.757568120956421,0.39202097058296204
-0.7157252430915833,2.752941370010376,0.3901677131652832
-0.7384347319602966,2.7632226943969727,0.39046043157577515
-0.7574422359466553,2.7583346366882324,0.3886077105998993
-0.7850481271743774,2.78305983543396,0.39091959595680237
-1.066098690032959,3.6814067363739014,0.5155745148658752
-1.089396357536316,3.6668951511383057,0.5117334127426147
-1.1164296865463257,3.6672465801239014,0.5099288821220398
-1.1389057636260986,3.652611494064331,0.5060637593269348
-1.1617367267608643,3.6376843452453613,0.5021520853042603
-1.1834969520568848,3.6188418865203857,0.4977125823497772
-1.2042206525802612,3.5960700511932373,0.4927290976047516
-1.2284457683563232,3.5883054733276367,0.4895263612270355
-1.2525862455368042,3.58038592338562,0.48632776737213135
-1.2715259790420532,3.557682752609253,0.4811458885669708
-1.2963758707046509,3.549149990081787,0.4778379797935486
-1.3238779306411743,3.547703742980957,0.4755031168460846
-1.345863938331604,3.5315959453582764,0.4710269868373871
-1.3751591444015503,3.537412166595459,0.4693642556667328
-1.398908257484436,3.528564691543579,0.46576380729675293
-1.4319016933441162,3.540900707244873,0.4649065136909485
-1.4566471576690674,3.531287431716919,0.46113502979278564
-1.4755574464797974,3.5071074962615967,0.4554021656513214
-1.502007007598877,3.5048227310180664,0.4523180425167084
-1.5223133563995361,3.4881041049957275,0.4473876655101776
-1.5570404529571533,3.503007650375366,0.44647204875946045
-1.5767695903778076,3.4819347858428955,0.44089382886886597
-2.560805559158325,5.550340175628662,0.6980938911437988
-2.5977017879486084,5.534059047698975,0.6909908652305603
-2.6127912998199463,5.471963882446289,0.6782333254814148
-2.6465020179748535,5.447996616363525,0.6701869368553162
-2.694990396499634,5.4510884284973145,0.665319561958313
-2.7002923488616943,5.366915225982666,0.6497043371200562
-2.7322211265563965,5.342930793762207,0.6412252187728882
-2.746075391769409,5.284257411956787,0.628654956817627
-2.786034107208252,5.273025035858154,0.6215767860412598
-2.7918050289154053,5.196048259735107,0.6067114472389221
-1.1658005714416504,2.1353049278259277,0.24685056507587433
-1.1914128065109253,2.1482269763946533,0.24572882056236267
-2.5221285820007324,4.47767972946167,0.5067442059516907
-2.53814435005188,4.433678150177002,0.49606555700302124
-2.5589702129364014,4.4000654220581055,0.4865584075450897
-6.065036773681641,10.275272369384766,1.1222083568572998
-1.2475080490112305,2.0820045471191406,0.22447121143341064
-1.2418955564498901,2.0403735637664795,0.21696481108665466
-2.7206311225891113,4.401872158050537,0.46147599816322327
-2.792595863342285,4.454228401184082,0.4600130617618561
-3.0013949871063232,4.719136714935303,0.47989749908447266
-3.0309343338012695,4.691990852355957,0.46897298097610474
-3.0476505756378174,4.649603366851807,0.45661237835884094
-3.0602707862854004,4.6049370765686035,0.443984717130661
-3.082723617553711,4.5721755027771,0.4321494698524475
-3.0950934886932373,4.522427082061768,0.4184429347515106
-3.097792625427246,4.464824676513672,0.4037415385246277
-3.160707712173462,4.493166923522949,0.3967021405696869
-2.8594882488250732,4.0056281089782715,0.3444105088710785
-2.8894596099853516,3.994617223739624,0.33399108052253723
-2.922409772872925,3.986027240753174,0.3233504593372345
-2.8896608352661133,3.8851935863494873,0.3046150505542755
-2.464061975479126,3.47744083404541,-0.17708931863307953
-2.4439799785614014,3.5005509853363037,-0.1880737692117691
-2.3995587825775146,3.49275279045105,-0.19735997915267944
-2.3320162296295166,3.448481321334839,-0.2040599137544632
-2.248763084411621,3.376920223236084,-0.20828239619731903
-2.1995849609375,3.357389450073242,-0.21539507806301117
-2.1586410999298096,3.346219301223755,-0.2224234640598297
-2.1385838985443115,3.367736339569092,-0.2314641773700714
-2.1169447898864746,3.3899660110473633,-0.24070750176906586
-1.2740317583084106,2.072507858276367,-0.1515267789363861
-2.0602190494537354,3.405341386795044,-0.25599414110183716
-2.0347983837127686,3.4199788570404053,-0.2640593349933624
-2.0259556770324707,3.460792064666748,-0.27395734190940857
-1.205692172050476,2.093553066253662,-0.16976650059223175
-1.2017180919647217,2.1223642826080322,-0.17605794966220856
-2.5960516929626465,4.662986755371094,-0.3953368365764618
-2.5632095336914062,4.68029260635376,-0.4050169587135315
-2.533076047897339,4.704678058624268,-0.4152460992336273
-2.508800745010376,4.74324369430542,-0.42688223719596863
-2.48217511177063,4.773942470550537,-0.4375038146972656
-2.4538986682891846,4.800802707672119,-0.4477342963218689
-2.4292807579040527,4.838592529296875,-0.45887285470962524
-2.4042575359344482,4.87624454498291,-0.4700798988342285
-2.3794729709625244,4.913460731506348,-0.4811926484107971
-2.352968692779541,4.946882247924805,-0.4918310046195984
-2.3367130756378174,5.005264759063721,-0.5048951506614685
-1.5293450355529785,3.3379828929901123,-0.34151190519332886
-1.4979223012924194,3.3303072452545166,-0.3453647494316101
-1.4680637121200562,3.3259992599487305,-0.349476158618927
-1.4544188976287842,3.3610732555389404,-0.35770493745803833
-1.4545378684997559,3.428098201751709,-0.3693641126155853
-1.443892478942871,3.4699220657348633,-0.37833914160728455
-1.4222556352615356,3.4866440296173096,-0.3845903277397156
-1.408647894859314,3.525068998336792,-0.39313897490501404
-1.800413966178894,4.601922035217285,-0.5189407467842102
-1.3441362380981445,3.5074026584625244,-0.39968961477279663
-1.7437769174575806,4.647032737731934,-0.5350367426872253
-2.03165864944458,5.53351354598999,-0.6432570219039917
-1.9696675539016724,5.484899044036865,-0.6437093019485474
-1.6294403076171875,4.640840530395508,-0.5498123168945312
-1.5943472385406494,4.644054412841797,-0.5552588701248169
-1.9129401445388794,5.703239440917969,-0.6877161264419556
-0.9433302879333496,2.880060911178589,-0.35020577907562256
-0.9395316243171692,2.9379379749298096,-0.36019012331962585
-0.9093788862228394,2.914457321166992,-0.3602624237537384
-0.7803992033004761,2.5641283988952637,-0.31938204169273376
-0.7621912360191345,2.5692288875579834,-0.3223510980606079
-0.752602756023407,2.6039884090423584,-0.3290795087814331
-0.752199649810791,2.672269344329834,-0.3401212990283966
-0.7416428327560425,2.707005739212036,-0.34695374965667725
-0.7180852890014648,2.6969408988952637,-0.3478795886039734
-0.7134949564933777,2.75788950920105,-0.35797783732414246
-0.6780977845191956,2.698561668395996,-0.3524484932422638
-0.6693382859230042,2.744281053543091,-0.3606308698654175
-0.6535688638687134,2.763664960861206,-0.36521628499031067
-1.448133945465088,6.32511568069458,-0.8403933048248291
-1.4002212285995483,6.319265365600586,-0.8440888524055481
-1.3374451398849487,6.2410197257995605,-0.8380428552627563
-1.2805356979370117,6.184994697570801,-0.8348097801208496
-0.5877770185470581,2.942814350128174,-0.3989631235599518
-0.557196855545044,2.8972020149230957,-0.39455848932266235
-0.5355326533317566,2.893105983734131,-0.3957504630088806
-0.5248488187789917,2.949819803237915,-0.4053037762641907
-0.5100630521774292,2.987474203109741,-0.41210469603538513
-0.4890662729740143,2.9907166957855225,-0.4140353798866272
-0.47131773829460144,3.016796827316284,-0.41918253898620605
-0.45369014143943787,3.042705535888672,-0.4243165850639343
-0.4352045953273773,3.0646746158599854,-0.42894136905670166
-0.4168108105659485,3.090432643890381,-0.43376776576042175
-0.39907580614089966,3.123753786087036,-0.4396743178367615
-0.3790918290615082,3.141603469848633,-0.4434400796890259
-0.36164847016334534,3.186256170272827,-0.45105069875717163
-0.341913104057312,3.211562156677246,-0.4558216631412506
-0.32101544737815857,3.2290937900543213,-0.45922207832336426
-0.3009567856788635,3.258040428161621,-0.4642803966999054
-0.28154999017715454,3.2984156608581543,-0.4710068106651306
-0.2599795460700989,3.323279857635498,-0.47557729482650757
-0.23871421813964844,3.3518741130828857,-0.4804151952266693
-0.21676161885261536,3.3764984607696533,-0.48454543948173523
-0.1962985396385193,3.431856393814087,-0.49312248826026917
-0.17418953776359558,3.4677743911743164,-0.49894437193870544
-0.14932678639888763,3.4610729217529297,-0.4986755847930908
-0.12719736993312836,3.516065835952759,-0.5068581104278564
-0.10337546467781067,3.5400023460388184,-0.5105637311935425
-0.08005860447883606,3.598562002182007,-0.5192931890487671
-0.05501624196767807,3.5989785194396973,-0.5196623206138611
-0.02990470826625824,3.641766309738159,-0.526063084602356
-0.004598747938871384,3.6805665493011475,-0.5315182209014893
0.02131226286292076,3.7307872772216797,-0.5386452078819275
0.04771341383457184,3.7692267894744873,-0.5440948009490967
0.07502847164869308,3.826805353164673,-0.5523312091827393
0.10200189054012299,3.841710329055786,-0.5541554093360901
0.1313353329896927,3.9066832065582275,-0.5629444718360901
0.06535006314516068,1.6109874248504639,-0.2319146692752838
0.18780267238616943,3.9510226249694824,-0.5682555437088013
0.2173827737569809,3.988328695297241,-0.5731173753738403
0.09988495707511902,1.6248574256896973,-0.2331191748380661
0.27772533893585205,4.050815105438232,-0.5801559090614319
0.3064383864402771,4.05667781829834,-0.5800211429595947
0.3352462351322174,4.062336444854736,-0.5798816680908203
0.36206841468811035,4.044687747955322,-0.576385498046875
0.39337629079818726,4.0769877433776855,-0.5795410871505737
0.4213005304336548,4.066677570343018,-0.5766313672065735
0.4482761323451996,4.052371025085449,-0.5732097625732422
0.4774326682090759,4.0570831298828125,-0.5725027322769165
0.49992066621780396,4.007877826690674,-0.5640043616294861
0.5257216691970825,3.9892876148223877,-0.5595616698265076
0.557098925113678,4.008792400360107,-0.5604545474052429
0.5793712735176086,3.9668517112731934,-0.5528204441070557
0.6057741045951843,3.955393075942993,-0.5494814515113831
0.6343998312950134,3.959108591079712,-0.5478994846343994
0.6585620641708374,3.9359214305877686,-0.5425106287002563
0.6844927072525024,3.9240145683288574,-0.5387123823165894
0.7095378041267395,3.904210329055786,-0.5338190197944641
0.7381544709205627,3.9071645736694336,-0.5320515036582947
0.7562406063079834,3.856799364089966,-0.5226704478263855
0.7759786248207092,3.8177454471588135,-0.5148993134498596
0.7961312532424927,3.782360792160034,-0.5076782703399658
0.8295337557792664,3.8073232173919678,-0.5085341334342957
0.8524953126907349,3.7868149280548096,-0.5031624436378479
0.8716089725494385,3.7511188983917236,-0.4956199824810028
0.9029104709625244,3.768083333969116,-0.49506470561027527
0.9329597353935242,3.777195692062378,-0.4934383034706116
1.1682119369506836,4.589731216430664,-0.5961141586303711
1.189115047454834,4.540921211242676,-0.5859823822975159
1.2225152254104614,4.540690898895264,-0.5821451544761658
1.2498722076416016,4.517764568328857,-0.5754192471504211
1.2856245040893555,4.52446174621582,-0.5724730491638184
1.313188076019287,4.501025199890137,-0.5654990077018738
1.3352243900299072,4.462813377380371,-0.5565637946128845
1.3750272989273071,4.483828067779541,-0.5550366044044495
1.3994196653366089,4.4525370597839355,-0.5469847917556763
1.4258177280426025,4.428500652313232,-0.5398856401443481
1.4532177448272705,4.408022403717041,-0.5328354239463806
1.4785963296890259,4.383869647979736,-0.5254541635513306
1.5065407752990723,4.366808891296387,-0.5189261436462402
1.2619446516036987,3.5769948959350586,-0.4213809669017792
1.278800368309021,3.54681134223938,-0.4140169024467468
1.3084826469421387,3.5530948638916016,-0.410825252532959
1.6137540340423584,4.289628982543945,-0.49114030599594116
1.6409856081008911,4.27165412902832,-0.4842666685581207
1.6650290489196777,4.246340751647949,-0.4765378534793854
1.6940683126449585,4.23553991317749,-0.47027233242988586
1.7215665578842163,4.220933437347412,-0.4636107087135315
1.748618483543396,4.202093124389648,-0.4563148617744446
1.7749618291854858,4.183282852172852,-0.4491380751132965
1.7972822189331055,4.157508373260498,-0.44103339314460754
1.8130913972854614,4.117364883422852,-0.4314742982387543
1.8481457233428955,4.119502067565918,-0.42626819014549255
1.8774628639221191,4.10692834854126,-0.4194256067276001
1.8988479375839233,4.080626010894775,-0.41113370656967163
1.9198700189590454,4.054251670837402,-0.4028850793838501
1.9514508247375488,4.048478603363037,-0.3965698182582855
1.9712920188903809,4.017880439758301,-0.38780584931373596
2.0042648315429688,4.015288829803467,-0.3815162181854248
2.031445264816284,4.002284526824951,-0.374331533908844
2.0539774894714355,3.978314161300659,-0.36597877740859985
2.0817906856536865,3.9645094871520996,-0.3585525453090668
2.0938034057617188,3.9235715866088867,-0.3486202359199524
2.1239445209503174,3.916858196258545,-0.34177157282829285
2.1519014835357666,3.9022536277770996,-0.33386465907096863
2.1274285316467285,3.7961692810058594,-0.31838417053222656
2.1644232273101807,3.8027572631835938,-0.3124305307865143
2.190335512161255,3.7885262966156006,-0.30463284254074097
2.201070547103882,3.7468209266662598,-0.294504314661026
2.2347137928009033,3.7456507682800293,-0.28742948174476624
2.255552053451538,3.7246339321136475,-0.2789449095726013
2.277449131011963,3.702754020690918,-0.2700851857662201
2.2945663928985596,3.6744000911712646,-0.26074960827827454
2.3396737575531006,3.6926803588867188,-0.25467050075531006
2.335890054702759,3.6309213638305664,-0.24268636107444763
2.361001491546631,3.6152243614196777,-0.23385806381702423
2.4018774032592773,3.626251697540283,-0.2266966849565506
2.4134111404418945,3.590979814529419,-0.21634314954280853
2.4470534324645996,3.587606906890869,-0.20765893161296844
2.484013795852661,3.591165542602539,-0.1991598755121231
2.4950108528137207,3.55550479888916,-0.18820331990718842
2.5054495334625244,3.5199737548828125,-0.17712578177452087
2.5416133403778076,3.523362636566162,-0.1680225133895874
2.5753862857818604,3.518632411956787,-0.15758982300758362
2.1747100353240967,2.9317567348480225,-0.12269537150859833
2.7683138847351074,3.885791063308716,0.31211456656455994
2.7676732540130615,3.9426445960998535,0.3260803520679474
2.7152645587921143,3.930743932723999,0.3342311382293701
2.6850616931915283,3.9505350589752197,0.3447248041629791
2.6614623069763184,3.975001096725464,0.3549586832523346
2.635347843170166,4.000826835632324,0.36516666412353516
2.6168935298919678,4.039903163909912,0.37661778926849365
2.600893974304199,4.07713508605957,0.38726794719696045
2.558161735534668,4.075694561004639,0.39409738779067993
2.5390758514404297,4.11423921585083,0.4047027826309204
2.501371383666992,4.118263244628906,0.4115090072154999
2.4836761951446533,4.155372619628906,0.4216112494468689
2.4618868827819824,4.1901021003723145,0.4311409592628479
2.4262654781341553,4.201040744781494,0.4382284879684448
2.404343843460083,4.230772495269775,0.44689691066741943
2.362713098526001,4.226681709289551,0.4519410729408264
2.281595230102539,4.155264377593994,0.44951319694519043
2.239370346069336,4.150941371917725,0.4541105329990387
2.2173690795898438,4.179643630981445,0.4620395600795746
2.1967523097991943,4.211738109588623,0.4703691303730011
2.165205717086792,4.227346897125244,0.47658032178878784
2.1329662799835205,4.242990016937256,0.48290392756462097
2.109644889831543,4.271302223205566,0.4904070496559143
2.076261281967163,4.278320789337158,0.49543893337249756
2.055086374282837,4.3137078285217285,0.5035538673400879
2.019829511642456,4.321101188659668,0.5083181262016296
1.9914151430130005,4.342164993286133,0.5146734714508057
1.9635734558105469,4.362703800201416,0.5209115147590637
1.9988139867782593,4.524909496307373,0.5441617965698242
1.9901283979415894,4.595881938934326,0.5562440752983093
1.941115379333496,4.574021816253662,0.5571326613426208
1.888704538345337,4.5406880378723145,0.556522011756897
1.8812693357467651,4.614490032196045,0.5690346956253052
1.8517146110534668,4.634178161621094,0.5748662352561951
1.8177921772003174,4.647014617919922,0.5794933438301086
1.7865970134735107,4.666829586029053,0.5850224494934082
1.776144027709961,4.7407355308532715,0.597361147403717
1.3484725952148438,3.678325891494751,0.46586623787879944
1.3122429847717285,3.6580183506011963,0.46562460064888
1.2805696725845337,3.6523866653442383,0.46693339943885803
3.6928563117980957,10.781819343566895,1.3843194246292114
1.6075395345687866,4.805994510650635,0.619711697101593
1.5805331468582153,4.838901519775391,0.6266016364097595
1.5643490552902222,4.904713153839111,0.6377791166305542
1.5421459674835205,4.95591926574707,0.6468794345855713
1.4748409986495972,4.862591743469238,0.6369038224220276
1.4517930746078491,4.91352653503418,0.6458285450935364
1.4191287755966187,4.9306640625,0.650322437286377
1.3819650411605835,4.932695388793945,0.6528661251068115
1.3433926105499268,4.926817893981934,0.6543468832969666
1.295101284980774,4.88724422454834,0.6508902907371521
1.2580393552780151,4.8885178565979,0.6528724431991577
1.2210254669189453,4.8895111083984375,0.6548451781272888
1.1999115943908691,4.954141139984131,0.6653743386268616
1.168864130973816,4.977080345153809,0.6703288555145264
1.1390893459320068,5.007431507110596,0.6762152314186096
1.1050446033477783,5.022650241851807,0.6797164082527161
