X,Y,Z
-0.15623022615909576,3.042741298675537,-0.6010439395904541
-0.13298004865646362,3.005314588546753,-0.5943467020988464
-0.11146662384271622,2.99068284034729,-0.5921627879142761
-0.09088287502527237,2.9988791942596436,-0.5945250391960144
-0.06983382999897003,2.9917092323303223,-0.5933506488800049
-0.04863802343606949,2.9690897464752197,-0.5890241265296936
-0.027825478464365005,2.9923014640808105,-0.5938221216201782
-0.006972797680646181,2.9693872928619385,-0.5894918441772461
0.013681839220225811,2.97702956199646,-0.591001570224762
0.03473639488220215,3.0075833797454834,-0.5967264771461487
0.05536583065986633,2.992016553878784,-0.5933276414871216
0.07612454891204834,2.991631269454956,-0.5929701924324036
0.09752082824707031,2.9987504482269287,-0.5941216349601746
0.11801974475383759,2.9905331134796143,-0.5916489362716675
0.14020933210849762,3.020456314086914,-0.5967432260513306
0.16161774098873138,3.0272533893585205,-0.5972862839698792
0.18361268937587738,3.0415499210357666,-0.5993309617042542
0.20569480955600739,3.0480856895446777,-0.5994859933853149
0.2289009839296341,3.073650360107422,-0.603161096572876
0.2521854639053345,3.0952200889587402,-0.6060583591461182
0.27640941739082336,3.1242594718933105,-0.610427737236023
0.29958826303482056,3.137866497039795,-0.6116854548454285
0.32295137643814087,3.1475532054901123,-0.6116577982902527
0.34816768765449524,3.176166534423828,-0.615346372127533
0.3738463819026947,3.2045819759368896,-0.6189866662025452
0.3994665741920471,3.2289912700653076,-0.6218500733375549
0.42791059613227844,3.27232027053833,-0.6278641223907471
0.4558044672012329,3.303994655609131,-0.631429135799408
0.48430895805358887,3.339294195175171,-0.6357073187828064
0.5156621336936951,3.389545202255249,-0.6427929401397705
0.5483249425888062,3.443370819091797,-0.650277316570282
0.5804718136787415,3.4894180297851562,-0.6558546423912048
0.6087158918380737,3.5086991786956787,-0.6563652753829956
0.6452623605728149,3.569277286529541,-0.664494514465332
0.6801239252090454,3.618272066116333,-0.6704514622688293
0.7148898243904114,3.6633188724517822,-0.6750110983848572
0.7548894882202148,3.730682134628296,-0.6835866570472717
0.7951304912567139,3.7939155101776123,-0.6912871599197388
0.8498715758323669,3.9168360233306885,-0.7096189260482788
0.8965675830841064,3.9980993270874023,-0.7199086546897888
0.9478616118431091,4.093979835510254,-0.732421875
0.5391959547996521,2.257539987564087,-0.4012655019760132
1.0584900379180908,4.299184322357178,-0.7591872215270996
1.0938324928283691,4.311314105987549,-0.7561129331588745
1.1520901918411255,4.412837505340576,-0.7682321071624756
1.2098495960235596,4.506350517272949,-0.7787194848060608
1.241428256034851,4.4989705085754395,-0.7716557383537292
1.2772328853607178,4.50617790222168,-0.7671002745628357
1.3048423528671265,4.483511924743652,-0.756864607334137
1.3316373825073242,4.460809230804443,-0.7467755079269409
1.3606013059616089,4.445265293121338,-0.7379187345504761
1.384921908378601,4.4147539138793945,-0.7266283631324768
1.3956761360168457,4.343790531158447,-0.7085152268409729
1.1790251731872559,3.583252429962158,-0.5789288282394409
1.1942059993743896,3.5467007160186768,-0.5676203966140747
1.2166357040405273,3.5319528579711914,-0.5598506927490234
1.236213207244873,3.5098273754119873,-0.550832986831665
1.2631969451904297,3.5095012187957764,-0.5450685620307922
1.2849458456039429,3.4944303035736084,-0.537028431892395
1.3059239387512207,3.4753432273864746,-0.5282533168792725
1.334459900856018,3.4779834747314453,-0.5228538513183594
1.3515124320983887,3.4517104625701904,-0.5129116773605347
1.3783096075057983,3.4505043029785156,-0.5067378878593445
1.3968079090118408,3.4274182319641113,-0.4972822070121765
1.4243403673171997,3.42553973197937,-0.4908140003681183
1.4389621019363403,3.3952736854553223,-0.48021596670150757
1.4624439477920532,3.386284589767456,-0.4726899266242981
1.4737820625305176,3.3485801219940186,-0.4611228406429291
1.5164366960525513,3.381575584411621,-0.4592641294002533
1.8607165813446045,4.073831558227539,-0.5451935529708862
1.888775110244751,4.062164306640625,-0.5356829762458801
1.9140782356262207,4.042995452880859,-0.5250393152236938
1.9459633827209473,4.037621974945068,-0.5161766409873962
1.9668599367141724,4.01145601272583,-0.5045215487480164
1.9948679208755493,3.998854875564575,-0.4944872558116913
2.023080825805664,3.9859020709991455,-0.48434409499168396
2.0456526279449463,3.962480306625366,-0.4729445278644562
2.061845541000366,3.9289772510528564,-0.460321307182312
2.0632355213165283,3.8678743839263916,-0.4445722997188568
2.12021541595459,3.9090301990509033,-0.44033578038215637
2.1403074264526367,3.881514072418213,-0.42808571457862854
2.1305723190307617,3.8035378456115723,-0.41058793663978577
2.1492388248443604,3.7762582302093506,-0.39858561754226685
2.18369197845459,3.7755532264709473,-0.3892355263233185
2.201415777206421,3.748302936553955,-0.3771149218082428
2.2191758155822754,3.72078537940979,-0.3648701310157776
2.2575056552886963,3.7260820865631104,-0.35558655858039856
2.275054931640625,3.698176622390747,-0.34310823678970337
2.291552782058716,3.670647144317627,-0.33072811365127563
2.33783221244812,3.6885826587677,-0.3220536410808563
2.3430919647216797,3.640028476715088,-0.30717265605926514
2.3587899208068848,3.6122450828552246,-0.29439064860343933
2.405014991760254,3.6294541358947754,-0.284936785697937
2.408828020095825,3.580995798110962,-0.26997220516204834
2.43241286277771,3.565929889678955,-0.25764498114585876
2.483661413192749,3.588411569595337,-0.24736621975898743
2.490673065185547,3.546376943588257,-0.23238353431224823
2.509122610092163,3.5246124267578125,-0.218875452876091
2.565244674682617,3.552424669265747,-0.2076081782579422
2.2388081550598145,3.057194709777832,-0.1670631617307663
2.1747970581054688,2.93048095703125,-0.14884382486343384
2.801419258117676,3.9328885078430176,0.471272349357605
2.776317596435547,3.9630837440490723,0.4873701333999634
2.7397704124450684,3.9725539684295654,0.5001316666603088
2.715235710144043,3.9970784187316895,0.5141820907592773
2.68997859954834,4.026432514190674,0.5285913348197937
2.64882493019104,4.028757095336914,0.5389800667762756
2.619464874267578,4.046288013458252,0.5510136485099792
2.598583698272705,4.08114767074585,0.5649327635765076
2.5625715255737305,4.093084812164307,0.5756592750549316
2.537461757659912,4.116312503814697,0.5872109532356262
2.5236270427703857,4.159608364105225,0.6016122102737427
2.498866558074951,4.191043853759766,0.6141954660415649
2.4592552185058594,4.194941520690918,0.6224956512451172
2.429367780685425,4.210885524749756,0.6321287155151367
2.402498722076416,4.233741283416748,0.6427052617073059
2.381434679031372,4.270815849304199,0.6551719307899475
2.272268772125244,4.148368835449219,0.6430698037147522
2.2464487552642822,4.169886112213135,0.6525880694389343
2.2239949703216553,4.198099136352539,0.6631873250007629
2.199337959289551,4.227223873138428,0.6735351085662842
2.1708781719207764,4.249289512634277,0.6828181743621826
2.1465301513671875,4.277664661407471,0.6930270791053772
2.116264820098877,4.291470527648926,0.7007107138633728
2.0951526165008545,4.3263630867004395,0.7116459608078003
2.0627634525299072,4.340689182281494,0.7189916372299194
2.0269694328308105,4.347777843475342,0.7251766324043274
1.9993840456008911,4.367867469787598,0.7332947850227356
1.9758907556533813,4.398528575897217,0.7433238625526428
1.9889081716537476,4.5141143798828125,0.7674309611320496
1.9523258209228516,4.520514965057373,0.7728915810585022
1.939813494682312,4.58346700668335,0.788104772567749
1.9295501708984375,4.649397850036621,0.8037623167037964
1.890357255935669,4.647682189941406,0.8078647255897522
1.859715223312378,4.6672492027282715,0.8153233528137207
1.8463022708892822,4.733646869659424,0.8307614922523499
1.7880747318267822,4.68481969833374,0.8260111808776855
1.7708123922348022,4.739747047424316,0.8394659757614136
1.3506183624267578,3.6946096420288086,0.6573254466056824
1.321938157081604,3.6959996223449707,0.6604526042938232
1.283494234085083,3.6721014976501465,0.6586391925811768
1.6622837781906128,4.86865758895874,0.8765460252761841
1.5989094972610474,4.795632362365723,0.8666507005691528
1.5777220726013184,4.846268653869629,0.8790687322616577
1.5658613443374634,4.925981521606445,0.8968179821968079
1.54212486743927,4.972883224487305,0.9083830714225769
1.4971504211425781,4.9536237716674805,0.9075703024864197
1.478556513786316,5.022563457489014,0.9229851961135864
1.4214637279510498,4.958207130432129,0.9138997793197632
2.518939256668091,9.027236938476562,1.6689553260803223
1.3462380170822144,4.95760440826416,0.9193214178085327
1.2931437492370605,4.899438381195068,0.9108736515045166
1.26547372341156,4.937718391418457,0.9201497435569763
1.2373186349868774,4.975841522216797,0.9294704794883728
1.201366901397705,4.9839372634887695,0.9332505464553833
1.177907943725586,5.040162086486816,0.9460368156433105
1.1443899869918823,5.055063247680664,0.9511381387710571
1.105273723602295,5.047410011291504,0.9516080617904663
1.073958158493042,5.077149868011475,0.958915114402771
1.0416011810302734,5.106819152832031,0.9663057327270508
1.0039558410644531,5.1059489250183105,0.9679235219955444
1.6822112798690796,8.881373405456543,1.686754584312439
0.3861254155635834,2.119098424911499,0.4032251834869385
1.5550142526626587,8.887045860290527,1.693813681602478
1.4863150119781494,8.870757102966309,1.6929090023040771
0.3322790563106537,2.0732100009918213,0.3961790204048157
1.3567841053009033,8.8666410446167,1.696685791015625
1.303285002708435,8.932082176208496,1.7115836143493652
1.228888750076294,8.852751731872559,1.6988143920898438
1.1650017499923706,8.85289478302002,1.7012574672698975
1.0995224714279175,8.837525367736816,1.6996837854385376
1.0366525650024414,8.840717315673828,1.7017587423324585
0.9716929793357849,8.824394226074219,1.7001574039459229
0.9107592701911926,8.838069915771484,1.7044018507003784
0.4194907546043396,4.36837100982666,0.8432620167732239
0.3871881365776062,4.3556809425354,0.841697096824646
0.3566952347755432,4.358096599578857,0.8426671624183655
0.3254793882369995,4.352693557739258,0.8419768214225769
0.2969983220100403,4.385331630706787,0.8486881256103516
0.34201112389564514,5.635154724121094,1.0911283493041992
0.30295851826667786,5.652553081512451,1.09512197971344
0.26485952734947205,5.681144714355469,1.101332426071167
0.2265026569366455,5.713334560394287,1.1081660985946655
0.189207062125206,5.795215606689453,1.1240400075912476
0.14877909421920776,5.796342849731445,1.124305248260498
0.108472540974617,5.8470458984375,1.1342447996139526
0.06775274872779846,5.847607612609863,1.134511947631836
0.027097376063466072,5.847885608673096,1.1347787380218506
-0.020537927746772766,8.858101844787598,1.7193148136138916
-0.0819912925362587,8.834797859191895,1.7145353555679321
-0.14437130093574524,8.826478004455566,1.7122722864151
-0.202667698264122,8.695059776306152,1.6862329244613647
-0.25995659828186035,8.590091705322266,1.665418267250061
-0.31907719373703003,8.572892189025879,1.6617060899734497
-0.3581671118736267,8.107024192810059,1.5711246728897095
-0.1835416555404663,3.5888004302978516,0.6953896284103394
-0.20875056087970734,3.587575674057007,0.6945986747741699
-0.23304446041584015,3.578542947769165,0.6923396587371826
-0.5643478035926819,7.831136703491211,1.5140424966812134
-0.6129038333892822,7.754711151123047,1.498299479484558
-0.5734643340110779,6.665198802947998,1.2870204448699951
-0.6153279542922974,6.603962421417236,1.2744793891906738
-0.6388688087463379,6.378509521484375,1.2299118041992188
-0.687718391418457,6.420158386230469,1.2365107536315918
-0.7328229546546936,6.423320293426514,1.2357438802719116
-0.7743143439292908,6.39569091796875,1.2291152477264404
-0.8102636933326721,6.318176746368408,1.2129452228546143
-0.8510699272155762,6.290001392364502,1.2063475847244263
-0.8877338767051697,6.234966278076172,1.1946659088134766
-0.9355260133743286,6.26347541809082,1.1982142925262451
-0.9843427538871765,6.295418739318848,1.202453851699829
-1.0362731218338013,6.3382391929626465,1.2087701559066772
-1.0891386270523071,6.384488105773926,1.2157833576202393
-1.1409631967544556,6.418926239013672,1.2205684185028076
-1.1940898895263672,6.45672082901001,1.2260242700576782
-1.250907063484192,6.513134479522705,1.2345436811447144
-1.2999324798583984,6.527784824371338,1.234811782836914
-1.3584688901901245,6.583316326141357,1.2427990436553955
-1.414123296737671,6.623431205749512,1.2479201555252075
-1.4544093608856201,6.587947368621826,1.2388179302215576
-1.4917776584625244,6.540961742401123,1.2276326417922974
-1.5256258249282837,6.48265266418457,1.2141791582107544
-0.6832961440086365,2.816235303878784,0.5261088609695435
-0.6922121047973633,2.770890474319458,0.5163401961326599
-0.7129538059234619,2.7739553451538086,0.5156340599060059
-0.7322764992713928,2.7693164348602295,0.5134851336479187
-0.7495511174201965,2.75711989402771,0.50996333360672
-0.7711188793182373,2.759563446044922,0.5091105699539185
-1.764046549797058,6.152851581573486,1.1316148042678833
-1.7926645278930664,6.097483158111572,1.1179804801940918
-1.8294934034347534,6.071464538574219,1.1098120212554932
-1.8615617752075195,6.026494026184082,1.098160982131958
-1.8927966356277466,5.977435111999512,1.0857882499694824
-1.9214134216308594,5.924822807312012,1.0728431940078735
-1.2583295106887817,3.793259859085083,0.6843070983886719
-1.277813196182251,3.7671289443969727,0.6770662665367126
-1.3121393918991089,3.7845664024353027,0.6776823997497559
-2.042633056640625,5.76207160949707,1.027858018875122
-2.0732080936431885,5.719504356384277,1.0163228511810303
-2.1007862091064453,5.673604488372803,1.0041393041610718
-2.1334946155548096,5.646110534667969,0.9947991371154785
-2.1659791469573975,5.618400573730469,0.9854826927185059
-2.2154953479766846,5.633418083190918,0.9836503863334656
-2.2802584171295166,5.6794891357421875,0.9869820475578308
-2.3421504497528076,5.7180705070495605,0.9890499711036682
-2.364760160446167,5.664119243621826,0.9746519923210144
-2.399829387664795,5.642298698425293,0.9656702280044556
-2.4316394329071045,5.613168239593506,0.9555007219314575
-2.5228607654571533,5.713693618774414,0.9670716524124146
-2.543915033340454,5.654974460601807,0.9517223834991455
-4.088244438171387,8.924991607666016,1.4931492805480957
-2.5861966609954834,5.549250602722168,0.9224511981010437
-2.6231703758239746,5.533290386199951,0.9138848185539246
-4.420307636260986,9.16008472442627,1.502611756324768
-2.632598400115967,5.360040187835693,0.8732171654701233
-2.6956894397735596,5.394950866699219,0.872672438621521
-2.7280359268188477,5.371499061584473,0.8622373938560486
-2.760183334350586,5.34783935546875,0.8518244028091431
-2.780911445617676,5.29933500289917,0.8372864723205566
-2.820791721343994,5.284178733825684,0.8278171420097351
-1.136911153793335,2.0956058502197266,0.325435072183609
-1.1806715726852417,2.1429009437561035,0.32972192764282227
-1.1948548555374146,2.135664463043213,0.32555490732192993
-2.5500097274780273,4.484632968902588,0.6767781972885132
-2.545457124710083,4.403834342956543,0.6577035784721375
-6.033433437347412,10.283929824829102,1.5190746784210205
-1.237270712852478,2.0780844688415527,0.3035346269607544
-1.2555954456329346,2.076820135116577,0.29975220561027527
-2.9282569885253906,4.768224239349365,0.6796658635139465
-2.991562604904175,4.799121379852295,0.6749592423439026
-3.023003578186035,4.781010627746582,0.6633078455924988
-3.0494589805603027,4.752033710479736,0.6497824788093567
-3.0577352046966553,4.692922592163086,0.6319276094436646
-3.0522665977478027,4.619255065917969,0.6119883060455322
-3.043767213821411,4.54262113571167,0.5916705131530762
-3.10182785987854,4.561401844024658,0.5831806659698486
-3.104853630065918,4.499846935272217,0.5641855597496033
-3.153801202774048,4.510140419006348,0.5539847612380981
-2.8737709522247314,4.05293083190918,0.4869557023048401
-2.859808921813965,3.9737701416015625,0.46589627861976624
-2.9192495346069336,4.004333972930908,0.4576757550239563
-2.9411516189575195,3.9802379608154297,0.4425056576728821
-2.4660708904266357,3.455235719680786,-0.20577271282672882
-2.4408798217773438,3.472228527069092,-0.2196209579706192
-2.8657469749450684,4.140347480773926,-0.2766737639904022
-2.8561110496520996,4.193173408508301,-0.2949048578739166
-2.8546159267425537,4.254291534423828,-0.31294623017311096
-2.8205299377441406,4.271158218383789,-0.3278704285621643
-2.815781354904175,4.333653926849365,-0.3463808000087738
-1.2748700380325317,1.9923676252365112,-0.16511695086956024
-1.2702966928482056,2.0177879333496094,-0.17310687899589539
-1.27584707736969,2.0596766471862793,-0.18255768716335297
-1.2490639686584473,2.0481414794921875,-0.1870710849761963
-2.082751989364624,3.4726593494415283,-0.32663342356681824
-2.068782329559326,3.5071377754211426,-0.33913129568099976
-2.628190279006958,4.527083396911621,-0.4490659236907959
-1.2040834426879883,2.1084675788879395,-0.2143668681383133
-2.5920965671539307,4.616724014282227,-0.4806959331035614
-2.5677638053894043,4.6511664390563965,-0.4954483211040497
-2.5384697914123535,4.674718379974365,-0.5087687969207764
-2.5186846256256104,4.719311714172363,-0.5243571400642395
-2.4949734210968018,4.756833553314209,-0.5392299294471741
-2.4647445678710938,4.779916763305664,-0.5522400140762329
-2.4454593658447266,4.827594757080078,-0.5682964324951172
-2.4169082641601562,4.857864856719971,-0.582143247127533
-2.3955461978912354,4.901587009429932,-0.5975211262702942
-2.3659348487854004,4.927420616149902,-0.6106371879577637
-1.562414526939392,3.3139727115631104,-0.41725388169288635
-1.5382992029190063,3.3242461681365967,-0.4250645637512207
-1.507717251777649,3.320190668106079,-0.4310317039489746
-1.4904998540878296,3.3439574241638184,-0.440470814704895
-1.4818782806396484,3.389159917831421,-0.45265811681747437
-1.4801956415176392,3.452242136001587,-0.46739068627357483
-1.4496040344238281,3.4473726749420166,-0.47290167212486267
-0.9833243489265442,2.3856372833251953,-0.3315660059452057
-0.9501751661300659,2.3524506092071533,-0.3309762179851532
-0.9303316473960876,2.351353883743286,-0.3348177373409271
-0.9108579158782959,2.349982500076294,-0.33854052424430847
-0.9066777229309082,2.3882129192352295,-0.3479990065097809
-0.8947130441665649,2.4085500240325928,-0.35484418272972107
-0.8721902370452881,2.399657964706421,-0.3572881519794464
-0.8681188225746155,2.4415407180786133,-0.3673129379749298
-0.8585059642791748,2.4688198566436768,-0.37522953748703003
-0.8409197330474854,2.474181652069092,-0.3797093331813812
-0.8301985859870911,2.5015528202056885,-0.3875984251499176
-0.8124278783798218,2.506695508956909,-0.3920045495033264
-0.8006390333175659,2.5300662517547607,-0.3992689251899719
-0.7873126864433289,2.5497400760650635,-0.40589073300361633
-0.7736337780952454,2.569394826889038,-0.4124060571193695
-0.7641000747680664,2.603774070739746,-0.42135685682296753
-0.7507547736167908,2.627037763595581,-0.4286269545555115
-0.7466924786567688,2.683624267578125,-0.44133320450782776
-0.7296494841575623,2.695647954940796,-0.44652611017227173
-0.7144345641136169,2.7150139808654785,-0.4529845416545868
-0.6934370398521423,2.7118334770202637,-0.45568105578422546
-0.6768711805343628,2.72725772857666,-0.4615805447101593
-0.6891903877258301,2.8624820709228516,-0.48755156993865967
-0.6488505601882935,2.7803306579589844,-0.4765145480632782
-0.6505294442176819,2.878131628036499,-0.4963415861129761
-0.6426808834075928,2.9384102821350098,-0.5098756551742554
-0.9209708571434021,4.358808994293213,-0.7607612609863281
-0.877160370349884,4.300188064575195,-0.7545188665390015
-0.8253714442253113,4.195857524871826,-0.7401235103607178
-0.785312831401825,4.143959999084473,-0.7348325252532959
-0.7453474402427673,4.087953567504883,-0.7286593317985535
-0.6989436149597168,3.99391770362854,-0.715076208114624
-0.6594941020011902,3.9297404289245605,-0.7066871523857117
-0.6228674054145813,3.876612424850464,-0.7002137303352356
-0.6004663705825806,3.9105887413024902,-0.7094833254814148
-0.4511149227619171,3.0810632705688477,-0.5611026883125305
-0.42492911219596863,3.053283452987671,-0.5580413937568665
-0.4025796949863434,3.048112154006958,-0.5590779185295105
-0.3851369023323059,3.0809030532836914,-0.5671153664588928
-0.3654428720474243,3.098353624343872,-0.5722300410270691
-0.3471836745738983,3.131021499633789,-0.5798078775405884
-0.3288824260234833,3.1673967838287354,-0.5881327390670776
-0.30865752696990967,3.1922149658203125,-0.5943930745124817
-0.287786066532135,3.2092206478118896,-0.599220335483551
-0.2676427364349365,3.237658977508545,-0.6057168245315552
-0.2456640601158142,3.2468390464782715,-0.608556866645813
-0.22459712624549866,3.271191358566284,-0.6142823100090027
-0.20187486708164215,3.2800936698913574,-0.6171674132347107
-0.1769324690103531,3.2428669929504395,-0.6111198663711548
-0.1565249264240265,3.2898831367492676,-0.6205963492393494
-0.13422507047653198,3.3060827255249023,-0.6243013143539429
-0.1109587773680687,3.2991111278533936,-0.6236618161201477
-0.08843088895082474,3.330352783203125,-0.6302934885025024
-0.06527023762464523,3.330845594406128,-0.6305124759674072
-0.04254285246133804,3.3657233715057373,-0.637238621711731
-0.019180791452527046,3.3735780715942383,-0.6388809084892273
0.004216623492538929,3.3659183979034424,-0.6376153826713562
0.028331773355603218,3.4042060375213623,-0.6447640061378479
0.05185487121343613,3.3963377475738525,-0.6428565382957458
0.07507327944040298,3.3806331157684326,-0.639499843120575
0.09949785470962524,3.4108078479766846,-0.6448501944541931
0.12351428717374802,3.417792320251465,-0.6458344459533691
0.1476023644208908,3.424729585647583,-0.6461796164512634
0.1727970987558365,3.442981243133545,-0.64866703748703
0.19673141837120056,3.441905975341797,-0.6475562453269958
0.22112376987934113,3.4483280181884766,-0.647886335849762
0.24723714590072632,3.47762393951416,-0.6521701812744141
0.2725907266139984,3.4914655685424805,-0.6532754302024841
0.2988830506801605,3.508920907974243,-0.6550496816635132
0.3282524049282074,3.5606296062469482,-0.6632415652275085
0.35605016350746155,3.589186668395996,-0.6670544147491455
0.3838570713996887,3.6138195991516113,-0.6695495843887329
0.41418540477752686,3.6573312282562256,-0.6755334734916687
0.44327205419540405,3.6814844608306885,-0.6778992414474487
0.46794459223747253,3.671147108078003,-0.6739684343338013
0.5006319880485535,3.7216739654541016,-0.6807854771614075
0.5377985239028931,3.79862117767334,-0.6921454071998596
0.5709998607635498,3.84101939201355,-0.6971510648727417
0.6024271249771118,3.864075183868408,-0.6985718607902527
0.638012707233429,3.91355299949646,-0.7046566009521484
0.6762222647666931,3.9742074012756348,-0.712172269821167
0.7206482291221619,4.064846992492676,-0.7249640226364136
0.7699534893035889,4.173992156982422,-0.7409035563468933
0.8063597083091736,4.207075119018555,-0.7432461380958557
0.8594332337379456,4.319169044494629,-0.7588672637939453
0.9042611122131348,4.385629177093506,-0.7662460207939148
0.9436582922935486,4.421558856964111,-0.7682123184204102
0.9928679466247559,4.498509407043457,-0.7772032618522644
1.0439554452896118,4.578830242156982,-0.786406397819519
1.087841510772705,4.621154308319092,-0.7884710431098938
1.1163501739501953,4.599545001983643,-0.7797173261642456
1.1504312753677368,4.600142002105713,-0.7747411131858826
1.180692195892334,4.5855536460876465,-0.7672508955001831
1.2046445608139038,4.548543453216553,-0.7554893493652344
1.2357821464538574,4.537325382232666,-0.747987687587738
1.2591947317123413,4.499956130981445,-0.7363138794898987
1.2886395454406738,4.484689712524414,-0.7283204197883606
1.3133682012557983,4.454517841339111,-0.7176311016082764
1.0873128175735474,3.596327781677246,-0.5745571255683899
1.1082836389541626,3.574704170227051,-0.5662198662757874
1.1380608081817627,3.582486629486084,-0.5626259446144104
1.1583333015441895,3.5606794357299805,-0.5542869567871094
1.1805979013442993,3.5461833477020264,-0.5468979477882385
1.207725167274475,3.5461668968200684,-0.5417628884315491
1.2301088571548462,3.5312411785125732,-0.5343160629272461
1.252729058265686,3.516042947769165,-0.5267624258995056
1.2770808935165405,3.508258581161499,-0.5201438069343567
1.298683762550354,3.4930408000946045,-0.5124591588973999
1.321813941001892,3.481191396713257,-0.5052415728569031
1.343514323234558,3.4655396938323975,-0.497497022151947
1.3679490089416504,3.456972122192383,-0.4904688000679016
1.391841173171997,3.4484024047851562,-0.48352935910224915
1.40122389793396,3.4037156105041504,-0.4715377986431122
1.428167700767517,3.4018709659576416,-0.4655233323574066
1.4578436613082886,3.40710711479187,-0.4602915048599243
1.7932661771774292,4.112163543701172,-0.5481534004211426
1.8219513893127441,4.100710868835449,-0.5392813086509705
1.8476758003234863,4.081843376159668,-0.5293914675712585
1.885669231414795,4.091251850128174,-0.5230216383934021
1.903867483139038,4.058272838592529,-0.5111904144287109
1.9360237121582031,4.052820205688477,-0.5026174187660217
1.957834005355835,4.026224136352539,-0.491506963968277
1.9890522956848145,4.020709991455078,-0.48287421464920044
2.0078206062316895,3.9907727241516113,-0.47131606936454773
2.028615951538086,3.9639241695404053,-0.4600369334220886
2.0601816177368164,3.9574990272521973,-0.45107942819595337
2.0804035663604736,3.930450439453125,-0.43955209851264954
2.1071348190307617,3.917271137237549,-0.4297639727592468
2.1421427726745605,3.917079448699951,-0.4211072325706482
2.122314214706421,3.818051338195801,-0.4019565284252167
2.157731533050537,3.8215479850769043,-0.39370477199554443
2.166929006576538,3.7770681381225586,-0.38030925393104553
2.1856770515441895,3.749272346496582,-0.3686213493347168
2.215250015258789,3.741931915283203,-0.3589388132095337
2.2363593578338623,3.7212531566619873,-0.3479628562927246
2.2582590579986572,3.69987416267395,-0.33661511540412903
2.2968220710754395,3.704580545425415,-0.32733824849128723
2.296684980392456,3.6504921913146973,-0.3130682408809662
2.330049991607666,3.648728370666504,-0.3031381666660309
2.3642144203186035,3.646212339401245,-0.2928014099597931
2.384049654006958,3.624844551086426,-0.2809367775917053
2.3959126472473145,3.5898194313049316,-0.26770734786987305
2.4343411922454834,3.593053102493286,-0.257037490606308
2.4491779804229736,3.564887762069702,-0.24412374198436737
2.459758996963501,3.5299301147460938,-0.23056581616401672
2.5204813480377197,3.5643835067749023,-0.2209208458662033
2.5257081985473633,3.5231339931488037,-0.2063271403312683
2.568096160888672,3.5318031311035156,-0.1941891610622406
2.174994468688965,2.94966721534729,-0.15118324756622314
2.7794854640960693,3.9317240715026855,0.44977495074272156
2.7728214263916016,3.987020969390869,0.4678114354610443
2.7311654090881348,3.990548849105835,0.4793547987937927
2.680410385131836,3.9765048027038574,0.48808008432388306
2.6665332317352295,4.021653175354004,0.5035508275032043
2.6354329586029053,4.040582180023193,0.5156061053276062
2.6212825775146484,4.080688953399658,0.529699981212616
2.580247402191162,4.082367897033691,0.5386289954185486
2.5540382862091064,4.111048221588135,0.5511081218719482
2.5239901542663574,4.128175735473633,0.5614182353019714
2.5026097297668457,4.1579203605651855,0.573289155960083
2.4747257232666016,4.182225704193115,0.5840882062911987
2.4425241947174072,4.199729919433594,0.5939510464668274
2.415748119354248,4.222796440124512,0.604254424571991
2.39337158203125,4.252008438110352,0.6153163909912109
2.349851131439209,4.248381614685059,0.6211990714073181
2.26387882232666,4.16610860824585,0.6154182553291321
2.2374415397644043,4.187942028045654,0.62459397315979
2.2072322368621826,4.202721118927002,0.6327532529830933
2.1939258575439453,4.252110481262207,0.6457840800285339
2.1548807621002197,4.253501892089844,0.6514343023300171
2.1268460750579834,4.275067329406738,0.660104513168335
2.1033730506896973,4.302768230438232,0.6695502400398254
2.0789053440093994,4.3306565284729,0.6791373491287231
2.039917230606079,4.330975532531738,0.6838741898536682
2.014008045196533,4.359029769897461,0.6930286288261414
1.9792628288269043,4.365358829498291,0.6986227035522461
2.011338233947754,4.519366264343262,0.7279055714607239
1.9992475509643555,4.57851505279541,0.7420250773429871
1.9617135524749756,4.585264682769775,0.7473713159561157
1.9337455034255981,4.612843990325928,0.7560868859291077
1.8901939392089844,4.600627422332764,0.7582037448883057
1.8606663942337036,4.619973659515381,0.765448808670044
1.8351095914840698,4.649939060211182,0.7744734287261963
1.8058923482894897,4.676963806152344,0.7825971841812134
1.7742369174957275,4.696371555328369,0.7894445061683655
1.3629446029663086,3.687650442123413,0.6226933002471924
1.3225950002670288,3.6565096378326416,0.6201507449150085
1.303334355354309,3.683171510696411,0.627426266670227
1.281333327293396,3.7065248489379883,0.6339206099510193
1.6304577589035034,4.829275608062744,0.829003632068634
1.5952320098876953,4.840172290802002,0.8339722156524658
1.5857549905776978,4.927552223205566,0.8521199226379395
1.529271125793457,4.8678388595581055,0.8448463678359985
1.5034555196762085,4.907283782958984,0.8548057079315186
1.46132493019104,4.895134449005127,0.8551917672157288
1.434502124786377,4.934421539306641,0.8646127581596375
1.4030437469482422,4.958725452423096,0.8714728355407715
1.3856379985809326,5.030826091766357,0.8867419958114624
1.3115323781967163,4.894608020782471,0.8652888536453247
1.2783366441726685,4.9106316566467285,0.8706064820289612
1.2467677593231201,4.9340033531188965,0.8767700791358948
1.2185927629470825,4.972120761871338,0.8856180310249329
1.1882612705230713,5.002564430236816,0.8931605815887451
1.1610589027404785,5.043875694274902,0.902657687664032
1.1218098402023315,5.036348819732666,0.903506338596344
1.0896563529968262,5.05855131149292,0.909527063369751
1.0629217624664307,5.110880374908447,0.9205336570739746
1.0203675031661987,5.087643623352051,0.9179813265800476
0.9884112477302551,5.1169352531433105,0.9249513149261475
0.3976791799068451,2.1400678157806396,0.38756367564201355
1.6439331769943237,9.202472686767578,1.6696664094924927
1.566001057624817,9.13323974609375,1.6601625680923462
0.34443455934524536,2.0980563163757324,0.38183778524398804
1.4349666833877563,9.145541191101074,1.6665809154510498
1.375190019607544,9.196755409240723,1.6781737804412842
1.3037962913513184,9.155973434448242,1.672991394996643
1.2411763668060303,9.171732902526855,1.6781967878341675
1.1671539545059204,9.099382400512695,1.6673424243927002
1.1040799617767334,9.114463806152344,1.6716340780258179
1.0364230871200562,9.090978622436523,1.6686738729476929
0.9814920425415039,9.193199157714844,1.6889067888259888
0.9082142114639282,9.111428260803223,1.6753931045532227
0.4019636809825897,4.338540554046631,0.7985145449638367
0.36750528216362,4.291238307952881,0.7905883193016052
0.33870410919189453,4.308835029602051,0.7944332361221313
0.31199756264686584,4.368497371673584,0.805736243724823
0.2840699255466461,4.412620544433594,0.8142147064208984
0.32408735156059265,5.653163433074951,1.0436068773269653
0.2847582697868347,5.655116081237793,1.0445008277893066
0.2485162317752838,5.7297139167785645,1.0588715076446533
0.20738758146762848,5.715804576873779,1.05695378780365
0.16985800862312317,5.797701358795166,1.0720854997634888
0.12949250638484955,5.806394577026367,1.0736867189407349
0.08972709625959396,5.857052803039551,1.0831007957458496
0.04887892305850983,5.853661060333252,1.0825726985931396
0.007513348013162613,5.8730316162109375,1.086309790611267
-0.050189223140478134,8.857375144958496,1.6386204957962036
-0.11148913949728012,8.841486930847168,1.6355743408203125
-0.17081327736377716,8.736964225769043,1.6155645847320557
-0.23031987249851227,8.693482398986816,1.6069308519363403
-0.2864069938659668,8.56513500213623,1.582698106765747
-0.3338478207588196,8.240640640258789,1.5223138332366943
-0.16891324520111084,3.556994915008545,0.6569444537162781
-0.19635039567947388,3.6056623458862305,0.6658152937889099
-0.21916113793849945,3.56984806060791,0.6586925983428955
-0.5350642204284668,7.830535411834717,1.4437114000320435
-0.5887048840522766,7.807746887207031,1.438417911529541
-0.5475786328315735,6.647394180297852,1.2237889766693115
-0.5951851010322571,6.659004211425781,1.2251228094100952
-0.6267575621604919,6.501986980438232,1.1955070495605469
-0.6603391170501709,6.386970520019531,1.17336106300354
-0.7093256711959839,6.42079496383667,1.1781082153320312
-0.754438579082489,6.423799514770508,1.1772723197937012
-0.7911555171012878,6.357828140258789,1.1638600826263428
-0.8277807235717773,6.295426845550537,1.1511728763580322
-0.8673401474952698,6.259461402893066,1.1433906555175781
-0.9105322360992432,6.245965480804443,1.1397557258605957
-0.9579796195030212,6.270515441894531,1.142350673675537
-1.0094331502914429,6.317494869232178,1.1490448713302612
-1.0596073865890503,6.352701663970947,1.1536273956298828
-1.1101441383361816,6.383653163909912,1.1574487686157227
-1.1621278524398804,6.417949676513672,1.1618988513946533
-1.2197684049606323,6.474362850189209,1.1703485250473022
-1.2731657028198242,6.511765003204346,1.1749061346054077
-1.3275556564331055,6.552638053894043,1.1797887086868286
-1.3817731142044067,6.58931303024292,1.1839349269866943
-1.4343215227127075,6.61423397064209,1.1859840154647827
-1.473626732826233,6.57084846496582,1.175763487815857
-1.5089366436004639,6.516164302825928,1.1636521816253662
-1.540480613708496,6.450206279754639,1.14933180809021
-0.6914892792701721,2.8109071254730225,0.4995494484901428
-0.7001876831054688,2.7654566764831543,0.4902012348175049
-0.7232351899147034,2.775806427001953,0.49075379967689514
-0.7346158027648926,2.741307258605957,0.4833999574184418
-0.7660040855407715,2.781036376953125,0.48915255069732666
-1.7340174913406372,6.130295276641846,1.0753509998321533
-1.7798460721969604,6.13413143157959,1.0725880861282349
-1.8111745119094849,6.085720539093018,1.0606900453567505
-1.8400505781173706,6.033679008483887,1.0483131408691406
-1.8730418682098389,5.992173194885254,1.037750482559204
-1.2048839330673218,3.7626583576202393,0.6495556831359863
-1.2260940074920654,3.740185499191284,0.6435002088546753
-1.2542554140090942,3.7396364212036133,0.64087975025177
-1.2819839715957642,3.7390284538269043,0.6383163928985596
-1.3175983428955078,3.7599942684173584,0.6394234299659729
-2.054339647293091,5.734120845794678,0.9712816476821899
-2.0865492820739746,5.698866844177246,0.9615077972412109
-2.113528251647949,5.652930736541748,0.9496498107910156
-2.1440391540527344,5.617778301239014,0.9393090009689331
-2.1790740489959717,5.597095966339111,0.9315338730812073
-2.2318785190582275,5.618931293487549,0.9307581782341003
-2.3016295433044434,5.679453372955322,0.9362810850143433
-2.350252151489258,5.685736656188965,0.9328238368034363
-2.3739304542541504,5.63524866104126,0.9193809628486633
-2.4055049419403076,5.6062445640563965,0.9096201062202454
-2.4679951667785645,5.647771835327148,0.9112717509269714
-3.94472336769104,8.85861873626709,1.4210329055786133
-4.002144813537598,8.82208251953125,1.4069277048110962
-2.5422773361206055,5.503811836242676,0.872068464756012
-2.59710431098938,5.526495933532715,0.8699027895927429
-2.634039878845215,5.51029109954834,0.8616069555282593
-2.660831928253174,5.468660354614258,0.8491199612617493
-2.7147786617279053,5.482320308685303,0.8452304601669312
-2.712495803833008,5.3853678703308105,0.8239025473594666
-2.721818447113037,5.316886901855469,0.8070279955863953
-2.760807991027832,5.306834697723389,0.7990964651107788
-2.783747673034668,5.2612385749816895,0.7854995727539062
-2.809844493865967,5.222378253936768,0.7730090618133545
-1.1780115365982056,2.1553990840911865,0.316078782081604
-1.188750147819519,2.141235828399658,0.31098076701164246
-2.509488105773926,4.4496564865112305,0.6398714780807495
-2.5196807384490967,4.396090030670166,0.6256310939788818
-6.010670185089111,10.324912071228027,1.4536197185516357
-6.082406520843506,10.294849395751953,1.433003306388855
-1.2451167106628418,2.075944185256958,0.28556182980537415
-2.9435925483703613,4.831274509429932,0.656228244304657
-2.954726457595825,4.7758331298828125,0.6403125524520874
-2.994133234024048,4.771056175231934,0.6309195756912231
-2.9837381839752197,4.687233924865723,0.6111450791358948
-3.0344314575195312,4.693202495574951,0.6023036241531372
-3.0581419467926025,4.660755634307861,0.5885597467422485
-3.0474116802215576,4.5808844566345215,0.568771481513977
-3.0737972259521484,4.555382251739502,0.5555427074432373
-3.092834711074829,4.515819549560547,0.5401350855827332
-3.116114854812622,4.487176418304443,0.5256451964378357
-3.164931058883667,4.4972825050354,0.5157779455184937
-2.8804235458374023,4.0330586433410645,0.45141154527664185
-2.8821303844451904,3.9805827140808105,0.4343211054801941
-2.9326555728912354,3.9981577396392822,0.42478248476982117
-2.9702813625335693,3.991281270980835,0.41114625334739685
-2.4581329822540283,3.4704360961914062,-0.2064516842365265
-2.462538719177246,3.5285394191741943,-0.22202199697494507
-2.8637373447418213,4.170248985290527,-0.27659133076667786
-2.869859457015991,4.245280742645264,-0.29539814591407776
-2.8563897609710693,4.290848255157471,-0.3117651641368866
-2.815265655517578,4.298232078552246,-0.32540473341941833
-1.2823514938354492,1.988280177116394,-0.1562100201845169
-1.2720829248428345,2.003602981567383,-0.1630164533853531
-1.2794182300567627,2.049100160598755,-0.17249804735183716
-1.2687969207763672,2.0643224716186523,-0.1791883111000061
-2.142911911010742,3.542548418045044,-0.3166043758392334
-2.070615530014038,3.4805335998535156,-0.31991249322891235
-2.027707099914551,3.464252471923828,-0.32688963413238525
-1.196548581123352,2.0779476165771484,-0.20110656321048737
-1.2041215896606445,2.1268441677093506,-0.21082641184329987
-2.5776243209838867,4.630441188812256,-0.4696703255176544
-2.556063652038574,4.667779445648193,-0.4837748408317566
-2.5333328247070312,4.705420970916748,-0.49793142080307007
-2.5016837120056152,4.729818820953369,-0.5109013319015503
-2.483935832977295,4.7773590087890625,-0.5260171890258789
-2.4536499977111816,4.8004255294799805,-0.5384254455566406
-2.4289560317993164,4.837769508361816,-0.5523250699043274
-2.397003650665283,4.861018180847168,-0.5646781325340271
-2.3755171298980713,4.9047722816467285,-0.5793682336807251
-2.3555965423583984,4.951771259307861,-0.5943483710289001
-1.5539906024932861,3.3280458450317383,-0.40565764904022217
-1.5201815366744995,3.3171143531799316,-0.41044729948043823
-1.5000358819961548,3.3338961601257324,-0.4184841513633728
-1.4794859886169434,3.3506529331207275,-0.42649948596954346
-1.4872206449508667,3.435263156890869,-0.4432905912399292
-1.4807484149932861,3.4877476692199707,-0.45602282881736755
-1.4531079530715942,3.490021228790283,-0.4621851444244385
-1.4428858757019043,3.5352303981781006,-0.4740084707736969
-1.3972090482711792,3.494229316711426,-0.47411051392555237
-0.9704810380935669,2.4787118434906006,-0.34033825993537903
-0.934931218624115,2.437825918197632,-0.33854249119758606
-0.9012927412986755,2.400242805480957,-0.3370153605937958
-0.8840299844741821,2.4060375690460205,-0.3413894474506378
-0.8693824410438538,2.418975830078125,-0.3467980921268463
-0.852043628692627,2.4245083332061768,-0.35116976499557495
-0.8525415062904358,2.4810643196105957,-0.36292532086372375
-0.8347983956336975,2.4864797592163086,-0.36708518862724304
-0.8230633735656738,2.510132312774658,-0.37397751212120056
-0.8100994825363159,2.5299746990203857,-0.380318820476532
-0.7919958233833313,2.5350639820098877,-0.3845354914665222
-0.7807440161705017,2.562211036682129,-0.3918305039405823
-0.7669247984886169,2.581909418106079,-0.3980276882648468
-0.7530019283294678,2.601492404937744,-0.4042395055294037
-0.7525647878646851,2.6692991256713867,-0.41804301738739014
-0.7398413419723511,2.6962890625,-0.4253831207752228
-0.716436505317688,2.6860239505767822,-0.42679205536842346
-0.7061793804168701,2.7240564823150635,-0.43585917353630066
-0.6804879903793335,2.7021427154541016,-0.4353414475917816
-0.6670092344284058,2.7287631034851074,-0.44256699085235596
-0.6521831154823303,2.7516279220581055,-0.44897744059562683
-0.6392897963523865,2.7857589721679688,-0.4573480784893036
-0.6248323917388916,2.812189817428589,-0.4644513428211212
-0.6051751375198364,2.815922737121582,-0.4678507447242737
-0.5885245203971863,2.834690809249878,-0.4734344482421875
-0.5708661079406738,2.8495869636535645,-0.47836440801620483
-0.5505242347717285,2.853067636489868,-0.48144975304603577
-0.8859104514122009,4.769399166107178,-0.808955729007721
-0.8429621458053589,4.7215962409973145,-0.8046387434005737
-0.7948300242424011,4.63934850692749,-0.7939738035202026
-0.7503893971443176,4.571887016296387,-0.7857627868652344
-0.7089350819587708,4.519320964813232,-0.7800969481468201
-0.6676823496818542,4.458727836608887,-0.7729303240776062
-0.6239437460899353,4.375068664550781,-0.7609767317771912
-0.5850273966789246,4.317739963531494,-0.753553032875061
-0.547501266002655,4.263906955718994,-0.7467004656791687
-0.5131723880767822,4.2288665771484375,-0.7431095242500305
-0.4783608019351959,4.189861297607422,-0.7384676337242126
-0.4425692856311798,4.131471633911133,-0.730017900466919
-0.41374513506889343,4.134045600891113,-0.7323485016822815
-0.3856518268585205,4.144074440002441,-0.7360366582870483
-0.2809373140335083,3.2648847103118896,-0.5813934206962585
-0.25504234433174133,3.2320573329925537,-0.576542317867279
-0.2344425767660141,3.260380506515503,-0.5826076865196228
-0.21323706209659576,3.28472900390625,-0.5880056023597717
-0.19261954724788666,3.324288845062256,-0.5961737036705017
-0.16988565027713776,3.333051919937134,-0.5985338091850281
-0.14680424332618713,3.3455631732940674,-0.6013303995132446
-0.13231758773326874,3.5845787525177,-0.6449012756347656
-0.11554772406816483,3.8581087589263916,-0.6948024034500122
-0.0890275165438652,3.874048948287964,-0.6983721852302551
-0.061567217111587524,3.8438003063201904,-0.6929617524147034
-0.03418978303670883,3.8287394046783447,-0.6903238892555237
-0.0076147764921188354,3.851926565170288,-0.6946147084236145
0.01890675723552704,3.8057327270507812,-0.6864265203475952
0.045547015964984894,3.8209266662597656,-0.6889687776565552
0.07193277776241302,3.812929391860962,-0.6870368719100952
0.09801127016544342,3.7970635890960693,-0.6837230920791626
0.12640082836151123,3.842484474182129,-0.6914668679237366
0.15160998702049255,3.8031976222991943,-0.6839887499809265
0.1821679174900055,3.8906073570251465,-0.6986297369003296
0.21129390597343445,3.9278664588928223,-0.704262912273407
0.24044936895370483,3.957235336303711,-0.7084983587265015
0.2679208815097809,3.947993755340576,-0.7058313488960266
0.2967737317085266,3.965503454208374,-0.7076256275177002
0.32618415355682373,3.9866979122161865,-0.7097535133361816
0.35865676403045654,4.038326263427734,-0.717300534248352
0.39076197147369385,4.078213214874268,-0.7227580547332764
0.42438197135925293,4.121634006500244,-0.728798508644104
0.447929322719574,4.073177814483643,-0.7179713845252991
0.47532767057418823,4.062799453735352,-0.7139179110527039
0.5126158595085144,4.132432460784912,-0.7239184379577637
0.5504291653633118,4.197934150695801,-0.7331519722938538
0.589112401008606,4.25931453704834,-0.7412234544754028
0.6120814085006714,4.210007667541504,-0.7297651767730713
0.6361342072486877,4.171992778778076,-0.7203540802001953
0.7477226853370667,4.685263156890869,-0.8058386445045471
0.7791133522987366,4.67301082611084,-0.8006077408790588
0.8088946342468262,4.653097629547119,-0.7934074401855469
0.8499999046325684,4.69355583190918,-0.7964472770690918
0.886958122253418,4.71103048324585,-0.7956258654594421
0.9250501990318298,4.7319841384887695,-0.7953784465789795
0.9579823613166809,4.726282596588135,-0.7902800440788269
0.9908050298690796,4.720410346984863,-0.7848909497261047
1.0184822082519531,4.687807083129883,-0.7750374674797058
1.0512638092041016,4.681455612182617,-0.7696406245231628
1.082197666168213,4.667378902435303,-0.7629424929618835
1.0948803424835205,4.578162670135498,-0.7435354590415955
1.1359262466430664,4.608863353729248,-0.7436878085136414
1.1648640632629395,4.586684226989746,-0.7352136969566345
0.9626397490501404,3.682918071746826,-0.5864922404289246
0.9852398037910461,3.6657538414001465,-0.5796118974685669
1.0158076286315918,3.678262948989868,-0.5773143768310547
1.0382747650146484,3.66076397895813,-0.5703074336051941
1.060050368309021,3.6392576694488525,-0.5626370906829834
1.0876702070236206,3.6399986743927,-0.5583750009536743
1.1038480997085571,3.6036603450775146,-0.5482127666473389
1.1288337707519531,3.596764326095581,-0.5425935387611389
1.149311900138855,3.5748817920684814,-0.5347090363502502
1.1748263835906982,3.5674386024475098,-0.5289387702941895
1.1995034217834473,3.5601015090942383,-0.5229526162147522
1.214046597480774,3.523315668106079,-0.5127058625221252
1.2412582635879517,3.5229008197784424,-0.5077546238899231
1.2686518430709839,3.522228479385376,-0.5027447938919067
1.290417194366455,3.5069515705108643,-0.49545812606811523
1.3123550415039062,3.4914326667785645,-0.4880078434944153
1.3325414657592773,3.4722187519073486,-0.4801362156867981
1.3597649335861206,3.4708545207977295,-0.4747235178947449
1.36091148853302,3.4045989513397217,-0.460392028093338
1.7019609212875366,4.174994945526123,-0.5579532980918884
1.7344017028808594,4.171118259429932,-0.5506651997566223
1.7576627731323242,4.145603656768799,-0.5405870079994202
1.7865225076675415,4.134322166442871,-0.5323116779327393
1.8117669820785522,4.1159210205078125,-0.5230047702789307
1.8433606624603271,4.111444473266602,-0.5154493451118469
1.876071572303772,4.106254577636719,-0.5075346231460571
1.8948848247528076,4.072997570037842,-0.49625104665756226
1.9195067882537842,4.0539231300354,-0.4866285026073456
1.9508312940597534,4.048619270324707,-0.47864559292793274
1.9724562168121338,4.021883487701416,-0.46801918745040894
1.997362494468689,4.001949310302734,-0.4580445885658264
2.0245726108551025,3.9892830848693848,-0.4489845335483551
2.046741485595703,3.9658617973327637,-0.43864384293556213
2.067495107650757,3.938554048538208,-0.427764356136322
2.0946621894836426,3.9251856803894043,-0.41837114095687866
2.1287262439727783,3.9255223274230957,-0.4103887975215912
2.1301729679107666,3.8636696338653564,-0.39566630125045776
2.132646322250366,3.8053982257843018,-0.381556898355484
2.158374547958374,3.7918171882629395,-0.3719688355922699
2.1955928802490234,3.7983248233795166,-0.3643263280391693
2.198700189590454,3.743393898010254,-0.3504650890827179
2.2210330963134766,3.722059965133667,-0.3397030830383301
2.266138792037964,3.7412850856781006,-0.33271971344947815
2.2633299827575684,3.680009126663208,-0.31837624311447144
2.2933294773101807,3.67147159576416,-0.3085114657878876
2.3343963623046875,3.683326482772827,-0.30026721954345703
2.334383487701416,3.6287097930908203,-0.28633344173431396
2.3684723377227783,3.6260480880737305,-0.27633094787597656
2.40989351272583,3.6369550228118896,-0.26726585626602173
2.4210827350616455,3.6021649837493896,-0.2547213137149811
2.437610149383545,3.572943925857544,-0.24212071299552917
2.4749746322631836,3.5764503479003906,-0.2315448522567749
2.4898154735565186,3.5478405952453613,-0.21883666515350342
2.505675792694092,3.518268585205078,-0.2055327445268631
2.555708885192871,3.540720224380493,-0.19522453844547272
2.2431421279907227,3.0641820430755615,-0.1582423597574234
2.180018901824951,2.9367334842681885,-0.14091941714286804
