X,Y,Z
-0.8558844923973083,1.4647272825241089,0.15056675672531128
-0.8694435358047485,1.4660261869430542,0.14880403876304626
-0.8835740089416504,1.466909408569336,0.14688551425933838
-0.8857465982437134,1.447638988494873,0.1429297924041748
-0.8954222798347473,1.4419405460357666,0.14021934568881989
-0.9006227850914001,1.4297611713409424,0.13691596686840057
-0.889619767665863,1.3908952474594116,0.13096320629119873
-0.9162523150444031,1.4110605716705322,0.13055942952632904
-0.9082062840461731,1.3793569803237915,0.12529776990413666
-0.9131820201873779,1.366976261138916,0.12174203246831894
-2.4162135124206543,3.563246965408325,0.3107178211212158
-2.4394640922546387,3.548069953918457,0.30261531472206116
-1.3774069547653198,1.9475233554840088,0.15808452665805817
-1.3191841840744019,1.873164415359497,-0.09334485232830048
-1.233912467956543,1.7801165580749512,-0.09345558285713196
-1.253697395324707,1.8652788400650024,-0.10713498294353485
-1.1986027956008911,1.812628149986267,-0.10841930657625198
-1.2173172235488892,1.8700528144836426,-0.11607113480567932
-1.2164826393127441,1.8981636762619019,-0.12190817296504974
-1.6804137229919434,2.797349452972412,-0.20218689739704132
-1.5836788415908813,2.722342014312744,-0.2067129760980606
-0.8436684608459473,1.475032925605774,-0.11461502313613892
-1.4882158041000366,2.6458842754364014,-0.21016493439674377
-1.4334338903427124,2.5912458896636963,-0.21020931005477905
-1.3718301057815552,2.5224201679229736,-0.2087557464838028
-1.334903359413147,2.4976649284362793,-0.21075011789798737
-1.2900866270065308,2.454899787902832,-0.2109372615814209
-1.2281185388565063,2.377012014389038,-0.20787930488586426
-1.1946098804473877,2.3544116020202637,-0.20946276187896729
-1.1566983461380005,2.3208024501800537,-0.20988576114177704
-1.130068302154541,2.30754017829895,-0.21197348833084106
-1.095064401626587,2.276569128036499,-0.21232838928699493
-1.0551927089691162,2.234851360321045,-0.2115008383989334
-1.0211389064788818,2.2031712532043457,-0.2114679217338562
-0.9860715270042419,2.167545795440674,-0.2109411358833313
-0.9563878178596497,2.142180919647217,-0.2112249732017517
-0.9346595406532288,2.13444447517395,-0.21313561499118805
-0.896405041217804,2.087113857269287,-0.21098509430885315
-0.8696892857551575,2.064350128173828,-0.2111838459968567
-0.8429225087165833,2.0414905548095703,-0.21130535006523132
-0.8180118799209595,2.0219645500183105,-0.21160608530044556
-0.7835449576377869,1.976838231086731,-0.20912837982177734
-0.7612313628196716,1.9602468013763428,-0.20956338942050934
-0.7404990196228027,1.947107195854187,-0.21029527485370636
-0.7235821485519409,1.9448816776275635,-0.21213077008724213
-0.7043703198432922,1.9351097345352173,-0.213088259100914
-0.6556025147438049,1.8409054279327393,-0.20460593700408936
-0.6554402709007263,1.881881833076477,-0.21109041571617126
-0.6369600892066956,1.8715564012527466,-0.21170932054519653
-0.6135334968566895,1.8463951349258423,-0.21064908802509308
-0.600585401058197,1.8503974676132202,-0.21283233165740967
-0.5829614996910095,1.8394893407821655,-0.21329151093959808
-0.5619229078292847,1.8173609972000122,-0.2123129963874817
-0.5445268154144287,1.8062055110931396,-0.21254853904247284
-0.5274150371551514,1.7948702573776245,-0.21273642778396606
-0.5082428455352783,1.7759541273117065,-0.21201813220977783
-0.48951733112335205,1.7568281888961792,-0.21117278933525085
-0.4699614346027374,1.7338296175003052,-0.20971976220607758
-0.455698162317276,1.7294052839279175,-0.21049845218658447
-0.4416845142841339,1.724827527999878,-0.21123987436294556
-0.4275389611721039,1.720189094543457,-0.21199652552604675
-0.4135819375514984,1.715433955192566,-0.21257276833057404
-0.39615878462791443,1.6954731941223145,-0.21122488379478455
-0.3842398524284363,1.6980334520339966,-0.21267180144786835
-0.37404459714889526,1.708066701889038,-0.21506236493587494
-0.3602517247200012,1.702925682067871,-0.21552224457263947
-0.3428218364715576,1.6786755323410034,-0.21340009570121765
-0.3279845416545868,1.6656811237335205,-0.2126968502998352
-0.31925928592681885,1.6830015182495117,-0.2158641815185547
-0.30613380670547485,1.677403211593628,-0.21610666811466217
-0.2901603877544403,1.6564980745315552,-0.2142556607723236
-0.28108811378479004,1.673647403717041,-0.21725814044475555
-0.26937034726142883,1.6754400730133057,-0.2182822972536087
-0.25534236431121826,1.6618260145187378,-0.21729883551597595
-0.24151436984539032,1.648101806640625,-0.21628926694393158
-0.22763653099536896,1.6343259811401367,-0.21509136259555817
-0.21719761192798615,1.6434545516967773,-0.2169058471918106
-0.2047732174396515,1.6371369361877441,-0.21668937802314758
-0.19336862862110138,1.6384177207946777,-0.21748554706573486
-0.1793740689754486,1.6165368556976318,-0.2151365727186203
-0.16687504947185516,1.6061170101165771,-0.21418766677379608
-0.1561843901872635,1.6148924827575684,-0.2158166468143463
-0.14426027238368988,1.6081478595733643,-0.21537142992019653
-0.1337273269891739,1.6167497634887695,-0.21699143946170807
-0.12245778739452362,1.6175816059112549,-0.21744346618652344
-0.1106395348906517,1.610620141029358,-0.21678856015205383
-0.09921512007713318,1.6113117933273315,-0.21717792749404907
-0.0875902771949768,1.6041799783706665,-0.21651610732078552
-0.0757010206580162,1.5892318487167358,-0.21480537950992584
-0.06461793929338455,1.5896955728530884,-0.2149936854839325
-0.053804606199264526,1.59782075881958,-0.2162189930677414
-0.0420650988817215,1.5826588869094849,-0.21430540084838867
-0.031357891857624054,1.5983697175979614,-0.21658016741275787
-0.020139064639806747,1.5907901525497437,-0.21566390991210938
-0.009010386653244495,1.5831539630889893,-0.21458770334720612
0.002017510822042823,1.59092378616333,-0.21561019122600555
0.013222006149590015,1.5831316709518433,-0.21453382074832916
0.02435797080397606,1.5907456874847412,-0.2155560404062271
0.03473537042737007,1.5595951080322266,-0.21123696863651276
0.04647393897175789,1.590301275253296,-0.21520192921161652
0.05725432187318802,1.5822334289550781,-0.2139272391796112
0.06891287118196487,1.5972983837127686,-0.2157900333404541
0.08019327372312546,1.5968033075332642,-0.2155567705631256
0.09038520604372025,1.5807995796203613,-0.21309228241443634
0.10084933042526245,1.572465181350708,-0.21162647008895874
0.11286275088787079,1.5872317552566528,-0.21327784657478333
0.12449634820222855,1.5941864252090454,-0.21388459205627441
0.13710011541843414,1.6087558269500732,-0.2155083566904068
0.14753533899784088,1.60014009475708,-0.213845357298851
0.157870814204216,1.5914552211761475,-0.21218764781951904
0.17055998742580414,1.6058069467544556,-0.2136087566614151
0.18172624707221985,1.604665994644165,-0.21297398209571838
0.19399303197860718,1.6111247539520264,-0.21328899264335632
0.20416633784770966,1.6021677255630493,-0.2114483267068863
0.21783827245235443,1.6200183629989624,-0.21315117180347443
0.2291194498538971,1.618571400642395,-0.2123137265443802
0.24382224678993225,1.640034794807434,-0.21448197960853577
0.25420787930488586,1.630743384361267,-0.2125055193901062
0.267986923456192,1.6443747282028198,-0.21345868706703186
0.27809518575668335,1.6349703073501587,-0.2114259898662567
0.2921834886074066,1.6483911275863647,-0.2123485505580902
0.3064855933189392,1.6616936922073364,-0.2132502943277359
0.3194427788257599,1.6673020124435425,-0.21299582719802856
0.33418628573417664,1.6803827285766602,-0.21366290748119354
0.34429752826690674,1.6705851554870605,-0.21143828332424164
0.35432881116867065,1.6607182025909424,-0.20922060310840607
0.35918113589286804,1.6280893087387085,-0.20411883294582367
0.37730273604393005,1.6559922695159912,-0.20649266242980957
0.39515364170074463,1.6799043416976929,-0.20831933617591858
0.40230515599250793,1.6584386825561523,-0.20453156530857086
0.41010352969169617,1.6407170295715332,-0.20123973488807678
0.4340256154537201,1.6868653297424316,-0.20565488934516907
0.44962966442108154,1.6990301609039307,-0.20584087073802948
0.4677167236804962,1.718483567237854,-0.20686277747154236
0.4891253411769867,1.749009370803833,-0.20919643342494965
0.5055975317955017,1.760684609413147,-0.20922349393367767
0.5264926552772522,1.7871683835983276,-0.21085558831691742
0.5432999134063721,1.7985832691192627,-0.210680291056633
0.5606558322906494,1.8097456693649292,-0.21041560173034668
0.5791869759559631,1.8245092630386353,-0.21057374775409698
0.59898442029953,1.842862606048584,-0.21101826429367065
0.6140894889831543,1.8463190793991089,-0.20969274640083313
0.6368905901908875,1.8716809749603271,-0.2108152210712433
0.6563425660133362,1.8857793807983398,-0.2106206715106964
0.6748759746551514,1.8959914445877075,-0.20990093052387238
0.6931762099266052,1.9061907529830933,-0.20909307897090912
0.7116612792015076,1.9162236452102661,-0.20824503898620605
0.7333183884620667,1.9332728385925293,-0.20809580385684967
0.7678666710853577,1.982743263244629,-0.21136979758739471
0.7873783707618713,1.9920985698699951,-0.2101474404335022
0.8169493675231934,2.026630163192749,-0.2115667760372162
0.839935302734375,2.042757034301758,-0.21095918118953705
0.8782835006713867,2.0945045948028564,-0.21394185721874237
0.8972514271736145,2.0994536876678467,-0.21198880672454834
0.9242233037948608,2.1220242977142334,-0.21170230209827423
0.9547052383422852,2.1514365673065186,-0.21203093230724335
0.9841901659965515,2.176920175552368,-0.21187351644039154
1.0186702013015747,2.2128419876098633,-0.21258880198001862
1.0617492198944092,2.2661149501800537,-0.21480973064899445
1.0877214670181274,2.280014753341675,-0.2131003737449646
1.115576148033142,2.2971932888031006,-0.21165932714939117
1.1485683917999268,2.3247318267822266,-0.21104562282562256
1.1939806938171387,2.3764095306396484,-0.2124713510274887
1.228092074394226,2.4031410217285156,-0.21147501468658447
1.2556679248809814,2.415580987930298,-0.20910660922527313
1.2759788036346436,2.4140989780426025,-0.2053951621055603
1.3400954008102417,2.495062828063965,-0.20860862731933594
1.3686199188232422,2.506577968597412,-0.20573203265666962
1.3143024444580078,2.3678324222564697,-0.1906699538230896
1.3109912872314453,2.3253841400146484,-0.1835622936487198
1.3540349006652832,2.364032745361328,-0.18275007605552673
1.4038708209991455,2.4121310710906982,-0.18242748081684113
1.4381834268569946,2.433037042617798,-0.17988994717597961
1.4583039283752441,2.430483341217041,-0.17553779482841492
1.4648805856704712,2.404083251953125,-0.1693253517150879
1.4819777011871338,2.3939433097839355,-0.16413523256778717
1.533033847808838,2.4405839443206787,-0.16279980540275574
1.5620936155319214,2.4502387046813965,-0.15875305235385895
1.5982983112335205,2.469062328338623,-0.15504397451877594
1.4004682302474976,2.1326777935028076,-0.12962111830711365
1.4127501249313354,2.1201765537261963,-0.12439338862895966
1.4297443628311157,2.1137659549713135,-0.11938729882240295
1.4435750246047974,2.104631185531616,-0.11421887576580048
1.4508968591690063,2.0856268405914307,-0.10839875787496567
1.442901611328125,2.043851137161255,-0.1012590155005455
1.433459758758545,2.002939462661743,-0.09423882514238358
1.4516844749450684,1.9996882677078247,-0.08881254494190216
1.469588279724121,1.9965239763259888,-0.08323192596435547
2.211390733718872,3.120786190032959,0.23432590067386627
2.194793939590454,3.146117925643921,0.24338111281394958
2.1592817306518555,3.146345376968384,0.25032365322113037
2.1366350650787354,3.1611599922180176,0.25788775086402893
2.112773895263672,3.1765477657318115,0.26529210805892944
2.2440831661224365,3.430053234100342,0.29289886355400085
3.110384702682495,4.827124118804932,0.42045342922210693
1.6250227689743042,2.562656879425049,0.22748620808124542
1.6173337697982788,2.5946168899536133,0.23461128771305084
1.5865548849105835,2.585731267929077,0.23769263923168182
1.8782877922058105,3.1097095012664795,0.29043203592300415
1.858591079711914,3.130048990249634,0.2967269718647003
1.8488925695419312,3.166849136352539,0.3045695424079895
2.946676015853882,5.1303863525390625,0.50014328956604
2.915458917617798,5.160774230957031,0.5096195936203003
2.887789487838745,5.202202796936035,0.5199849009513855
2.864309310913086,5.2498345375061035,0.53090900182724
2.8347530364990234,5.282726287841797,0.5401279330253601
2.801802635192871,5.312661647796631,0.5490936040878296
2.7281320095062256,5.266992568969727,0.5498248934745789
2.7172982692718506,5.341719150543213,0.5631039142608643
2.7267088890075684,5.45380973815918,0.5802150368690491
2.7329161167144775,5.562786102294922,0.5972083210945129
1.2340681552886963,2.560068130493164,0.2771821916103363
1.2150444984436035,2.5687999725341797,0.2804206311702728
1.1819698810577393,2.5453262329101562,0.28004154562950134
1.175401210784912,2.57796311378479,0.28580549359321594
1.1633340120315552,2.600137233734131,0.290378212928772
1.144199252128601,2.608290433883667,0.29327309131622314
2.5469398498535156,5.925384521484375,0.6708446741104126
2.5220603942871094,5.981712818145752,0.6815682649612427
2.494978666305542,6.034397125244141,0.6919701099395752
2.4648518562316895,6.083799362182617,0.7017989158630371
2.437554121017456,6.14426851272583,0.7127549648284912
2.407364845275879,6.201298713684082,0.7234694957733154
2.3776912689208984,6.253622055053711,0.7334904074668884
2.333855390548706,6.269432067871094,0.7392874360084534
1.986178994178772,5.453546047210693,0.6462995409965515
2.2902538776397705,6.432736396789551,0.765876054763794
2.257866621017456,6.4928483963012695,0.776691734790802
2.2259325981140137,6.548338413238525,0.7868546843528748
2.1898443698883057,6.592577934265137,0.7957278490066528
2.158957004547119,6.655181884765625,0.806763231754303
2.1107685565948486,6.670034408569336,0.8116058707237244
2.0421931743621826,6.621756553649902,0.8088340163230896
1.9806381464004517,6.587204933166504,0.8076182007789612
1.9258968830108643,6.570520401000977,0.8085476756095886
1.8661584854125977,6.534745693206787,0.8071319460868835
1.8070621490478516,6.502528190612793,0.8057069778442383
1.7512295246124268,6.481143474578857,0.8054884672164917
1.6900348663330078,6.44075345993042,0.802961528301239
0.8306697010993958,3.25789737701416,0.40737825632095337
1.5785621404647827,6.376187801361084,0.7997174859046936
0.8059304356575012,3.3554131984710693,0.4220975339412689
1.4716860055923462,6.325224876403809,0.7975648045539856
1.4188700914382935,6.305087566375732,0.7969669699668884
1.3649823665618896,6.272942543029785,0.7948260307312012
1.3116563558578491,6.236393451690674,0.7921035885810852
1.2596778869628906,6.203212261199951,0.7898203134536743
1.1990227699279785,6.124044418334961,0.781494677066803
1.1575157642364502,6.147487163543701,0.785905122756958
1.1138094663619995,6.155245780944824,0.7883275747299194
1.0537936687469482,6.067183971405029,0.778484046459198
1.0211018323898315,6.131408214569092,0.788190484046936
0.9668273329734802,6.065352439880371,0.7811836004257202
0.9212495684623718,6.056488513946533,0.7813572883605957
0.873938262462616,6.031945705413818,0.7791812419891357
0.8202135562896729,5.957133769989014,0.7705301642417908
0.7717888951301575,5.912583827972412,0.7658045887947083
0.7349115610122681,5.9521942138671875,0.7720032334327698
0.5868666768074036,5.041078567504883,0.6547660827636719
0.5594125986099243,5.121977806091309,0.6660857796669006
0.5315925478935242,5.206592082977295,0.6776176691055298
0.3909207880496979,4.114836692810059,0.5359726548194885
0.35935336351394653,4.086501121520996,0.532745897769928
0.33935680985450745,4.1930460929870605,0.5471343398094177
0.3079330325126648,4.172059535980225,0.5449275970458984
0.2760165333747864,4.131499767303467,0.5400684475898743
0.2509721517562866,4.199009895324707,0.5490769743919373
0.4102959930896759,7.778475284576416,1.0175294876098633
0.3552117645740509,7.765574932098389,1.0162793397903442
0.299060583114624,7.736828327178955,1.0130083560943604
0.2438804656267166,7.696037769317627,1.0081968307495117
0.18963904678821564,7.666480541229248,1.0048223733901978
0.13589595258235931,7.652124404907227,1.0028107166290283
0.08219530433416367,7.62190055847168,0.9987688660621643
0.02803424932062626,7.59517765045166,0.9952347278594971
-0.024560263380408287,7.556454658508301,0.9901775121688843
-0.0770132765173912,7.548353672027588,0.9891802668571472
-0.12902264297008514,7.520525932312012,0.9856454133987427
-0.18019616603851318,7.480812072753906,0.9799507260322571
-0.23137709498405457,7.456243515014648,0.9762234091758728
-0.28399258852005005,7.45451545715332,0.9755277633666992
-0.33753448724746704,7.491145610809326,0.9799041748046875
-0.28152477741241455,5.411520957946777,0.707604706287384
-0.3195825517177582,5.417232036590576,0.7081180214881897
-0.35610246658325195,5.399538040161133,0.7052476406097412
-0.3923400640487671,5.373854160308838,0.7012137174606323
-0.4295133054256439,5.371140003204346,0.7002240419387817
-0.4616924226284027,5.310275554656982,0.6916925311088562
-0.43373560905456543,4.616684436798096,0.6008564233779907
-0.464991956949234,4.6059651374816895,0.5989996194839478
-0.49741312861442566,4.602719306945801,0.5978987812995911
-0.5276954174041748,4.587812423706055,0.5951298475265503
-0.5564373135566711,4.561161994934082,0.5908706188201904
-0.5859735012054443,4.5420002937316895,0.5876125693321228
-0.6185500621795654,4.545663833618164,0.587333619594574
-0.6474369168281555,4.518322467803955,0.5830652713775635
-0.6763108372688293,4.498603343963623,0.5796493291854858
-0.7059407830238342,4.486419200897217,0.5769912600517273
-0.7348067164421082,4.470215320587158,0.5738479495048523
-0.7603489756584167,4.434703826904297,0.5682582259178162
-0.7911648154258728,4.4295244216918945,0.5665804147720337
-0.8182505965232849,4.401168346405029,0.5619528293609619
-0.8427388072013855,4.365199089050293,0.5562607645988464
-0.7325348258018494,3.660245895385742,0.4653177857398987
-0.757490336894989,3.6553800106048584,0.4636092185974121
-0.7826009392738342,3.6503045558929443,0.4618876874446869
-0.9603737592697144,4.329970359802246,0.5465950965881348
-0.9922516942024231,4.33099365234375,0.5454742312431335
-1.0202792882919312,4.316789627075195,0.542295515537262
-1.0459725856781006,4.294980049133301,0.5379693508148193
-1.0770750045776367,4.295586109161377,0.5364786982536316
-1.1051325798034668,4.280755519866943,0.5330443382263184
-1.1328637599945068,4.265783786773682,0.5296328663825989
-1.1563962697982788,4.235652923583984,0.5243733525276184
-1.1832269430160522,4.220510005950928,0.5207823514938354
-1.2042299509048462,4.186661720275879,0.5147758722305298
-1.2330422401428223,4.178615093231201,0.5119430422782898
-1.265212059020996,4.181497097015381,0.5104659795761108
-1.290868878364563,4.1618123054504395,0.5062404870986938
-1.3174877166748047,4.145668029785156,0.5024783611297607
-1.3454495668411255,4.137057781219482,0.4993361830711365
-1.3713455200195312,4.120755195617676,0.4952288866043091
-1.4042330980300903,4.126448631286621,0.4938109815120697
-1.427873134613037,4.102283954620361,0.4887818396091461
-1.4564883708953857,4.092601299285889,0.4855068624019623
-1.4765958786010742,4.061013698577881,0.4795280992984772
-1.498451828956604,4.036855220794678,0.47427693009376526
-1.5260653495788574,4.026919364929199,0.47068169713020325
-1.5622016191482544,4.038455009460449,0.4695892333984375
-1.581784725189209,4.006209373474121,0.4633994400501251
-1.6037638187408447,3.981142282485962,0.4580483138561249
-1.6333131790161133,3.9779603481292725,0.4549613893032074
-1.6513429880142212,3.945706844329834,0.448534220457077
-1.6706699132919312,3.916903018951416,0.44253331422805786
-1.7088825702667236,3.93051815032959,0.44127824902534485
-1.7362927198410034,3.9189443588256836,0.43719807267189026
-1.7592098712921143,3.9006643295288086,0.43210604786872864
-1.77427077293396,3.864400625228882,0.42501693964004517
-1.8072481155395508,3.8667399883270264,0.4221752882003784
-1.820936679840088,3.826387405395508,0.414628803730011
-1.8474684953689575,3.814134120941162,0.4101327955722809
-1.8658794164657593,3.788331985473633,0.4039677381515503
-1.8879268169403076,3.7691996097564697,0.3984943628311157
-1.9281071424484253,3.784271001815796,0.39654770493507385
-1.9509848356246948,3.7642838954925537,0.3908865451812744
-1.9874143600463867,3.7721023559570312,0.3879809081554413
-2.001281261444092,3.73883318901062,0.3807469606399536
-2.018869638442993,3.712183713912964,0.37418341636657715
-1.713775396347046,3.098923921585083,0.3089481592178345
-1.7313770055770874,3.08064866065979,0.30374184250831604
-0.833304762840271,1.460482120513916,0.14230769872665405
-0.8584548830986023,1.4821587800979614,0.14269576966762543
-0.8649184107780457,1.4695998430252075,0.13964083790779114
-0.8713704347610474,1.4569483995437622,0.13656455278396606
-0.8808609247207642,1.4514573812484741,0.13412849605083466
-0.8862868547439575,1.439235806465149,0.13107365369796753
-0.888075590133667,1.4200245141983032,0.1272888332605362
-0.9061461687088013,1.4272844791412354,0.12586809694766998
-0.8943864703178406,1.3887948989868164,0.12035612761974335
-0.895107626914978,1.3699781894683838,0.11658629029989243
-0.8982676863670349,1.3541357517242432,0.11299307644367218
-0.9615469574928284,1.4292641878128052,0.11682983487844467
-2.389381170272827,3.50353741645813,0.28033047914505005
-1.5046337842941284,2.172907829284668,0.16961891949176788
-1.3421406745910645,1.9111180305480957,0.14544697105884552
-1.2180613279342651,1.7439537048339844,-0.08481738716363907
-1.3429681062698364,1.9515677690505981,-0.09952650964260101
-1.2973713874816895,1.9162731170654297,-0.10228735953569412
-1.4456813335418701,2.1689400672912598,-0.12058785557746887
-1.1747084856033325,1.8188780546188354,-0.10877048969268799
-1.8062593936920166,2.9820075035095215,-0.20107680559158325
-0.8540340662002563,1.5053906440734863,-0.11172157526016235
-1.5342739820480347,2.7503559589385986,-0.2084709256887436
-1.4746381044387817,2.689418315887451,-0.2080661505460739
-1.4334436655044556,2.658215045928955,-0.20962168276309967
-1.372255563735962,2.588926076889038,-0.20804719626903534
-1.322616696357727,2.539822816848755,-0.2077617198228836
-1.2865056991577148,2.514265775680542,-0.20921757817268372
-1.2461233139038086,2.477623462677002,-0.20954416692256927
-1.1956400871276855,2.4197614192962646,-0.20788708329200745
-1.160727858543396,2.39315128326416,-0.2087956666946411
-1.1319787502288818,2.3763980865478516,-0.2103726714849472
-1.0988342761993408,2.3486649990081787,-0.2108655422925949
-1.0625072717666626,2.313692331314087,-0.2105557769536972
-1.0313656330108643,2.2890548706054688,-0.21106868982315063
-0.9931027293205261,2.2461533546447754,-0.2097545862197876
-0.9662278294563293,2.227874517440796,-0.2106809914112091
-0.9289757609367371,2.184288501739502,-0.20900745689868927
-0.9027208685874939,2.165501594543457,-0.20959824323654175
-0.8726674318313599,2.1355342864990234,-0.20900504291057587
-0.8576842546463013,2.141315221786499,-0.21186067163944244
-0.8308237195014954,2.1182100772857666,-0.21179737150669098
-0.797477126121521,2.076650381088257,-0.20972737669944763
-0.7772683501243591,2.0674259662628174,-0.21084582805633545
-0.7426421046257019,2.0178186893463135,-0.20776231586933136
-0.7257789969444275,2.0154316425323486,-0.20943805575370789
-0.7007842063903809,1.9910709857940674,-0.20875082910060883
-0.6790264844894409,1.9737073183059692,-0.20872007310390472
-0.663983941078186,1.974481463432312,-0.21056371927261353
-0.6380191445350647,1.9419232606887817,-0.20882189273834229
-0.621803343296051,1.9387953281402588,-0.21007193624973297
-0.5984634757041931,1.9133585691452026,-0.20891262590885162
-0.5703118443489075,1.8689817190170288,-0.20557880401611328
-0.5550402402877808,1.8652578592300415,-0.20667658746242523
-0.5462045669555664,1.8838435411453247,-0.21015973389148712
-0.5222848057746887,1.850093960762024,-0.20774061977863312
-0.5112881064414978,1.8610234260559082,-0.21031953394412994
-0.496021032333374,1.8569148778915405,-0.2112230658531189
-0.47421565651893616,1.8263309001922607,-0.20904496312141418
-0.45935139060020447,1.8219444751739502,-0.20970724523067474
-0.44274279475212097,1.8098952770233154,-0.20948223769664764
-0.4282929599285126,1.805219054222107,-0.21009068191051483
-0.4085268974304199,1.7777756452560425,-0.2080526053905487
-0.39603835344314575,1.7804408073425293,-0.20940473675727844
-0.37939712405204773,1.7640684843063354,-0.2084505558013916
-0.3669951260089874,1.7665400505065918,-0.20971961319446564
-0.35164061188697815,1.7536855936050415,-0.20916198194026947
-0.34215760231018066,1.7712162733078003,-0.21225593984127045
-0.32403865456581116,1.7429351806640625,-0.2096634954214096
-0.313155859708786,1.7526772022247314,-0.21164387464523315
-0.29565417766571045,1.7241120338439941,-0.20899444818496704
-0.2823823392391205,1.718349575996399,-0.2090986669063568
-0.26774781942367554,1.704869031906128,-0.20821695029735565
-0.25808024406433105,1.7219427824020386,-0.21093766391277313
-0.2448846995830536,1.7159310579299927,-0.21084435284137726
-0.23189909756183624,1.7098054885864258,-0.2107354998588562
-0.21851618587970734,1.699737787246704,-0.21014367043972015
-0.20803478360176086,1.7126810550689697,-0.21228918433189392
-0.19539625942707062,1.7101855278015137,-0.21246756613254547
-0.18261708319187164,1.7037198543548584,-0.21215079724788666
-0.1707525998353958,1.7048702239990234,-0.21278877556324005
-0.15816201269626617,1.6982187032699585,-0.2124609798192978
-0.14697153866291046,1.7069469690322876,-0.21389168500900269
-0.13421224057674408,1.7001649141311646,-0.213372141122818
-0.12235260754823685,1.7010043859481812,-0.21381151676177979
-0.11051611602306366,1.7017592191696167,-0.21424983441829681
-0.09778861701488495,1.686957597732544,-0.21271125972270966
-0.08602355420589447,1.6875686645507812,-0.21294739842414856
-0.07404352724552155,1.6881064176559448,-0.21318775415420532
-0.06257125735282898,1.6962970495224,-0.21440260112285614
-0.05007535219192505,1.6734193563461304,-0.2116989642381668
-0.03894919157028198,1.6969525814056396,-0.2148069590330124
-0.027006862685084343,1.6894278526306152,-0.21386688947677612
-0.014822695404291153,1.666320562362671,-0.21096470952033997
-0.003261152422055602,1.6741288900375366,-0.2119862586259842
0.008369418792426586,1.6741060018539429,-0.21202658116817474
0.020076164975762367,1.6817668676376343,-0.21293553709983826
0.03175600990653038,1.6816070079803467,-0.21277712285518646
0.043434593826532364,1.6813658475875854,-0.21261869370937347
0.05506691709160805,1.6732903718948364,-0.2114783376455307
0.06731902807950974,1.6883766651153564,-0.21327711641788483
0.07868208736181259,1.6801649332046509,-0.21198970079421997
0.09076324850320816,1.687362551689148,-0.2126135230064392
0.10155181586742401,1.6712605953216553,-0.2103126347064972
0.11546307802200317,1.701481819152832,-0.21384453773498535
0.12672565877437592,1.6929513216018677,-0.2125169187784195
0.13782651722431183,1.6843750476837158,-0.2109968513250351
0.15155766904354095,1.7066144943237305,-0.21334321796894073
0.16267473995685577,1.697872281074524,-0.2118217647075653
0.17310819029808044,1.6813231706619263,-0.20933450758457184
0.18565191328525543,1.687859058380127,-0.20969632267951965
0.19735006988048553,1.686623454093933,-0.20895348489284515
0.21094901859760284,1.700697422027588,-0.2101120501756668
0.22378702461719513,1.7069700956344604,-0.21030698716640472
0.23852886259555817,1.724642276763916,-0.21189731359481812
0.2505047619342804,1.723048210144043,-0.2110440880060196
0.2624325752258301,1.7213876247406006,-0.2100977599620819
0.27129414677619934,1.7004941701889038,-0.2068222612142563
0.28758618235588074,1.7254600524902344,-0.2091277688741684
0.28962454199790955,1.6662087440490723,-0.20124880969524384
0.30411335825920105,1.67952561378479,-0.20201557874679565
0.323594868183136,1.719456434249878,-0.20593470335006714
0.33401405811309814,1.7096929550170898,-0.20389114320278168
0.34439659118652344,1.6998504400253296,-0.20184960961341858
0.3562311828136444,1.697545051574707,-0.2007080614566803
0.3665110766887665,1.687569260597229,-0.19849815964698792
0.3968600928783417,1.7684582471847534,-0.20695842802524567
0.4056394398212433,1.7506909370422363,-0.20383626222610474
0.4295748174190521,1.7970551252365112,-0.2081671953201294
0.44575297832489014,1.8092759847640991,-0.2084459662437439
0.4622495770454407,1.8213409185409546,-0.20857958495616913
0.47675520181655884,1.8258051872253418,-0.20785880088806152
0.49351903796195984,1.8376151323318481,-0.20795337855815887
0.509437084197998,1.8455376625061035,-0.20760032534599304
0.5306301116943359,1.872069001197815,-0.2091912031173706
0.5459070801734924,1.8759682178497314,-0.2081819325685501
0.5655755400657654,1.89467191696167,-0.20881754159927368
0.5833451747894287,1.905739188194275,-0.20858347415924072
0.6024039387702942,1.9203808307647705,-0.20867827534675598
0.6203281879425049,1.9312185049057007,-0.2082405537366867
0.6411128640174866,1.9492048025131226,-0.20852148532867432
0.6596832275390625,1.959634780883789,-0.20797467231750488
0.6796955466270447,1.9735760688781738,-0.20778261125087738
0.6984182596206665,1.9837582111358643,-0.207056924700737
0.7198874950408936,2.0011157989501953,-0.20703813433647156
0.7498584389686584,2.040107011795044,-0.209182471036911
0.7643424272537231,2.034975528717041,-0.20672689378261566
0.7881482839584351,2.0553090572357178,-0.20681187510490417
0.8220043182373047,2.100847005844116,-0.20930249989032745
0.8436490297317505,2.113468647003174,-0.2084389328956604
0.8701431751251221,2.1366093158721924,-0.20854097604751587
0.8971861600875854,2.1594154834747314,-0.20849710702896118
0.9224770665168762,2.178622245788574,-0.20800566673278809
0.965058445930481,2.236879825592041,-0.21115076541900635
0.988554835319519,2.2481625080108643,-0.2097131311893463
1.0169979333877563,2.2698967456817627,-0.20920830965042114
1.0569003820419312,2.3162426948547363,-0.2107374221086502
1.0824638605117798,2.330491304397583,-0.2093127816915512
1.12202787399292,2.3724584579467773,-0.2102278769016266
1.1453520059585571,2.3788981437683105,-0.20792576670646667
1.1511119604110718,2.350437879562378,-0.20250581204891205
1.1828687191009521,2.3741612434387207,-0.2015237659215927
1.2751951217651367,2.5155446529388428,-0.21024730801582336
1.2945021390914917,2.510380744934082,-0.20652638375759125
1.3674309253692627,2.6089284420013428,-0.21111878752708435
1.3850493431091309,2.5999608039855957,-0.20685544610023499
1.371656894683838,2.532299518585205,-0.19789232313632965
1.3499349355697632,2.4512457847595215,-0.18799370527267456
1.3396592140197754,2.394857883453369,-0.18019115924835205
1.3867888450622559,2.440201759338379,-0.1799689084291458
1.4213616847991943,2.461155414581299,-0.17773962020874023
1.4339784383773804,2.44511079788208,-0.17277739942073822
1.4464777708053589,2.4289839267730713,-0.16775310039520264
1.461363673210144,2.4158213138580322,-0.16283252835273743
1.480025291442871,2.4093263149261475,-0.15834477543830872
1.528888463973999,2.452784299850464,-0.1570352166891098
1.537259578704834,2.4294159412384033,-0.15123657882213593
1.5017722845077515,2.3366894721984863,-0.14111436903476715
1.3870677947998047,2.1277263164520264,-0.12455429881811142
1.4207446575164795,2.147887945175171,-0.12161149829626083
1.422690987586975,2.1187238693237305,-0.11570237576961517
1.4342223405838013,2.106471538543701,-0.1107630804181099
1.4353175163269043,2.0775842666625977,-0.10475222766399384
1.4541287422180176,2.0742549896240234,-0.09996451437473297
1.4447826147079468,2.0333123207092285,-0.09342370927333832
1.445003628730774,2.0045905113220215,-0.08724086731672287
1.472095251083374,2.0140981674194336,-0.0826323926448822
1.471205234527588,1.9858893156051636,-0.07634080201387405
2.2396225929260254,3.135835886001587,0.21307699382305145
2.196014404296875,3.1231632232666016,0.21913330256938934
2.1673474311828613,3.133090019226074,0.2265155017375946
2.156200647354126,3.1638689041137695,0.23483790457248688
2.1365139484405518,3.1860523223876953,0.242468923330307
2.1251611709594727,3.221156358718872,0.25096073746681213
3.13179612159729,4.820992469787598,0.38377586007118225
1.6475132703781128,2.5777337551116943,0.2093707174062729
1.6318681240081787,2.59645938873291,0.21500226855278015
1.5972260236740112,2.580939769744873,0.2174338400363922
1.730641484260559,2.841498374938965,0.24340525269508362
1.8667463064193726,3.118361473083496,0.2714550793170929
1.8578062057495117,3.154919147491455,0.2787606716156006
1.831708550453186,3.1606924533843994,0.28323128819465637
2.9112207889556885,5.108921527862549,0.4639856517314911
2.887904644012451,5.157140731811523,0.4744468331336975
2.8783998489379883,5.228498458862305,0.4869615137577057
2.8101329803466797,5.1896653175354,0.489010214805603
2.649484634399414,4.979214668273926,0.47436702251434326
2.6121699810028076,4.998230457305908,0.48127737641334534
2.5655832290649414,4.995428085327148,0.4858838617801666
2.5404748916625977,5.033770561218262,0.49448075890541077
2.5474088191986084,5.138440132141113,0.5094574093818665
1.247859001159668,2.564263343811035,0.25647836923599243
1.2291114330291748,2.5729920864105225,0.25956910848617554
1.204445481300354,2.5671546459198,0.26110339164733887
1.1831547021865845,2.5681731700897217,0.2633328437805176
1.1606937646865845,2.569577217102051,0.2654498517513275
1.1511878967285156,2.59909987449646,0.2704600989818573
2.5596201419830322,5.891520977020264,0.6173766255378723
2.535048723220825,5.948017120361328,0.6275759935379028
2.513753890991211,6.015444755554199,0.6389071345329285
2.4805967807769775,6.062183380126953,0.6478486657142639
2.449141025543213,6.112042427062988,0.6571274995803833
2.420205593109131,6.164727210998535,0.6666386127471924
2.395218849182129,6.228033065795898,0.677348792552948
2.3593485355377197,6.266031265258789,0.6852299571037292
1.9907902479171753,5.407586097717285,0.5943529009819031
2.292285919189453,6.368232727050781,0.7034279108047485
2.274374485015869,6.460641384124756,0.7170950174331665
2.244375705718994,6.519874572753906,0.727143406867981
2.2122154235839844,6.57538366317749,0.7367879748344421
2.1807665824890137,6.642599582672119,0.7473992109298706
2.136248826980591,6.668750286102295,0.7534063458442688
2.0783329010009766,6.649886131286621,0.7543076276779175
2.0183470249176025,6.61911678314209,0.7537990808486938
1.9577842950820923,6.5841193199157715,0.7528036236763
1.895702838897705,6.545215606689453,0.7509403228759766
1.8383643627166748,6.524792671203613,0.7511084079742432
1.7812327146530151,6.499919891357422,0.7507321238517761
1.724828839302063,6.470489978790283,0.7497685551643372
1.665938377380371,6.429337978363037,0.7474511861801147
0.8193719387054443,3.2559854984283447,0.37972989678382874
1.5563071966171265,6.380058765411377,0.7460594177246094
0.7981687784194946,3.3766205310821533,0.395896852016449
1.4375529289245605,6.279773235321045,0.7382445931434631
1.3980042934417725,6.3082098960876465,0.7435533404350281
1.3336684703826904,6.222580909729004,0.7354318499565125
1.2851150035858154,6.212645053863525,0.7360003590583801
1.233350157737732,6.1832733154296875,0.7339730262756348
1.1820045709609985,6.153496265411377,0.7319186329841614
1.125367283821106,6.088869094848633,0.7257093787193298
1.078211784362793,6.06953239440918,0.7248963117599487
1.0410547256469727,6.111147403717041,0.7314276099205017
0.9886656403541565,6.060647010803223,0.7265915870666504
0.9457705020904541,6.067265033721924,0.7284545302391052
0.9028310775756836,6.073578834533691,0.7303174138069153
0.8521436452865601,6.021920680999756,0.725223183631897
0.8001123070716858,5.958396911621094,0.7187272310256958
0.7552122473716736,5.936670303344727,0.7172674536705017
0.614983856678009,5.121457099914551,0.6194742918014526
0.5762426853179932,5.102411270141602,0.6177647709846497
0.5443840622901917,5.144777297973633,0.6235223412513733
0.40513601899147034,4.102450370788574,0.49771806597709656
0.3739459812641144,4.081940174102783,0.4957788586616516
0.3524101972579956,4.1654839515686035,0.5065001845359802
0.3244297206401825,4.183238506317139,0.509009838104248
0.2950957119464874,4.185348033905029,0.5095198154449463
0.2657480835914612,4.187251567840576,0.5100297331809998
0.23642157018184662,4.196714401245117,0.5114902853965759
0.38366445899009705,7.7728590965271,0.9479506015777588
0.3280235528945923,7.736481666564941,0.9441599249839783
0.2735441327095032,7.723013401031494,0.9428092837333679
0.21863871812820435,7.689821720123291,0.9387956857681274
0.16338975727558136,7.660137176513672,0.9352573752403259
0.10944361239671707,7.622289180755615,0.930765688419342
0.05637248605489731,7.618959903717041,0.9305331707000732
0.003425905015319586,7.5958733558654785,0.9279316663742065
-0.049116943031549454,7.549191474914551,0.9221990704536438
-0.1023029014468193,7.533199787139893,0.9198712706565857
-0.15390047430992126,7.497469902038574,0.9151870608329773
-0.20583249628543854,7.488517761230469,0.9138170480728149
-0.25668662786483765,7.455959320068359,0.9096125960350037
-0.30846133828163147,7.4540486335754395,0.9091914296150208
-0.25794845819473267,5.33710241317749,0.6507441997528076
-0.3003927171230316,5.424304008483887,0.6608033180236816
-0.3373994827270508,5.414453029632568,0.6590721011161804
-0.3737485110759735,5.396613121032715,0.656402051448822
-0.40827062726020813,5.355316638946533,0.6509130597114563
-0.4455106258392334,5.352442741394043,0.6501282453536987
-0.4250318109989166,4.70426607131958,0.5709723830223083
-0.450274795293808,4.628023147583008,0.5609868764877319
-0.48056867718696594,4.609509468078613,0.558038592338562
-0.5093424916267395,4.579234600067139,0.553699254989624
-0.5420618653297424,4.583418369293213,0.5535508394241333
-0.5725013613700867,4.564212799072266,0.5505951642990112
-0.6021446585655212,4.54487943649292,0.5476433038711548
-0.6301002502441406,4.517765522003174,0.5434246063232422
-0.6576653122901917,4.4904866218566895,0.539222776889801
-0.68964022397995,4.49370813369751,0.5387105941772461
-0.7201675176620483,4.481236457824707,0.5363160967826843
-0.7506815195083618,4.472465991973877,0.5344077348709106
-0.7777513265609741,4.44438362121582,0.5302128195762634
-0.8025288581848145,4.408647060394287,0.5247687101364136
-0.8297832012176514,4.388019561767578,0.5211578607559204
-0.8545519709587097,4.355800628662109,0.5162056684494019
-0.7468270063400269,3.669245958328247,0.4338800013065338
-0.7707628607749939,3.6565423011779785,0.43145301938056946
-0.9408459663391113,4.314803123474121,0.5080224871635437
-0.9796123504638672,4.350190162658691,0.5107591152191162
-1.006563425064087,4.332335472106934,0.5072603225708008
-1.0294443368911743,4.295290946960449,0.5015213489532471
-1.0500397682189941,4.2505879402160645,0.49493247270584106
-1.0795905590057373,4.243432521820068,0.49275368452072144
-1.110900640487671,4.2436323165893555,0.4913562536239624
-1.1477186679840088,4.26628303527832,0.4923139214515686
-1.1709587574005127,4.236095428466797,0.487163245677948
-1.1978291273117065,4.220795631408691,0.4837736189365387
-1.2249979972839355,4.205196857452393,0.4803530275821686
-1.2486307621002197,4.178272247314453,0.4756743013858795
-1.280592441558838,4.181083679199219,0.47420981526374817
-1.3069473505020142,4.1651105880737305,0.47046005725860596
-1.3267301321029663,4.130626678466797,0.46468862891197205
-1.3552229404449463,4.121692657470703,0.461782842874527
-1.3888847827911377,4.127198219299316,0.46049201488494873
-1.409960150718689,4.095731258392334,0.45509016513824463
-1.4400402307510376,4.093845367431641,0.4526965916156769
-1.4680180549621582,4.08425760269165,0.44942954182624817
-1.485068678855896,4.045347213745117,0.4429841637611389
-1.516001582145691,4.042520523071289,0.44046759605407715
-1.5414069890975952,4.024940013885498,0.4363648295402527
-1.571532130241394,4.021998405456543,0.4336565136909485
-1.5903019905090332,3.9899094104766846,0.4276996850967407
-1.606823444366455,3.954308032989502,0.4214537739753723
-1.6224523782730103,3.914665699005127,0.4147382080554962
-1.6633355617523193,3.93587327003479,0.41448742151260376
-1.699309229850769,3.946289300918579,0.4129316210746765
-1.7197986841201782,3.92084002494812,0.4074617624282837
-1.742730975151062,3.9025893211364746,0.4028225243091583
-1.755467176437378,3.8588738441467285,0.39547017216682434
-1.7954751253128052,3.875159740447998,0.3942890465259552
-1.8150572776794434,3.8492562770843506,0.3886674642562866
-1.8275657892227173,3.809277296066284,0.38152775168418884
-1.8565276861190796,3.8043339252471924,0.37795013189315796
-1.8761862516403198,3.7777485847473145,0.3721173405647278
-1.9096028804779053,3.778853416442871,0.3690304160118103
-1.945322871208191,3.787310838699341,0.36641812324523926
-1.9739514589309692,3.7817025184631348,0.36241328716278076
-1.9856832027435303,3.7408056259155273,0.3548769950866699
-2.0082015991210938,3.7203850746154785,0.34931039810180664
-2.0409536361694336,3.720757246017456,0.3456033766269684
-1.7205312252044678,3.088627815246582,0.2836790084838867
-1.741192102432251,3.077420711517334,0.27938300371170044
-0.8465813994407654,1.4719105958938599,0.13196079432964325
-0.8527212738990784,1.4595407247543335,0.12919721007347107
-0.870175302028656,1.4675393104553223,0.1281803846359253
-0.875890851020813,1.4552440643310547,0.12535716593265533
-0.890125572681427,1.4559242725372314,0.12356262654066086
-0.904283344745636,1.456559181213379,0.12168850749731064
-0.8887724280357361,1.41130793094635,0.11601522564888
-0.9192621111869812,1.438317894935608,0.11621351540088654
-0.908147394657135,1.399326205253601,0.11099806427955627
-0.908768892288208,1.3804950714111328,0.10740769654512405
-0.9178231954574585,1.3746933937072754,0.10479879379272461
-2.4082319736480713,3.553443193435669,0.2649165987968445
-1.1970676183700562,1.7182163000106812,0.12216216325759888
-1.3214844465255737,1.8694010972976685,0.12932169437408447
-1.2608708143234253,1.7905436754226685,-0.08012346178293228
-1.3055763244628906,1.882903814315796,-0.08859653770923615
-1.4189950227737427,2.079418897628784,-0.1025061309337616
-1.1953434944152832,1.7781518697738647,-0.09134813398122787
-1.2086702585220337,1.8854326009750366,-0.108003631234169
-1.2381964921951294,1.9635133743286133,-0.11609158664941788
-1.8619108200073242,3.0993404388427734,-0.19924265146255493
-0.7995468974113464,1.397891879081726,-0.09643393754959106
-1.6644068956375122,2.960092544555664,-0.20867303013801575
-1.5961041450500488,2.8862247467041016,-0.20765124261379242
-1.5327627658843994,2.8183536529541016,-0.20673994719982147
-1.473476529121399,2.7569782733917236,-0.2060406655073166
-1.422842264175415,2.7084882259368896,-0.2060564160346985
-1.4002710580825806,2.7111294269561768,-0.2097960263490677
-1.3398569822311401,2.6410372257232666,-0.20780396461486816
-1.2944856882095337,2.5981101989746094,-0.20770101249217987
-1.2589815855026245,2.5718820095062256,-0.20872925221920013
-1.2021172046661377,2.499577522277832,-0.20586207509040833
-1.180735468864441,2.5008385181427,-0.20886918902397156
-1.1380037069320679,2.456028699874878,-0.20795883238315582
-1.1139878034591675,2.4496192932128906,-0.21018986403942108
-1.073002815246582,2.4037303924560547,-0.2089143991470337
-1.0400474071502686,2.3754494190216064,-0.2089701145887375
-1.0029126405715942,2.3361077308654785,-0.20796950161457062
-0.9774402976036072,2.3212897777557373,-0.2090226262807846
-0.9430792927742004,2.2847368717193604,-0.20809674263000488
-0.9106369018554688,2.2514874935150146,-0.20724603533744812
-0.897297203540802,2.264957904815674,-0.21065904200077057
-0.8644554018974304,2.2274270057678223,-0.20925797522068024
-0.8308843970298767,2.1858885288238525,-0.2073948234319687
-0.8123528361320496,2.184302568435669,-0.2092224657535553
-0.780748724937439,2.145953416824341,-0.20741523802280426
-0.7629534006118774,2.143860101699829,-0.20905651152133942
-0.7389803528785706,2.123206615447998,-0.208852156996727
-0.7089676856994629,2.0839574337005615,-0.2067137360572815
-0.6938086748123169,2.088839292526245,-0.20886650681495667
-0.6705446839332581,2.0676159858703613,-0.20836374163627625
-0.6514092683792114,2.057210683822632,-0.2088996171951294
-0.6163973212242126,1.9946342706680298,-0.20408324897289276
-0.6089740991592407,2.021099090576172,-0.20819956064224243
-0.592424213886261,2.017721652984619,-0.20926091074943542
-0.5726677179336548,2.0030221939086914,-0.20914816856384277
-0.5523920059204102,1.9843273162841797,-0.20857170224189758
-0.5323137044906616,1.9654837846755981,-0.2078772634267807
-0.5163615942001343,1.9615309238433838,-0.20866958796977997
-0.48611608147621155,1.9009714126586914,-0.2034008502960205
-0.4829446077346802,1.9456781148910522,-0.20939329266548157
-0.45393288135528564,1.8846197128295898,-0.2039792835712433
-0.4459380507469177,1.9103245735168457,-0.20777806639671326
-0.4307571053504944,1.9056960344314575,-0.20828388631343842
-0.4140811264514923,1.8933442831039429,-0.20793797075748444
-0.3974001109600067,1.8808945417404175,-0.20759060978889465
-0.3842226564884186,1.883493185043335,-0.20883287489414215
-0.36568760871887207,1.8593592643737793,-0.20698899030685425
-0.35255420207977295,1.861770510673523,-0.20809952914714813
-0.3368052840232849,1.848777413368225,-0.20747976005077362
-0.32504066824913025,1.8586407899856567,-0.20944683253765106
-0.30945760011672974,1.8454445600509644,-0.2086932510137558
-0.2952633798122406,1.8398034572601318,-0.20872917771339417
-0.2811940014362335,1.834050178527832,-0.20875541865825653
-0.26506444811820984,1.812815546989441,-0.20701342821121216
-0.25222715735435486,1.8145439624786377,-0.20790746808052063
-0.2385133057832718,1.8084863424301147,-0.20773723721504211
-0.2234465479850769,1.7907763719558716,-0.20621229708194733
-0.21182942390441895,1.7999241352081299,-0.20778639614582062
-0.19928710162639618,1.8012769222259521,-0.20847105979919434
-0.18353019654750824,1.7716665267944336,-0.20555120706558228
-0.17088712751865387,1.7728729248046875,-0.20604833960533142
-0.1591649353504181,1.7816985845565796,-0.20743604004383087
-0.1461142748594284,1.7749731540679932,-0.20702151954174042
-0.13434560596942902,1.783627986907959,-0.20841050148010254
-0.12086375057697296,1.7689872980117798,-0.2070235013961792
-0.1083071157336235,1.7697656154632568,-0.20732204616069794
-0.09637409448623657,1.7781919240951538,-0.20852425694465637
-0.083275705575943,1.7632832527160645,-0.2069983035326004
-0.0710284635424614,1.7637848854064941,-0.2072892040014267
-0.05797753110527992,1.7409491539001465,-0.20474816858768463
-0.04645761847496033,1.7723296880722046,-0.20849953591823578
-0.034111808985471725,1.772598385810852,-0.20860110223293304
-0.021603647619485855,1.7572638988494873,-0.20687571167945862
-0.009407995268702507,1.7573598623275757,-0.2069760113954544
0.002830695128068328,1.7729036808013916,-0.20877622067928314
0.015176387503743172,1.749574065208435,-0.2059449702501297
0.027700958773493767,1.7727108001708984,-0.20859502255916595
0.0396721288561821,1.7569719552993774,-0.2066802680492401
0.05211305618286133,1.7644197940826416,-0.20750336349010468
0.06408210843801498,1.7562906742095947,-0.206343412399292
0.07696379721164703,1.7713395357131958,-0.20788389444351196
0.08909367769956589,1.7630350589752197,-0.20668907463550568
0.10136331617832184,1.7624051570892334,-0.20640842616558075
0.11412768065929413,1.769433617591858,-0.20703250169754028
0.12585026025772095,1.7609134912490845,-0.20566019415855408
0.13685321807861328,1.7445791959762573,-0.20339003205299377
0.15051428973674774,1.7590868473052979,-0.20471861958503723
0.1627480387687683,1.7580515146255493,-0.20425119996070862
0.1757485568523407,1.7646574974060059,-0.20464329421520233
0.1896284967660904,1.7789076566696167,-0.2057703584432602
