X,Y,Z
0.07690182328224182,1.4526280164718628,-0.36600255966186523
0.08995559811592102,1.5014004707336426,-0.3776598572731018
0.09909126162528992,1.4783051013946533,-0.3709092140197754
0.10883627831935883,1.47027587890625,-0.3679928481578827
0.12092317640781403,1.4924054145812988,-0.37263384461402893
0.13066866993904114,1.4842455387115479,-0.36965611577033997
0.1453547179698944,1.528947114944458,-0.3794940412044525
0.1574024111032486,1.5395587682724,-0.3808179497718811
0.16689254343509674,1.5274691581726074,-0.37657374143600464
0.19157955050468445,1.6472541093826294,-0.4047302305698395
0.20402871072292328,1.6538901329040527,-0.4046090543270111
0.21657973527908325,1.660434365272522,-0.4044693410396576
0.22943523526191711,1.6668660640716553,-0.40427637100219727
0.24217723309993744,1.673223614692688,-0.40409743785858154
0.25619983673095703,1.687087059020996,-0.40532219409942627
0.27162230014801025,1.708351492881775,-0.40829795598983765
0.27986329793930054,1.6844754219055176,-0.4005070626735687
0.2975263297557831,1.7167768478393555,-0.4060792624950409
0.317920058965683,1.7602144479751587,-0.4138093590736389
0.33171653747558594,1.7660948038101196,-0.4126593768596649
0.3485141694545746,1.7868229150772095,-0.4149590730667114
0.36938273906707764,1.8260869979858398,-0.42149659991264343
0.3916228115558624,1.8689651489257812,-0.4284537136554718
0.40744903683662415,1.8780901432037354,-0.427480548620224
0.42402663826942444,1.8908472061157227,-0.4273662865161896
0.451119989156723,1.9480847120285034,-0.4372115433216095
0.4648556709289551,1.9457167387008667,-0.43335041403770447
0.4886147677898407,1.98406183719635,-0.4384070932865143
0.512260377407074,2.018441677093506,-0.4424075484275818
0.5294062495231628,2.026768445968628,-0.44069650769233704
0.5675071477890015,2.1125614643096924,-0.45546799898147583
0.601746678352356,2.1795766353607178,-0.4657806158065796
0.621325671672821,2.191023826599121,-0.46407178044319153
0.6553016901016235,2.2500360012054443,-0.47223594784736633
0.6854773759841919,2.2941386699676514,-0.47698310017585754
0.7252483367919922,2.3673198223114014,-0.4873901307582855
0.7683977484703064,2.4474246501922607,-0.49891483783721924
0.7998473048210144,2.4869182109832764,-0.5019102692604065
0.8429688811302185,2.5588784217834473,-0.5110151171684265
0.8843262791633606,2.623270034790039,-0.5182327032089233
0.9441600441932678,2.73809552192688,-0.535033106803894
0.9878848195075989,2.8015291690826416,-0.5413752198219299
1.054657220840454,2.926053524017334,-0.5590139031410217
1.1084985733032227,3.010254144668579,-0.5682811737060547
1.1748112440109253,3.1225991249084473,-0.5822864770889282
1.2466950416564941,3.2450947761535645,-0.5977160334587097
1.299219012260437,3.3130836486816406,-0.6025729179382324
1.421243667602539,3.5523746013641357,-0.6376637816429138
1.521951675415039,3.729641914367676,-0.6606158018112183
1.6290082931518555,3.9126498699188232,-0.6834362745285034
1.706465244293213,4.020136833190918,-0.6924256682395935
1.8695127964019775,4.321793556213379,-0.7336241602897644
1.9294133186340332,4.377820014953613,-0.7322176694869995
1.927376627922058,4.292105197906494,-0.7069868445396423
1.9341624975204468,4.227530002593994,-0.6853200197219849
1.5245851278305054,3.2732465267181396,-0.5221043229103088
1.5541539192199707,3.278029203414917,-0.5142813920974731
1.577529788017273,3.268439292907715,-0.5040416717529297
1.5937155485153198,3.2449100017547607,-0.4916571080684662
1.62358820438385,3.2489662170410156,-0.48325374722480774
1.6569204330444336,3.259730577468872,-0.4758445620536804
1.5947504043579102,3.084127187728882,-0.44150814414024353
1.6235291957855225,3.0880515575408936,-0.43325451016426086
1.6467591524124146,3.0815494060516357,-0.4234817326068878
1.7092294692993164,3.146252155303955,-0.4231269061565399
1.724511981010437,3.1216437816619873,-0.41033750772476196
1.7498067617416382,3.117845296859741,-0.4004361629486084
1.8077887296676636,3.171184778213501,-0.397686243057251
1.3299753665924072,2.295747995376587,-0.28064852952957153
0.9597752690315247,1.6309603452682495,-0.19419492781162262
0.9332477450370789,1.5615334510803223,-0.18083883821964264
0.8977383375167847,1.479183554649353,-0.16644464433193207
0.9082468748092651,1.4733788967132568,-0.1608234941959381
0.9780654311180115,1.5634360313415527,-0.16534610092639923
0.9887102842330933,1.5573512315750122,-0.15935127437114716
0.9999697208404541,1.5507875680923462,-0.15297864377498627
1.0190486907958984,1.5575709342956543,-0.14799241721630096
1.029488444328308,1.5512757301330566,-0.14172500371932983
1.0361138582229614,1.5380650758743286,-0.1345340460538864
1.0531851053237915,1.5411734580993652,-0.12875398993492126
2.546840190887451,3.6746182441711426,-0.2922084331512451
2.57735538482666,3.6641316413879395,-0.27576857805252075
2.602020502090454,3.6478970050811768,-0.2588515877723694
2.5827972888946533,3.571631669998169,-0.2378101497888565
2.6381144523620605,3.5952351093292236,-0.2224060297012329
2.684687852859497,3.6104166507720947,-0.20619119703769684
2.646458625793457,3.72861385345459,0.6132367849349976
2.6258673667907715,3.7592883110046387,0.6319366097450256
2.589617967605591,3.7629854679107666,0.6451215744018555
1.068343997001648,1.5783896446228027,0.2756093442440033
1.0429375171661377,1.5664288997650146,0.2783759832382202
1.0357999801635742,1.579404592514038,0.28512632846832275
1.0360139608383179,1.605872392654419,0.2943352460861206
1.0108426809310913,1.5934605598449707,0.29627227783203125
1.011120080947876,1.6196575164794922,0.30517393350601196
1.0034313201904297,1.6325294971466064,0.3114977180957794
0.9827538132667542,1.6261249780654907,0.3139202296733856
0.9619047045707703,1.61968195438385,0.31633302569389343
0.9615800976753235,1.6457858085632324,0.3248654901981354
1.323859453201294,2.3024513721466064,0.45915505290031433
1.843885898590088,3.2625679969787598,0.6567978262901306
1.7869091033935547,3.217803716659546,0.6537904739379883
1.7734204530715942,3.249859094619751,0.666277289390564
1.780987024307251,3.318422794342041,0.6860731244087219
1.749271273612976,3.316256284713745,0.6911225318908691
2.3809306621551514,4.59636116027832,0.9651113748550415
2.3457436561584473,4.6121954917907715,0.9756765961647034
2.315294027328491,4.633988380432129,0.987276017665863
2.282158374786377,4.648287296295166,0.997157096862793
2.250840187072754,4.670007705688477,1.0081418752670288
2.2155604362487793,4.684826850891113,1.0174938440322876
2.186584234237671,4.713284969329834,1.029891848564148
2.1497490406036377,4.719843864440918,1.037225604057312
2.1186487674713135,4.740296840667725,1.0477585792541504
2.0836756229400635,4.753909111022949,1.0561857223510742
2.0359649658203125,4.7394022941589355,1.058168649673462
1.7482129335403442,4.15327787399292,0.931886613368988
1.7285711765289307,4.1889166831970215,0.9443490505218506
1.7012137174606323,4.206780910491943,0.9529054760932922
1.670886516571045,4.217415809631348,0.9595330357551575
1.6424224376678467,4.235347270965576,0.9674478769302368
1.611070990562439,4.2459330558776855,0.9737440347671509
1.5799953937530518,4.256165981292725,0.9799690842628479
1.5519797801971436,4.273173809051514,0.9877471327781677
1.5218089818954468,4.282620429992676,0.9937623739242554
1.488094687461853,4.285088539123535,0.9976287484169006
1.4664219617843628,4.323525428771973,1.009783387184143
1.4394683837890625,4.347372055053711,1.018616795539856
1.4077376127243042,4.356478214263916,1.0240428447723389
1.3770533800125122,4.3650431632995605,1.0292792320251465
1.3496793508529663,4.384310245513916,1.0370982885360718
1.3200262784957886,4.400180816650391,1.0434890985488892
1.2901545763015747,4.415869235992432,1.049859881401062
1.2600747346878052,4.431358337402344,1.056251883506775
1.2319629192352295,4.453949451446533,1.0643976926803589
1.200655460357666,4.461413860321045,1.068903923034668
1.173155426979065,4.483377456665039,1.0769460201263428
1.1408847570419312,4.490752220153809,1.080883264541626
1.1121000051498413,4.51270866394043,1.0883008241653442
1.0824992656707764,4.534591197967529,1.0958093404769897
1.0501270294189453,4.541269779205322,1.0996462106704712
1.0224766731262207,4.566141605377197,1.107910394668579
0.9872873425483704,4.557409286499023,1.108076810836792
0.9548941254615784,4.5634942054748535,1.1114165782928467
0.7796953916549683,3.865694046020508,0.9428552985191345
0.7556595802307129,3.8891823291778564,0.9499986171722412
0.8604260087013245,4.603179931640625,1.1261317729949951
0.8350096344947815,4.6457109451293945,1.1382901668548584
0.8025313019752502,4.650688648223877,1.1413198709487915
0.7743329405784607,4.685530662536621,1.1516224145889282
0.7416529059410095,4.694088935852051,1.154855728149414
0.7105873227119446,4.713676452636719,1.160865306854248
0.6792258620262146,4.733060836791992,1.1668931245803833
0.6469855308532715,4.744667053222656,1.1710529327392578
0.6133120059967041,4.748561859130859,1.1733829975128174
0.582116961479187,4.767209529876709,1.1793934106826782
0.5525506734848022,4.804638862609863,1.1896228790283203
0.519477128982544,4.815573215484619,1.193040370941162
0.4893183708190918,4.856466770172119,1.2039463520050049
0.45365843176841736,4.84430456161499,1.2017629146575928
0.41921740770339966,4.84701681137085,1.2033342123031616
0.38724684715270996,4.872115612030029,1.210508942604065
0.35543736815452576,4.904565334320068,1.219581127166748
0.3200458586215973,4.891598224639893,1.2166461944580078
0.28720882534980774,4.920026779174805,1.2240105867385864
0.25249144434928894,4.929326057434082,1.2266845703125
0.21924437582492828,4.961079120635986,1.235004186630249
0.1847313493490219,4.9622907638549805,1.2357800006866455
0.15067073702812195,4.978417873382568,1.2403316497802734
0.11637846380472183,4.9943437576293945,1.244746208190918
0.08150957524776459,5.029154300689697,1.253240704536438
0.046508338302373886,5.037181854248047,1.2551243305206299
0.01143336296081543,5.060126781463623,1.260785698890686
-0.023887895047664642,5.067666053771973,1.262669324874878
-0.05937018245458603,5.090119361877441,1.268330454826355
-0.09554845094680786,5.097151756286621,1.2702140808105469
-0.13180691003799438,5.130551338195801,1.2783772945404053
-0.1676127314567566,5.1372971534729,1.2794405221939087
-0.20387904345989227,5.151366710662842,1.2823857069015503
-0.10481757670640945,2.253140449523926,0.5606817603111267
-0.1299763172864914,2.430373191833496,0.604579508304596
-0.14604896306991577,2.410568952560425,0.5994746685028076
-0.29521283507347107,4.369040012359619,1.086254358291626
-0.32264772057533264,4.32935905456543,1.0757331848144531
-0.34612593054771423,4.2480010986328125,1.0546422004699707
-0.3818066716194153,4.317617893218994,1.0710875988006592
-0.407442569732666,4.266098976135254,1.0575157403945923
-0.4308665990829468,4.203138828277588,1.0411878824234009
-0.4547238051891327,4.1513590812683105,1.027696967124939
-0.4791994094848633,4.110749244689941,1.0170340538024902
-0.5014444589614868,4.058865547180176,1.0030746459960938
-0.5229188799858093,4.003076553344727,0.9881025552749634
-0.5426166653633118,3.943476438522339,0.9722896814346313
-0.5664997696876526,3.9175760746002197,0.9648497104644775
-0.5886602997779846,3.880228042602539,0.9546393752098083
-0.6121142506599426,3.854001045227051,0.9472259283065796
-0.6300057172775269,3.7938928604125977,0.931433379650116
-0.6495530009269714,3.7526628971099854,0.9198269248008728
-0.6698681116104126,3.71881365776062,0.9101015329360962
-0.6890509128570557,3.681119441986084,0.8995018601417542
-0.7086393237113953,3.647026777267456,0.8898393511772156
-0.7295802235603333,3.620227098464966,0.8820027112960815
-0.737382709980011,3.529993772506714,0.8587727546691895
-0.7593014240264893,3.5143167972564697,0.853447437286377
-0.7750061750411987,3.47263765335083,0.8416150212287903
-0.7987101674079895,3.4679439067840576,0.8388037085533142
-0.8118420839309692,3.418687343597412,0.8252740502357483
-0.8333482146263123,3.4024572372436523,0.8197231292724609
-0.851569414138794,3.375089645385742,0.8115656971931458
-0.8731725811958313,3.362391710281372,0.8069362640380859
-0.8862127661705017,3.3203933238983154,0.7948392033576965
-0.8997634649276733,3.282017230987549,0.7836850881576538
-0.9121531248092651,3.2398414611816406,0.7716711759567261
-0.9281949400901794,3.212275981903076,0.763212263584137
-0.9528381824493408,3.2137746810913086,0.7616806030273438
-0.9653550982475281,3.1749885082244873,0.7506533265113831
-0.9711496829986572,3.1182281970977783,0.7350674271583557
-0.9949958324432373,3.119570016860962,0.7331010699272156
-1.0090467929840088,3.091846466064453,0.7243905663490295
-1.021784782409668,3.060377597808838,0.7148458361625671
-1.0383163690567017,3.03954815864563,0.7077992558479309
-1.0546364784240723,3.018615484237671,0.7007811069488525
-1.0701367855072021,2.9978601932525635,0.6935306787490845
-1.0763639211654663,2.9519155025482178,0.6803346276283264
-1.0910073518753052,2.9311583042144775,0.6730633974075317
-1.124646782875061,2.960238218307495,0.677219033241272
-1.1178876161575317,2.881932020187378,0.6567976474761963
-1.1312106847763062,2.8571159839630127,0.6486733555793762
-1.145310640335083,2.8360109329223633,0.6410382390022278
-1.1470001935958862,2.7867543697357178,0.6270915269851685
-1.1155253648757935,2.659959554672241,0.5958887338638306
-1.124967098236084,2.631981611251831,0.5869205594062805
-1.152721643447876,2.645974636077881,0.5872951149940491
-1.1684656143188477,2.631673812866211,0.5812808275222778
-1.1798681020736694,2.6107988357543945,0.5735805630683899
-1.210224986076355,2.631654739379883,0.5750623941421509
-1.2361377477645874,2.6417787075042725,0.5741549134254456
-1.258178949356079,2.640923261642456,0.5707058310508728
-1.2655434608459473,2.608682632446289,0.5604658126831055
-1.2764410972595215,2.587369203567505,0.552381694316864
-1.283476710319519,2.559251546859741,0.5428430438041687
-1.2936969995498657,2.5379629135131836,0.5348201394081116
-1.3081045150756836,2.5230495929718018,0.5280120372772217
-1.3171168565750122,2.497788190841675,0.5190725326538086
-1.3344447612762451,2.489743947982788,0.5134324431419373
-1.3400800228118896,2.461632251739502,0.5036845803260803
-1.3454132080078125,2.4335198402404785,0.494019478559494
-1.3589763641357422,2.4183366298675537,0.4868012070655823
-1.364769697189331,2.3896877765655518,0.47693827748298645
-1.3771531581878662,2.3748936653137207,0.4694948196411133
-1.3831586837768555,2.350262403488159,0.4602397680282593
-1.3953025341033936,2.3353004455566406,0.45280590653419495
-1.4041013717651367,2.3132455348968506,0.44383135437965393
-1.4079749584197998,2.284994602203369,0.4335988759994507
-1.4275104999542236,2.2832016944885254,0.42818957567214966
-1.4345448017120361,2.2617599964141846,0.41917163133621216
-1.4633175134658813,2.2721574306488037,0.4157024919986725
-1.4790735244750977,2.2632334232330322,0.40856215357780457
-1.4725717306137085,2.22255277633667,0.3956027328968048
-1.4639431238174438,2.1784965991973877,0.3820343017578125
-1.501449465751648,2.2011473178863525,0.37982428073883057
-1.5076289176940918,2.1794800758361816,0.369765967130661
-1.4907530546188354,2.1265294551849365,0.35448628664016724
-1.5099998712539673,2.1237778663635254,0.34729981422424316
-1.5117292404174805,2.095367908477783,0.3355235457420349
-1.5252636671066284,2.0868992805480957,0.3269405663013458
-1.5278255939483643,2.062338352203369,0.31556713581085205
-1.528084397315979,2.1435961723327637,-0.14912669360637665
-1.4894027709960938,2.1224305629730225,-0.157438263297081
-1.4777584075927734,2.1392507553100586,-0.1682371348142624
-1.4667446613311768,2.1554648876190186,-0.17852219939231873
-1.4892492294311523,2.2240490913391113,-0.19343504309654236
-1.472801685333252,2.234109878540039,-0.20318317413330078
-1.4478305578231812,2.2309393882751465,-0.21155038475990295
-1.4581449031829834,2.283573627471924,-0.22518064081668854
-1.4020237922668457,2.2306630611419678,-0.22807234525680542
-1.377793788909912,2.2265207767486572,-0.23545148968696594
-1.3307582139968872,2.1859958171844482,-0.23877061903476715
-1.3103474378585815,2.1882846355438232,-0.24658988416194916
-1.3104283809661865,2.2234716415405273,-0.2578589618206024
-1.2957680225372314,2.235567569732666,-0.26653459668159485
-1.286752700805664,2.257671356201172,-0.27645254135131836
-1.270592212677002,2.2658209800720215,-0.2844112515449524
-1.2724964618682861,2.308147430419922,-0.2968748211860657
-1.2516653537750244,2.3096401691436768,-0.3040430545806885
-1.2494834661483765,2.344994068145752,-0.31559374928474426
-1.2363122701644897,2.3596596717834473,-0.3243650794029236
-1.2827951908111572,2.4916739463806152,-0.34958356618881226
-1.3620070219039917,2.6936686038970947,-0.3856754004955292
-1.4289463758468628,2.8755083084106445,-0.41955989599227905
-1.3130818605422974,2.689540147781372,-0.39969778060913086
-1.238144874572754,2.5826456546783447,-0.3907068967819214
-1.207812786102295,2.565850019454956,-0.39494451880455017
-1.1764883995056152,2.5451133251190186,-0.39833807945251465
-1.167324423789978,2.5735955238342285,-0.40946581959724426
-1.156374454498291,2.5984690189361572,-0.41997894644737244
-1.1376056671142578,2.605501174926758,-0.4275999367237091
-1.2072272300720215,2.8181469440460205,-0.4694037139415741
-1.1525065898895264,2.7435925006866455,-0.4635496437549591
-1.076472282409668,2.615100383758545,-0.44814860820770264
-1.0403608083724976,2.578591823577881,-0.44794976711273193
-0.9808524250984192,2.480741262435913,-0.43673303723335266
-0.9476481080055237,2.44704270362854,-0.4363211393356323
-0.9012805223464966,2.377023696899414,-0.42916133999824524
-0.8732647895812988,2.353485345840454,-0.43021878600120544
-0.8263285756111145,2.275301456451416,-0.4209355115890503
-0.7933083176612854,2.232964515686035,-0.4178158640861511
-0.7621542811393738,2.1939570903778076,-0.4151186943054199
-0.7279503345489502,2.1437132358551025,-0.41009268164634705
-0.7027534246444702,2.1187186241149902,-0.40980595350265503
-0.680507481098175,2.100792646408081,-0.4105074107646942
-0.6458030939102173,2.042419672012329,-0.40310975909233093
-0.6120226979255676,1.983694076538086,-0.39540281891822815
-0.5935328602790833,1.9723771810531616,-0.39699918031692505
-0.5730257630348206,1.953596830368042,-0.3968425691127777
-0.5546604990959167,1.9420803785324097,-0.3981006145477295
-0.5378116369247437,1.9340327978134155,-0.3999665081501007
-0.5081818699836731,1.8777753114700317,-0.3917333781719208
-0.4861724376678467,1.847197413444519,-0.38852521777153015
-0.46176275610923767,1.8053290843963623,-0.38271909952163696
-0.44693654775619507,1.800409197807312,-0.38473790884017944
-0.4288318157196045,1.7804632186889648,-0.38346534967422485
-0.41624388098716736,1.782728672027588,-0.3867957890033722
-0.3943616449832916,1.7439451217651367,-0.3810186982154846
-0.37224358320236206,1.7012370824813843,-0.37427061796188354
-0.3648033142089844,1.7255910634994507,-0.3822965621948242
-0.342736154794693,1.6788557767868042,-0.374382346868515
-0.33610114455223083,1.7068309783935547,-0.3829045593738556
-0.31628313660621643,1.6673308610916138,-0.3762904107570648
-0.30323219299316406,1.6614125967025757,-0.37720099091529846
-0.2992876172065735,1.707992672920227,-0.39004987478256226
-0.28102004528045654,1.6719411611557007,-0.3837478458881378
-0.2554146349430084,1.5868544578552246,-0.3660639524459839
-0.2442932277917862,1.5881061553955078,-0.3682202696800232
-0.2331576645374298,1.5892858505249023,-0.37034356594085693
-0.22763009369373322,1.6319329738616943,-0.38188228011131287
-0.21473389863967896,1.621734380722046,-0.38107386231422424
-0.19393792748451233,1.5472848415374756,-0.3651027977466583
-0.1858055144548416,1.5708439350128174,-0.37222427129745483
-0.1702265739440918,1.530202031135559,-0.363768607378006
-0.15876945853233337,1.5234628915786743,-0.363342821598053
-0.14650502800941467,1.5090879201889038,-0.36111563444137573
-0.1366804540157318,1.5173139572143555,-0.36428752541542053
-0.1255188286304474,1.5104037523269653,-0.36351093649864197
-0.11445187777280807,1.503427505493164,-0.3626691401004791
-0.10240784287452698,1.4812209606170654,-0.35815635323524475
-0.09376940876245499,1.511987328529358,-0.36649179458618164
-0.08239645510911942,1.4972691535949707,-0.3635219931602478
-0.07196597009897232,1.497660517692566,-0.3641241788864136
-0.06310287863016129,1.5359020233154297,-0.3739593029022217
-0.05034608766436577,1.475466012954712,-0.35977795720100403
-0.042276930063962936,1.5629475116729736,-0.38143908977508545
-0.029658792540431023,1.4758851528167725,-0.36035874485969543
-0.02009827084839344,1.52912437915802,-0.373549222946167
-0.009282125160098076,1.4988174438476562,-0.3663507103919983
0.0011527419555932283,1.5216063261032104,-0.37194275856018066
0.012657961808145046,1.6164658069610596,-0.39494556188583374
0.022491957992315292,1.5215250253677368,-0.37159624695777893
0.032903362065553665,1.5137860774993896,-0.3695720136165619
0.04364706203341484,1.521186113357544,-0.3711014688014984
0.05451226979494095,1.5285698175430298,-0.37238094210624695
0.06482477486133575,1.5207078456878662,-0.3699648380279541
0.07521520555019379,1.5127683877944946,-0.3675444424152374
0.09434283524751663,1.663986086845398,-0.4036563038825989
0.1037805899977684,1.6294341087341309,-0.3943652808666229
0.11701346933841705,1.6554335355758667,-0.39975395798683167
0.12736612558364868,1.6396797895431519,-0.3950739800930023
0.1389797031879425,1.639001727104187,-0.39397117495536804
0.153201624751091,1.6686030626296997,-0.3997974991798401
0.1656007021665573,1.6754035949707031,-0.4001511335372925
0.17727747559547424,1.6745558977127075,-0.39869433641433716
0.18980403244495392,1.6811834573745728,-0.39902132749557495
0.20538802444934845,1.7104448080062866,-0.40427103638648987
0.2173452377319336,1.7094128131866455,-0.402380108833313
0.23182862997055054,1.727150559425354,-0.4049091041088104
0.25028538703918457,1.7711560726165771,-0.4135572016239166
0.26382020115852356,1.777428388595581,-0.41299062967300415
0.27415043115615845,1.7610076665878296,-0.40710514783859253
0.2932262420654297,1.8009405136108398,-0.41427379846572876
0.310945987701416,1.8294451236724854,-0.4187544286251068
0.3237805962562561,1.8278415203094482,-0.41602078080177307
0.3462899923324585,1.8786602020263672,-0.42507752776145935
0.3616354167461395,1.888074278831482,-0.4247017502784729
0.37810876965522766,1.901075839996338,-0.42507508397102356
0.3960845470428467,1.921509027481079,-0.4268856644630432
0.4199628233909607,1.9679595232009888,-0.4342525005340576
0.43875086307525635,1.9880880117416382,-0.4357263445854187
0.45782703161239624,2.0080626010894775,-0.43712443113327026
0.4853386878967285,2.0613579750061035,-0.44543981552124023
0.5052652359008789,2.081038475036621,-0.4462537467479706
0.5357037782669067,2.141373872756958,-0.45566701889038086
0.5603334307670593,2.1754822731018066,-0.45935723185539246
0.5903631448745728,2.22790265083313,-0.4666556715965271
0.6224318146705627,2.2837307453155518,-0.4741843342781067
0.6519375443458557,2.328247308731079,-0.47926661372184753
0.6863694787025452,2.387219190597534,-0.48714205622673035
0.7216485142707825,2.4458816051483154,-0.49467697739601135
0.7566236853599548,2.5006003379821777,-0.5009481310844421
0.8029530644416809,2.5878989696502686,-0.5133955478668213
0.8433728218078613,2.6528289318084717,-0.52117520570755
0.8847535252571106,2.7173681259155273,-0.5285925269126892
0.9342664480209351,2.8034653663635254,-0.5396120548248291
0.997416079044342,2.9254565238952637,-0.5571268796920776
1.051059365272522,3.0140721797943115,-0.5678228139877319
1.1102778911590576,3.1128976345062256,-0.5799331665039062
1.1756459474563599,3.225813150405884,-0.5940155386924744
1.231902003288269,3.3091812133789062,-0.60223388671875
1.273123860359192,3.348714590072632,-0.6021573543548584
1.2969037294387817,3.3411240577697754,-0.5935133695602417
1.5280972719192505,3.856671094894409,-0.6762153506278992
1.6042650938034058,3.969228744506836,-0.6869568824768066
1.672071099281311,4.055919170379639,-0.6926678419113159
1.6979091167449951,4.0386738777160645,-0.6804215908050537
1.9421038627624512,4.53258752822876,-0.7528828382492065
1.9419050216674805,4.446415901184082,-0.7277911305427551
1.473746657371521,3.311823844909668,-0.5340851545333862
1.4972949028015137,3.3027658462524414,-0.5245924592018127
1.5138615369796753,3.279697895050049,-0.5127381086349487
1.5400173664093018,3.277543306350708,-0.5042039155960083
1.5669903755187988,3.2748403549194336,-0.4952933192253113
1.590206265449524,3.265113115310669,-0.4854219853878021
1.6093990802764893,3.2485194206237793,-0.47446784377098083
1.64239501953125,3.259458303451538,-0.46751338243484497
1.6656103134155273,3.2491185665130615,-0.4572446644306183
1.6132538318634033,3.094298839569092,-0.42701902985572815
1.6695572137832642,3.1493289470672607,-0.4257737100124359
1.7043651342391968,3.1628787517547607,-0.4187891483306885
1.717543601989746,3.1350018978118896,-0.4061249792575836
1.7242158651351929,3.097167491912842,-0.39228394627571106
1.774121642112732,3.137256145477295,-0.3882536292076111
1.3473873138427734,2.344367265701294,-0.2830023169517517
0.9661706686019897,1.6544634103775024,-0.19467464089393616
0.947725772857666,1.5983307361602783,-0.1831500232219696
0.8764594793319702,1.455828309059143,-0.1622910499572754
0.9030318260192871,1.4766888618469238,-0.15982945263385773
0.9810952544212341,1.579988718032837,-0.16576169431209564
0.9938470125198364,1.577202558517456,-0.16028717160224915
1.009150743484497,1.577314853668213,-0.15485838055610657
1.013780951499939,1.5610251426696777,-0.14777757227420807
1.0242724418640137,1.5547277927398682,-0.141692653298378
1.0309301614761353,1.5415282249450684,-0.13472002744674683
1.0460466146469116,1.5412888526916504,-0.12885838747024536
2.516958713531494,3.6572272777557373,-0.29181230068206787
2.5644922256469727,3.672947406768799,-0.27839773893356323
2.594241142272949,3.6627659797668457,-0.26252055168151855
2.595818281173706,3.6148862838745117,-0.24383403360843658
2.6118228435516357,3.5851757526397705,-0.2257981151342392
2.658953905105591,3.6000499725341797,-0.21025055646896362
2.6142027378082275,3.7119498252868652,0.5887280702590942
2.5955841541290283,3.741441011428833,0.6058889627456665
2.5711545944213867,3.765223741531372,0.6217987537384033
1.050156593322754,1.5642155408859253,0.26327335834503174
1.042757272720337,1.5774809122085571,0.2700141668319702
1.026889443397522,1.577698826789856,0.27436524629592896
1.0268713235855103,1.604360580444336,0.2831888496875763
1.0267367362976074,1.6309446096420288,0.2920357882976532
1.0147465467453003,1.6375138759613037,0.2971378564834595
0.9863081574440002,1.6178529262542725,0.29724112153053284
0.9855388402938843,1.644473671913147,0.3057420551776886
0.9612919688224792,1.6310871839523315,0.3067193329334259
1.3498708009719849,2.327305555343628,0.4423120319843292
1.339797019958496,2.349679946899414,0.45115411281585693
1.8242930173873901,3.2559163570404053,0.6311661005020142
1.7660071849822998,3.2073984146118164,0.6275970935821533
1.792525291442871,3.3098132610321045,0.6532806754112244
1.7757456302642822,3.3347439765930176,0.6637969017028809
2.402043581008911,4.594272613525391,0.9217647910118103
2.3616745471954346,4.600104808807373,0.9300861954689026
2.329704761505127,4.618668079376221,0.9407304525375366
2.3001291751861572,4.6400651931762695,0.9518448114395142
2.2726614475250244,4.668726921081543,0.9641563296318054
2.2334208488464355,4.677175521850586,0.9721130132675171
2.1980338096618652,4.691990375518799,0.981336236000061
2.1674294471740723,4.712812900543213,0.9915874600410461
2.1370654106140137,4.73324728012085,1.0017497539520264
2.105536937713623,4.753967761993408,1.0116267204284668
2.066930055618286,4.7607879638671875,1.0182729959487915
2.017193078994751,4.7428483963012695,1.0197322368621826
1.7397105693817139,4.172179698944092,0.9014765024185181
1.7101399898529053,4.182934284210205,0.908197283744812
1.684368371963501,4.204327583312988,0.9170834422111511
1.6532282829284668,4.215315818786621,0.9232867360115051
1.624203085899353,4.2333984375,0.9311694502830505
1.5958930253982544,4.250971794128418,0.9388942122459412
1.565842866897583,4.260819435119629,0.9448344707489014
1.5357730388641357,4.270434379577637,0.9507645964622498
1.507214903831482,4.287476062774658,0.9578741788864136
1.4751895666122437,4.2973785400390625,0.9633405208587646
1.4557793140411377,4.343098163604736,0.9768611192703247
1.4246705770492554,4.352212429046631,0.9821473956108093
1.3916791677474976,4.353682994842529,0.9857004880905151
1.3678319454193115,4.384057521820068,0.9958574771881104
1.336508870124817,4.396633148193359,1.0013717412948608
1.3045040369033813,4.405185699462891,1.0059775114059448
1.2766718864440918,4.428164005279541,1.0139397382736206
1.2493394613265991,4.450767993927002,1.0218216180801392
1.2140464782714844,4.443686008453369,1.0229098796844482
1.1848362684249878,4.458428382873535,1.0290637016296387
1.1539474725723267,4.47349739074707,1.0346667766571045
1.1272385120391846,4.502994537353516,1.0436259508132935
1.0983154773712158,4.524930953979492,1.0509082078933716
1.0661969184875488,4.531725883483887,1.0546972751617432
1.037824273109436,4.553065299987793,1.0619031190872192
1.005417823791504,4.559441089630127,1.0657150745391846
0.9728854298591614,4.565742492675781,1.0689281225204468
0.7945109009742737,3.8633337020874023,0.9058711528778076
0.7653533220291138,3.860844135284424,0.9067217707633972
0.7335919141769409,3.8431525230407715,0.9040279388427734
0.8512011766433716,4.637413501739502,1.0926764011383057
0.8201044201850891,4.6500244140625,1.0974847078323364
0.7898866534233093,4.670040130615234,1.1037700176239014
0.7566094398498535,4.674990177154541,1.1061245203018188
0.7245174050331116,4.687212944030762,1.110255479812622
0.6966793537139893,4.733151435852051,1.1224662065505981
0.6625109314918518,4.729820728302002,1.1230138540267944
0.629534125328064,4.733771324157715,1.1253381967544556
0.5993840098381042,4.7601213455200195,1.1330490112304688
0.5667539834976196,4.771376132965088,1.1365141868591309
0.5339067578315735,4.7824273109436035,1.1399338245391846
0.5026851296424866,4.815988063812256,1.1487981081008911
0.46990278363227844,4.830365180969238,1.1531330347061157
0.4369961619377136,4.840699672698975,1.1565521955490112
0.40517330169677734,4.865959644317627,1.163601040840149
0.37120378017425537,4.868335723876953,1.1649941205978394
0.337970495223999,4.893397331237793,1.1713124513626099
0.3045623302459717,4.910609722137451,1.175806999206543
0.2705698311328888,4.9200029373168945,1.1784881353378296
0.23706470429897308,4.940540790557861,1.1838983297348022
0.2033044695854187,4.9570465087890625,1.1884008646011353
0.16894158720970154,4.980930328369141,1.1947460174560547
0.13462238013744354,4.9970808029174805,1.198784351348877
0.10004381090402603,5.013063907623291,1.2025370597839355
0.06510083377361298,5.017412185668945,1.2035573720932007
0.03026142530143261,5.048105716705322,1.2109559774398804
-0.005524683278053999,5.06335973739624,1.2147125005722046
-0.04080681502819061,5.070769786834717,1.2166450023651123
-0.07642024010419846,5.093124866485596,1.2222235202789307
-0.11219935119152069,5.111602783203125,1.226182460784912
-0.1481209546327591,5.126054286956787,1.229135513305664
-0.18424856662750244,5.14025354385376,1.2320843935012817
-0.22222402691841125,5.176944732666016,1.2404729127883911
-0.2610616981983185,5.232356548309326,1.2534074783325195
-0.13610441982746124,2.393399715423584,0.5732081532478333
-0.2735132873058319,4.284483909606934,1.0258333683013916
-0.3054763972759247,4.316901206970215,1.032759428024292
-0.3320217430591583,4.26569938659668,1.0197169780731201
-0.3669516146183014,4.327968120574951,1.033861517906189
-0.3916970491409302,4.268856525421143,1.0190571546554565
-0.41611358523368835,4.213377475738525,1.0051838159561157
-0.44177740812301636,4.176659107208252,0.9958472847938538
-0.47198545932769775,4.1813645362854,0.996137797832489
-0.49030187726020813,4.091647624969482,0.9736304879188538
-0.5097990036010742,4.020720481872559,0.9556823372840881
-0.5359069108963013,4.0062384605407715,0.9512168765068054
-0.5551770925521851,3.942603588104248,0.9351353645324707
-0.5780719518661499,3.9051411151885986,0.9253098368644714
-0.5982677936553955,3.8563320636749268,0.9128749370574951
-0.6193107962608337,3.8188421726226807,0.9027155041694641
-0.6378628611564636,3.7700307369232178,0.889807939529419
-0.6584163308143616,3.736121654510498,0.8804864883422852
-0.6778905391693115,3.698349714279175,0.8703160881996155
-0.6969969272613525,3.6565964221954346,0.8592343926429749
-0.7166110873222351,3.6222896575927734,0.8499874472618103
-0.7287884950637817,3.5543596744537354,0.8328048586845398
-0.7475406527519226,3.523852825164795,0.8240022659301758
-0.7618311047554016,3.474644422531128,0.8108980655670166
-0.7843186259269714,3.462456464767456,0.8064676523208618
-0.8047845959663391,3.4427316188812256,0.8003406524658203
-0.8225643038749695,3.4117205142974854,0.7916320562362671
-0.8409063816070557,3.3843092918395996,0.7838159203529358
-0.8565162420272827,3.3496220111846924,0.7739766836166382
-0.8729161024093628,3.318523645401001,0.7648780941963196
-0.8915178179740906,3.2984838485717773,0.7584202885627747
-0.9039075374603271,3.2562496662139893,0.7469116449356079
-0.9287289977073669,3.257903814315796,0.7454881072044373
-0.9332587122917175,3.1897878646850586,0.7281656265258789
-0.9556042551994324,3.1839230060577393,0.7248438596725464
-0.9726586937904358,3.1635754108428955,0.7180460095405579
-0.9895136952400208,3.1431236267089844,0.7112739086151123
-1.0014169216156006,3.1080472469329834,0.7012577056884766
-1.0172568559646606,3.0835928916931152,0.693626344203949
-1.0368564128875732,3.0698013305664062,0.6884078979492188
-1.0481349229812622,3.0344622135162354,0.6782732009887695
-1.0559957027435303,2.992091655731201,0.6663632988929749
-1.06978178024292,2.967726945877075,0.658541738986969
-1.0819631814956665,2.9397096633911133,0.6499717235565186
-1.097274899482727,2.918553113937378,0.6428874731063843
-1.1126646995544434,2.8972034454345703,0.6357788443565369
-1.1326091289520264,2.8903565406799316,0.631712794303894
-1.1336244344711304,2.8373498916625977,0.6174135208129883
-1.1498641967773438,2.8234455585479736,0.6117023229598999
-1.1382787227630615,2.7421348094940186,0.5914624333381653
-1.1236331462860107,2.6536357402801514,0.5697118639945984
-1.1363345384597778,2.6324150562286377,0.5625730156898499
-1.1603552103042603,2.639611005783081,0.5611922144889832
-1.1687570810317993,2.6116507053375244,0.5523108243942261
-1.1863492727279663,2.6046359539031982,0.5479118227958679
-1.2258844375610352,2.6423468589782715,0.552729606628418
-1.2445716857910156,2.6345784664154053,0.5480287671089172
-1.262733817100525,2.626925230026245,0.5432006120681763
-1.2651466131210327,2.588360071182251,0.5318506360054016
-1.3012950420379639,2.6186723709106445,0.5346687436103821
-1.2867642641067505,2.5453286170959473,0.5162172913551331
-1.297791838645935,2.523482084274292,0.5083135962486267
-1.3117666244506836,2.5086169242858887,0.5017318725585938
-1.3231000900268555,2.490662097930908,0.49435603618621826
-1.332419514656067,2.469263792037964,0.4863549470901489
-1.338434100151062,2.4407753944396973,0.47688812017440796
-1.3523755073547363,2.425375461578369,0.46987083554267883
-1.3538273572921753,2.3903043270111084,0.45901036262512207
-1.3639695644378662,2.372300148010254,0.45137012004852295
-1.3758690357208252,2.357577323913574,0.44440388679504395
-1.3887341022491455,2.3422045707702637,0.4370648264884949
-1.4017186164855957,2.326610565185547,0.4296146035194397
-1.40907883644104,2.3052361011505127,0.42093992233276367
-1.4162094593048096,2.283841609954834,0.4123343527317047
-1.428020715713501,2.2685253620147705,0.4046371877193451
-1.440147042274475,2.2528703212738037,0.39678171277046204
-1.4406763315200806,2.221560478210449,0.38590845465660095
-1.4914242029190063,2.268097162246704,0.38856303691864014
-1.4857791662216187,2.2266845703125,0.3757929503917694
-1.4973156452178955,2.210850477218628,0.36728063225746155
-1.4788590669631958,2.154390811920166,0.35194161534309387
-1.5197067260742188,2.183865785598755,0.35056638717651367
-1.4952399730682373,2.117171049118042,0.33329278230667114
-1.5276457071304321,2.1334400177001953,0.32905492186546326
-1.5141104459762573,2.0871007442474365,0.3151167035102844
-1.5218900442123413,2.06832218170166,0.30490413308143616
-1.5314604043960571,2.0528934001922607,0.2949339747428894
-1.4953513145446777,2.1140811443328857,-0.1487407386302948
-1.479499340057373,2.1244776248931885,-0.15879255533218384
-1.4750676155090332,2.1504952907562256,-0.16965830326080322
-1.493126392364502,2.2128214836120605,-0.18384790420532227
-1.4769892692565918,2.2228243350982666,-0.19328807294368744
-1.4713407754898071,2.2490532398223877,-0.20402520895004272
-1.4542769193649292,2.259260892868042,-0.21337242424488068
-1.4379433393478394,2.2688372135162354,-0.22227242588996887
-1.4025388956069946,2.2488298416137695,-0.22821195423603058
-1.369340419769287,2.231867790222168,-0.23413865268230438
-1.331013560295105,2.204223871231079,-0.23847930133342743
-1.3190454244613647,2.219576597213745,-0.2472628504037857
-1.2985427379608154,2.221723794937134,-0.25456365942955017
-1.2916102409362793,2.247264862060547,-0.2645968794822693
-1.2793430089950562,2.2622766494750977,-0.27317535877227783
-1.2738734483718872,2.291107416152954,-0.28347688913345337
-1.260524868965149,2.3063488006591797,-0.29219570755958557
-1.2514383792877197,2.3279671669006348,-0.30149877071380615
-1.2415502071380615,2.3498148918151855,-0.31101205945014954
-1.2331632375717163,2.3750832080841064,-0.32093191146850586
-1.230000615119934,2.410567045211792,-0.3322778344154358
-1.289217233657837,2.5706803798675537,-0.36119407415390015
-1.4125325679779053,2.867375135421753,-0.4103948175907135
-1.244414210319519,2.5731966495513916,-0.37510210275650024
-1.204314112663269,2.5354721546173096,-0.376044362783432
-1.2025411128997803,2.5779640674591064,-0.38881412148475647
-1.1837292909622192,2.5855207443237305,-0.39629098773002625
-1.1521663665771484,2.5647072792053223,-0.39937734603881836
-1.1541557312011719,2.617699146270752,-0.4138694703578949
-1.26544988155365,2.926351308822632,-0.4697003662586212
-1.2411963939666748,2.9270362854003906,-0.476561576128006
-1.1829179525375366,2.8454911708831787,-0.469831645488739
-1.1379250288009644,2.791785478591919,-0.46725350618362427
-1.0865132808685303,2.719752073287964,-0.4612331986427307
-1.0243968963623047,2.618661403656006,-0.4498555362224579
-0.9862457513809204,2.5743863582611084,-0.447803795337677
-0.9367763996124268,2.4971964359283447,-0.43970856070518494
-0.899005651473999,2.4484703540802,-0.4362654983997345
-0.8618353009223938,2.399444103240967,-0.4324120581150055
-0.8187815546989441,2.3319599628448486,-0.42506808042526245
-0.7859940528869629,2.2893707752227783,-0.4218962490558624
-0.7513572573661804,2.2392020225524902,-0.41706013679504395
-0.7257667183876038,2.214331865310669,-0.4166215658187866
-0.6970519423484802,2.178244113922119,-0.4139620065689087
-0.6699069738388062,2.1455845832824707,-0.4118625819683075
-0.6435220241546631,2.1126224994659424,-0.4094410836696625
-0.6142787933349609,2.068438768386841,-0.40450042486190796
-0.5867758989334106,2.0276620388031006,-0.4000816345214844
-0.5672392249107361,2.0124611854553223,-0.40060123801231384
-0.544893741607666,1.9860070943832397,-0.3987831175327301
-0.5285965204238892,1.9816921949386597,-0.4011593461036682
-0.5049260258674622,1.9475207328796387,-0.39738714694976807
-0.4808853268623352,1.9094117879867554,-0.39269253611564636
-0.46743690967559814,1.9120010137557983,-0.39631521701812744
-0.44865596294403076,1.8922089338302612,-0.39496538043022156
-0.42393288016319275,1.8461968898773193,-0.3881016671657562
-0.4109220504760742,1.8484654426574707,-0.3912844657897949
-0.39306262135505676,1.82820725440979,-0.38968804478645325
-0.3832765817642212,1.845289945602417,-0.39577481150627136
-0.36126336455345154,1.8023669719696045,-0.3889094889163971
-0.3360579013824463,1.7405261993408203,-0.377875417470932
-0.3280416429042816,1.7647889852523804,-0.38545358180999756
-0.3130035698413849,1.7514679431915283,-0.38461223244667053
-0.29234933853149414,1.7041972875595093,-0.3761439621448517
-0.28227612376213074,1.7169970273971558,-0.38091057538986206
-0.2635190188884735,1.6769959926605225,-0.37398386001586914
-0.252911776304245,1.6858839988708496,-0.3777223229408264
-0.2335568517446518,1.634347915649414,-0.3677138090133667
-0.2313629537820816,1.7035199403762817,-0.38489481806755066
-0.21753273904323578,1.689544916152954,-0.38335487246513367
-0.20850339531898499,1.7133139371871948,-0.3902854323387146
-0.19201242923736572,1.676550269126892,-0.3831873834133148
-0.17707081139087677,1.6472125053405762,-0.37773123383522034
-0.17243222892284393,1.7162668704986572,-0.3948870897293091
-0.15479809045791626,1.6564407348632812,-0.3823578953742981
-0.14523464441299438,1.679979920387268,-0.3887115716934204
-0.13694603741168976,1.7262330055236816,-0.40039485692977905
-0.12217573821544647,1.6889280080795288,-0.3927047550678253
-0.10791964083909988,1.6515141725540161,-0.3849656879901886
-0.09642768651247025,1.6520622968673706,-0.38566306233406067
-0.08492150157690048,1.652532935142517,-0.38635149598121643
-0.07390663772821426,1.6681280136108398,-0.3906098008155823
-0.062031734734773636,1.6608376502990723,-0.3895203173160553
-0.05096055194735527,1.6763489246368408,-0.39344850182533264
-0.03842981532216072,1.6385773420333862,-0.3848062753677368
-0.027418261393904686,1.66155207157135,-0.39044684171676636
-0.015498895198106766,1.6464272737503052,-0.3871595859527588
-0.004091615788638592,1.669305682182312,-0.3925441801548004
0.007495516911149025,1.6617172956466675,-0.3906341791152954
0.019151292741298676,1.6692582368850708,-0.3922997713088989
0.030327757820487022,1.6463011503219604,-0.3868177533149719
0.04236035421490669,1.668933629989624,-0.39186108112335205
0.055158257484436035,1.6991277933120728,-0.3984542191028595
0.06727305799722672,1.7064303159713745,-0.3996962904930115
0.07736486196517944,1.6680516004562378,-0.39026620984077454
0.09099571406841278,1.705613136291504,-0.39848560094833374
0.101484514772892,1.6823745965957642,-0.39222243428230286
0.11493129283189774,1.7046151161193848,-0.396566778421402
0.12877938151359558,1.7305601835250854,-0.4017823338508606
0.1433187574148178,1.760207176208496,-0.40778273344039917
0.15561076998710632,1.7594871520996094,-0.40638208389282227
0.16789956390857697,1.7586802244186401,-0.40498116612434387
0.17959940433502197,1.7501951456069946,-0.4018186032772064
0.19595301151275635,1.7870811223983765,-0.40909335017204285
0.2084341198205948,1.786083698272705,-0.4072761535644531
0.22371898591518402,1.8076889514923096,-0.4106089174747467
0.23880790174007416,1.8253971338272095,-0.41304174065589905
0.2549050450325012,1.8467413187026978,-0.41625329852104187
0.27110129594802856,1.8680543899536133,-0.4191196858882904
0.2853149473667145,1.8741716146469116,-0.41849035024642944
0.3074187934398651,1.9291666746139526,-0.4287298321723938
0.32217109203338623,1.9350275993347168,-0.4280010759830475
0.339642733335495,1.9558746814727783,-0.4303186535835266
0.35630011558532715,1.9690639972686768,-0.4307369887828827
0.3686768114566803,1.9596312046051025,-0.42626169323921204
0.39194124937057495,2.006364345550537,-0.43397173285484314
0.41360411047935486,2.04168963432312,-0.43895015120506287
0.4318428933620453,2.0581631660461426,-0.43961334228515625
0.4595372974872589,2.1155571937561035,-0.4488738179206848
0.48697879910469055,2.1690056324005127,-0.4572064280509949
0.5004925727844238,2.158841848373413,-0.4519749879837036
0.5245761871337891,2.1933236122131348,-0.45579227805137634
0.5592359900474548,2.268503189086914,-0.4679146707057953
0.5953037142753601,2.3432857990264893,-0.47966644167900085
0.6195575594902039,2.369582176208496,-0.4813656806945801
0.6531316637992859,2.429065227508545,-0.4893542528152466
0.687588095664978,2.488227367401123,-0.49708616733551025
0.7250208258628845,2.554441213607788,-0.5060232877731323
0.7605224847793579,2.6091606616973877,-0.5124146342277527
0.799724280834198,2.6747477054595947,-0.5204596519470215
0.8511363863945007,2.7766876220703125,-0.5352757573127747
0.8879953026771545,2.8267526626586914,-0.5397994518280029
0.9279964566230774,2.8837742805480957,-0.5454550981521606
0.995570719242096,3.0207605361938477,-0.5654855966567993
1.037680983543396,3.0769522190093994,-0.5700597167015076
1.0995430946350098,3.1872870922088623,-0.584322988986969
1.1720459461212158,3.322375774383545,-0.602632999420166
1.20714271068573,3.3480947017669678,-0.6005476117134094
1.218636393547058,3.3084425926208496,-0.5866622924804688
1.4297099113464355,3.7989296913146973,-0.6656919717788696
1.5202631950378418,3.9558990001678467,-0.6850144267082214
1.5804839134216309,4.029411792755127,-0.6891720294952393
1.6301697492599487,4.073737144470215,-0.6879673600196838
1.6558878421783447,4.056772708892822,-0.6763006448745728
1.683698296546936,4.042908191680908,-0.6649684906005859
1.7513362169265747,4.125183582305908,-0.6692575216293335
1.4532554149627686,3.3590970039367676,-0.5373411774635315
1.462824821472168,3.318392753601074,-0.5232274532318115
1.4832056760787964,3.302281618118286,-0.5130314230918884
1.5067226886749268,3.293060302734375,-0.5036890506744385
1.5296005010604858,3.2838997840881348,-0.494457483291626
1.5526598691940308,3.274456739425659,-0.4851227402687073
1.575964331626892,3.264697551727295,-0.4756573438644409
1.6021654605865479,3.261937141418457,-0.4671035408973694
1.6251931190490723,3.251913070678711,-0.4573412239551544
1.64808189868927,3.2417328357696533,-0.4476032257080078
1.6300932168960571,3.1520566940307617,-0.4270536005496979
1.6626261472702026,3.162637233734131,-0.42015665769577026
1.7154812812805176,3.2105648517608643,-0.4180321991443634
1.7197015285491943,3.1655070781707764,-0.4035041928291321
1.7104756832122803,3.096590280532837,-0.3859928846359253
1.783058762550354,3.1774425506591797,-0.3871862292289734
1.8089314699172974,3.172983407974243,-0.37763771414756775
1.3151508569717407,2.270068407058716,-0.26353687047958374
0.9601309299468994,1.6318607330322266,-0.18463757634162903
0.8836575746536255,1.4788999557495117,-0.1628686636686325
0.9283741116523743,1.5297285318374634,-0.16374394297599792
0.9778684973716736,1.5866901874542236,-0.16486135125160217
0.9865230321884155,1.5773109197616577,-0.1589066982269287
1.0078372955322266,1.5874558687210083,-0.15477460622787476
1.0044678449630737,1.557831048965454,-0.14656810462474823
1.0148786306381226,1.551608681678772,-0.14073807001113892
1.0297062397003174,1.5516973733901978,-0.13538457453250885
1.0363514423370361,1.5384106636047363,-0.12862160801887512
1.0509973764419556,1.5383976697921753,-0.12298989295959473
2.5383644104003906,3.6624841690063477,-0.2788318395614624
2.57322359085083,3.658338785171509,-0.26396670937538147
2.610741138458252,3.661546468734741,-0.24955934286117554
2.5783956050872803,3.5657918453216553,-0.22813399136066437
2.6468136310577393,3.60870623588562,-0.21498221158981323
2.6887154579162598,3.6175436973571777,-0.19948039948940277
2.6497128009796143,3.7303855419158936,0.5564008355140686
2.6117584705352783,3.735792398452759,0.5701866149902344
2.5712838172912598,3.7333338260650635,0.5817866325378418
1.0751292705535889,1.5872206687927246,0.2522145211696625
1.058449387550354,1.588156819343567,0.2570534944534302
1.0427279472351074,1.5883915424346924,0.2614099085330963
1.0259919166564941,1.5891563892364502,0.26574286818504333
