X,Y,Z
1.3602882623672485,2.37954044342041,0.30484792590141296
1.790873646736145,3.1878206729888916,0.413124144077301
1.755753517150879,3.17991042137146,0.416729599237442
1.7832611799240112,3.283511161804199,0.43481260538101196
1.7667802572250366,3.309213399887085,0.4426277279853821
2.389697551727295,4.558507919311523,0.6156250238418579
2.3553593158721924,4.575253009796143,0.6236915588378906
2.323021650314331,4.590721607208252,0.6312605738639832
2.290560722351074,4.605963230133057,0.6388103365898132
2.2561073303222656,4.6219305992126465,0.646047055721283
2.227646827697754,4.651875972747803,0.6553745865821838
2.1905856132507324,4.659887790679932,0.6614220142364502
2.1610000133514404,4.681244850158691,0.6692540049552917
2.1305267810821533,4.702739715576172,0.6769573092460632
2.095726251602173,4.7174177169799805,0.6834279894828796
2.054595708847046,4.717649936676025,0.6878349781036377
2.0035600662231445,4.692357540130615,0.6884300708770752
1.7402760982513428,4.155633926391602,0.6133676171302795
1.7074251174926758,4.160107135772705,0.6174925565719604
1.679680347442627,4.178982734680176,0.6235785484313965
1.6460816860198975,4.183266639709473,0.6275207996368408
1.6157169342041016,4.194345951080322,0.6324642300605774
1.5890194177627563,4.2120795249938965,0.6383392810821533
1.5616555213928223,4.229841709136963,0.6440870761871338
1.5307910442352295,4.240438461303711,0.6484895348548889
1.5075303316116333,4.272693157196045,0.656256914138794
1.476320743560791,4.282896041870117,0.6606866121292114
1.4462817907333374,4.292476177215576,0.6649402379989624
1.416161060333252,4.301848888397217,0.6691856980323792
1.3896721601486206,4.326117515563965,0.6753224730491638
1.3629045486450195,4.350219249725342,0.6814848780632019
1.3307814598083496,4.359536647796631,0.685418963432312
1.3012632131576538,4.3718791007995605,0.6897451281547546
1.2706478834152222,4.38028621673584,0.6934793591499329
1.2458651065826416,4.410919189453125,0.7005529999732971
1.2120181322097778,4.411807060241699,0.7026685476303101
1.1841983795166016,4.434815883636475,0.7083471417427063
1.1519137620925903,4.442777156829834,0.7116864919662476
1.124624252319336,4.465171813964844,0.7172985076904297
1.0970773696899414,4.487395763397217,0.7229319214820862
1.0616626739501953,4.479578018188477,0.7233999967575073
1.03475821018219,4.509182453155518,0.7297928333282471
1.0018980503082275,4.516144275665283,0.7325958609580994
0.969893753528595,4.522683143615723,0.735321581363678
0.9273662567138672,4.476020336151123,0.729389488697052
0.7660537958145142,3.8314027786254883,0.6257886290550232
0.7403582334518433,3.8439886569976807,0.6289733648300171
0.8444666862487793,4.561849117279053,0.7477068901062012
0.8194173574447632,4.609144687652588,0.756757915019989
0.7894994616508484,4.629650115966797,0.7614526152610779
0.7609246969223022,4.657516002655029,0.767392098903656
0.7296690344810486,4.66995906829834,0.7708343863487244
0.6967942118644714,4.678569316864014,0.7733142971992493
0.6658690571784973,4.698369026184082,0.7775107622146606
0.6325919032096863,4.7026872634887695,0.7791887521743774
0.6014394760131836,4.722038745880127,0.7833936214447021
0.5712759494781494,4.748800277709961,0.7888649702072144
0.5399529337882996,4.767702579498291,0.7930757403373718
0.5068070888519287,4.778858184814453,0.7957490086555481
0.47388216853141785,4.789793014526367,0.7981505393981934
0.4408809542655945,4.800495147705078,0.8005539178848267
0.4093796908855438,4.830167293548584,0.8061649799346924
0.37636303901672363,4.840394973754883,0.8085675239562988
0.34263747930526733,4.850434303283691,0.8109930753707886
0.3103429973125458,4.8756103515625,0.8158178329467773
0.2766227722167969,4.885261058807373,0.8176806569099426
0.24379123747348785,4.913916110992432,0.8227658271789551
0.2103537917137146,4.938500881195068,0.8272135853767395
0.17477810382843018,4.9243693351745605,0.8252220749855042
0.14160333573818207,4.963879585266113,0.8322550654411316
0.10772093385457993,4.99545955657959,0.8380048871040344
0.07306444644927979,5.007641792297363,0.8399613499641418
0.03815295919775963,5.008030414581299,0.8399578928947449
0.0026371318381279707,5.023585796356201,0.8425389528274536
-0.03248312696814537,5.038891792297363,0.8451199531555176
-0.0679672360420227,5.069360733032227,0.8502854108810425
-0.10356322675943375,5.084172248840332,0.8528664112091064
-0.13869121670722961,5.075687408447266,0.8512160778045654
-0.17460204660892487,5.093950271606445,0.8538656234741211
-0.21123600006103516,5.1080851554870605,0.8558555245399475
-0.24782706797122955,5.12968111038208,0.8591411709785461
-0.2862167954444885,5.177943706512451,0.8669301271438599
-0.2709544003009796,4.353011131286621,0.7286012172698975
-0.2995355725288391,4.328070163726807,0.7241141200065613
-0.32752424478530884,4.295296669006348,0.717971682548523
-0.35907235741615295,4.316137790679932,0.7208373546600342
-0.3874640464782715,4.298370838165283,0.717288076877594
-0.4102269411087036,4.222867488861084,0.7041462659835815
-0.4379946291446686,4.204742908477783,0.7006165981292725
-0.4613914489746094,4.14424467086792,0.6900601387023926
-0.48356300592422485,4.08762264251709,0.6797406077384949
-0.5074023008346558,4.050009727478027,0.6726098656654358
-0.5301973819732666,4.008444309234619,0.6648712754249573
-0.5520421266555786,3.9629180431365967,0.6565200686454773
-0.5733628869056702,3.9133763313293457,0.6475346684455872
-0.5941338539123535,3.867605447769165,0.6392349600791931
-0.6134027242660522,3.8180179595947266,0.6300439238548279
-0.6331647634506226,3.7759921550750732,0.6220114827156067
-0.6530435681343079,3.737668752670288,0.6146388053894043
-0.6704371571540833,3.687849760055542,0.6054238080978394
-0.6929329633712769,3.6643569469451904,0.6005482077598572
-0.7154440879821777,3.6445913314819336,0.5963390469551086
-0.7297746539115906,3.586972713470459,0.5857769846916199
-0.7423022985458374,3.5256314277648926,0.5744611620903015
-0.7581298351287842,3.4831249713897705,0.5662755370140076
-0.7763490676879883,3.451768636703491,0.5599315166473389
-0.8003872036933899,3.446608781814575,0.5578679442405701
-0.818996787071228,3.4187636375427246,0.552167534828186
-0.8444190621376038,3.4208786487579346,0.5511817932128906
-0.8534127473831177,3.3593287467956543,0.5397641062736511
-0.8688474297523499,3.3238465785980225,0.5325717926025391
-0.8874334692955017,3.3033206462860107,0.527847170829773
-0.9042969346046448,3.275099277496338,0.5218977332115173
-0.9218630790710449,3.2505128383636475,0.5165708065032959
-0.9398655295372009,3.2296674251556396,0.5117081999778748
-0.9554831385612488,3.201336145401001,0.505476713180542
-0.9681161046028137,3.1656570434570312,0.49816638231277466
-0.9850531220436096,3.1446547508239746,0.4932023882865906
-0.9963739514350891,3.1050095558166504,0.48532259464263916
-1.013250470161438,3.0836966037750244,0.480354905128479
-1.027241826057434,3.055063247680664,0.4740312397480011
-1.0428595542907715,3.0338778495788574,0.4688369929790497
-1.0543644428253174,3.001682996749878,0.4619905948638916
-1.0802209377288818,3.009364604949951,0.4612753391265869
-1.0932354927062988,2.980421543121338,0.4549439251422882
-1.1112473011016846,2.9659533500671387,0.4508323669433594
-1.123212456703186,2.937110662460327,0.4442538917064667
-1.130266785621643,2.8975493907928467,0.4361530542373657
-1.1468760967254639,2.8831686973571777,0.43188831210136414
-1.1496391296386719,2.832512140274048,0.4221555292606354
-1.144344449043274,2.764064311981201,0.40987053513526917
-1.1258264780044556,2.667429208755493,0.3933052718639374
-1.1238725185394287,2.614047050476074,0.38320672512054443
-1.1522866487503052,2.6317391395568848,0.3835659921169281
-1.173686146736145,2.6312434673309326,0.38119152188301086
-1.188909649848938,2.616391658782959,0.37673240900039673
-1.2347087860107422,2.6683568954467773,0.3816594183444977
-1.2376091480255127,2.6290550231933594,0.3734472692012787
-1.2517534494400024,2.6142823696136475,0.3687741160392761
-1.2664754390716553,2.5991015434265137,0.3639671504497528
-1.270972728729248,2.5628769397735596,0.35622847080230713
-1.3165812492370605,2.609978199005127,0.35985317826271057
-1.2932363748550415,2.5223560333251953,0.3449086546897888
-1.3028312921524048,2.500473976135254,0.3390748202800751
-1.3130378723144531,2.478144407272339,0.33308205008506775
-1.3267121315002441,2.462594747543335,0.32803481817245483
-1.3280010223388672,2.427135944366455,0.320187509059906
-1.3423635959625244,2.41534686088562,0.3154529929161072
-1.3549319505691528,2.399972915649414,0.3102356195449829
-1.3641618490219116,2.3774304389953613,0.30400025844573975
-1.3763313293457031,2.3620028495788574,0.29858726263046265
-1.3918628692626953,2.3534646034240723,0.29397642612457275
-1.391876459121704,2.3178722858428955,0.28591784834861755
-1.4001778364181519,2.295283079147339,0.2793963849544525
-1.4403111934661865,2.3259479999542236,0.2792310118675232
-1.4554989337921143,2.317077159881592,0.27418312430381775
-1.4584604501724243,2.288208246231079,0.2667177617549896
-1.4621540307998657,2.258742332458496,0.2589839696884155
-1.4727367162704468,2.2431726455688477,0.2528475522994995
-1.4763729572296143,2.218059778213501,0.2456406205892563
-1.4698560237884521,2.176219940185547,0.23638103902339935
-1.480515718460083,2.1601836681365967,0.2298407256603241
-1.507948398590088,2.170254707336426,0.2258625477552414
-1.4910250902175903,2.11621356010437,0.2151770442724228
-1.5034914016723633,2.103231191635132,0.20849609375
-1.5075604915618896,2.081737518310547,0.20089446008205414
-1.521310806274414,2.0723469257354736,0.19421376287937164
-1.521654486656189,2.043686628341675,0.18531276285648346
-1.4838762283325195,2.095184326171875,-0.12173724919557571
-1.481930136680603,2.1247122287750244,-0.1304606944322586
-1.4898589849472046,2.170919895172119,-0.14040520787239075
-1.4785926342010498,2.1875483989715576,-0.14812329411506653
-1.4664698839187622,2.2045681476593018,-0.15579523146152496
-1.4585603475570679,2.227961301803589,-0.16385352611541748
-1.4511984586715698,2.250830888748169,-0.17163564264774323
-1.4446309804916382,2.2776310443878174,-0.17978790402412415
-1.4357962608337402,2.3010547161102295,-0.1877182126045227
-1.415454626083374,2.3039469718933105,-0.1936446875333786
-1.418400764465332,2.347215414047241,-0.20302332937717438
-1.4011201858520508,2.3570032119750977,-0.20951774716377258
-1.3923207521438599,2.3797152042388916,-0.2169792354106903
-1.3706254959106445,2.3827099800109863,-0.22273027896881104
-1.349117636680603,2.3854238986968994,-0.22833143174648285
-1.3321831226348877,2.394346237182617,-0.23429439961910248
-1.3223744630813599,2.4169483184814453,-0.24159502983093262
-1.311885118484497,2.439739942550659,-0.24895402789115906
-1.28303062915802,2.428058624267578,-0.252772718667984
-1.2622482776641846,2.429568290710449,-0.2577348053455353
-1.2373855113983154,2.4242753982543945,-0.261862576007843
-1.2091232538223267,2.411823272705078,-0.2651631236076355
-1.1989176273345947,2.433663845062256,-0.2720658779144287
-1.1914474964141846,2.4626452922821045,-0.27987784147262573
-1.1835267543792725,2.4916844367980957,-0.2876254618167877
-1.1802524328231812,2.5312423706054688,-0.2966749966144562
-1.1785539388656616,2.574186325073242,-0.30613911151885986
-1.169699788093567,2.6031503677368164,-0.31399035453796387
-1.150814414024353,2.610914945602417,-0.31926384568214417
-1.1286107301712036,2.611481189727783,-0.32370415329933167
-1.1071902513504028,2.6115715503692627,-0.3279109299182892
-1.1019455194473267,2.651008129119873,-0.33702343702316284
-1.0886942148208618,2.6725988388061523,-0.34387505054473877
-1.075282335281372,2.694084644317627,-0.35075443983078003
-1.0672228336334229,2.7299582958221436,-0.35959935188293457
-1.1142653226852417,2.9106128215789795,-0.3876498341560364
-1.204815149307251,3.215456485748291,-0.43283697962760925
-1.2017918825149536,3.2778022289276123,-0.44588080048561096
-1.2022507190704346,3.351043224334717,-0.4605219066143036
-1.1870568990707397,3.3844125270843506,-0.46978020668029785
-1.170388102531433,3.414018154144287,-0.47835156321525574
-1.1558388471603394,3.4508745670318604,-0.48802539706230164
-1.1363683938980103,3.472850799560547,-0.4956108629703522
-1.1142346858978271,3.4873647689819336,-0.5020967125892639
-1.1039104461669922,3.542604446411133,-0.5143498182296753
-1.0831798315048218,3.5644075870513916,-0.5217746496200562
-1.0449364185333252,3.526660680770874,-0.5204190611839294
-1.0223197937011719,3.5405728816986084,-0.5266640782356262
-0.9731395244598389,3.4614100456237793,-0.5186198353767395
-0.94450843334198,3.4526045322418213,-0.5210304856300354
-0.8969148397445679,3.3726656436920166,-0.5126630067825317
-0.8529754877090454,3.2996177673339844,-0.5051074028015137
-0.8278596997261047,3.2974131107330322,-0.5080565810203552
-0.7908363342285156,3.246270179748535,-0.5033046007156372
-0.7564008831977844,3.2022950649261475,-0.4995807409286499
-0.7214956283569336,3.1543021202087402,-0.4951934814453125
-0.6885049343109131,3.109713315963745,-0.4910773038864136
-0.6617054343223572,3.0913233757019043,-0.4907817542552948
-0.6250421404838562,3.0235819816589355,-0.4825954735279083
-0.594788134098053,2.9819676876068115,-0.4784867465496063
-0.5764748454093933,3.000767469406128,-0.4841098189353943
-0.5483707785606384,2.966364860534668,-0.4807136654853821
-0.5214450359344482,2.9355297088623047,-0.47783803939819336
-0.4931032657623291,2.893057346343994,-0.47302666306495667
-0.4716850221157074,2.888387680053711,-0.4743713140487671
-0.44697999954223633,2.8646039962768555,-0.4723981022834778
-0.42465001344680786,2.852055072784424,-0.472025603055954
-0.3992933928966522,2.816436290740967,-0.46782416105270386
-0.37707093358039856,2.7997045516967773,-0.46674445271492004
-0.3565846383571625,2.7942721843719482,-0.46753889322280884
-0.33519604802131653,2.781118631362915,-0.46662139892578125
-0.31628692150115967,2.7908072471618652,-0.46957796812057495
-0.2935579717159271,2.7620224952697754,-0.4660482406616211
-0.2742893397808075,2.763727903366089,-0.4676715135574341
-0.2528829276561737,2.74232816696167,-0.4651463031768799
-0.23144009709358215,2.7169642448425293,-0.4617602229118347
-0.21154530346393585,2.710658073425293,-0.4616398215293884
-0.193246528506279,2.7195475101470947,-0.46411001682281494
-0.17237001657485962,2.6898908615112305,-0.4599809944629669
-0.15408700704574585,2.6985924243927,-0.4620034992694855
-0.13532690703868866,2.699477434158325,-0.4627109169960022
-0.11485625058412552,2.669473171234131,-0.4581514298915863
-0.09709145128726959,2.6931724548339844,-0.462819367647171
-0.07809878885746002,2.6860105991363525,-0.46194276213645935
-0.05952376499772072,2.694143056869507,-0.46352675557136536
-0.04120950773358345,2.7252414226531982,-0.46908724308013916
-0.021811267361044884,2.7100210189819336,-0.4667024612426758
-0.002973533235490322,2.7177677154541016,-0.4682510793209076
0.01596837304532528,2.725454807281494,-0.4693848788738251
0.034918393939733505,2.725311279296875,-0.4691922068595886
0.05388858914375305,2.7250351905822754,-0.46899929642677307
0.07334960997104645,2.7438697814941406,-0.4721173346042633
0.09133417904376984,2.701038360595703,-0.4643729329109192
0.11104416847229004,2.7235300540924072,-0.4676905572414398
0.13088759779930115,2.7420332431793213,-0.47033748030662537
0.153306782245636,2.802682876586914,-0.4802212417125702
0.17493657767772675,2.836256980895996,-0.4854394197463989
0.19495373964309692,2.8351495265960693,-0.4842814803123474
0.21579375863075256,2.8492820262908936,-0.485761433839798
0.23686183989048004,2.8632614612579346,-0.4872276484966278
0.2567802369594574,2.8617401123046875,-0.4860738515853882
0.27891573309898376,2.883127450942993,-0.4885569214820862
0.30606451630592346,2.946500062942505,-0.49791163206100464
0.3307737410068512,2.9828739166259766,-0.5027047991752625
0.35559895634651184,3.0152194499969482,-0.5068075656890869
0.3823184370994568,3.0588459968566895,-0.5127556324005127
0.4070771038532257,3.083230972290039,-0.5150212049484253
0.43630075454711914,3.1340973377227783,-0.5216553211212158
0.46256712079048157,3.161874294281006,-0.5244511365890503
0.4922386109828949,3.208483934402466,-0.5303440690040588
0.5206671357154846,3.243481397628784,-0.5339937210083008
0.5527570843696594,3.297297716140747,-0.540509045124054
0.582989513874054,3.3356356620788574,-0.544440507888794
0.6135369539260864,3.369852304458618,-0.5476250648498535
0.647768497467041,3.4228458404541016,-0.5537840127944946
0.681919515132904,3.4718375205993652,-0.5588185787200928
0.7190630435943604,3.5318806171417236,-0.565564751625061
0.7588022351264954,3.5991172790527344,-0.5733614563941956
0.7909421920776367,3.6244072914123535,-0.5743639469146729
0.8467096090316772,3.755051374435425,-0.5916458964347839
0.8998726010322571,3.8663668632507324,-0.6055417656898499
0.9511041641235352,3.9621152877807617,-0.6168113946914673
1.0001862049102783,4.042324066162109,-0.6254904866218567
1.0508328676223755,4.1219964027404785,-0.6337295174598694
1.1098430156707764,4.231291770935059,-0.64606112241745
1.1563303470611572,4.287755489349365,-0.6501678228378296
1.197657585144043,4.321392059326172,-0.6507047414779663
1.2247564792633057,4.302587032318115,-0.6433356404304504
1.2464396953582764,4.265059471130371,-0.6327128410339355
1.2804471254348755,4.272029876708984,-0.6287971138954163
1.3033746480941772,4.241714954376221,-0.6194106340408325
1.3307795524597168,4.225980281829834,-0.6121860146522522
1.344717025756836,4.16965389251709,-0.5989145040512085
1.1762031316757202,3.5618629455566406,-0.5070376396179199
1.1723934412002563,3.47003436088562,-0.4895796477794647
1.1942075490951538,3.4551656246185303,-0.48306792974472046
1.2208960056304932,3.454820156097412,-0.47850221395492554
1.2394890785217285,3.432518243789673,-0.4707272946834564
1.2658747434616089,3.4319231510162354,-0.4659617245197296
1.2903556823730469,3.4235997200012207,-0.4600055515766144
1.3115270137786865,3.4080278873443604,-0.4531485438346863
1.3349905014038086,3.399711847305298,-0.4470560550689697
1.3555381298065186,3.384016275405884,-0.4400196373462677
1.3762688636779785,3.368058681488037,-0.43291905522346497
1.4033098220825195,3.3660969734191895,-0.4275268614292145
1.4173176288604736,3.335747480392456,-0.418443888425827
1.4402222633361816,3.3267157077789307,-0.412088543176651
1.4791316986083984,3.352872610092163,-0.4099639058113098
1.5074721574783325,3.353802442550659,-0.40466827154159546
1.5292562246322632,3.3404786586761475,-0.39738044142723083
1.5570465326309204,3.341275453567505,-0.3918721377849579
1.5903688669204712,3.35217022895813,-0.3874005377292633
1.5953370332717896,3.3032052516937256,-0.37601932883262634
1.6264433860778809,3.3104634284973145,-0.37093713879585266
1.619855284690857,3.2407724857330322,-0.3572287857532501
1.6284451484680176,3.2023868560791016,-0.34709104895591736
1.672268033027649,3.2331225872039795,-0.3443852961063385
1.7141329050064087,3.2603132724761963,-0.34106534719467163
1.7271435260772705,3.2321670055389404,-0.3319210112094879
1.746137022972107,3.213864326477051,-0.3236450254917145
1.7254188060760498,3.1239237785339355,-0.3081847131252289
1.742671251296997,3.106135368347168,-0.3000999987125397
1.7813613414764404,3.125230312347412,-0.29542139172554016
1.3408136367797852,2.314772367477417,-0.21383114159107208
1.3031502962112427,2.2155351638793945,-0.19982852041721344
0.950778067111969,1.591758131980896,-0.14000917971134186
0.9720386266708374,1.6020610332489014,-0.1372230350971222
0.9768762588500977,1.585762619972229,-0.1321309506893158
0.9874351024627686,1.57955801486969,-0.1278962939977646
0.9982997179031372,1.573063850402832,-0.12351954728364944
1.011523962020874,1.569585919380188,-0.1192118227481842
1.0112316608428955,1.5468682050704956,-0.11354728788137436
1.0303727388381958,1.553267478942871,-0.10991708934307098
1.0476778745651245,1.5561028718948364,-0.10584833472967148
1.051242709159851,1.5398640632629395,-0.10048243403434753
2.5480048656463623,3.6782798767089844,-0.22919227182865143
2.57324481010437,3.6614065170288086,-0.21705390512943268
2.5969557762145996,3.645327568054199,-0.20495881140232086
2.622025966644287,3.628040313720703,-0.19210194051265717
2.6183817386627197,3.5734360218048096,-0.17715781927108765
2.6788644790649414,3.6070594787597656,-0.16633039712905884
2.6391823291778564,3.710139513015747,0.39665934443473816
2.6106715202331543,3.7288694381713867,0.40949177742004395
2.5880300998687744,3.752747058868408,0.4221585988998413
1.071761965751648,1.580146074295044,0.18184888362884521
1.0641402006149292,1.5940940380096436,0.1873587965965271
1.0399329662322998,1.5816242694854736,0.18951433897018433
1.027377724647522,1.5892701148986816,0.1939765363931656
1.011038899421692,1.5899862051010132,0.19746562838554382
1.007982850074768,1.6097874641418457,0.203104630112648
0.99997878074646,1.6233971118927002,0.20791426301002502
0.9834210276603699,1.6239014863967896,0.2110075056552887
0.9633646011352539,1.61733877658844,0.21305535733699799
0.9558000564575195,1.630347490310669,0.21754314005374908
1.3366137742996216,2.3194963932037354,0.3132252097129822
1.8215957880020142,3.2166433334350586,0.43950456380844116
1.762459635734558,3.164449453353882,0.4371385872364044
1.7619774341583252,3.216982841491699,0.4492121934890747
1.77628493309021,3.3009796142578125,0.46547821164131165
1.7603352069854736,3.3305583000183105,0.4741961658000946
2.3700830936431885,4.563160419464111,0.6556831002235413
2.337812662124634,4.578618049621582,0.6637263298034668
2.303640127182007,4.594746112823486,0.6717087030410767
2.269205331802368,4.610719680786133,0.6794225573539734
2.2415859699249268,4.64028263092041,0.68916255235672
2.2154524326324463,4.668875694274902,0.6985464096069336
2.1791939735412598,4.676275253295898,0.7047961354255676
2.144402027130127,4.691287517547607,0.7117137312889099
2.1120424270629883,4.713354587554932,0.719832181930542
2.0776541233062744,4.727574348449707,0.7266255021095276
2.035195827484131,4.71973991394043,0.729883074760437
1.7743241786956787,4.195253849029541,0.6526837348937988
1.72269868850708,4.157345294952393,0.6502788066864014
1.694442629814148,4.1764326095581055,0.6568509340286255
1.6584028005599976,4.173411846160889,0.659864604473114
1.6374397277832031,4.2057623863220215,0.6684027910232544
1.6023095846176147,4.201921463012695,0.6712178587913513
1.5796449184417725,4.234488487243652,0.6794025301933289
1.545426368713379,4.238102912902832,0.6830441355705261
1.5170398950576782,4.255786895751953,0.6889308094978333
1.492295265197754,4.280152320861816,0.6958248019218445
1.4697734117507935,4.311678886413574,0.7039421200752258
1.4339197874069214,4.306765556335449,0.7058203220367432
1.4044835567474365,4.3238844871521,0.7112139463424683
1.376600742340088,4.344309329986572,0.7171545624732971
1.3456858396530151,4.353316307067871,0.7212037444114685
1.3151466846466064,4.3619771003723145,0.7251954674720764
1.2866417169570923,4.377854347229004,0.730379581451416
1.2592308521270752,4.401275634765625,0.7363903522491455
1.228934407234192,4.417233467102051,0.7412384748458862
1.1990177631378174,4.432841777801514,0.7460375428199768
1.1698541641235352,4.448019504547119,0.7507467865943909
1.1387643814086914,4.455498695373535,0.7541875839233398
1.1092193126678467,4.470333576202393,0.7587361931800842
1.0784039497375488,4.485285758972168,0.7630116939544678
1.0479985475540161,4.4998979568481445,0.7672445178031921
1.0191329717636108,4.521819591522217,0.7727717757225037
0.9875375032424927,4.528329849243164,0.775664746761322
0.9566950798034668,4.538387298583984,0.7792046070098877
0.7806539535522461,3.838792085647583,0.6604942679405212
0.7488329410552979,3.8212332725524902,0.6586005091667175
0.7230119109153748,3.833695888519287,0.6619101762771606
0.8337141871452332,4.600022315979004,0.7956514358520508
0.8055750727653503,4.628077983856201,0.8019490838050842
0.7727334499359131,4.63325834274292,0.8043543100357056
0.7426638007164001,4.653387546539307,0.8091892600059509
0.7114563584327698,4.669626235961914,0.8130016326904297
0.6816635131835938,4.697088718414307,0.8188178539276123
0.6494134068489075,4.7091064453125,0.8219895362854004
0.6179730296134949,4.72853946685791,0.826504111289978
0.5869122743606567,4.747689723968506,0.8309962749481201
0.5547310709953308,4.758998394012451,0.8340920209884644
0.5228607654571533,4.777869701385498,0.838035523891449
0.4900215268135071,4.7888641357421875,0.8406410217285156
0.45663565397262573,4.795805931091309,0.8425796031951904
0.42454496026039124,4.821704387664795,0.8479021191596985
0.3928593695163727,4.847329616546631,0.8532087206840515
0.3597012460231781,4.857396125793457,0.8558231592178345
0.3266722559928894,4.8750128746032715,0.8593230843544006
0.2934204936027527,4.892422199249268,0.8627194166183472
0.2591361105442047,4.905791282653809,0.865454375743866
0.22586174309253693,4.930419921875,0.8702142834663391
0.19217751920223236,4.94712495803833,0.8736186623573303
0.15802671015262604,4.95590877532959,0.8756685853004456
0.12429673224687576,4.98757791519165,0.8815262913703918
0.08898613601922989,4.992163181304932,0.8823011517524719
0.05452292039990425,5.023416996002197,0.8878331780433655
0.01956857554614544,5.0390448570251465,0.8906468152999878
-0.015600968152284622,5.054428577423096,0.8934609293937683
-0.05085010454058647,5.061873912811279,0.8949155211448669
-0.08687882870435715,5.069068908691406,0.8963249325752258
-0.12293042987585068,5.1030449867248535,0.9019225239753723
-0.15814541280269623,5.094470500946045,0.9000409245491028
-0.19476498663425446,5.124090671539307,0.9049490094184875
-0.23071010410785675,5.130393028259277,0.905780553817749
-0.2683482766151428,5.167176723480225,0.912035346031189
-0.3055604100227356,5.1767659187316895,0.9135288000106812
-0.28743305802345276,4.357032299041748,0.7683776021003723
-0.31331902742385864,4.297558784484863,0.7572622299194336
-0.3448285460472107,4.318472862243652,0.7603532671928406
-0.3746454417705536,4.316158294677734,0.7593874335289001
-0.40017378330230713,4.2599382400512695,0.7489673495292664
-0.42479851841926575,4.2074480056762695,0.7392610907554626
-0.44775089621543884,4.147207260131836,0.7280945777893066
-0.47192102670669556,4.106041431427002,0.7199734449386597
-0.49507951736450195,4.060915946960449,0.711209237575531
-0.5185717940330505,4.0194268226623535,0.7031196355819702
-0.538694441318512,3.9587626457214355,0.6917352080345154
-0.5629086494445801,3.9323019981384277,0.68637615442276
-0.5816765427589417,3.871427297592163,0.6750567555427551
-0.6034237146377563,3.8372344970703125,0.667976975440979
-0.625167727470398,3.8028576374053955,0.6608787178993225
-0.6486157774925232,3.7836110591888428,0.6564733386039734
-0.6645481586456299,3.722494602203369,0.644847571849823
-0.6834215521812439,3.680220127105713,0.6365333199501038
-0.7076138854026794,3.6681036949157715,0.633476734161377
-0.7199375033378601,3.599306583404541,0.6203645467758179
-0.7378772497177124,3.5606465339660645,0.6123631596565247
-0.7509044408798218,3.5031449794769287,0.6012026071548462
-0.7732519507408142,3.490746021270752,0.5978285670280457
-0.789817214012146,3.451831579208374,0.589937686920166
-0.8067271709442139,3.41660737991333,0.5827304124832153
-0.8360804319381714,3.4337451457977295,0.5842195153236389
-0.8434497117996216,3.364847183227539,0.5709763169288635
-0.8624696731567383,3.344511032104492,0.5660329461097717
-0.8813204169273376,3.324049711227417,0.5611034631729126
-0.8963548541069031,3.288480281829834,0.55363929271698
-0.9103000164031982,3.2490360736846924,0.5455523729324341
-0.9325479865074158,3.2431578636169434,0.5429453253746033
-0.9501262903213501,3.2224295139312744,0.5377271771430969
-0.9607707858085632,3.1794497966766357,0.5288484692573547
-0.9755983948707581,3.1511590480804443,0.5224565863609314
-0.9874939322471619,3.1115031242370605,0.5141641497612
-1.0116256475448608,3.112311601638794,0.5126273036003113
-1.0206570625305176,3.0692028999328613,0.5036338567733765
-1.0364186763763428,3.048107624053955,0.49821606278419495
-1.050673246383667,3.0232858657836914,0.49223291873931885
-1.0663107633590698,3.0019161701202393,0.4868198335170746
-1.0876725912094116,2.994751453399658,0.4836783707141876
-1.0897516012191772,2.9368858337402344,0.47240787744522095
-1.0999177694320679,2.9047257900238037,0.4650518298149109
-1.12921941280365,2.9230000972747803,0.46578869223594666
-1.1276497840881348,2.861917734146118,0.45392218232154846
-1.139336109161377,2.832848310470581,0.4470939338207245
-1.1503759622573853,2.8038580417633057,0.44036585092544556
-1.1381157636642456,2.7216010093688965,0.42517611384391785
-1.1366474628448486,2.668199062347412,0.41450589895248413
-1.132973313331604,2.6113712787628174,0.4034058153629303
-1.1575679779052734,2.6180338859558105,0.4020542502403259
-1.1727522611618042,2.603325605392456,0.39743706583976746
-1.197110652923584,2.609806537628174,0.3959493339061737
-1.230892539024353,2.6373889446258545,0.3974791169166565
-1.2451931238174438,2.6226725578308105,0.39262017607688904
-1.2534334659576416,2.5935614109039307,0.3855292797088623
-1.2973061800003052,2.637381076812744,0.3892521262168884
-1.2789863348007202,2.556283473968506,0.3744558095932007
-1.2959611415863037,2.5483238697052,0.3703232705593109
-1.2968729734420776,2.5092673301696777,0.36172419786453247
-1.3070706129074097,2.4870848655700684,0.3554961681365967
-1.317615270614624,2.4645724296569824,0.34916746616363525
-1.3267871141433716,2.4426355361938477,0.34284690022468567
-1.3429718017578125,2.434393882751465,0.33841925859451294
-1.3497883081436157,2.4090359210968018,0.3316165804862976
-1.3590521812438965,2.3866212368011475,0.3251107633113861
-1.3718771934509277,2.3709583282470703,0.31943479180336
-1.3834792375564575,2.355849027633667,0.31378281116485596
-1.3949376344680786,2.340679407119751,0.3081568777561188
-1.4153910875320435,2.338115692138672,0.3039444386959076
-1.4316983222961426,2.3288321495056152,0.2987994849681854
-1.4512819051742554,2.32651948928833,0.2943093776702881
-1.4186919927597046,2.2421348094940186,0.279646098613739
-1.4533873796463013,2.26216459274292,0.2777787744998932
-1.4646586179733276,2.24629282951355,0.27139148116111755
-1.4727733135223389,2.2276899814605713,0.26459577679634094
-1.4575096368789673,2.1731481552124023,0.2534591555595398
-1.472875714302063,2.163459539413452,0.2474459856748581
-1.4781132936477661,2.1416914463043213,0.23995213210582733
-1.4918057918548584,2.1328470706939697,0.2339189350605011
-1.5023809671401978,2.11659836769104,0.22656214237213135
-1.509831428527832,2.0976407527923584,0.21874822676181793
-1.5093835592269897,2.0698082447052,0.2101457417011261
-1.5193543434143066,2.053558111190796,0.2021578997373581
-1.5250362157821655,2.137716770172119,-0.1248171329498291
-1.5143557786941528,2.154355525970459,-0.133285254240036
-1.4888947010040283,2.15256929397583,-0.1406092345714569
-1.4687241315841675,2.1564362049102783,-0.14788846671581268
-1.4572468996047974,2.1730804443359375,-0.1558377891778946
-1.4664024114608765,2.222625732421875,-0.16629961133003235
-1.463004469871521,2.2522480487823486,-0.17511257529258728
-1.446393609046936,2.262382984161377,-0.18230730295181274
-1.4293140172958374,2.2726221084594727,-0.18952181935310364
-1.4316576719284058,2.311915636062622,-0.19886049628257751
-1.4106616973876953,2.3150711059570312,-0.20513777434825897
-1.4010424613952637,2.3384554386138916,-0.21333520114421844
-1.3922691345214844,2.361180305480957,-0.22116734087467194
-1.363463044166565,2.350346803665161,-0.2257913053035736
-1.3575525283813477,2.3800530433654785,-0.23430342972278595
-1.3441684246063232,2.395930528640747,-0.24136753380298615
-1.3156108856201172,2.3844587802886963,-0.24562521278858185
-1.294327974319458,2.386589527130127,-0.2510944902896881
-1.2731696367263794,2.3884830474853516,-0.2564951181411743
-1.2454218864440918,2.3761227130889893,-0.2601437270641327
-1.222908854484558,2.3740346431732178,-0.264819473028183
-1.2174396514892578,2.4067070484161377,-0.27346646785736084
-1.207018256187439,2.428661584854126,-0.28080689907073975
-1.2000718116760254,2.457407236099243,-0.2889263331890106
-1.1888993978500366,2.479403018951416,-0.2962454557418823
-1.1707956790924072,2.487321138381958,-0.30191469192504883
-1.1677350997924805,2.5266242027282715,-0.31135284900665283
-1.1991703510284424,2.6438565254211426,-0.33070752024650574
-1.1531533002853394,2.5914993286132812,-0.3287392854690552
-1.1700257062911987,2.680860996246338,-0.34480375051498413
-1.1266058683395386,2.6313023567199707,-0.34295016527175903
-1.1049072742462158,2.631368398666382,-0.3474269509315491
-1.1253796815872192,2.7354960441589355,-0.3657526969909668
-1.1592127084732056,2.8758201599121094,-0.3892417550086975
-1.2471345663070679,3.1570472717285156,-0.4323612451553345
-1.2304023504257202,3.1793901920318604,-0.44044816493988037
-1.2528787851333618,3.306821584701538,-0.4631209671497345
-1.2341070175170898,3.329514503479004,-0.4714447259902954
-1.2198586463928223,3.3627383708953857,-0.48116928339004517
-1.2012642621994019,3.3849830627441406,-0.4893665909767151
-1.1706805229187012,3.3743584156036377,-0.4925641417503357
-1.1651506423950195,3.4367482662200928,-0.5064966678619385
-1.1429003477096558,3.451482057571411,-0.5135340094566345
-1.1162744760513306,3.4511876106262207,-0.518255889415741
-1.0754127502441406,3.4065942764282227,-0.5159366726875305
-1.0409444570541382,3.3800816535949707,-0.5162582397460938
-0.9892465472221375,3.2940096855163574,-0.5073249936103821
-0.9497423768043518,3.244478940963745,-0.503842294216156
-0.9114855527877808,3.1984779834747314,-0.5005921721458435
-0.8691243529319763,3.133439540863037,-0.4940767288208008
-0.8318488001823425,3.082879066467285,-0.48970553278923035
-0.8004364371299744,3.0505926609039307,-0.4881180226802826
-0.7646654844284058,2.9993796348571777,-0.48324131965637207
-0.7338302731513977,2.9666996002197266,-0.48111987113952637
-0.7029615044593811,2.929917335510254,-0.47822126746177673
-0.6737207174301147,2.896578788757324,-0.475796103477478
-0.6390302181243896,2.8366646766662598,-0.46886977553367615
-0.6108526587486267,2.8028805255889893,-0.46584224700927734
-0.5875842571258545,2.791553258895874,-0.46656981110572815
-0.5580275058746338,2.7459704875946045,-0.46147996187210083
-0.5343467593193054,2.7265965938568115,-0.4607484042644501
-0.50590580701828,2.6805903911590576,-0.45516717433929443
-0.48153451085090637,2.6533091068267822,-0.4526394307613373
-0.4612736105918884,2.6486339569091797,-0.45399078726768494
-0.4377050995826721,2.6209564208984375,-0.4513448178768158
-0.4163637161254883,2.604522705078125,-0.4504544734954834
-0.39114564657211304,2.5613324642181396,-0.44466689229011536
-0.373227059841156,2.5636396408081055,-0.4467678368091583
-0.3528875410556793,2.5506045818328857,-0.4462352395057678
-0.331563264131546,2.5259315967559814,-0.4436298608779907
-0.3152942657470703,2.539355516433716,-0.4473043978214264
-0.29616817831993103,2.5297441482543945,-0.4469360113143921
-0.2743056118488312,2.493218183517456,-0.44180381298065186
-0.2600988745689392,2.5253913402557373,-0.4488597810268402
-0.24145421385765076,2.5192601680755615,-0.44892454147338867
-0.2204861044883728,2.482357978820801,-0.44329550862312317
-0.20443390309810638,2.4989521503448486,-0.447232723236084
-0.18586638569831848,2.4847629070281982,-0.44568225741386414
-0.16752342879772186,2.4704465866088867,-0.44407084584236145
-0.1495293825864792,2.463758945465088,-0.44345924258232117
-0.13213109970092773,2.4607672691345215,-0.4435221254825592
-0.11428181082010269,2.446131706237793,-0.4415017068386078
-0.0979023277759552,2.4620957374572754,-0.445024311542511
-0.08077695220708847,2.462632894515991,-0.44548895955085754
-0.06314150989055634,2.455399751663208,-0.44442018866539
-0.046061109751462936,2.4557225704193115,-0.44473573565483093
-0.02906997874379158,2.4636130332946777,-0.4464442729949951
-0.011878379620611668,2.4560279846191406,-0.4452756345272064
0.005236901808530092,2.4637603759765625,-0.4465460479259491
0.022676562890410423,2.463684320449829,-0.44642072916030884
0.039809148758649826,2.463489532470703,-0.4462975859642029
0.057364970445632935,2.482389211654663,-0.4496549069881439
0.07508712261915207,2.4973816871643066,-0.4519798159599304
0.09216660261154175,2.4892187118530273,-0.4500243663787842
0.11114385724067688,2.5270252227783203,-0.4563964009284973
0.1294010579586029,2.5339601039886475,-0.45719876885414124
0.14701424539089203,2.5331273078918457,-0.4564882218837738
0.16558676958084106,2.547576427459717,-0.4582291841506958
0.18464279174804688,2.5657262802124023,-0.46064630150794983
0.20432153344154358,2.587564706802368,-0.46373140811920166
0.22397767007350922,2.6015679836273193,-0.4654081165790558
0.24563603103160858,2.6384966373443604,-0.4708150029182434
0.26743221282958984,2.6714389324188232,-0.4754334092140198
0.29092761874198914,2.7156851291656494,-0.48204895853996277
0.31289082765579224,2.7406258583068848,-0.48522618412971497
0.3322538733482361,2.7386622428894043,-0.4834369719028473
0.3561819791793823,2.774812936782837,-0.4881175756454468
0.3785407841205597,2.7955174446105957,-0.490069180727005
0.39966219663619995,2.8046059608459473,-0.48997995257377625
0.41637173295021057,2.783078908920288,-0.48457035422325134
0.4527694284915924,2.887006998062134,-0.5004883408546448
0.477827250957489,2.914639949798584,-0.5031231641769409
0.5033363699913025,2.9420628547668457,-0.5056965947151184
0.5353569984436035,3.003403425216675,-0.5140529274940491
0.5632922649383545,3.037990093231201,-0.5175241827964783
0.5997101068496704,3.1140053272247314,-0.527768075466156
0.6300493478775024,3.151822090148926,-0.5314106941223145
0.6645922660827637,3.208296298980713,-0.5381697416305542
0.7023347020149231,3.2757859230041504,-0.5466210842132568
0.7376256585121155,3.3279504776000977,-0.5520203113555908
0.778838574886322,3.4023547172546387,-0.5610010623931885
0.8189911246299744,3.4649970531463623,-0.5678505897521973
0.8569534420967102,3.516094923019409,-0.5727654099464417
0.9152583479881287,3.645538806915283,-0.5899125933647156
0.966671347618103,3.7407801151275635,-0.601192831993103
1.021492838859558,3.842963695526123,-0.6133779883384705
1.0723034143447876,3.9220991134643555,-0.6216024160385132
1.1278654336929321,4.015790939331055,-0.6318202018737793
1.1867427825927734,4.1164469718933105,-0.6426535844802856
1.2460037469863892,4.212801456451416,-0.6525842547416687
1.2889997959136963,4.249314785003662,-0.6530466675758362
1.3261783123016357,4.263167381286621,-0.6498171091079712
1.3439890146255493,4.21807336807251,-0.6373426914215088
1.3684309720993042,4.19497013092041,-0.6282904148101807
1.4002125263214111,4.1936540603637695,-0.6224936246871948
1.4183741807937622,4.151790142059326,-0.610724925994873
1.4369604587554932,4.1136674880981445,-0.5992803573608398
1.2315810918807983,3.4483611583709717,-0.49734076857566833
1.2529770135879517,3.433277130126953,-0.49021854996681213
1.27168869972229,3.410733222961426,-0.4820503890514374
1.300894856452942,3.4171667098999023,-0.4778071939945221
1.3189105987548828,3.3945231437683105,-0.46941888332366943
1.3457545042037964,3.393205404281616,-0.4638992249965668
1.3608872890472412,3.3629722595214844,-0.45449912548065186
1.3812910318374634,3.347137928009033,-0.44699010252952576
1.4103589057922363,3.3527109622955322,-0.44223347306251526
1.4335460662841797,3.3437421321868896,-0.43553370237350464
1.4606294631958008,3.3413705825805664,-0.4294995069503784
1.4807071685791016,3.3249120712280273,-0.4216866195201874
1.5003539323806763,3.308453321456909,-0.4138103425502777
1.5394809246063232,3.334110736846924,-0.4111426770687103
1.577839970588684,3.355674982070923,-0.40775349736213684
1.6015405654907227,3.3453338146209717,-0.4002593159675598
1.6108057498931885,3.307230234146118,-0.389552503824234
1.6181344985961914,3.265538454055786,-0.3784862458705902
1.6113715171813965,3.195923328399658,-0.3642612397670746
1.6369458436965942,3.1924805641174316,-0.35760343074798584
1.6586973667144775,3.182065725326538,-0.3501226007938385
1.7084370851516724,3.222658634185791,-0.3479481041431427
1.7311186790466309,3.211373805999756,-0.34008926153182983
1.7491782903671265,3.1935343742370605,-0.33147871494293213
1.734859585762024,3.1178057193756104,-0.3170119524002075
1.7567076683044434,3.1063554286956787,-0.309001624584198
1.807784914970398,3.1452510356903076,-0.30571267008781433
1.336421012878418,2.2897937297821045,-0.21738088130950928
0.9549999237060547,1.611208200454712,-0.14923731982707977
0.9563215374946594,1.588140845298767,-0.14329451322555542
0.9711068272590637,1.5886728763580322,-0.13949590921401978
0.9819255471229553,1.5823969841003418,-0.13502183556556702
0.9930461049079895,1.5758311748504639,-0.13040204346179962
0.9995827674865723,1.5628244876861572,-0.12525667250156403
1.0141994953155518,1.5630439519882202,-0.12117001414299011
1.0250269174575806,1.5563324689865112,-0.11635248363018036
1.031490445137024,1.5430481433868408,-0.11093035340309143
1.037225604057312,1.530125379562378,-0.10565469413995743
1.0632829666137695,1.5457367897033691,-0.10205938667058945
2.5649912357330322,3.6758668422698975,-0.2312823385000229
2.5889573097229004,3.6597940921783447,-0.21880778670310974
2.628587245941162,3.661090135574341,-0.20628564059734344
2.6065833568573,3.581418514251709,-0.1895221769809723
2.639481544494629,3.5773603916168213,-0.17656852304935455
2.62825083732605,3.7239041328430176,0.4290255010128021
2.60025954246521,3.742013931274414,0.44182825088500977
2.566042900085449,3.754629135131836,0.4538089632987976
1.0477843284606934,1.5572080612182617,0.1922459900379181
1.0404454469680786,1.5708634853363037,0.19776266813278198
1.0407932996749878,1.5979177951812744,0.20496876537799835
1.0122098922729492,1.5788261890411377,0.20602533221244812
1.0257395505905151,1.6248732805252075,0.21547652781009674
1.00065016746521,1.6125271320343018,0.2171456217765808
0.9882683753967285,1.6195811033248901,0.22131378948688507
0.9727608561515808,1.6193701028823853,0.22425119578838348
0.9726899862289429,1.6459670066833496,0.23086777329444885
1.355399250984192,2.3333969116210938,0.3312917947769165
1.862168788909912,3.261910915374756,0.4686926603317261
1.8048213720321655,3.2132229804992676,0.4667781591415405
1.7568773031234741,3.181295156478882,0.46700793504714966
1.782568335533142,3.285501718521118,0.4871296286582947
1.754133701324463,3.291011333465576,0.4927351474761963
2.398836851119995,4.578376293182373,0.691840410232544
2.3624327182769775,4.587265491485596,0.6993439793586731
2.320924758911133,4.58980655670166,0.7054678201675415
2.293269157409668,4.619704246520996,0.7158362865447998
2.2632999420166016,4.64184045791626,0.7248348593711853
2.233281135559082,4.663700580596924,0.733818531036377
2.199183464050293,4.678689479827881,0.7413472533226013
2.1642963886260986,4.6937575340271,0.7487307786941528
2.1261165142059326,4.701512813568115,0.7549816370010376
2.0959534645080566,4.722367763519287,0.7631254196166992
2.0688087940216064,4.750052452087402,0.7724144458770752
2.006093978881836,4.700267314910889,0.768751323223114
1.7373833656311035,4.1545000076293945,0.6832349896430969
1.7066127061843872,4.166292667388916,0.6889520883560181
1.6772291660308838,4.17730712890625,0.6943963766098022
1.6506763696670532,4.195263862609863,0.7010256052017212
1.6142246723175049,4.1920084953308105,0.7038571238517761
1.5916469097137451,4.224541187286377,0.7125059962272644
1.5633410215377808,4.242474555969238,0.7187524437904358
1.535759687423706,4.259909629821777,0.7248691320419312
1.5135095119476318,4.291585922241211,0.7334280014038086
1.4824362993240356,4.30159854888916,0.7382214069366455
1.4510724544525146,4.3115234375,0.7426250576972961
1.4172348976135254,4.313891887664795,0.745762050151825
1.388404130935669,4.3305983543396,0.7513941526412964
1.3615117073059082,4.3505072593688965,0.7575476169586182
1.3225926160812378,4.333554267883301,0.7573606967926025
1.3013396263122559,4.375490665435791,0.7670531272888184
1.2739522457122803,4.398921966552734,0.7734349966049194
1.2484277486801147,4.429579734802246,0.7811437845230103
1.210811972618103,4.415396213531494,0.7809485793113708
1.1858675479888916,4.445424556732178,0.7885746955871582
1.1522347927093506,4.445641040802002,0.7910040020942688
1.124062418937683,4.468158721923828,0.7968509197235107
1.0937398672103882,4.483031749725342,0.801378607749939
1.0633083581924438,4.497685432434082,0.8059118986129761
1.0315775871276855,4.5045061111450195,0.8090513944625854
1.002061128616333,4.52241849899292,0.8142430186271667
0.9704786539077759,4.528742790222168,0.817340075969696
0.9279947876930237,4.486124038696289,0.8110588192939758
0.7673527598381042,3.8471944332122803,0.6967846155166626
0.7347964644432068,3.825742483139038,0.6941659450531006
0.8491489291191101,4.598125457763672,0.8358774781227112
0.822436511516571,4.63375997543335,0.8439305424690247
0.7913948893547058,4.646496772766113,0.8478673696517944
0.7603166103363037,4.662998199462891,0.8519777655601501
0.729644238948822,4.683094501495361,0.856746256351471
0.6969243288040161,4.695474147796631,0.8601750135421753
0.6649434566497803,4.707509517669678,0.8635572195053101
0.6341607570648193,4.726903915405273,0.8683264851570129
0.6021709442138672,4.738470077514648,0.8717058300971985
0.570676326751709,4.757556438446045,0.8760941624641418
0.5388132929801941,4.7764787673950195,0.8803130388259888
0.5065276622772217,4.7990641593933105,0.8852702379226685
0.47496578097343445,4.825193405151367,0.8909178972244263
0.4392954409122467,4.805167198181152,0.88807612657547
0.4078044891357422,4.83081579208374,0.8937190771102905
0.3758803606033325,4.8563032150268555,0.8991565704345703
0.3417681157588959,4.866373062133789,0.9013924598693848
0.30861735343933105,4.883834362030029,0.905037522315979
0.2750231623649597,4.897232532501221,0.907976508140564
0.24198734760284424,4.921900749206543,0.9130504131317139
0.20808392763137817,4.930989742279053,0.9152801632881165
0.17399555444717407,4.9552154541015625,0.9203783273696899
0.1398477703332901,4.9716291427612305,0.9234256148338318
0.10555746406316757,4.991649627685547,0.9271718859672546
0.07072252780199051,4.9922308921813965,0.9273528456687927
0.03621727600693703,5.030972957611084,0.9346684217453003
0.0005995604442432523,5.023387908935547,0.9334262013435364
-0.03454608470201492,5.061641216278076,0.9407449960708618
-0.0698329508304596,5.06898832321167,0.9420157074928284
-0.10560061037540436,5.095344066619873,0.9465514421463013
-0.14114919304847717,5.102252960205078,0.9475182294845581
-0.1771218478679657,5.116588592529297,0.9499080777168274
-0.21431268751621246,5.138317584991455,0.9537107348442078
-0.25080856680870056,5.152133464813232,0.9560934901237488
-0.2877050042152405,5.169535160064697,0.9591346383094788
-0.27476227283477783,4.3894147872924805,0.8137558102607727
-0.30007195472717285,4.314774990081787,0.7993285655975342
-0.3304593861103058,4.312728404998779,0.7983883023262024
-0.36158257722854614,4.325821399688721,0.8002972602844238
-0.3881959021091461,4.28511381149292,0.7922914624214172
-0.4130936563014984,4.232778072357178,0.7821839451789856
-0.4366992712020874,4.176560401916504,0.7710604667663574
-0.4612293541431427,4.1316633224487305,0.7618753910064697
-0.4851072132587433,4.090494632720947,0.7534465193748474
-0.5079619884490967,4.045376300811768,0.7443419694900513
-0.5290577411651611,3.9886605739593506,0.7331475615501404
-0.5520473122596741,3.9508745670318604,0.7254844307899475
-0.5776554942131042,3.931950807571411,0.7211820483207703
-0.5935314893722534,3.8560450077056885,0.706132173538208
-0.6138485074043274,3.814260721206665,0.6973977088928223
-0.633661687374115,3.772367000579834,0.6886956095695496
