X,Y,Z
1.2962411642074585,3.6490328311920166,0.3758738338947296
1.2670680284500122,3.6507515907287598,0.37786468863487244
1.6312880516052246,4.811901092529297,0.5003207921981812
1.6049911975860596,4.8490447998046875,0.5064893364906311
1.5734590291976929,4.867186546325684,0.5106359720230103
1.5312690734863281,4.851747989654541,0.5112727880477905
1.4962793588638306,4.86230993270874,0.5145280957221985
1.4712834358215332,4.906136989593506,0.5211042761802673
1.4283015727996826,4.890167713165283,0.5213589072227478
1.3989981412887573,4.918517112731934,0.5263276696205139
1.3688076734542847,4.9428181648254395,0.5308756232261658
1.309031367301941,4.85814094543457,0.5237133502960205
1.2735751867294312,4.8672776222229,0.5262897610664368
1.24250328540802,4.891064167022705,0.5304495692253113
1.216781735420227,4.93726921081543,0.5370831489562988
1.1841309070587158,4.9529194831848145,0.5403934717178345
1.1522470712661743,4.972124099731445,0.5441217422485352
1.121759057044983,5.002715110778809,0.549010157585144
1.0926541090011597,5.040716171264648,0.554473876953125
1.0567498207092285,5.048130989074707,0.5566071271896362
1.0225387811660767,5.062861919403076,0.5595694780349731
0.9872052669525146,5.069638729095459,0.5616629123687744
2.18145489692688,11.641071319580078,1.2929015159606934
2.0662753582000732,11.472258567810059,1.276735782623291
1.9584386348724365,11.333146095275879,1.2635071277618408
1.8449554443359375,11.147150039672852,1.2450474500656128
1.7374379634857178,10.97535514831543,1.2281336784362793
1.6499571800231934,10.921690940856934,1.2244614362716675
1.5517261028289795,10.77880859375,1.21076500415802
1.4575761556625366,10.654495239257812,1.1984903812408447
1.360482931137085,10.494816780090332,1.1820032596588135
1.2694897651672363,10.365141868591309,1.1689101457595825
1.1866074800491333,10.284804344177246,1.1613960266113281
1.0974804162979126,10.142152786254883,1.146882176399231
1.0225305557250977,10.106792449951172,1.1445006132125854
0.40690913796424866,4.324423313140869,0.49015024304389954
0.37587523460388184,4.319361686706543,0.4899546504020691
0.3424121141433716,4.283128261566162,0.48624366521835327
0.31085237860679626,4.269890308380127,0.48516666889190674
0.28624823689460754,4.349332332611084,0.4946416914463043
0.33036816120147705,5.614246845245361,0.6391063928604126
0.29297542572021484,5.6512370109558105,0.643638551235199
0.2538536489009857,5.660852432250977,0.6449341177940369
0.2141779214143753,5.677980422973633,0.6471224427223206
0.17625439167022705,5.733598709106445,0.6537278890609741
0.13648955523967743,5.738517761230469,0.6545863151550293
0.09751391410827637,5.793607711791992,0.6612025499343872
0.05667990446090698,5.739797592163086,0.65514075756073
0.016085106879472733,5.7478251457214355,0.655954122543335
-0.03702155128121376,8.899203300476074,1.0154889822006226
-0.0984278991818428,8.852173805236816,1.010064721107483
-0.15763813257217407,8.719350814819336,0.994900643825531
-0.21646210551261902,8.64433765411377,0.9863806962966919
-0.1319371461868286,4.123501777648926,0.4704088866710663
-0.16072794795036316,4.114757537841797,0.4691241681575775
-0.1824982762336731,3.9662585258483887,0.45194345712661743
-0.18829350173473358,3.554103374481201,0.4047743082046509
-0.21434557437896729,3.575995922088623,0.40708088874816895
-0.24019227921962738,3.589951753616333,0.40850165486335754
-0.28526705503463745,3.8553037643432617,0.4384281635284424
-0.3106313645839691,3.837844133377075,0.43598946928977966
-0.3340286612510681,3.8008882999420166,0.43136316537857056
-0.35587161779403687,3.7521955966949463,0.4254336953163147
-0.38118812441825867,3.741980791091919,0.423890084028244
-0.4030282497406006,3.6968190670013428,0.4184073209762573
-0.426848828792572,3.678596019744873,0.41593194007873535
-0.44741034507751465,3.6371519565582275,0.41061651706695557
-0.4658830463886261,3.5840542316436768,0.40402084589004517
-0.49049651622772217,3.580874443054199,0.4030797779560089
-0.5092259049415588,3.5313053131103516,0.396925687789917
-0.5338097810745239,3.5277786254882812,0.395984023809433
-0.5528658032417297,3.489579916000366,0.39111819863319397
-0.5767955183982849,3.48583984375,0.389911949634552
-1.095781922340393,6.351661682128906,0.7090674042701721
-1.1455163955688477,6.378635406494141,0.710699200630188
-1.197707176208496,6.4088029861450195,0.7126646041870117
-1.2495176792144775,6.43871545791626,0.7146463990211487
-1.3070305585861206,6.494906902313232,0.7194352746009827
-1.3615435361862183,6.535585403442383,0.7221105098724365
-1.4142167568206787,6.564435005187988,0.723487913608551
-1.4547046422958374,6.532026290893555,0.7181091904640198
-1.4887818098068237,6.4728569984436035,0.7098403573036194
-1.5230686664581299,6.417291164398193,0.7020240426063538
-0.6839840412139893,2.7959656715393066,0.30504655838012695
-0.6991897821426392,2.7763383388519287,0.30196064710617065
-0.714460015296936,2.756556510925293,0.2988673448562622
-0.7293276786804199,2.73673677444458,0.2958023250102997
-0.7483862042427063,2.7317442893981934,0.2943432629108429
-0.7863309383392334,2.793949604034424,0.30011799931526184
-1.7564526796340942,6.081324100494385,0.6509365439414978
-1.8071526288986206,6.099284648895264,0.6503521800041199
-1.1878817081451416,3.9119327068328857,0.4155522882938385
-1.1743625402450562,3.774038314819336,0.39938080310821533
-1.202998399734497,3.773419141769409,0.39778587222099304
-1.2340214252471924,3.779998302459717,0.3969497084617615
-1.2673083543777466,3.793848752975464,0.3965771794319153
-1.3066637516021729,3.8259668350219727,0.3981350362300873
-1.3543037176132202,3.879716396331787,0.4019061326980591
-1.3813186883926392,3.8704721927642822,0.39908623695373535
-1.4082337617874146,3.861051082611084,0.3962699770927429
-2.10628342628479,5.6554388999938965,0.5774829387664795
-2.1241300106048584,5.586864471435547,0.5673699378967285
-2.161590099334717,5.572929382324219,0.5629152655601501
-2.2159500122070312,5.5980424880981445,0.5623072385787964
-2.281259298324585,5.647797107696533,0.5641183853149414
-2.330406665802002,5.65764045715332,0.5617607831954956
-2.3613548278808594,5.6242146492004395,0.5548305511474609
-2.389800786972046,5.587305068969727,0.5476663112640381
-2.4453325271606445,5.610451698303223,0.5463027358055115
-2.5492100715637207,5.739552974700928,0.5551117658615112
-2.5211031436920166,5.573579788208008,0.5352737903594971
-2.549006462097168,5.535721302032471,0.5275793671607971
-2.5824856758117676,5.512115478515625,0.5213565230369568
-2.6003990173339844,5.452527046203613,0.5116395354270935
-2.6452529430389404,5.448764324188232,0.5071581602096558
-2.6596932411193848,5.385895729064941,0.4970245063304901
-2.695927858352661,5.368411540985107,0.4909214377403259
-4.813546657562256,9.429068565368652,0.854446291923523
-4.943990707397461,9.520581245422363,0.8544466495513916
-2.475151538848877,4.686610698699951,0.4165096580982208
-2.452561378479004,4.571199417114258,0.4019814431667328
-1.1704946756362915,2.147754669189453,0.18685419857501984
-1.181711196899414,2.1329472064971924,0.1834367960691452
-2.538506031036377,4.507698059082031,0.38314980268478394
-2.5684945583343506,4.4911956787109375,0.37703585624694824
-2.601733922958374,4.48154878616333,0.3714480698108673
-2.6043872833251953,4.4173197746276855,0.36121800541877747
-1.2578327655792236,2.099297285079956,0.1692037284374237
-2.6609435081481934,4.375435829162598,0.3474310636520386
-2.658620834350586,4.30881929397583,0.33690524101257324
-2.9693944454193115,4.740365982055664,0.3645641505718231
-2.998365640640259,4.713454246520996,0.3562481105327606
-3.018683910369873,4.677886009216309,0.34700021147727966
-3.0360546112060547,4.639278411865234,0.3376661539077759
-3.046844720840454,4.5860700607299805,0.32683125138282776
-3.077357053756714,4.566251277923584,0.3183392286300659
-3.0953381061553955,4.531073093414307,0.30871251225471497
-3.1090002059936523,4.48441743850708,0.29771339893341064
-2.894599437713623,4.116153717041016,0.2659410536289215
-2.8366363048553467,3.980884313583374,0.2499808520078659
-2.8820436000823975,3.9872748851776123,0.24245740473270416
-2.91298246383667,3.974968671798706,0.233464777469635
-2.909813165664673,3.9196643829345703,0.22189977765083313
-2.470763683319092,3.483377456665039,-0.15387341380119324
-2.4358625411987305,3.4884376525878906,-0.16231517493724823
-2.935725688934326,4.271791934967041,-0.20847401022911072
-2.3800384998321533,3.516507863998413,-0.17913669347763062
-2.2948660850524902,3.4463508129119873,-0.18274536728858948
-2.233506917953491,3.406970262527466,-0.1873638927936554
-2.1815967559814453,3.3798179626464844,-0.19225940108299255
-2.122650146484375,3.343017101287842,-0.19641289114952087
-2.0982296466827393,3.35798716545105,-0.2033260613679886
-1.2710684537887573,2.0666897296905518,-0.12868551909923553
-2.061002731323242,3.4075138568878174,-0.21795623004436493
-2.032465696334839,3.4151206016540527,-0.22397592663764954
-2.020204782485962,3.4491140842437744,-0.2316199094057083
-1.9980326890945435,3.470571756362915,-0.23850558698177338
-1.1986066102981567,2.11722469329834,-0.1486896276473999
-1.1647870540618896,2.0912461280822754,-0.14987649023532867
-1.9472490549087524,3.555922508239746,-0.25988948345184326
-1.9284743070602417,3.583411931991577,-0.26692134141921997
-1.9172455072402954,3.624300479888916,-0.27491647005081177
-1.9079318046569824,3.6683497428894043,-0.283100426197052
-2.4555439949035645,4.806028366088867,-0.3770773708820343
-2.4345436096191406,4.851009845733643,-0.3867892622947693
-2.4074389934539795,4.881318092346191,-0.3951745331287384
-2.3823766708374023,4.918982982635498,-0.40426409244537354
-2.3549156188964844,4.953166961669922,-0.4129266142845154
-1.5648423433303833,3.3529086112976074,-0.28342410922050476
-1.5380511283874512,3.3563175201416016,-0.2875159680843353
-1.51097571849823,3.3596577644348145,-0.2915266156196594
-1.4865996837615967,3.3701181411743164,-0.29607272148132324
-1.4712510108947754,3.4019083976745605,-0.3025570213794708
-2.158914089202881,5.088934421539307,-0.45789119601249695
-1.4381287097930908,3.4574499130249023,-0.3146142065525055
-1.4073270559310913,3.452901601791382,-0.31759899854660034
-1.376766562461853,3.448049306869507,-0.32052987813949585
-1.3550294637680054,3.4646129608154297,-0.32543638348579407
-1.3334240913391113,3.4809317588806152,-0.33024314045906067
-2.062375545501709,5.500967502593994,-0.5268093943595886
-2.033625364303589,5.54421854019165,-0.5359131097793579
-1.9816826581954956,5.521088123321533,-0.5385000705718994
-1.888314962387085,5.380275726318359,-0.5295454859733582
-1.5988048315048218,4.660971164703369,-0.4625323414802551
-1.5692472457885742,4.682828426361084,-0.46848660707473755
-1.8592028617858887,5.67997932434082,-0.5727889537811279
-0.9789862632751465,3.0627779960632324,-0.31129685044288635
-0.9685327410697937,3.106536388397217,-0.318136602640152
-0.9441417455673218,3.1056106090545654,-0.3202933073043823
-0.8050384521484375,2.7168803215026855,-0.28217118978500366
-0.7720162272453308,2.673635482788086,-0.2795954942703247
-0.7595872282981873,2.701167106628418,-0.2844049334526062
-0.7424198389053345,2.713754415512085,-0.28747493028640747
-0.7187920212745667,2.703782320022583,-0.28819459676742554
-0.7105120420455933,2.7498958110809326,-0.2948701083660126
-0.6790346503257751,2.7055516242980957,-0.29184532165527344
-1.5149019956588745,6.2202301025390625,-0.6746931672096252
-1.4861085414886475,6.294546127319336,-0.6862665414810181
-1.4400352239608765,6.300750255584717,-0.6905393004417419
-1.398538589477539,6.321524143218994,-0.6963493227958679
-1.3421969413757324,6.27366304397583,-0.6946070790290833
-1.2900999784469604,6.244487762451172,-0.6944136619567871
-1.2407011985778809,6.226337432861328,-0.6953825354576111
-1.184475064277649,6.173586845397949,-0.6925181150436401
-1.135060429573059,6.146902084350586,-0.6924918293952942
-1.0622588396072388,5.986069679260254,-0.6771685481071472
-0.9562995433807373,5.617993354797363,-0.6377326250076294
-0.9561170339584351,5.8656110763549805,-0.6681684255599976
-0.9341221451759338,5.998469829559326,-0.685736894607544
-0.8946570158004761,6.019824504852295,-0.69059818983078
-0.8596940636634827,6.075553894042969,-0.6991767883300781
-0.8139642477035522,6.05806303024292,-0.6990498900413513
-0.6206381320953369,4.877607822418213,-0.5643767714500427
-0.7177030444145203,5.9719367027282715,-0.6929057240486145
-0.6732808351516724,5.957291126251221,-0.6931692957878113
-0.6267870664596558,5.915304660797119,-0.6897972226142883
-0.5812281370162964,5.876854419708252,-0.6866554021835327
-0.538011908531189,5.85737943649292,-0.6857489943504333
-0.49393174052238464,5.82211446762085,-0.6830077171325684
-0.4511905014514923,5.805912971496582,-0.6825463175773621
-0.24624446034431458,3.482943058013916,-0.409989595413208
-0.2223985344171524,3.4922399520874023,-0.41159555315971375
-0.19517114758491516,3.4432735443115234,-0.40634748339653015
-0.2815918028354645,5.664578437805176,-0.6693772077560425
-0.24082152545452118,5.650796413421631,-0.668645977973938
-0.19993238151073456,5.609632968902588,-0.664104163646698
-0.1599619835615158,5.579809665679932,-0.6609325408935547
-0.12063205987215042,5.557458877563477,-0.6586741209030151
-0.08161049336194992,5.530953884124756,-0.6559509038925171
-0.04198025166988373,5.4615278244018555,-0.6480357646942139
-0.003265746170654893,4.445390224456787,-0.5273575782775879
0.027854453772306442,4.480227470397949,-0.5314064621925354
0.07130442559719086,5.410831928253174,-0.641716480255127
0.10907357931137085,5.417974948883057,-0.6425243616104126
0.1153515949845314,4.257696151733398,-0.5047505497932434
0.18028604984283447,5.276467323303223,-0.6249503493309021
0.21595831215381622,5.2519145011901855,-0.6215096116065979
0.20163114368915558,4.192542552947998,-0.49574142694473267
0.2361021339893341,4.287941932678223,-0.5066348314285278
0.2586573362350464,4.170133590698242,-0.49213114380836487
0.27979573607444763,4.048343658447266,-0.47698530554771423
0.3158021569252014,4.1508684158325195,-0.48830971121788025
0.3440002501010895,4.140956878662109,-0.48641109466552734
0.15836717188358307,1.7582212686538696,-0.20622532069683075
0.16904789209365845,1.741698145866394,-0.2038714736700058
0.4245090186595917,4.075403213500977,-0.47592684626579285
0.4527016282081604,4.0725321769714355,-0.47451990842819214
0.47284579277038574,4.0000810623168945,-0.4650401473045349
0.5064401030540466,4.043063163757324,-0.46901050209999084
0.65451580286026,4.947630882263184,-0.5722598433494568
0.6791393756866455,4.870131969451904,-0.5615565776824951
0.7105845808982849,4.850208759307861,-0.5575793385505676
0.7419472932815552,4.830057144165039,-0.5536054372787476
0.7730485200881958,4.809708118438721,-0.5496166944503784
0.8037037253379822,4.789241790771484,-0.5451992154121399
0.8434374332427979,4.822122097015381,-0.5468733906745911
0.880211353302002,4.831641674041748,-0.545857310295105
0.9109411239624023,4.81044340133667,-0.5414243936538696
0.9428573250770569,4.796695709228516,-0.5377234220504761
0.9697104692459106,4.759993076324463,-0.5311740040779114
1.0009104013442993,4.74594259262085,-0.527197003364563
1.030369758605957,4.72011661529541,-0.5218859314918518
1.0598288774490356,4.698011875152588,-0.5170688629150391
1.0888020992279053,4.6758012771606445,-0.5120347142219543
1.1173982620239258,4.653458595275879,-0.5068532228469849
1.1438714265823364,4.623397350311279,-0.5008772015571594
1.1766345500946045,4.615557670593262,-0.49727052450180054
1.2019184827804565,4.5813069343566895,-0.49090224504470825
1.2344176769256592,4.577095031738281,-0.4874344766139984
1.2627321481704712,4.557682991027832,-0.4823484718799591
1.2878644466400146,4.526819229125977,-0.4760749042034149
1.3221758604049683,4.525435924530029,-0.47285521030426025
1.3468539714813232,4.494232177734375,-0.4664927124977112
1.373063325881958,4.470468521118164,-0.4607195556163788
1.4037115573883057,4.4613752365112305,-0.45648714900016785
1.4323680400848389,4.444526672363281,-0.4514395594596863
1.4614486694335938,4.427303314208984,-0.4463236927986145
1.48562490940094,4.399186134338379,-0.43995583057403564
1.5105985403060913,4.374672889709473,-0.43393656611442566
1.2597917318344116,3.5687003135681152,-0.3510565757751465
1.2873609066009521,3.567492723464966,-0.3479693531990051
1.3094007968902588,3.5515482425689697,-0.3433842062950134
1.6082639694213867,4.270968914031982,-0.40905267000198364
1.6388213634490967,4.263967514038086,-0.4045626223087311
1.6714190244674683,4.260124683380127,-0.40029746294021606
1.7011799812316895,4.2487921714782715,-0.3953372836112976
1.727125883102417,4.230382919311523,-0.38951215147972107
1.748926043510437,4.20082426071167,-0.3826252520084381
1.7780327796936035,4.189062118530273,-0.3773912489414215
1.8072729110717773,4.177003860473633,-0.3721179664134979
1.826361894607544,4.143653869628906,-0.36483079195022583
1.8480483293533325,4.117434978485107,-0.3581721782684326
1.87684166431427,4.1048736572265625,-0.352591872215271
1.905517578125,4.0921173095703125,-0.34701669216156006
1.9368153810501099,4.0864973068237305,-0.34194865822792053
1.9542193412780762,4.052745819091797,-0.3344898819923401
1.9819916486740112,4.0397114753723145,-0.3287048935890198
2.014153480529785,4.0329694747924805,-0.323269248008728
2.031053304672241,3.99875545501709,-0.3156586289405823
2.05790376663208,3.985471725463867,-0.3096887469291687
2.076183795928955,3.954453706741333,-0.30227023363113403
2.1111466884613037,3.954052209854126,-0.29711875319480896
2.126704692840576,3.919583559036255,-0.28934165835380554
2.153367042541504,3.9054651260375977,-0.28298527002334595
2.1479504108428955,3.8331096172332764,-0.27241867780685425
2.1669132709503174,3.804936408996582,-0.2650398313999176
2.188282012939453,3.7841262817382812,-0.258126437664032
2.2135958671569824,3.769813060760498,-0.25163784623146057
2.232421875,3.7409956455230713,-0.24386146664619446
2.2496938705444336,3.712839365005493,-0.23624981939792633
2.2782936096191406,3.7049455642700195,-0.22992351651191711
2.307910442352295,3.696202516555786,-0.22328773140907288
2.3292033672332764,3.6740128993988037,-0.21574801206588745
2.3536736965179443,3.658806324005127,-0.20848257839679718
2.378386974334717,3.6432039737701416,-0.20111218094825745
2.3950045108795166,3.6140027046203613,-0.19282326102256775
2.4227285385131836,3.6052801609039307,-0.18561886250972748
2.4468531608581543,3.5893466472625732,-0.17780181765556335
2.458780527114868,3.5531461238861084,-0.16857990622520447
2.490593194961548,3.550386428833008,-0.16106970608234406
2.5327253341674805,3.5592362880706787,-0.15361858904361725
2.5291261672973633,3.5045502185821533,-0.14323320984840393
2.569767951965332,3.5139787197113037,-0.13547763228416443
2.201164722442627,2.9662814140319824,-0.10668697208166122
2.7987329959869385,3.9249179363250732,0.2700020968914032
2.7683234214782715,3.945712089538574,0.28023669123649597
2.702831745147705,3.90987491607666,0.28556036949157715
2.705385208129883,3.9783546924591064,0.29832878708839417
2.6669023036956787,3.984833240509033,0.3061977028846741
2.647432327270508,4.015838623046875,0.31552112102508545
2.6118216514587402,4.029136657714844,0.3234233558177948
2.589905023574829,4.0611066818237305,0.3325594365596771
2.5695269107818604,4.091820240020752,0.34125062823295593
2.5389204025268555,4.110247611999512,0.34880000352859497
2.4953010082244873,4.108911991119385,0.35458582639694214
2.477544069290161,4.1462788581848145,0.3634067475795746
2.4619290828704834,4.18662166595459,0.37237033247947693
2.4166653156280518,4.180847644805908,0.37703654170036316
2.4026684761047363,4.228653430938721,0.3865205943584442
2.363447427749634,4.227829456329346,0.39128100872039795
2.2632791996002197,4.118065357208252,0.38582053780555725
2.2360658645629883,4.141195297241211,0.3924211859703064
2.216207504272461,4.177749156951904,0.4003048837184906
2.1904709339141846,4.19954252243042,0.4065774977207184
2.169663906097412,4.231665134429932,0.4138545095920563
2.1323752403259277,4.236968994140625,0.41837194561958313
2.1025633811950684,4.255642890930176,0.4241589605808258
2.075822353363037,4.276883125305176,0.43004292249679565
2.0491232872009277,4.297840595245361,0.43590235710144043
2.0177066326141357,4.3121724128723145,0.44088277220726013
1.982539176940918,4.319393634796143,0.44506216049194336
1.963335394859314,4.361789703369141,0.45290717482566833
2.0082430839538574,4.545642375946045,0.47542521357536316
1.9824708700180054,4.573390960693359,0.48175743222236633
1.9276660680770874,4.537195682525635,0.48104578256607056
4.299689292907715,10.328826904296875,1.1021744012832642
1.8700319528579712,4.585483551025391,0.49244046211242676
1.8494296073913574,4.626863479614258,0.49993184208869934
1.8224648237228394,4.653780460357666,0.50584477186203
1.7954304218292236,4.684643745422363,0.511938214302063
1.7749056816101074,4.7335286140441895,0.5200567245483398
1.3377954959869385,3.647841453552246,0.40292009711265564
1.3123018741607666,3.656751871109009,0.4059791564941406
1.278937578201294,3.643521785736084,0.406572163105011
1.6293096542358398,4.751020431518555,0.5324909687042236
1.5997790098190308,4.777026653289795,0.5377739071846008
1.59023916721344,4.865678787231445,0.5501996278762817
1.5609705448150635,4.891053199768066,0.5554384589195251
1.5291146039962769,4.908835411071777,0.5598528981208801
1.4940236806869507,4.919251441955566,0.5631569027900696
1.4497545957565308,4.899727821350098,0.562940239906311
1.4144426584243774,4.909671783447266,0.5661261677742004
1.3793514966964722,4.919281005859375,0.5692856907844543
1.3399062156677246,4.90969705581665,0.5701966881752014
1.2855234146118164,4.843590259552002,0.5644413232803345
1.2565778493881226,4.874924659729004,0.5697264075279236
1.232948899269104,4.928668022155762,0.5776801705360413
1.2008957862854004,4.952232837677002,0.582166314125061
1.1672031879425049,4.963960647583008,0.5852340459823608
1.139438271522522,5.001941680908203,0.5914372801780701
1.1124398708343506,5.047471523284912,0.5983470678329468
1.0732282400131226,5.039819717407227,0.5987882614135742
1.0428760051727295,5.077609062194824,0.6046891808509827
1.004038691520691,5.0693464279174805,0.6051006317138672
0.9811116456985474,5.140729904174805,0.6150439977645874
2.098778247833252,11.427544593811035,1.3704277276992798
2.010000228881836,11.395719528198242,1.3691527843475342
1.898097038269043,11.23348617553711,1.3519858121871948
1.7986972332000732,11.123644828796387,1.341090440750122
1.6974948644638062,10.986038208007812,1.3268358707427979
1.5971845388412476,10.835987091064453,1.3110589981079102
1.5034704208374023,10.715801239013672,1.2988916635513306
1.4021079540252686,10.541406631469727,1.2794551849365234
1.3116862773895264,10.423741340637207,1.266685128211975
1.2284804582595825,10.351548194885254,1.2594736814498901
1.1461536884307861,10.270931243896484,1.2512588500976562
1.0721948146820068,10.255210876464844,1.2509863376617432
0.9892088174819946,10.142465591430664,1.2389127016067505
0.3911078870296478,4.329171657562256,0.5292689800262451
0.3593895733356476,4.316273212432861,0.5280631184577942
0.3267395496368408,4.287674903869629,0.5249579548835754
0.2999977469444275,4.336187362670898,0.531319260597229
0.2702813148498535,4.345827579498291,0.532947301864624
0.30951911211013794,5.6173529624938965,0.6894999146461487
0.27158117294311523,5.646418571472168,0.6933871507644653
0.23244695365428925,5.655879020690918,0.6947203874588013
0.19504380226135254,5.719316005706787,0.7027199864387512
0.15535622835159302,5.728240966796875,0.7040584087371826
0.11594568938016891,5.787293910980225,0.7115999460220337
0.07529530674219131,5.756898403167725,0.7081737518310547
0.03564736247062683,5.823174476623535,0.716422975063324
-0.004897919949144125,5.838804244995117,0.718209445476532
-0.06863977760076523,8.80061149597168,1.0823770761489868
-0.12989860773086548,8.730148315429688,1.0736095905303955
-0.1891283392906189,8.663163185119629,1.065325140953064
-0.24587154388427734,8.541522026062012,1.0503712892532349
-0.3039170205593109,8.504788398742676,1.0456703901290894
-0.2553724944591522,5.984743118286133,0.7353553175926208
-0.1772822141647339,3.5742595195770264,0.4389137327671051
-0.20249301195144653,3.5729691982269287,0.43851011991500854
-0.22558701038360596,3.5444388389587402,0.4347899556159973
-0.26690933108329773,3.7787628173828125,0.4633229076862335
-0.30123192071914673,3.8812522888183594,0.4756490886211395
-0.32346436381340027,3.8250818252563477,0.4682502746582031
-0.3489159643650055,3.8073644638061523,0.4655822515487671
-0.3717472553253174,3.7702293395996094,0.46057748794555664
-0.3938349187374115,3.7290875911712646,0.4551113247871399
-0.4166715741157532,3.6993813514709473,0.45107030868530273
-0.43777167797088623,3.6579811573028564,0.445631742477417
-0.4584070146083832,3.61649489402771,0.4398805499076843
-0.47861966490745544,3.5787904262542725,0.43463170528411865
-0.5020817518234253,3.5678670406341553,0.4326646625995636
-0.5268130302429199,3.5644259452819824,0.43162012100219727
-0.5504457354545593,3.5531303882598877,0.42964377999305725
-0.5687689185142517,3.507154703140259,0.4234936237335205
-0.5889207124710083,3.4803824424743652,0.4194222688674927
-1.123879075050354,6.375983238220215,0.7668241262435913
-1.1703215837478638,6.383689880371094,0.7662357687950134
-1.2268235683441162,6.440515995025635,0.7715448141098022
-1.2806750535964966,6.477786540985107,0.7745136022567749
-1.3365600109100342,6.51828670501709,0.7778628468513489
-1.3922921419143677,6.5625104904174805,0.7811711430549622
-1.442038655281067,6.575963020324707,0.7807849049568176
-1.4731131792068481,6.505794525146484,0.7705204486846924
-1.5146164894104004,6.480686187744141,0.765620231628418
-0.6669798493385315,2.7653799057006836,0.32587072253227234
-0.69932621717453,2.8135573863983154,0.3307253420352936
-0.7088223695755005,2.7713212966918945,0.3247333765029907
-0.725675106048584,2.75911283493042,0.32229170203208923
-0.7403689026832581,2.739307165145874,0.3189857006072998
-0.7742626667022705,2.7865583896636963,0.32345065474510193
-1.7481931447982788,6.126287937164307,0.7088887691497803
-1.7817792892456055,6.084673881530762,0.7017492055892944
-1.8161700963974,6.050640106201172,0.6951700448989868
-1.15854012966156,3.7672078609466553,0.43118050694465637
-1.1846333742141724,3.7593767642974854,0.4286201596260071
-1.2155532836914062,3.76611328125,0.42772793769836426
-1.249097466468811,3.779965400695801,0.42764610052108765
-1.2909724712371826,3.8195230960845947,0.4302583336830139
-2.002892255783081,5.79738187789917,0.6500933766365051
-2.0277082920074463,5.743946075439453,0.6411756277084351
-2.0574429035186768,5.700839996337891,0.6333561539649963
-2.086407423019409,5.657687187194824,0.6256130933761597
-2.115886926651001,5.618178367614746,0.618228554725647
-2.145193099975586,5.582614421844482,0.6110023260116577
-2.1882989406585693,5.583086967468262,0.6077521443367004
-2.24286150932312,5.608007907867432,0.6070488095283508
-2.315798282623291,5.675510883331299,0.6108827590942383
-2.355421304702759,5.659735679626465,0.6057294607162476
-2.3764872550964355,5.605088233947754,0.5960501432418823
-2.3985159397125244,5.553950786590576,0.5868170857429504
-2.4884395599365234,5.6553168296813965,0.5935493111610413
-3.9343323707580566,8.775131225585938,0.9147301316261292
-2.554492712020874,5.592815399169922,0.5790136456489563
-4.180241107940674,8.993993759155273,0.9240832328796387
-2.5905988216400146,5.478630065917969,0.5586085319519043
-2.6098692417144775,5.422657489776611,0.5484918355941772
-2.6733813285827637,5.4573187828063965,0.5475106835365295
-2.686678409576416,5.390624046325684,0.5363092422485352
-2.716968536376953,5.3629841804504395,0.5287662744522095
-2.7647807598114014,5.369790554046631,0.5246359705924988
-5.011432647705078,9.571553230285645,0.9261881113052368
-2.777635097503662,5.215012550354004,0.49957478046417236
-1.1320971250534058,2.0917606353759766,0.198292076587677
-1.1739815473556519,2.1356990337371826,0.20027399063110352
-2.5132782459259033,4.500837802886963,0.4173567295074463
-2.5446949005126953,4.483748912811279,0.4108743667602539
-2.56791353225708,4.453125953674316,0.40299326181411743
-2.589036703109741,4.423431873321533,0.395173579454422
-1.2494395971298218,2.1029398441314697,0.18538333475589752
-1.2480610609054565,2.067737340927124,0.17967671155929565
-2.687072277069092,4.384706020355225,0.3753780424594879
-2.744781494140625,4.4138102531433105,0.37191838026046753
-2.975867986679077,4.71569299697876,0.3909033536911011
-3.0068163871765137,4.69209098815918,0.3821450173854828
-3.039926052093506,4.676048755645752,0.37385913729667664
-3.037733793258667,4.608281135559082,0.36144351959228516
-3.0570108890533447,4.568120002746582,0.3506646752357483
-3.0729048252105713,4.525195598602295,0.33970075845718384
-3.092836380004883,4.493363380432129,0.3294913172721863
-3.096104145050049,4.434864044189453,0.3170241415500641
-2.8470845222473145,4.019493579864502,0.2795107960700989
-6.727837562561035,9.372655868530273,0.6327189207077026
-2.8994014263153076,3.983222007751465,0.26031064987182617
-2.9076290130615234,3.939157009124756,0.24841687083244324
-2.9862687587738037,4.179969787597656,-0.18994061648845673
-2.4528493881225586,3.4858429431915283,-0.1672920435667038
-2.4402835369110107,3.522709369659424,-0.1777375489473343
-2.3873329162597656,3.501793146133423,-0.18504412472248077
-2.3170015811920166,3.4499759674072266,-0.18992720544338226
-2.2456936836242676,3.398547649383545,-0.19451898336410522
-2.18850040435791,3.365588665008545,-0.1997734159231186
-2.1477434635162354,3.3542866706848145,-0.20578259229660034
-2.1224684715270996,3.369863986968994,-0.21338407695293427
-1.2616961002349854,2.0354385375976562,-0.13272160291671753
-1.2635682821273804,2.0706324577331543,-0.13876977562904358
-2.044318437576294,3.407327651977539,-0.2345462590456009
-2.0353662967681885,3.4484708309173584,-0.2433541715145111
-2.011115074157715,3.4621901512145996,-0.25008249282836914
-1.2064661979675293,2.1122262477874756,-0.15603172779083252
-1.2023009061813354,2.14115834236145,-0.1616383045911789
-1.942543387413025,3.5174670219421387,-0.2710151970386505
-1.9415318965911865,3.5752851963043213,-0.2808762192726135
-1.9225749969482422,3.6026833057403564,-0.2883894145488739
-2.501169443130493,4.768257141113281,-0.38859179615974426
-2.4711978435516357,4.791960716247559,-0.3972839415073395
-2.4445700645446777,4.826756000518799,-0.406944215297699
-2.4161524772644043,4.857765197753906,-0.41620132327079773
-2.392052173614502,4.89502477645874,-0.4258347451686859
-2.364406108856201,4.9250407218933105,-0.43485066294670105
-2.350172281265259,4.987178802490234,-0.44661232829093933
-1.555680751800537,3.363874673843384,-0.3054627776145935
-1.5251673460006714,3.360260248184204,-0.309274822473526
-1.5015079975128174,3.3704380989074707,-0.3142535388469696
-1.4833247661590576,3.395019769668579,-0.32045307755470276
-1.4556925296783447,3.3980326652526855,-0.3246377408504486
-1.4514384269714355,3.4543299674987793,-0.33385592699050903
-1.4193471670150757,3.446141242980957,-0.33694183826446533
-1.4003459215164185,3.470240354537964,-0.3429546058177948
-1.366772174835205,3.4580624103546143,-0.34539228677749634
-1.3522629737854004,3.4925217628479004,-0.35242611169815063
-1.3305453062057495,3.5087175369262695,-0.35765260457992554
-1.7620890140533447,4.750007629394531,-0.48885321617126465
-2.022439956665039,5.573223114013672,-0.5789168477058411
-1.9310154914855957,5.4401350021362305,-0.5702372789382935
-1.6099053621292114,4.637670040130615,-0.49047398567199707
-1.5795387029647827,4.655747890472412,-0.4965554177761078
-1.8657922744750977,5.633047580718994,-0.6057671308517456
-1.8652307987213135,5.767478942871094,-0.6252102851867676
-0.9721044898033142,3.078796625137329,-0.3363761007785797
-0.9573776721954346,3.1074466705322266,-0.3421059548854828
-0.8235276937484741,2.7418055534362793,-0.3039816617965698
-0.7691323161125183,2.627992868423462,-0.2934090495109558
-0.7556973099708557,2.6517891883850098,-0.29814612865448
-0.7475325465202332,2.694129705429077,-0.30498501658439636
-0.7365955114364624,2.7290475368499756,-0.31087058782577515
-0.7132858633995056,2.7189011573791504,-0.31159287691116333
-0.7027285099029541,2.757441520690918,-0.3179126977920532
-0.6747303605079651,2.728166341781616,-0.3164446949958801
-0.6501752734184265,2.7099075317382812,-0.31614211201667786
-1.4668288230895996,6.309150695800781,-0.7398072481155396
-1.3949321508407593,6.197629928588867,-0.7304643392562866
-1.341641902923584,6.1611714363098145,-0.7298657298088074
-1.2658723592758179,6.018101215362549,-0.7166135907173157
-1.2073729038238525,5.946487903594971,-0.7113343477249146
-1.1579290628433228,5.916308879852295,-0.7107642292976379
-1.105475664138794,5.866656303405762,-0.7078338861465454
-1.0528240203857422,5.808862209320068,-0.703860878944397
-0.9857487678527832,5.66667366027832,-0.6896337270736694
-0.94468754529953,5.665414810180664,-0.6918636560440063
-0.9543957710266113,5.981712341308594,-0.7330146431922913
-0.9160480499267578,6.010836124420166,-0.739142119884491
-0.8779964447021484,6.043533802032471,-0.7457603812217712
-0.8392890095710754,6.079948902130127,-0.7527597546577454
-0.6335471272468567,4.839841365814209,-0.6008107662200928
-0.7400927543640137,5.978889465332031,-0.7442043423652649
-0.6975076198577881,5.975877285003662,-0.7458434700965881
-0.6513447165489197,5.937867641448975,-0.7431263327598572
-0.6059942841529846,5.9034223556518555,-0.7405245900154114
-0.5600126385688782,5.864889621734619,-0.7371295094490051
-0.5190447568893433,5.868419170379639,-0.7390231490135193
-0.4703364372253418,5.775077819824219,-0.72872394323349
-0.25633230805397034,3.4435982704162598,-0.4354170262813568
-0.23361997306346893,3.464534282684326,-0.4386632442474365
-0.20504195988178253,3.400254249572754,-0.43104088306427
-0.18482033908367157,3.4673004150390625,-0.4400787055492401
-0.16663146018981934,3.5961554050445557,-0.4570116102695465
-0.1428484171628952,3.6281113624572754,-0.4616779685020447
-0.11820901930332184,3.6483426094055176,-0.4644601047039032
-0.09276565164327621,3.6645431518554688,-0.4667459726333618
-0.06727638095617294,3.66506028175354,-0.46705400943756104
-0.04216868802905083,3.696397304534912,-0.471314013004303
-0.016597047448158264,3.727570056915283,-0.4754996597766876
0.009310219436883926,3.73148775100708,-0.4758583605289459
0.03626447916030884,3.793341636657715,-0.4836244285106659
0.06309769302606583,3.8201358318328857,-0.4869433641433716
0.08939598500728607,3.8080008029937744,-0.4853231608867645
0.11719873547554016,3.84993052482605,-0.49044206738471985
0.14698487520217896,3.930417537689209,-0.5001993179321289
0.1766928881406784,3.983576536178589,-0.5064860582351685
0.20825012028217316,4.048098087310791,-0.5142197608947754
0.23682335019111633,4.0543694496154785,-0.5145791172981262
0.26725462079048157,4.087545394897461,-0.5180888772010803
0.2983725368976593,4.124388694763184,-0.5218740105628967
0.3257240056991577,4.106909275054932,-0.5188052654266357
0.35546407103538513,4.112366199493408,-0.5186428427696228
0.38478246331214905,4.1176533699035645,-0.5184962749481201
0.41022083163261414,4.084221839904785,-0.5131215453147888
0.436432421207428,4.0622100830078125,-0.5091243982315063
0.46191805601119995,4.036179065704346,-0.5046605467796326
0.4905050992965698,4.033004283905029,-0.5030592083930969
0.5175406336784363,4.022004127502441,-0.5005178451538086
0.2382749617099762,1.7557259798049927,-0.2177930623292923
0.6931900382041931,4.855562686920166,-0.6004143953323364
0.722236692905426,4.820265769958496,-0.594181478023529
0.7563526034355164,4.81533670425415,-0.5916932225227356
0.7803438305854797,4.752884864807129,-0.5820741057395935
0.8144609332084656,4.7553839683532715,-0.5800860524177551
0.8575036525726318,4.807276248931885,-0.5841198563575745
0.8895105123519897,4.793929100036621,-0.5802145600318909
0.9258565306663513,4.803206443786621,-0.5790667533874512
0.9551418423652649,4.774132251739502,-0.5730105638504028
0.9833873510360718,4.74503755569458,-0.5668300986289978
1.012089490890503,4.719568729400635,-0.5611333847045898
1.0432735681533813,4.705234527587891,-0.5567806959152222
1.0725734233856201,4.683125972747803,-0.5515478253364563
1.1018576622009277,4.660828113555908,-0.5458948612213135
1.1247648000717163,4.615862846374512,-0.5376479029655457
1.158591389656067,4.615940570831299,-0.5346788167953491
1.1888469457626343,4.600670337677002,-0.5299336314201355
1.2168378829956055,4.577735424041748,-0.5242360234260559
1.2488824129104614,4.56959342956543,-0.5198937654495239
1.2771443128585815,4.5501604080200195,-0.5143618583679199
1.3045169115066528,4.526709079742432,-0.5083775520324707
1.3361012935638428,4.517970085144043,-0.5040735602378845
1.3560031652450562,4.471965789794922,-0.49541348218917847
1.3803125619888306,4.440636157989502,-0.4882792532444
1.4156577587127686,4.44631290435791,-0.4852890074253082
1.4442659616470337,4.42943811416626,-0.47981393337249756
1.4713600873947144,4.408734321594238,-0.4738938510417938
1.4965193271636963,4.384366989135742,-0.46735063195228577
1.5111669301986694,4.330495357513428,-0.4577368199825287
1.2739516496658325,3.569669485092163,-0.37402206659317017
1.3015470504760742,3.568410873413086,-0.37064212560653687
1.3314770460128784,3.5744004249572754,-0.36782345175743103
1.6226608753204346,4.26715612411499,-0.4349418580532074
1.650669813156128,4.252765655517578,-0.42928287386894226
1.6809104681015015,4.241452693939209,-0.42382705211639404
1.710188388824463,4.230276584625244,-0.4183635413646698
1.7390172481536865,4.219058036804199,-0.4127698838710785
1.767862319946289,4.207599639892578,-0.40715768933296204
1.7881109714508057,4.174200057983398,-0.3993596136569977
1.8113762140274048,4.147733688354492,-0.3921566903591156
1.8300749063491821,4.114524841308594,-0.3842889666557312
1.864432692527771,4.116711616516113,-0.37975817918777466
1.8931981325149536,4.104116439819336,-0.3737267553806305
1.9151442050933838,4.077270030975342,-0.36641210317611694
1.936448097229004,4.0504961013793945,-0.3589129149913788
1.9706263542175293,4.0518479347229,-0.3540094792842865
1.9920051097869873,4.024556636810303,-0.3464522659778595
2.0112547874450684,3.9937217235565186,-0.33861711621284485
2.047025680541992,3.9979419708251953,-0.3336425721645355
2.0703749656677246,3.9776532649993896,-0.3266187310218811
2.0822417736053467,3.932370901107788,-0.3173185884952545
2.113075017929077,3.925276041030884,-0.3112044632434845
2.1393232345581055,3.9115612506866455,-0.3044838011264801
2.1582751274108887,3.883836030960083,-0.29662632942199707
2.149017810821533,3.804659843444824,-0.284790575504303
2.1791956424713135,3.7969703674316406,-0.278251051902771
2.2044615745544434,3.7828609943389893,-0.271316260099411
2.2106757164001465,3.7345011234283447,-0.26177817583084106
2.2487123012542725,3.7395524978637695,-0.2559273838996887
2.2734475135803223,3.7250595092773438,-0.24864870309829712
2.2824294567108154,3.6834003925323486,-0.23941394686698914
2.312276840209961,3.6744484901428223,-0.23220573365688324
2.345118761062622,3.6725802421569824,-0.22538219392299652
2.3606841564178467,3.6444785594940186,-0.21694064140319824
2.3862102031707764,3.6282958984375,-0.2087712436914444
2.4196245670318604,3.6253488063812256,-0.20120705664157867
2.4213380813598633,3.577622890472412,-0.1913212537765503
2.4507408142089844,3.567476272583008,-0.18296918272972107
2.4832911491394043,3.5643773078918457,-0.17491893470287323
2.497506618499756,3.535754442214966,-0.16551649570465088
2.531752824783325,3.530984401702881,-0.15649500489234924
2.558847188949585,3.521460771560669,-0.1473894864320755
2.605647087097168,3.535996913909912,-0.13868890702724457
2.7729430198669434,3.9220082759857178,0.2979806661605835
2.749152660369873,3.9474501609802246,0.3085585832595825
2.7241854667663574,3.9733965396881104,0.31894049048423767
2.696930408477783,4.000535011291504,0.32950595021247864
2.6556901931762695,3.999253749847412,0.3368034362792969
2.6429615020751953,4.044209957122803,0.3479050099849701
2.6073524951934814,4.057229995727539,0.35621175169944763
2.565913438796997,4.055215358734131,0.3625946044921875
2.540341377258301,4.079730987548828,0.37131425738334656
2.529519557952881,4.131453037261963,0.38230061531066895
2.509000062942505,4.165968894958496,0.3915955126285553
2.469665288925171,4.16609525680542,0.3974014222621918
2.430967330932617,4.170084476470947,0.40337222814559937
2.406461000442505,4.201511859893799,0.41203171014785767
2.3857157230377197,4.234997272491455,0.420577734708786
2.3238987922668457,4.193090915679932,0.42147406935691833
2.2500674724578857,4.130897045135498,0.41996344923973083
2.237394332885742,4.181303024291992,0.4298141896724701
2.203134536743164,4.190025806427002,0.43532007932662964
2.177250862121582,4.211671352386475,0.44200414419174194
2.1518537998199463,4.237178802490234,0.44893336296081543
2.12026047706604,4.252464294433594,0.4546961784362793
2.0959439277648926,4.281217098236084,0.46186548471450806
2.068711042404175,4.302471160888672,0.4681706428527832
2.03818678855896,4.316424369812012,0.47358277440071106
2.0029187202453613,4.323763847351074,0.4780162572860718
1.9676883220672607,4.330798625946045,0.48242616653442383
1.9953889846801758,4.475442409515381,0.5021528601646423
1.9702389240264893,4.502971172332764,0.5088250041007996
1.9541593790054321,4.5559401512146,0.5183281898498535
1.9297188520431519,4.591088771820068,0.5256173610687256
1.9077820777893066,4.6333136558532715,0.5337849259376526
1.8664308786392212,4.624464988708496,0.5359604954719543
1.8497438430786133,4.676595687866211,0.545225977897644
1.800218105316162,4.649574279785156,0.5451309084892273
1.7662816047668457,4.662066459655762,0.5494378209114075
1.3518084287643433,3.647706985473633,0.43212759494781494
1.3234572410583496,3.6494462490081787,0.4345036447048187
1.2953166961669922,3.6509087085723877,0.43684524297714233
1.2663830518722534,3.652451753616333,0.43912771344184875
1.6407263278961182,4.844814777374268,0.5849736332893372
1.5897399187088013,4.808210372924805,0.583044171333313
1.557983160018921,4.826293468475342,0.5877020955085754
1.5289390087127686,4.851396560668945,0.5932149887084961
1.4978591203689575,4.872797012329102,0.5983572006225586
1.4672433137893677,4.897895336151123,0.6035165786743164
1.4449857473373413,4.952602863311768,0.6123841404914856
1.4210550785064697,5.003474235534668,0.6208398938179016
1.370593547821045,4.956788539886475,0.6171557307243347
1.3128414154052734,4.879680633544922,0.6096498370170593
1.27580726146698,4.881093502044678,0.6117876768112183
1.2465680837631226,4.912299633026123,0.6174113154411316
1.215043067932129,4.935812473297119,0.6221153736114502
1.1863480806350708,4.970343112945557,0.628234326839447
1.1551624536514282,4.993252754211426,0.6329022645950317
1.1264395713806152,5.031239032745361,0.6395626664161682
1.0891385078430176,5.031200408935547,0.6410571336746216
1.0532022714614868,5.038548469543457,0.6433888077735901
1.0142048597335815,5.030431270599365,0.6437719464302063
0.9847173094749451,5.067582130432129,0.6499662399291992
2.063554525375366,11.035857200622559,1.4186762571334839
1.981218934059143,11.018800735473633,1.4197041988372803
1.8880966901779175,10.944177627563477,1.412475824356079
1.8263514041900635,11.052343368530273,1.4287362098693848
1.740074872970581,11.014751434326172,1.4262386560440063
1.645992636680603,10.922910690307617,1.4167661666870117
1.5506190061569214,10.799386978149414,1.4031469821929932
1.4512828588485718,10.632857322692871,1.383938193321228
1.3604719638824463,10.519492149353027,1.3708041906356812
1.2707046270370483,10.401582717895508,1.3569492101669312
1.1813417673110962,10.271400451660156,1.34152090549469
1.097904920578003,10.182909965515137,1.331581473350525
1.0189615488052368,10.109024047851562,1.3235516548156738
0.4010602533817291,4.27683162689209,0.5606736540794373
0.3771522641181946,4.3488898277282715,0.5705629587173462
0.3411100208759308,4.281839847564697,0.5621243715286255
0.31448742747306824,4.338155746459961,0.5699148774147034
0.28643083572387695,4.374941825866699,0.5751683712005615
0.32925018668174744,5.629446029663086,0.7406708002090454
0.29166707396507263,5.662426948547363,0.7456235289573669
0.2514088749885559,5.648774147033691,0.7441635727882385
0.21269458532333374,5.689072132110596,0.7496240139007568
0.1744568645954132,5.740695953369141,0.7566136121749878
0.13475508987903595,5.757212162017822,0.7590150833129883
0.09514854103326797,5.788941860198975,0.763460636138916
0.055132824927568436,5.816523551940918,0.7673986554145813
0.01385613065212965,5.797384738922119,0.7649992108345032
-0.0498802475631237,10.913143157958984,1.4397138357162476
-0.12561865150928497,10.893213272094727,1.4368150234222412
-0.1607653647661209,8.692788124084473,1.1464190483093262
-0.21999308466911316,8.645038604736328,1.1400182247161865
-0.2783461809158325,8.59302043914795,1.1331104040145874
-0.24008241295814514,6.083281517028809,0.8020737171173096
-0.2789551615715027,6.0119404792785645,0.7921178340911865
-0.19118627905845642,3.5850982666015625,0.4720585346221924
-0.21343615651130676,3.5412237644195557,0.46600207686424255
-0.24477796256542206,3.640188694000244,0.47875991463661194
-0.5801020860671997,7.802150726318359,1.0256149768829346
-0.3115242123603821,3.829542398452759,0.5031733512878418
-0.3379589915275574,3.827409267425537,0.5023407936096191
-0.3603266477584839,3.782682418823242,0.49592623114585876
-0.3832748830318451,3.7493884563446045,0.4910444915294647
-0.4071815013885498,3.723600387573242,0.4871661067008972
-0.42721182107925415,3.6707708835601807,0.4797905683517456
-0.4517480134963989,3.6601338386535645,0.4779602289199829
-0.4738817512989044,3.6340343952178955,0.4738819897174835
-0.49089670181274414,3.573275327682495,0.4652382731437683
-0.513642430305481,3.5545690059661865,0.462093710899353
-0.529464602470398,3.493623971939087,0.4535028338432312
-0.5665488839149475,3.570357322692871,0.46279558539390564
-0.5837720632553101,3.520606279373169,0.45570993423461914
-1.094596028327942,6.330770969390869,0.8179615139961243
-1.1481863260269165,6.380680561065674,0.8227094411849976
-1.2040281295776367,6.433820724487305,0.8278509974479675
-1.25797438621521,6.475169658660889,0.8315037488937378
-1.312955617904663,6.516003608703613,0.8350900411605835
-1.3661891222000122,6.5450053215026855,0.8371783494949341
-1.4201425313949585,6.577536106109619,0.8393840193748474
-1.461464524269104,6.549055576324463,0.8335663676261902
-1.4973763227462769,6.501587867736816,0.8254250288009644
-1.5250405073165894,6.419892311096191,0.8129934072494507
-0.6833974719047546,2.790524959564209,0.3524908423423767
-0.7008818984031677,2.778372049331665,0.35008326172828674
-0.7202112674713135,2.773632049560547,0.3484344482421875
-0.7390210628509521,2.768892526626587,0.3467388451099396
-0.7516193985939026,2.7415902614593506,0.3422441780567169
-0.7831275463104248,2.781353712081909,0.34610986709594727
-1.7676929235458374,6.114739894866943,0.7584997415542603
-1.7978096008300781,6.057900905609131,0.7490442991256714
-1.1480458974838257,3.774625539779663,0.46496233344078064
-1.1712760925292969,3.759687662124634,0.4613534212112427
-1.199072241783142,3.7593917846679688,0.45956242084503174
-1.2251627445220947,3.7513084411621094,0.4567927420139313
-1.2616246938705444,3.7722980976104736,0.45753201842308044
-1.9836632013320923,5.798137664794922,0.7003680467605591
-2.014991283416748,5.763234615325928,0.6929649114608765
-2.0446321964263916,5.724510192871094,0.6851600408554077
-2.0676681995391846,5.667238712310791,0.6751659512519836
