X,Y,Z
0.9604185819625854,4.377907752990723,-0.4434988796710968
0.9922581315040588,4.379055976867676,-0.4414712190628052
1.0208667516708374,4.364774227142334,-0.4378913342952728
1.0494663715362549,4.350270748138428,-0.4343078136444092
1.0814176797866821,4.350752830505371,-0.4320405125617981
1.1080316305160522,4.328315258026123,-0.4273415803909302
1.1377910375595093,4.320897579193115,-0.4241998791694641
1.1638154983520508,4.298158168792725,-0.4195519685745239
1.1937830448150635,4.29024076461792,-0.4163769483566284
1.2232319116592407,4.282272815704346,-0.41291099786758423
1.2509307861328125,4.2664971351623535,-0.40866076946258545
1.2781320810317993,4.250637054443359,-0.4044625461101532
1.310025691986084,4.249392986297607,-0.40165001153945923
1.332362174987793,4.21830940246582,-0.39593490958213806
1.3587636947631836,4.202053070068359,-0.3914927542209625
1.3867799043655396,4.189146041870117,-0.38733282685279846
1.4134000539779663,4.172374725341797,-0.38284537196159363
1.4424985647201538,4.162753105163574,-0.3790280520915985
1.4683204889297485,4.145823955535889,-0.37433573603630066
1.4886635541915894,4.11409854888916,-0.3683244287967682
1.5196547508239746,4.111415863037109,-0.36491724848747253
1.5378283262252808,4.071747779846191,-0.35816147923469543
1.5658537149429321,4.06141996383667,-0.3539685308933258
1.5963281393051147,4.058280944824219,-0.350312203168869
1.621060848236084,4.040443420410156,-0.34539973735809326
1.6492589712142944,4.029390335083008,-0.3410053551197052
1.6806657314300537,4.025214672088623,-0.3370945453643799
1.7658907175064087,4.150291442871094,-0.3437999188899994
2.0093588829040527,4.635377883911133,-0.37976759672164917
2.038421392440796,4.614598751068115,-0.37375470995903015
2.0737321376800537,4.607824325561523,-0.3688715100288391
2.1053922176361084,4.593898773193359,-0.3631661534309387
2.136413335800171,4.579995632171631,-0.35755863785743713
2.164792776107788,4.558470726013184,-0.3512636125087738
2.1932523250579834,4.536634922027588,-0.34493356943130493
2.2324154376983643,4.539664268493652,-0.3403484523296356
2.2617712020874023,4.521201133728027,-0.33407139778137207
2.28597354888916,4.491970539093018,-0.3269856572151184
2.3243534564971924,4.490240573883057,-0.3218608498573303
2.3670990467071533,4.499157905578613,-0.3173501193523407
1.7280398607254028,3.2320661544799805,-0.22426049411296844
1.7467435598373413,3.213444709777832,-0.21912004053592682
1.7220062017440796,3.116154909133911,-0.20863384008407593
1.7579452991485596,3.1321539878845215,-0.20584002137184143
1.7963905334472656,3.1510396003723145,-0.2031194120645523
1.3471553325653076,2.325355052947998,-0.14684608578681946
0.9474156498908997,1.610430359840393,-0.09954787790775299
0.9522500038146973,1.5941177606582642,-0.09635316580533981
0.9672809839248657,1.5943336486816406,-0.09411338716745377
0.9740947484970093,1.581177830696106,-0.0910569354891777
0.9885982275009155,1.5815128087997437,-0.08877015858888626
1.0013667345046997,1.5782350301742554,-0.0862005352973938
1.010422945022583,1.5679686069488525,-0.08312084525823593
1.0206689834594727,1.561466932296753,-0.08028144389390945
1.033249855041504,1.5580031871795654,-0.0775417685508728
1.0418637990951538,1.5477015972137451,-0.07435532659292221
1.062829613685608,1.5572102069854736,-0.0720926895737648
2.5490128993988037,3.6810827255249023,-0.1635955572128296
2.592069149017334,3.6894679069519043,-0.15687566995620728
2.6065263748168945,3.6604390144348145,-0.14854207634925842
2.5994439125061035,3.5985827445983887,-0.13850994408130646
2.6413521766662598,3.607039451599121,-0.13106447458267212
2.687927722930908,3.621518850326538,-0.12350019067525864
2.6462886333465576,3.710691452026367,0.2105509638786316
2.6088781356811523,3.717556953430176,0.21816620230674744
2.5850818157196045,3.7431509494781494,0.22660477459430695
1.059788703918457,1.5579321384429932,0.0969676822423935
1.0650081634521484,1.591859221458435,0.10171368718147278
1.0446531772613525,1.586451530456543,0.10384299606084824
1.0288954973220825,1.5872400999069214,0.10626234114170074
1.016711711883545,1.5948843955993652,0.10904216021299362
1.0048813819885254,1.6021794080734253,0.11172829568386078
0.9936327934265137,1.6090011596679688,0.11427079141139984
0.9814989566802979,1.6162521839141846,0.11678014695644379
0.9650072455406189,1.616894006729126,0.11883879452943802
0.9576125144958496,1.6301624774932861,0.12164583057165146
1.3495699167251587,2.3354387283325195,0.17683851718902588
1.822853684425354,3.20947003364563,0.24642536044120789
1.7421987056732178,3.1203737258911133,0.24281752109527588
1.7480272054672241,3.1836435794830322,0.25092753767967224
1.7599892616271973,3.2611100673675537,0.26012367010116577
1.7465801239013672,3.2944719791412354,0.2658182382583618
2.3614108562469482,4.5334930419921875,0.36987021565437317
2.3402907848358154,4.570281028747559,0.376800000667572
2.2997512817382812,4.572947025299072,0.3808710277080536
2.262397527694702,4.582435131072998,0.38532117009162903
2.235470771789551,4.612528324127197,0.3915034532546997
2.2031590938568115,4.62764310836792,0.39627060294151306
2.1704719066619873,4.6426591873168945,0.4009922444820404
2.1362674236297607,4.658102989196777,0.4055415391921997
2.107762098312378,4.687748908996582,0.4114135801792145
2.068143367767334,4.687958240509033,0.41455787420272827
2.038407564163208,4.709066390991211,0.41951894760131836
1.78248131275177,4.200004577636719,0.37676066160202026
1.7203372716903687,4.1371169090271,0.3735816776752472
1.6866084337234497,4.14224910736084,0.3765566051006317
1.6576014757156372,4.153631210327148,0.3799665570259094
1.6285526752471924,4.164793968200684,0.38337209820747375
1.598399043083191,4.176163673400879,0.3865797817707062
1.5680100917816162,4.187375545501709,0.38974422216415405
1.5344154834747314,4.191216468811035,0.3922712802886963
1.510373592376709,4.216191291809082,0.3966839611530304
1.4886679649353027,4.248362064361572,0.4018082022666931
1.4530566930770874,4.243958950042725,0.4032531976699829
1.4272878170013428,4.2688398361206055,0.4074551463127136
1.3970977067947388,4.28263521194458,0.4106592833995819
1.3671529293060303,4.292027950286865,0.4133707880973816
1.3418033123016357,4.3160552978515625,0.4175158441066742
1.3110638856887817,4.325246810913086,0.4200490415096283
1.2798925638198853,4.334336280822754,0.42248615622520447
1.252997636795044,4.3581390380859375,0.4263826012611389
1.225951910018921,4.381740570068359,0.43028590083122253
1.1953858137130737,4.389944553375244,0.4326613247394562
1.1685196161270142,4.41303825378418,0.43643900752067566
1.1369322538375854,4.421075344085693,0.43852147459983826
1.1071726083755493,4.436429977416992,0.4413544833660126
1.0786868333816528,4.459234237670898,0.444974422454834
1.0476064682006836,4.466434478759766,0.4470127820968628
1.0164341926574707,4.4734272956848145,0.44905394315719604
0.9855349659919739,4.484135150909424,0.4512384235858917
0.9551777243614197,4.49847412109375,0.4537332355976105
0.798568069934845,3.89959454536438,0.39427292346954346
0.7508246302604675,3.801995277404785,0.38531506061553955
0.7214246988296509,3.791713237762451,0.38518908619880676
0.8335283398628235,4.553520202636719,0.463664710521698
0.8079661726951599,4.597452640533447,0.46895021200180054
0.7748044729232788,4.603012561798096,0.47036656737327576
0.7434034943580627,4.6159186363220215,0.47254449129104614
0.7129677534103394,4.632373809814453,0.4750988483428955
0.6840793490409851,4.660155773162842,0.4788433015346527
0.6504417061805725,4.656992435455322,0.47931531071662903
0.6180003881454468,4.669140338897705,0.4811536967754364
0.5860459804534912,4.680985450744629,0.48297595977783203
0.557599663734436,4.723484039306641,0.4879910349845886
0.5246899127960205,4.727146625518799,0.4890155494213104
0.49296149611473083,4.7421746253967285,0.4912411570549011
0.4612845182418823,4.760887145996094,0.4937056005001068
0.4279125928878784,4.771734714508057,0.4951852858066559
0.3962859511375427,4.797788619995117,0.4982639253139496
0.36319369077682495,4.808130741119385,0.49973732233047485
0.3312893211841583,4.833732604980469,0.5028207302093506
0.2988576889038086,4.855240821838379,0.5055058598518372
0.26480230689048767,4.864948749542236,0.5067987442016602
0.23183518648147583,4.889936923980713,0.509532630443573
0.1979038119316101,4.899171829223633,0.5106508731842041
0.16447605192661285,4.923700332641602,0.5133887529373169
0.1306653767824173,4.940227508544922,0.5153177976608276
0.09570939093828201,4.940995216369629,0.5156330466270447
0.06167803332209587,4.968725681304932,0.5185719132423401
0.027220886200666428,4.99235200881958,0.5209397673606873
-0.007474678102880716,4.992426872253418,0.5208750367164612
-0.04248517006635666,5.023340702056885,0.5240525603294373
-0.07826770842075348,5.0384602546691895,0.5256072282791138
-0.11328130215406418,5.037801742553711,0.5255418419837952
-0.1484087109565735,5.040804862976074,0.5256699919700623
-0.18476244807243347,5.078528881072998,0.5292657017707825
-0.21996459364891052,5.077173233032227,0.528811514377594
-0.2563805878162384,5.098853588104248,0.5307803153991699
-0.29441824555397034,5.13187313079834,0.5339474081993103
-0.27899253368377686,4.334887504577637,0.4508218765258789
-0.305428683757782,4.28252649307251,0.44501999020576477
-0.3337935507297516,4.264893054962158,0.44270458817481995
-0.3659331500530243,4.293527126312256,0.44521063566207886
-0.39326366782188416,4.2599687576293945,0.441281795501709
-0.4182528555393219,4.210806369781494,0.4357711374759674
-0.44138818979263306,4.149905681610107,0.4290763735771179
-0.46567749977111816,4.108234405517578,0.42422616481781006
-0.4888213872909546,4.062596321105957,0.4188636541366577
-0.5108729004859924,4.009062767028809,0.412710577249527
-0.5354166626930237,3.982433319091797,0.40936756134033203
-0.5554641485214233,3.9248440265655518,0.4028688371181488
-0.5786963701248169,3.89408278465271,0.39915597438812256
-0.5959469676017761,3.8286759853363037,0.3917406499385834
-0.6170145869255066,3.7900283336639404,0.3869790732860565
-0.6351637244224548,3.739851951599121,0.38108959794044495
-0.6561521887779236,3.708721160888672,0.37717029452323914
-0.6777071952819824,3.6812539100646973,0.3736439049243927
-0.6974512338638306,3.6460299491882324,0.3693588376045227
-0.7179312705993652,3.6184167861938477,0.3656701147556305
-0.7313035726547241,3.5563738346099854,0.3584635853767395
-0.7523301839828491,3.5362298488616943,0.3555321991443634
-0.7641741037368774,3.4741456508636475,0.348410040140152
-0.7848787903785706,3.453721046447754,0.34549322724342346
-0.8124380111694336,3.4634575843811035,0.3456096649169922
-0.8235896229743958,3.4050095081329346,0.3386884331703186
-0.842038631439209,3.3806216716766357,0.3352121114730835
-0.85919588804245,3.3523802757263184,0.33138346672058105
-0.8744783997535706,3.3164234161376953,0.3268035054206848
-0.8934382200241089,3.295409917831421,0.32372286915779114
-0.9133832454681396,3.2779955863952637,0.3209158480167389
-0.9248504042625427,3.2345237731933594,0.31546181440353394
-0.944526731967926,3.2209010124206543,0.3129500448703766
-0.9541342258453369,3.173590898513794,0.307189017534256
-0.9739572405815125,3.1595990657806396,0.30465811491012573
-0.9893003702163696,3.1305367946624756,0.3006811738014221
-1.0009632110595703,3.0943219661712646,0.295890212059021
-1.021835446357727,3.087679862976074,0.29392486810684204
-1.0352081060409546,3.058774948120117,0.2898613512516022
-1.047437310218811,3.025991201400757,0.285434365272522
-1.063294529914856,3.004138469696045,0.2820611000061035
-1.078888177871704,2.9822232723236084,0.27859166264533997
-1.0962152481079102,2.967801809310913,0.2757752537727356
-1.1065322160720825,2.935072183609009,0.27128633856773376
-1.1098558902740479,2.884028196334839,0.2651229798793793
-1.1270893812179565,2.869173526763916,0.26230040192604065
-1.138490915298462,2.8397271633148193,0.2580842673778534
-1.1471589803695679,2.8070294857025146,0.25351682305336
-1.1599302291870117,2.7851200103759766,0.24995757639408112
-1.140913486480713,2.6877400875091553,0.23966237902641296
-1.1380034685134888,2.629887104034424,0.2329517900943756
-1.1516914367675781,2.61136531829834,0.22968964278697968
-1.17386794090271,2.614488363265991,0.22827547788619995
-1.1977763175964355,2.6209633350372314,0.22714601457118988
-1.2009352445602417,2.581120252609253,0.2219792604446411
-1.2372207641601562,2.611621379852295,0.22284147143363953
-1.2720839977264404,2.638347625732422,0.2232278287410736
-1.2895374298095703,2.6300816535949707,0.22060833871364594
-1.2930123805999756,2.593818187713623,0.21567264199256897
-1.2846378087997437,2.5328476428985596,0.2086513638496399
-1.298715353012085,2.517113208770752,0.20540493726730347
-1.3008358478546143,2.4811012744903564,0.2004033327102661
-1.3101338148117065,2.4587812423706055,0.1965170055627823
-1.3231500387191772,2.4431655406951904,0.19316136837005615
-1.3439923524856567,2.4408912658691406,0.19081082940101624
-1.339369773864746,2.3946542739868164,0.18498489260673523
-1.3550865650177002,2.386019229888916,0.18207848072052002
-1.3675012588500977,2.370159387588501,0.1785421073436737
-1.3918801546096802,2.37424898147583,0.17646823823451996
-1.3876967430114746,2.3316731452941895,0.17087750136852264
-1.4189212322235107,2.34954571723938,0.16969873011112213
-1.4224904775619507,2.320222854614258,0.16501672565937042
-1.4266616106033325,2.290383815765381,0.16019584238529205
-1.4353291988372803,2.271368980407715,0.15614093840122223
-1.4521193504333496,2.265535593032837,0.1529950052499771
-1.4655945301055908,2.2524306774139404,0.14918512105941772
-1.4764602184295654,2.2362191677093506,0.1451319307088852
-1.4822685718536377,2.213857412338257,0.14061465859413147
-1.4926544427871704,2.197680711746216,0.13643182814121246
-1.4723480939865112,2.136181592941284,0.12937146425247192
-1.4858356714248657,2.1270534992218018,0.12551511824131012
-1.499871015548706,2.117414951324463,0.1214834600687027
-1.4986536502838135,2.084972620010376,0.11589627712965012
-1.5116889476776123,2.0757734775543213,0.11166172474622726
-1.5117466449737549,2.0469324588775635,0.10612470656633377
-1.5130932331085205,2.1196064949035645,-0.07927916198968887
-1.5154743194580078,2.1560099124908447,-0.08511097729206085
-1.477419376373291,2.134765625,-0.0884663462638855
-1.4918930530548096,2.190925121307373,-0.09502511471509933
-1.4852385520935059,2.2140774726867676,-0.09992384910583496
-1.4643155336380005,2.218423366546631,-0.10396506637334824
-1.4561821222305298,2.242204427719116,-0.10889410227537155
-1.4403537511825562,2.2522060871124268,-0.11293606460094452
-1.437974452972412,2.285858392715454,-0.11817819625139236
-1.4171816110610962,2.28942608833313,-0.1217956393957138
-1.413292407989502,2.3190855979919434,-0.1266847848892212
-1.3997493982315063,2.3361709117889404,-0.13095903396606445
-1.3984910249710083,2.3730103969573975,-0.1362856924533844
-1.3857574462890625,2.389280319213867,-0.14034779369831085
-1.377928376197815,2.416067123413086,-0.14501504600048065
-1.360056757926941,2.425949811935425,-0.1486888974905014
-1.3331942558288574,2.4183497428894043,-0.15119312703609467
-1.3195269107818604,2.4344918727874756,-0.15509158372879028
-1.3070496320724487,2.4542555809020996,-0.1592080146074295
-1.3038095235824585,2.4910223484039307,-0.16441398859024048
-1.2899736166000366,2.5067691802978516,-0.16819079220294952
-1.289107084274292,2.550753355026245,-0.17389832437038422
-1.286124348640442,2.591263771057129,-0.17938189208507538
-1.2711920738220215,2.607071876525879,-0.18312889337539673
-1.2209428548812866,2.5488672256469727,-0.1815902292728424
-1.1991103887557983,2.550379514694214,-0.1841478794813156
-1.183850646018982,2.565863847732544,-0.18772412836551666
-1.1960283517837524,2.641493558883667,-0.195745050907135
-1.1648188829421997,2.6210989952087402,-0.19662876427173615
-1.1770215034484863,2.7006592750549316,-0.20495709776878357
-1.116153597831726,2.612114191055298,-0.20051847398281097
-1.1038217544555664,2.6340394020080566,-0.20443406701087952
-1.1294665336608887,2.7497174739837646,-0.21576222777366638
-1.1300245523452759,2.80814528465271,-0.22257381677627563
-1.1226783990859985,2.848580837249756,-0.22803440690040588
-1.110987901687622,2.8779993057250977,-0.2326250821352005
-1.1018437147140503,2.914618492126465,-0.23783200979232788
-1.0887340307235718,2.9442403316497803,-0.24241727590560913
-1.082176923751831,2.992025852203369,-0.2484915405511856
-1.068752408027649,3.021414279937744,-0.2530696988105774
-1.032378077507019,2.984408140182495,-0.25205153226852417
-1.031261682510376,3.050410747528076,-0.2596563994884491
-1.0176392793655396,3.083472490310669,-0.264478474855423
-0.9956483244895935,3.0904219150543213,-0.2670544981956482
-0.9811021089553833,3.1193461418151855,-0.27151307463645935
-0.9638667106628418,3.1407861709594727,-0.275333046913147
-0.9515809416770935,3.180905342102051,-0.2806534469127655
-0.9376586079597473,3.217271566390991,-0.2856948673725128
-0.9188612699508667,3.238659620285034,-0.2894587516784668
-0.8983054161071777,3.2522835731506348,-0.2925102114677429
-0.8834570646286011,3.2883923053741455,-0.2974730134010315
-0.8610846996307373,3.2981460094451904,-0.29999271035194397
-0.8414866924285889,3.3190605640411377,-0.3035520911216736
-0.8216617107391357,3.3398525714874268,-0.3071287274360657
-0.8109906315803528,3.3982832431793213,-0.31418436765670776
-0.7895971536636353,3.4151172637939453,-0.31719282269477844
-0.7577832937240601,3.3862662315368652,-0.3159658908843994
-0.7372518181800842,3.406536817550659,-0.31932151317596436
-0.741742730140686,3.5485615730285645,-0.3341843783855438
-0.7215030193328857,3.5763630867004395,-0.33825188875198364
-0.6992418169975281,3.5964677333831787,-0.3414402902126312
-0.6831711530685425,3.650838851928711,-0.3479222357273102
-0.6548771858215332,3.640047788619995,-0.348212867975235
-0.6396653652191162,3.705740213394165,-0.3558718264102936
-0.6168555021286011,3.7291622161865234,-0.3593028783798218
-0.5954779982566833,3.763991594314575,-0.36375105381011963
-0.5724796056747437,3.7910103797912598,-0.36747807264328003
-0.5510803461074829,3.829394817352295,-0.3723297417163849
-0.5303325653076172,3.879271984100342,-0.3783593475818634
-0.5117020010948181,3.9483118057250977,-0.3859997093677521
-0.4840650260448456,3.9516777992248535,-0.38720086216926575
-0.4581888020038605,3.9702985286712646,-0.3899191617965698
-0.43765491247177124,4.038980007171631,-0.39758700132369995
-0.411909282207489,4.0650129318237305,-0.40109333395957947
-0.386563777923584,4.106461048126221,-0.4058111906051636
-0.3608747124671936,4.143831253051758,-0.4101453125476837
-0.32789263129234314,4.095788478851318,-0.4060421288013458
-0.3031020760536194,4.148281097412109,-0.4119223654270172
-0.2768131494522095,4.188992977142334,-0.4166101813316345
-0.2432032972574234,4.1248321533203125,-0.4105745553970337
-0.21507218480110168,4.1380205154418945,-0.4122474491596222
-0.18572083115577698,4.1277174949646,-0.4116000235080719
-0.15667112171649933,4.121091365814209,-0.41133731603622437
-0.12726004421710968,4.098730564117432,-0.4094204306602478
-0.09686083346605301,4.045114517211914,-0.40413421392440796
-0.06958752870559692,4.100085735321045,-0.4097154140472412
-0.04057656601071358,4.053815841674805,-0.4051993787288666
-0.012496089562773705,4.077307224273682,-0.4076751172542572
0.015732720494270325,4.046199798583984,-0.4045715034008026
0.04435042664408684,4.046009540557861,-0.4043505787849426
0.07213427871465683,4.026193618774414,-0.40219226479530334
0.09935476630926132,3.994530439376831,-0.398872047662735
0.12790407240390778,4.017073631286621,-0.4009840786457062
0.15550655126571655,4.008358478546143,-0.3998194634914398
0.18442316353321075,4.03053617477417,-0.40156856179237366
0.21208809316158295,4.013663291931152,-0.3994380235671997
0.2826784551143646,4.726110458374023,-0.4698426425457001
0.3140008747577667,4.700825214385986,-0.46685537695884705
0.34777215123176575,4.71412992477417,-0.46747225522994995
0.3750840723514557,4.645846366882324,-0.45986220240592957
0.4085133969783783,4.650939464569092,-0.4595329463481903
0.44082432985305786,4.648094654083252,-0.4584524929523468
0.4731155037879944,4.645025730133057,-0.4573719799518585
0.5061078071594238,4.649503231048584,-0.4567636251449585
0.5355977416038513,4.622861385345459,-0.45300784707069397
0.5652480721473694,4.595973968505859,-0.4492435157299042
0.5951634645462036,4.576656818389893,-0.44626396894454956
0.6269890069961548,4.572549343109131,-0.44479134678840637
0.6574402451515198,4.560586452484131,-0.442261278629303
0.684816837310791,4.529206275939941,-0.4378269910812378
0.7178709506988525,4.532138824462891,-0.4367099106311798
0.7469229102134705,4.511853218078613,-0.43339085578918457
0.7756797671318054,4.491390228271484,-0.4300752878189087
0.8053202033042908,4.4784770011901855,-0.42715534567832947
0.7018459439277649,3.7542779445648193,-0.3566857576370239
0.7263534665107727,3.7418644428253174,-0.35412371158599854
0.7543846368789673,3.74442720413208,-0.35296499729156494
0.9146875143051147,4.382796764373779,-0.41145971417427063
0.9464913010597229,4.384232044219971,-0.4096790552139282
0.9783578515052795,4.385436058044434,-0.40788960456848145
1.0104658603668213,4.3863677978515625,-0.40607643127441406
1.03435218334198,4.349048137664795,-0.40070709586143494
1.0662412643432617,4.349598407745361,-0.3987278938293457
1.0980204343795776,4.34997034072876,-0.3965887427330017
1.125941514968872,4.335043907165527,-0.39307358860969543
1.1520156860351562,4.3123369216918945,-0.3888600766658783
1.1804462671279907,4.296830654144287,-0.38528627157211304
1.2099312543869019,4.288897514343262,-0.38220301270484924
1.2392514944076538,4.280795574188232,-0.3790796399116516
1.2664371728897095,4.264988422393799,-0.3752848207950592
1.296172022819519,4.2563252449035645,-0.3721047341823578
1.3238985538482666,4.239914417266846,-0.3681681454181671
1.3481488227844238,4.216214656829834,-0.36347851157188416
1.373314380645752,4.196088790893555,-0.35913318395614624
1.4024018049240112,4.186750411987305,-0.35569626092910767
1.4290635585784912,4.1697869300842285,-0.35161858797073364
1.449921727180481,4.138133525848389,-0.3461662232875824
1.4812647104263306,4.135602951049805,-0.34304872155189514
1.5149385929107666,4.140284061431885,-0.3405688405036926
1.5356146097183228,4.108028888702393,-0.335021048784256
1.558487057685852,4.083041191101074,-0.33005422353744507
1.5862202644348145,4.072661876678467,-0.32615673542022705
1.608612298965454,4.047422409057617,-0.3210419714450836
1.6337779760360718,4.029236316680908,-0.31650543212890625
1.661864995956421,4.018044471740723,-0.3125259578227997
1.6981767416000366,4.028537273406982,-0.3100472092628479
1.9730379581451416,4.593702793121338,-0.34977373480796814
2.0317981243133545,4.640803813934326,-0.34941136837005615
2.056178569793701,4.609096050262451,-0.343120276927948
2.0923409461975098,4.606013298034668,-0.33885467052459717
2.1233582496643066,4.592169284820557,-0.3337686359882355
2.14978289604187,4.567310333251953,-0.3278435468673706
2.1821649074554443,4.552309036254883,-0.3224998116493225
2.21651029586792,4.54473876953125,-0.31765198707580566
2.2435827255249023,4.523107528686523,-0.311780720949173
2.2744295597076416,4.508049488067627,-0.3063180446624756
2.3093698024749756,4.49939489364624,-0.30120617151260376
2.345168352127075,4.4944167137146,-0.2962384521961212
1.7251238822937012,3.2522482872009277,-0.21091368794441223
1.7325962781906128,3.213141918182373,-0.20492501556873322
1.7231260538101196,3.1430883407592773,-0.1970040500164032
1.7364472150802612,3.118164539337158,-0.19194291532039642
1.7744373083114624,3.1373584270477295,-0.18958470225334167
1.3280043601989746,2.3099238872528076,-0.13679751753807068
1.2906914949417114,2.209995985031128,-0.12821604311466217
0.9471339583396912,1.5974923372268677,-0.09072497487068176
0.9679543972015381,1.607911467552185,-0.08929851651191711
0.9689583778381348,1.5846166610717773,-0.08593812584877014
0.979554295539856,1.578221321105957,-0.08346304297447205
1.0003025531768799,1.5883891582489014,-0.08187329769134521
1.0071717500686646,1.574918508529663,-0.07892081886529922
1.0112851858139038,1.5584691762924194,-0.07583560794591904
1.0278549194335938,1.5617530345916748,-0.07371152937412262
1.0367116928100586,1.5513266324996948,-0.07073686271905899
1.0382475852966309,1.5315953493118286,-0.06738952547311783
2.536318063735962,3.690152645111084,-0.1564134657382965
2.5798678398132324,3.698284149169922,-0.1502765268087387
2.594752788543701,3.669029951095581,-0.1426057368516922
2.610105514526367,3.6392056941986084,-0.13465003669261932
2.6164886951446533,3.5963404178619385,-0.12597593665122986
2.6576268672943115,3.6051948070526123,-0.11912067234516144
2.611137628555298,3.6887080669403076,0.19204199314117432
2.5910983085632324,3.721442699432373,0.20040316879749298
2.5599868297576904,3.733070135116577,0.20708103477954865
1.0627843141555786,1.5752216577529907,0.08987832069396973
1.0462846755981445,1.576707124710083,0.09236691147089005
1.0437610149383545,1.5969010591506958,0.0957421362400055
1.0276036262512207,1.5979206562042236,0.09794148802757263
1.0028562545776367,1.585783839225769,0.0992860496044159
0.9914764165878296,1.5927728414535522,0.1016768142580986
0.9879788756370544,1.6131178140640259,0.10486819595098495
0.9676783084869385,1.6070421934127808,0.10631497204303741
0.9560296535491943,1.6138523817062378,0.1085209846496582
1.3375142812728882,2.2941102981567383,0.1566675454378128
1.360672950744629,2.3750929832458496,0.1646059900522232
1.7904212474822998,3.1800286769866943,0.22354631125926971
1.7529590129852295,3.1649563312530518,0.22540979087352753
1.7733789682388306,3.255772113800049,0.23481810092926025
1.752806544303894,3.275468111038208,0.23905248939990997
2.389827251434326,4.5477824211120605,0.3358692228794098
2.3436803817749023,4.536306381225586,0.3386630415916443
2.315046787261963,4.5593695640563965,0.3439919650554657
2.2847659587860107,4.5829758644104,0.34920334815979004
2.2507991790771484,4.599393844604492,0.353894978761673
2.221087694168091,4.622111797332764,0.3589945137500763
2.1853742599487305,4.6301422119140625,0.3628848195075989
2.1480982303619385,4.638633728027344,0.36657455563545227
2.1235907077789307,4.67525577545166,0.37249863147735596
2.0930826663970947,4.697193145751953,0.37722358107566833
2.060243844985962,4.711363792419434,0.3812606930732727
1.9953933954238892,4.65422248840332,0.3794398307800293
1.7275067567825317,4.111746311187744,0.33751368522644043
1.700408697128296,4.131179332733154,0.3414236009120941
1.668348789215088,4.135566234588623,0.3440267741680145
1.6337289810180664,4.132354259490967,0.34598127007484436
1.609154224395752,4.158435821533203,0.35026857256889343
1.5844461917877197,4.184323787689209,0.35444924235343933
1.5513312816619873,4.188159465789795,0.3567838966846466
1.5246267318725586,4.205995082855225,0.36025816202163696
1.4952576160430908,4.216281414031982,0.3630993068218231
1.467065453529358,4.234180450439453,0.3664560317993164
1.436406135559082,4.244452953338623,0.3690725266933441
1.413041353225708,4.27666711807251,0.3736231327056885
1.3842560052871704,4.289938449859619,0.376494824886322
1.3531330823898315,4.295553207397461,0.3787061274051666
1.3221142292022705,4.304986953735352,0.38113588094711304
1.2944817543029785,4.325362682342529,0.384422242641449
1.2655760049819946,4.341812610626221,0.3873840272426605
1.2392022609710693,4.365396499633789,0.3909817934036255
1.210775375366211,4.3812408447265625,0.39389920234680176
1.1820088624954224,4.396954536437988,0.39674386382102966
1.15193510055542,4.412792205810547,0.3994235694408417
1.1202964782714844,4.420751571655273,0.40139302611351013
1.0888603925704956,4.428421974182129,0.4033464193344116
1.061584234237671,4.45086669921875,0.40664562582969666
1.0349674224853516,4.476925373077393,0.4103025197982788
1.001806378364563,4.480316638946533,0.4116842448711395
0.9723819494247437,4.498584747314453,0.41437995433807373
0.9379786252975464,4.493810176849365,0.4149738848209381
0.7658662796020508,3.8022267818450928,0.3519880771636963
0.7393726706504822,3.8073413372039795,0.3533487021923065
0.8401704430580139,4.496847152709961,0.4183521568775177
0.8213362097740173,4.575314521789551,0.42642420530319214
0.7875678539276123,4.573231220245361,0.4270212948322296
0.7620988488197327,4.620792865753174,0.4322814345359802
0.7292850017547607,4.622025489807129,0.4332214891910553
0.6971362829208374,4.63079309463501,0.43490248918533325
0.6657427549362183,4.643161773681641,0.4367729723453522
0.6350368857383728,4.663068771362305,0.4392200708389282
0.6041308045387268,4.682765483856201,0.44167229533195496
0.573967456817627,4.709972858428955,0.4448589086532593
0.541176438331604,4.713759422302246,0.4458509683609009
0.5086145401000977,4.725111484527588,0.4475930333137512
0.4774411916732788,4.747833251953125,0.45019859075546265
0.44406405091285706,4.751007556915283,0.4508737623691559
0.4132940471172333,4.784945964813232,0.45449399948120117
0.3810369372367859,4.803163051605225,0.456644743680954
0.34814712405204773,4.821188926696777,0.45880791544914246
0.3151140809059143,4.831190586090088,0.46022412180900574
0.28219977021217346,4.8487677574157715,0.462105393409729
0.24886909127235413,4.862241744995117,0.46355363726615906
0.21587850153446198,4.88714075088501,0.4661151170730591
0.18175381422042847,4.9040608406066895,0.4679432809352875
0.14788076281547546,4.912947654724121,0.4690244197845459
0.11420148611068726,4.937150955200195,0.4715924859046936
0.08024436980485916,4.9650397300720215,0.47422587871551514
0.045522578060626984,4.957703113555908,0.47347593307495117
0.01042200904339552,4.989009857177734,0.47643935680389404
-0.024328066036105156,4.996739387512207,0.4771748185157776
-0.059277165681123734,5.012003421783447,0.47865286469459534
-0.09473198652267456,5.042572975158691,0.48161619901657104
-0.12999461591243744,5.0534892082214355,0.482389360666275
-0.164825439453125,5.044726848602295,0.4812800884246826
-0.20109474658966064,5.059013843536377,0.4823882281780243
-0.23694239556789398,5.073068618774414,0.48350071907043457
-0.2742982506752014,5.110164642333984,0.4868300259113312
-0.30982711911201477,5.1081695556640625,0.4864571690559387
-0.2911168932914734,4.306709289550781,0.40970420837402344
-0.3199719190597534,4.285223484039307,0.40723517537117004
-0.34896010160446167,4.275214672088623,0.4058866798877716
-0.3799726963043213,4.28824520111084,0.4067431092262268
-0.40534862875938416,4.239101409912109,0.40172332525253296
-0.4311995208263397,4.201424598693848,0.3978087306022644
-0.4529704451560974,4.128802299499512,0.3903249204158783
-0.47550198435783386,4.075451850891113,0.3847096562385559
-0.49779847264289856,4.025847911834717,0.3794795870780945
-0.521150529384613,3.987673044204712,0.37535184621810913
-0.5424858927726746,3.9377989768981934,0.3701499104499817
-0.565250813961029,3.8993120193481445,0.3659973442554474
-0.587302565574646,3.8646843433380127,0.3620069622993469
-0.6058908104896545,3.8107237815856934,0.3562369644641876
-0.6294620037078857,3.791231393814087,0.3537191152572632
-0.6491163969039917,3.7485458850860596,0.34905585646629333
-0.6675560474395752,3.701934337615967,0.3440573811531067
-0.6878684759140015,3.66666316986084,0.34005311131477356
-0.7054539918899536,3.6238155364990234,0.3352246582508087
-0.7263694405555725,3.5999581813812256,0.3321807384490967
-0.7414230704307556,3.549325466156006,0.3266966640949249
-0.7595224976539612,3.513777256011963,0.3226199746131897
-0.7835193872451782,3.504636287689209,0.32097798585891724
-0.7988331317901611,3.4613852500915527,0.3161197602748871
-0.8133429884910583,3.418154239654541,0.3112054169178009
-0.8319672346115112,3.393772602081299,0.3080362379550934
-0.8495410084724426,3.365473508834839,0.30452942848205566
-0.8694031834602356,3.3444511890411377,0.3016788065433502
-0.8825923800468445,3.3008599281311035,0.29683735966682434
-0.9029204845428467,3.2874324321746826,0.29453662037849426
-0.9156848788261414,3.2476680278778076,0.2898930013179779
-0.9354918599128723,3.2340595722198486,0.287612646818161
-0.9472072124481201,3.190215826034546,0.28262779116630554
-0.9659898281097412,3.172518730163574,0.28000423312187195
-0.9854349493980408,3.158529758453369,0.27763789892196655
-0.9925299882888794,3.1074633598327637,0.27193620800971985
-1.0062370300292969,3.078643321990967,0.26821979880332947
-1.0276265144348145,3.071728229522705,0.2663973867893219
-1.042720079421997,3.0462279319763184,0.2629801630973816
-1.0561176538467407,3.0170271396636963,0.2592548131942749
-1.0764212608337402,3.0100109577178955,0.257296085357666
-1.0859652757644653,2.9736061096191406,0.2528517246246338
-1.0978931188583374,2.944464921951294,0.2490525245666504
-1.1214972734451294,2.9440627098083496,0.24764029681682587
-1.1179392337799072,2.874659538269043,0.24048687517642975
-1.1314769983291626,2.852778196334839,0.2372097373008728
-1.1417757272720337,2.8236522674560547,0.23335044085979462
-1.150322437286377,2.7908825874328613,0.2292189747095108
-1.1519904136657715,2.7397334575653076,0.22354364395141602
-1.1772031784057617,2.746126890182495,0.22261673212051392
-1.1425552368164062,2.6169798374176025,0.2106248438358307
-1.1631369590759277,2.6165976524353027,0.2090652883052826
-1.1807215213775635,2.608881711959839,0.20691002905368805
-1.199272632598877,2.6005866527557373,0.20462921261787415
-1.2355207204818726,2.6311707496643066,0.20540033280849457
-1.2698405981063843,2.658217430114746,0.2057465761899948
-1.2875230312347412,2.64988374710083,0.20334210991859436
-1.265840768814087,2.5608770847320557,0.19477000832557678
-1.2926838397979736,2.569453716278076,0.19360610842704773
-1.2904030084609985,2.5227231979370117,0.1882559061050415
-1.2961748838424683,2.493619203567505,0.1842244416475296
-1.308974027633667,2.4782938957214355,0.1812313199043274
-1.318895936012268,2.455533027648926,0.17760911583900452
-1.3226832151412964,2.4226367473602295,0.17326757311820984
-1.3388495445251465,2.4139325618743896,0.17056725919246674
-1.3470213413238525,2.3916850090026855,0.16696549952030182
-1.363588809967041,2.382471799850464,0.16417746245861053
-1.3760806322097778,2.3664536476135254,0.16090737283229828
-1.4033621549606323,2.3777806758880615,0.15942499041557312
-1.3950613737106323,2.3284614086151123,0.15386062860488892
-1.4153189659118652,2.325537919998169,0.1512870490550995
-1.422925353050232,2.302767515182495,0.14740002155303955
-1.4419503211975098,2.3003089427948,0.14477138221263885
-1.4613306522369385,2.2974932193756104,0.14205721020698547
-1.4586526155471802,2.25771164894104,0.13689009845256805
-1.4648547172546387,2.235255479812622,0.13281257450580597
-1.4748855829238892,2.219480037689209,0.12914526462554932
-1.490221381187439,2.2094156742095947,0.12561433017253876
-1.4784578084945679,2.1609995365142822,0.11990075558423996
-1.5057302713394165,2.170840263366699,0.11736664921045303
-1.491284728050232,2.119245767593384,0.11138250678777695
-1.500662088394165,2.103231191635132,0.10726064443588257
-1.509171962738037,2.087698221206665,0.10317211598157883
-1.5143648386001587,2.0648062229156494,0.09838798642158508
-1.508780598640442,2.0303075313568115,0.0930563360452652
-1.4989506006240845,2.1154212951660156,-0.07535862922668457
-1.4832897186279297,2.126275062561035,-0.07965895533561707
-1.4960542917251587,2.1790027618408203,-0.08552498370409012
-1.4802683591842651,2.1895925998687744,-0.08964231610298157
-1.485132098197937,2.2331631183624268,-0.0950825959444046
-1.4732487201690674,2.2501893043518066,-0.09926345944404602
-1.448643684387207,2.2473855018615723,-0.10244058817625046
-1.4359477758407593,2.2645938396453857,-0.10651315003633499
-1.4256950616836548,2.2847015857696533,-0.11064451932907104
-1.4256291389465332,2.3212890625,-0.11550093442201614
-1.412348985671997,2.33833646774292,-0.11941280961036682
-1.3955707550048828,2.3482110500335693,-0.12285729497671127
-1.3907344341278076,2.3780624866485596,-0.12730154395103455
-1.3611202239990234,2.367985725402832,-0.12962321937084198
-1.3515821695327759,2.391204595565796,-0.13366171717643738
-1.3386484384536743,2.4072225093841553,-0.1372230350971222
-1.3285695314407349,2.430417060852051,-0.14117750525474548
-1.3107000589370728,2.4399149417877197,-0.1443461924791336
-1.3022929430007935,2.4663054943084717,-0.14847810566425323
-1.2919999361038208,2.489121198654175,-0.15235315263271332
-1.2985795736312866,2.5469558238983154,-0.1583881974220276
-1.2923129796981812,2.580519437789917,-0.16297276318073273
-1.2707958221435547,2.5823051929473877,-0.16548791527748108
-1.2520148754119873,2.5912718772888184,-0.1684553623199463
-1.2331478595733643,2.6001148223876953,-0.1713373214006424
-1.2276556491851807,2.636972188949585,-0.17606568336486816
-1.1784170866012573,2.577918529510498,-0.17430830001831055
-1.187119483947754,2.646550416946411,-0.18112614750862122
-1.1616621017456055,2.6406095027923584,-0.18285268545150757
-1.1486459970474243,2.6630988121032715,-0.18656392395496368
-1.1513288021087646,2.7211110591888428,-0.19273796677589417
-1.1484249830245972,2.768627643585205,-0.1981770396232605
-1.1372824907302856,2.798295259475708,-0.20234407484531403
-1.127381443977356,2.8314945697784424,-0.20679408311843872
-1.1100903749465942,2.846494674682617,-0.209938183426857
-1.1122355461120605,2.912311315536499,-0.21679526567459106
-1.0967904329299927,2.934621810913086,-0.22038455307483673
-1.0824198722839355,2.9605159759521484,-0.2242758572101593
-1.0695714950561523,2.989835023880005,-0.22841611504554749
-1.0610965490341187,3.0339653491973877,-0.2337566763162613
-1.0393580198287964,3.0412991046905518,-0.23611126840114594
-1.0151252746582031,3.0410773754119873,-0.23788507282733917
-0.9985025525093079,3.062786817550659,-0.24136513471603394
-0.98304682970047,3.088045835494995,-0.24513621628284454
-0.9700585603713989,3.1246140003204346,-0.24975357949733734
-0.9545838236808777,3.1536262035369873,-0.25371459126472473
-0.9398975968360901,3.1862921714782715,-0.25800392031669617
-0.9306120872497559,3.237494707107544,-0.26381170749664307
-0.9079830050468445,3.2437379360198975,-0.26596710085868835
-0.896218478679657,3.2912588119506836,-0.2713628113269806
-0.8744805455207825,3.304988145828247,-0.2740327715873718
-0.857063353061676,3.333508014678955,-0.2779184579849243
-0.8432524800300598,3.377004861831665,-0.2830815017223358
-0.8195162415504456,3.382683753967285,-0.284987211227417
-0.8017938733100891,3.4147746562957764,-0.2890336215496063
-0.7841218113899231,3.4506638050079346,-0.2934609055519104
-0.7650514841079712,3.4787065982818604,-0.297215074300766
-0.7497338652610779,3.525672197341919,-0.3026227355003357
-0.7311917543411255,3.561218500137329,-0.3068832755088806
-0.710621178150177,3.5890517234802246,-0.31046921014785767
-0.6900296807289124,3.620664358139038,-0.314432829618454
-0.6731733083724976,3.6711885929107666,-0.32004857063293457
-0.6549490094184875,3.717819929122925,-0.32534870505332947
-0.6352046728134155,3.7605974674224854,-0.33009395003318787
-0.6124370694160461,3.787904739379883,-0.3335128724575043
-0.5889613628387451,3.8151283264160156,-0.3369673192501068
-0.5686448812484741,3.8613576889038086,-0.34210872650146484
-0.5481953024864197,3.9113528728485107,-0.3475427031517029
-0.5274285674095154,3.9651436805725098,-0.3531293272972107
-0.5044761896133423,4.0072479248046875,-0.3577108085155487
-0.48063796758651733,4.045341968536377,-0.36196303367614746
-0.4562719464302063,4.087210178375244,-0.3666001856327057
-0.4330381751060486,4.140503406524658,-0.37215423583984375
-0.40780454874038696,4.182079792022705,-0.37650418281555176
-0.3704441487789154,4.095634937286377,-0.36933937668800354
-0.3486844599246979,4.1794586181640625,-0.37754324078559875
-0.319710910320282,4.189499378204346,-0.37912410497665405
-0.2929422855377197,4.226491451263428,-0.3829803466796875
-0.2557353973388672,4.104132652282715,-0.37224122881889343
-0.22665974497795105,4.098001003265381,-0.3720511496067047
-0.198468416929245,4.107206344604492,-0.373271107673645
-0.1693788319826126,4.108461856842041,-0.37379395961761475
-0.14047512412071228,4.101737976074219,-0.37339720129966736
-0.13444575667381287,4.930900573730469,-0.4489908814430237
-0.10004875808954239,4.931699275970459,-0.44919729232788086
-0.06573221832513809,4.932257175445557,-0.44940316677093506
-0.03075619414448738,4.909239292144775,-0.4474845826625824
0.0033251470886170864,4.901558876037598,-0.4467281997203827
0.03718655928969383,4.878093719482422,-0.4444234073162079
0.0709909126162529,4.869953632354736,-0.4435371160507202
0.10455821454524994,4.857691764831543,-0.44229748845100403
0.13744665682315826,4.825754642486572,-0.4392886459827423
0.1715412735939026,4.824704170227051,-0.43883365392684937
0.20399639010429382,4.8001298904418945,-0.43614986538887024
0.23577585816383362,4.76756477355957,-0.43276548385620117
0.26872900128364563,4.761975288391113,-0.43185269832611084
0.30136948823928833,4.752274990081787,-0.4305889904499054
0.3344116806983948,4.742342472076416,-0.42902302742004395
0.3655286431312561,4.7167181968688965,-0.42597946524620056
0.3969206213951111,4.6986470222473145,-0.42364537715911865
0.4274510443210602,4.672611713409424,-0.42061761021614075
0.459926962852478,4.669610500335693,-0.41968706250190735
0.49156680703163147,4.65476131439209,-0.4173940122127533
0.5219995379447937,4.635900497436523,-0.4147201478481293
0.552234411239624,4.6168365478515625,-0.41205328702926636
0.5833654403686523,4.605277061462402,-0.41007617115974426
0.613291323184967,4.585799217224121,-0.4074195921421051
0.6444620490074158,4.573807239532471,-0.40511247515678406
0.6708695888519287,4.534750938415527,-0.4004347622394562
0.7022103071212769,4.530145168304443,-0.3988247215747833
0.7337493896484375,4.52528715133667,-0.3972027599811554
0.7639042139053345,4.512543201446533,-0.3948977589607239
0.7922748327255249,4.492010593414307,-0.3916304111480713
0.8209240436553955,4.471205711364746,-0.3883434236049652
0.7176350355148315,3.7621049880981445,-0.32554447650909424
0.7392907738685608,3.734246015548706,-0.3219360113143921
0.7831870913505554,3.8168692588806152,-0.32779377698898315
0.932318389415741,4.390336990356445,-0.3753626048564911
0.9688743352890015,4.4105095863342285,-0.3753817677497864
0.9968117475509644,4.3924946784973145,-0.3721809983253479
1.03001868724823,4.397012710571289,-0.3708995580673218
1.0577023029327393,4.378620624542236,-0.36757421493530273
1.0858407020568848,4.36391544342041,-0.36441725492477417
1.1143603324890137,4.348895072937012,-0.36122381687164307
1.1425457000732422,4.333733558654785,-0.3580542504787445
1.174755334854126,4.333393573760986,-0.3561198115348816
1.200383186340332,4.310421466827393,-0.35215383768081665
1.223429560661316,4.279868125915527,-0.34752851724624634
1.253273606300354,4.271454811096191,-0.34468623995780945
1.2830593585968018,4.262831211090088,-0.3418439030647278
1.3104459047317505,4.2465691566467285,-0.3383922278881073
1.3324270248413086,4.215462684631348,-0.33356744050979614
1.361206293106079,4.206497669219971,-0.3305254578590393
1.3907185792922974,4.197078227996826,-0.3273991346359253
1.416213870048523,4.176446914672852,-0.3234364986419678
1.4487754106521606,4.177882671356201,-0.321087121963501
1.4680894613265991,4.1424641609191895,-0.31582289934158325
1.4936522245407104,4.125278949737549,-0.3119809031486511
1.5169140100479126,4.100419521331787,-0.3075355589389801
1.5486928224563599,4.097111225128174,-0.30466485023498535
1.5736517906188965,4.07949686050415,-0.30061763525009155
1.5955878496170044,4.054476261138916,-0.2960531413555145
1.626422643661499,4.050865650177002,-0.2930254638195038
1.65463125705719,4.039684295654297,-0.28942927718162537
1.679714322090149,4.0211405754089355,-0.2851572036743164
1.78932785987854,4.203629016876221,-0.29502415657043457
2.008802890777588,4.63148307800293,-0.32162827253341675
2.045766592025757,4.628373146057129,-0.31791621446609497
2.0759265422821045,4.610958576202393,-0.3131455183029175
2.104252815246582,4.589840412139893,-0.30798617005348206
2.1385951042175293,4.582855224609375,-0.30383560061454773
2.172165632247925,4.571671962738037,-0.2993049919605255
2.1951003074645996,4.539368152618408,-0.2933655083179474
2.22894024848938,4.531853199005127,-0.2889663279056549
2.2599599361419678,4.516778945922852,-0.28400522470474243
2.2967634201049805,4.511626243591309,-0.2795969545841217
2.3258886337280273,4.492602825164795,-0.2742859721183777
2.364964008331299,4.4945197105407715,-0.270178884267807
1.7292964458465576,3.233513116836548,-0.1912950873374939
1.7518013715744019,3.221604585647583,-0.18740695714950562
1.7305623292922974,3.1311469078063965,-0.1789405345916748
1.7474991083145142,3.1129980087280273,-0.17473135888576508
1.8053970336914062,3.1656334400177,-0.17435972392559052
1.348073124885559,2.3260674476623535,-0.12560252845287323
0.9478731751441956,1.61098313331604,-0.08521346747875214
0.9586692452430725,1.6046944856643677,-0.0830710381269455
0.969852089881897,1.5980747938156128,-0.08084273338317871
0.9806323051452637,1.5915942192077637,-0.07861386239528656
0.984855055809021,1.5753015279769897,-0.0759042277932167
1.001847743988037,1.5785459280014038,-0.0740654394030571
1.0170347690582275,1.5782115459442139,-0.07195699214935303
1.0208537578582764,1.5618783235549927,-0.06915564090013504
1.0335043668746948,1.558329463005066,-0.06685540825128555
1.0419765710830688,1.5480804443359375,-0.06419142335653305
1.0673274993896484,1.564015507698059,-0.06257906556129456
2.5539803504943848,3.6880545616149902,-0.14179904758930206
2.5832338333129883,3.677417755126953,-0.1354999989271164
2.615670919418335,3.673842191696167,-0.12943536043167114
2.5998332500457764,3.5989511013031006,-0.12044008821249008
2.6459572315216064,3.613919734954834,-0.11443818360567093
2.6929118633270264,3.6280465126037598,-0.1080065444111824
2.6343612670898438,3.6925201416015625,0.16889530420303345
2.6105470657348633,3.7186074256896973,0.17627376317977905
2.573639392852783,3.724958658218384,0.1824513077735901
1.0693265199661255,1.5713598728179932,0.07924824208021164
1.057152509689331,1.5794411897659302,0.08188755810260773
1.0456061363220215,1.5869781970977783,0.08437804877758026
1.0255144834518433,1.5813335180282593,0.08609239757061005
1.0134180784225464,1.5889836549758911,0.0884442999958992
0.9935004711151123,1.5829905271530151,0.08994194120168686
0.9823346734046936,1.589821457862854,0.09207887947559357
0.9864979982376099,1.6237494945526123,0.09576621651649475
0.9621556997299194,1.6109596490859985,0.09671634435653687
0.9548205733299255,1.624255657196045,0.09909091889858246
1.35093355178833,2.3368582725524902,0.14476312696933746
1.8150825500488281,3.1945645809173584,0.20083339512348175
1.7406727075576782,3.1153907775878906,0.19859404861927032
1.7466685771942139,3.178725481033325,0.20537690818309784
1.7657577991485596,3.2702460289001465,0.2139165997505188
1.7523545026779175,3.30372953414917,0.21873410046100616
2.357907772064209,4.522637844085693,0.3028712868690491
2.3333311080932617,4.552599906921387,0.30826324224472046
2.295748710632324,4.562638759613037,0.31220945715904236
2.2688941955566406,4.593155384063721,0.31750115752220154
2.2325286865234375,4.601984024047852,0.32121923565864563
2.2036008834838867,4.624256134033203,0.3258220851421356
2.1700947284698486,4.6397929191589355,0.3298076093196869
2.126152753829956,4.63409423828125,0.332205593585968
2.1013784408569336,4.670754432678223,0.33767691254615784
2.0719621181488037,4.692131519317627,0.341907799243927
2.0296621322631836,4.684841156005859,0.34400954842567444
1.7761434316635132,4.182681083679199,0.3093069791793823
1.7112072706222534,4.112518310546875,0.30625635385513306
