X,Y,Z
-0.9013949632644653,6.284688472747803,1.5486925840377808
-0.9519253373146057,6.324014186859131,1.5568618774414062
-1.0012736320495605,6.351699352264404,1.5622223615646362
-1.0566999912261963,6.412932872772217,1.5749073028564453
-1.1063976287841797,6.440197467803955,1.579190731048584
-1.159860372543335,6.485780239105225,1.5880080461502075
-1.2107545137405396,6.512235641479492,1.5921745300292969
-1.266994595527649,6.560577869415283,1.6017067432403564
-1.3231450319290161,6.6047539710998535,1.610266089439392
-1.3829329013824463,6.659572601318359,1.6211951971054077
-1.433202862739563,6.673534393310547,1.6213752031326294
-1.4680079221725464,6.616630554199219,1.6044307947158813
-1.5013283491134644,6.555821418762207,1.586655855178833
-1.5371712446212769,6.5058088302612305,1.5715670585632324
-0.6845175623893738,2.8082845211029053,0.6770897507667542
-0.7022714614868164,2.7966017723083496,0.673040509223938
-0.7195566892623901,2.784956216812134,0.6687345504760742
-0.7404427528381348,2.7879934310913086,0.6678231358528137
-0.7634062767028809,2.7982208728790283,0.6686520576477051
-1.7445682287216187,6.224862575531006,1.4838348627090454
-1.779786467552185,6.184665679931641,1.4706790447235107
-1.8069738149642944,6.118691921234131,1.4515143632888794
-1.8428924083709717,6.085592746734619,1.439998984336853
-1.8739835023880005,6.041828155517578,1.4253487586975098
-1.9064881801605225,6.001316547393799,1.4114964008331299
-1.9342817068099976,5.94994592666626,1.395277500152588
-1.9687461853027344,5.916170120239258,1.383164644241333
-1.9931193590164185,5.853260040283203,1.364346981048584
-2.0303220748901367,5.829977512359619,1.3548067808151245
-2.0570147037506104,5.781918048858643,1.3387370109558105
-2.0837972164154053,5.733527660369873,1.3226327896118164
-2.1160025596618652,5.703123569488525,1.3108656406402588
-2.1478230953216553,5.668525218963623,1.2980716228485107
-2.1849474906921387,5.647933483123779,1.288551926612854
-2.2427401542663574,5.680502891540527,1.2910879850387573
-2.3117105960845947,5.741434097290039,1.2991024255752563
-2.3503851890563965,5.727697849273682,1.2903149127960205
-2.3787014484405518,5.688963890075684,1.2759712934494019
-2.412999153137207,5.659928798675537,1.2636239528656006
-2.472933292388916,5.690347194671631,1.2645816802978516
-3.581299066543579,8.086954116821289,1.788266897201538
-3.659447431564331,8.118083000183105,1.7856271266937256
-3.747753143310547,8.16943645477295,1.7873700857162476
-3.833282470703125,8.209074020385742,1.7862600088119507
-3.9029734134674072,8.209207534790039,1.7762709856033325
-3.9621541500091553,8.184168815612793,1.7607237100601196
-4.050867080688477,8.22970199584961,1.759307622909546
-4.135221004486084,8.264144897460938,1.75538969039917
-4.213759899139404,8.283929824829102,1.7481920719146729
-4.327545166015625,8.363051414489746,1.7527717351913452
-4.3871169090271,8.335677146911621,1.7349826097488403
-4.486242771148682,8.387041091918945,1.732277274131775
-1.1764127016067505,2.1653316020965576,0.4437774121761322
-1.1799392700195312,2.1381001472473145,0.43473613262176514
-4.792231559753418,8.542671203613281,1.7223619222640991
-2.5505805015563965,4.473451137542725,0.8942757844924927
-5.003747463226318,8.643329620361328,1.711504340171814
-1.2428940534591675,2.1153242588043213,0.41492313146591187
-1.2516067028045654,2.097820520401001,0.4074209928512573
-2.954794406890869,4.875330924987793,0.937035858631134
-2.9823412895202637,4.847549915313721,0.921591579914093
-3.0067851543426514,4.816887855529785,0.9051690101623535
-3.00612211227417,4.746970176696777,0.8815658092498779
-3.0569722652435303,4.753878116607666,0.8715866804122925
-3.0732998847961426,4.709201812744141,0.8520020842552185
-3.0807886123657227,4.656124591827393,0.8306475877761841
-3.099609851837158,4.618456840515137,0.8117725253105164
-3.0960116386413574,4.544389724731445,0.7859929800033569
-3.131669759750366,4.532102584838867,0.770775556564331
-3.1812903881073,4.542784690856934,0.7591147422790527
-2.856309652328491,4.0215678215026855,0.6592891812324524
-2.946773052215576,4.08812141418457,0.6563796401023865
-2.9342191219329834,4.018496990203857,0.6312969326972961
-2.965737819671631,4.007622241973877,0.6150495409965515
-2.454660654067993,3.442030906677246,-0.23873986303806305
-2.45207142829895,3.490427255630493,-0.25793442130088806
-2.8838727474212646,4.171730995178223,-0.3270779848098755
-2.875415563583374,4.223256587982178,-0.34883853793144226
-2.848741054534912,4.249083518981934,-0.36829105019569397
-2.8270304203033447,4.285226345062256,-0.38876956701278687
-2.8168463706970215,4.336739540100098,-0.41014963388442993
-2.8121798038482666,4.39821195602417,-0.43239375948905945
-2.778836965560913,4.417527198791504,-0.4506756365299225
-1.2700395584106445,2.0507678985595703,-0.21640227735042572
-2.1600334644317627,3.5436015129089355,-0.3861442804336548
-2.140944480895996,3.571763277053833,-0.40164676308631897
-2.659942388534546,4.509757995605469,-0.5219922065734863
-2.6354377269744873,4.540164947509766,-0.5401170253753662
-1.201616883277893,2.1050899028778076,-0.25713762640953064
-2.5925755500793457,4.618721008300781,-0.5786901116371155
-2.558992624282837,4.635345935821533,-0.5950126051902771
-2.532576322555542,4.665421485900879,-0.6128346920013428
-2.5162789821624756,4.7161102294921875,-0.6334917545318604
-2.489353656768799,4.745758056640625,-0.6511738896369934
-2.448272943496704,4.747475624084473,-0.6649084091186523
-1.1065572500228882,2.1846723556518555,-0.31219282746315
-1.1094473600387573,2.2298712730407715,-0.3248564898967743
-1.054394006729126,2.1566948890686035,-0.319999635219574
-1.0455927848815918,2.1771538257598877,-0.32885101437568665
-1.0362343788146973,2.197720527648926,-0.3377353549003601
-1.0267301797866821,2.2181928157806396,-0.34665802121162415
-1.0154067277908325,2.2350802421569824,-0.35509157180786133
-1.0024775266647339,2.2483155727386475,-0.3628489673137665
-0.9891952872276306,2.2615573406219482,-0.37058719992637634
-0.97284996509552,2.2675576210021973,-0.3771321177482605
-0.9656546711921692,2.294696092605591,-0.3871927559375763
-0.9518096446990967,2.3077096939086914,-0.39496949315071106
-0.9408583641052246,2.327744722366333,-0.4038322865962982
-0.9241002202033997,2.333336591720581,-0.4102059602737427
-0.9172132611274719,2.363892078399658,-0.42099833488464355
-0.8824718594551086,2.3224680423736572,-0.41883525252342224
-1.1927940845489502,3.2083425521850586,-0.5857651233673096
-1.1092422008514404,3.048917770385742,-0.5633164048194885
-1.047573208808899,2.9429187774658203,-0.5501008629798889
-1.0139516592025757,2.912604570388794,-0.5505920648574829
-0.98440021276474,2.892969846725464,-0.5528277158737183
-0.9560940265655518,2.876795768737793,-0.5557408332824707
-0.9404316544532776,2.896768569946289,-0.5655041933059692
-0.9221702814102173,2.9093523025512695,-0.5737658739089966
-0.9116355776786804,2.9475345611572266,-0.5869283080101013
-0.8142145276069641,2.699216842651367,-0.5426436066627502
-0.7788369059562683,2.6485190391540527,-0.537510097026825
-0.7618151307106018,2.6602249145507812,-0.5449811220169067
-0.7449462413787842,2.6718075275421143,-0.5520771741867065
-0.7159157991409302,2.638916492462158,-0.5499588847160339
-0.7011945247650146,2.657562255859375,-0.5585353374481201
-0.660578727722168,2.576035737991333,-0.5459411144256592
-0.632818877696991,2.5425376892089844,-0.5429987907409668
-0.6050080060958862,2.505019426345825,-0.5390219688415527
-0.5768841505050659,2.463541030883789,-0.534081757068634
-0.5468552708625793,2.4106404781341553,-0.5265247225761414
-0.5233127474784851,2.3836770057678223,-0.5241297483444214
-0.49593663215637207,2.3379011154174805,-0.5175116062164307
-0.47182634472846985,2.3030614852905273,-0.5131538510322571
-0.44898584485054016,2.2717621326446533,-0.5095031261444092
-0.4258924424648285,2.236600399017334,-0.5045828819274902
-0.39990103244781494,2.182525396347046,-0.4951569736003876
-0.3803490400314331,2.1620500087738037,-0.4933304488658905
-0.362628698348999,2.14890193939209,-0.49310532212257385
-0.34210291504859924,2.1168692111968994,-0.4882553815841675
-0.3237994313240051,2.0960094928741455,-0.48571738600730896
-0.30245906114578247,2.052414894104004,-0.4778631627559662
-0.2910311222076416,2.0765066146850586,-0.4858034551143646
-0.27451369166374207,2.0628254413604736,-0.48472803831100464
-0.25584229826927185,2.0302212238311768,-0.47886478900909424
-0.2398848682641983,2.016352891921997,-0.47740045189857483
-0.22664079070091248,2.0250375270843506,-0.4812961220741272
-0.2101212590932846,2.0034074783325195,-0.4779132008552551
-0.19517773389816284,1.9968942403793335,-0.47772878408432007
-0.1785234659910202,1.967553734779358,-0.4720567464828491
-0.16607633233070374,1.9835149049758911,-0.47726768255233765
-0.1496237963438034,1.9501633644104004,-0.4706242084503174
-0.13658541440963745,1.9584773778915405,-0.4735161364078522
-0.11987240612506866,1.913659930229187,-0.4635828137397766
-0.10614166408777237,1.9066144227981567,-0.46278145909309387
-0.09252846240997314,1.8994717597961426,-0.4619706869125366
-0.07967764139175415,1.9074995517730713,-0.4644435942173004
-0.06644387543201447,1.9078724384307861,-0.4649933874607086
-0.05252467840909958,1.8929837942123413,-0.4618518650531769
-0.038944996893405914,1.8742003440856934,-0.45776626467704773
-0.026068754494190216,1.885757327079773,-0.46075788140296936
-0.012879989109933376,1.8744968175888062,-0.458028107881546
0.00016780434816610068,1.9010906219482422,-0.4645706117153168
0.013428139500319958,1.8744676113128662,-0.45813196897506714
0.026850786060094833,1.9009382724761963,-0.46441805362701416
0.03935211896896362,1.866666555404663,-0.4556436240673065
0.053505461663007736,1.9081825017929077,-0.46538954973220825
0.06595396995544434,1.8851146697998047,-0.45940306782722473
0.07824971526861191,1.8657976388931274,-0.45418041944503784
0.09498050808906555,1.9374629259109497,-0.4707508385181427
0.1084628701210022,1.9369863271713257,-0.4697975516319275
0.12146588414907455,1.9288365840911865,-0.46700918674468994
0.13647101819515228,1.9509259462356567,-0.47146114706993103
0.14890940487384796,1.9351292848587036,-0.4663594961166382
0.16328129172325134,1.9419469833374023,-0.46671339869499207
0.17991454899311066,1.9751631021499634,-0.4734314978122711
0.19664853811264038,2.004472255706787,-0.4791797995567322
0.21065272390842438,2.003521680831909,-0.4771997034549713
0.22719624638557434,2.0251410007476807,-0.48059898614883423
0.23796656727790833,1.9937500953674316,-0.47142139077186584
0.25664523243904114,2.030242919921875,-0.47834262251853943
0.27335652709007263,2.0478219985961914,-0.48035338521003723
0.2908603250980377,2.069056749343872,-0.4831336438655853
0.31310802698135376,2.120285749435425,-0.49286404252052307
0.3270293176174164,2.111088514328003,-0.4884856939315796
0.349736750125885,2.1582963466644287,-0.49683642387390137
0.3699544072151184,2.186561346054077,-0.5006013512611389
0.3879368007183075,2.199648141860962,-0.5008595585823059
0.40815234184265137,2.2238500118255615,-0.5036278367042542
0.4280405044555664,2.2441861629486084,-0.5052512288093567
0.45370393991470337,2.2905704975128174,-0.5123744010925293
0.4790070950984955,2.333033800125122,-0.5185666680335999
0.5017523169517517,2.3603405952453613,-0.5213099718093872
0.5290062427520752,2.4061386585235596,-0.5279077887535095
0.5527176260948181,2.4331305027008057,-0.529967188835144
0.5849822163581848,2.4933629035949707,-0.5390800833702087
0.6133372783660889,2.5347707271575928,-0.5440441370010376
0.63580322265625,2.549962043762207,-0.5432525277137756
0.6689849495887756,2.6058189868927,-0.5506340861320496
0.6961382031440735,2.6354620456695557,-0.5523432493209839
0.7401425242424011,2.723933219909668,-0.5661089420318604
0.7737617492675781,2.771455764770508,-0.5712254643440247
0.8133325576782227,2.8371832370758057,-0.5794973373413086
0.8581681847572327,2.9172611236572266,-0.5904305577278137
0.8953895568847656,2.9675042629241943,-0.5950720310211182
0.9303560256958008,3.0063016414642334,-0.5971587896347046
0.9909837245941162,3.125474214553833,-0.6146884560585022
1.0450053215026855,3.218484401702881,-0.6265771985054016
1.1004774570465088,3.310931921005249,-0.6379678845405579
1.1524016857147217,3.388251781463623,-0.6460979580879211
1.234407901763916,3.548685073852539,-0.6693477034568787
1.3036401271820068,3.6646785736083984,-0.6833600997924805
1.3926399946212769,3.830700635910034,-0.7062074542045593
1.486869215965271,4.002951622009277,-0.7294444441795349
1.5602014064788818,4.113065719604492,-0.7405570149421692
1.6210767030715942,4.186578750610352,-0.7444967031478882
1.6624683141708374,4.205486297607422,-0.7383043169975281
1.6966549158096313,4.206244468688965,-0.7289794683456421
1.721946358680725,4.185399055480957,-0.7157805562019348
1.742308497428894,4.1538166999816895,-0.7006740570068359
1.7593525648117065,4.114975929260254,-0.6844649314880371
1.4664636850357056,3.363997459411621,-0.551419198513031
1.493281602859497,3.3621912002563477,-0.5430288314819336
1.5135232210159302,3.346193552017212,-0.5322548151016235
1.5305531024932861,3.322948455810547,-0.5203405618667603
1.5575003623962402,3.32047963142395,-0.5116086602210999
1.5746102333068848,3.2967910766601562,-0.4994266629219055
1.597537875175476,3.2872331142425537,-0.48951706290245056
1.6171865463256836,3.270451784133911,-0.47849082946777344
1.6439863443374634,3.267214059829712,-0.4693374037742615
1.6633192300796509,3.2501628398895264,-0.45816025137901306
1.6768770217895508,3.2227771282196045,-0.44557222723960876
2.0827627182006836,3.9354283809661865,-0.5330331921577454
2.1107559204101562,3.922203779220581,-0.5202361941337585
2.122938394546509,3.8819520473480225,-0.503889262676239
2.11753511428833,3.8111987113952637,-0.48384949564933777
2.1331348419189453,3.7773783206939697,-0.46837228536605835
2.156390428543091,3.7568085193634033,-0.45439696311950684
2.186044692993164,3.7501773834228516,-0.44226664304733276
2.2159879207611084,3.743129014968872,-0.42993494868278503
2.2265422344207764,3.7021312713623047,-0.41349270939826965
2.2519946098327637,3.6881754398345947,-0.4001571536064148
2.2979142665863037,3.7070529460906982,-0.3900878429412842
2.3034310340881348,3.659174680709839,-0.37267568707466125
2.3248178958892822,3.637791872024536,-0.35803306102752686
2.3620529174804688,3.642954111099243,-0.3459766209125519
2.3788132667541504,3.6147427558898926,-0.3303426504135132
2.395951986312866,3.586015462875366,-0.31428471207618713
2.4372546672821045,3.5970442295074463,-0.3019433617591858
2.4443106651306152,3.555718421936035,-0.28474628925323486
2.4870872497558594,3.5652432441711426,-0.27119022607803345
2.5195605754852295,3.562645435333252,-0.25658202171325684
2.5171585083007812,3.5080478191375732,-0.23744887113571167
2.5732944011688232,3.5359466075897217,-0.22373969852924347
2.1699647903442383,2.9424517154693604,-0.17313088476657867
2.787874221801758,3.954637050628662,0.6263613104820251
2.7679340839385986,3.984931230545044,0.644436240196228
2.73228120803833,3.9974958896636963,0.6593055129051208
2.7039308547973633,4.023386001586914,0.6764302253723145
2.6832523345947266,4.0533528327941895,0.6929112076759338
2.635773181915283,4.045090198516846,0.7026206254959106
2.616057872772217,4.082986831665039,0.7200231552124023
2.609889030456543,4.13946008682251,0.7403517365455627
2.581540822982788,4.159399032592773,0.7539854645729065
2.5436758995056152,4.166816711425781,0.7647526860237122
2.5031380653381348,4.171016216278076,0.7747551798820496
2.485922336578369,4.210477828979492,0.7908958792686462
2.467211961746216,4.246068477630615,0.8061873316764832
2.4230499267578125,4.242637634277344,0.8138189911842346
2.3939762115478516,4.265810489654541,0.8262205123901367
2.3563947677612305,4.271407127380371,0.8350156545639038
2.276196241378784,4.194813251495361,0.8272756338119507
2.2274129390716553,4.175404071807861,0.8304539918899536
2.2162981033325195,4.231539249420166,0.8483843207359314
2.180414915084839,4.23955774307251,0.8566510081291199
2.1620233058929443,4.277295112609863,0.8706063628196716
2.1348721981048584,4.297646522521973,0.8810670971870422
2.1098110675811768,4.325300693511963,0.8926966786384583
2.0731823444366455,4.332656383514404,0.9000141024589539
2.0501673221588135,4.367258071899414,0.9129643440246582
2.0127506256103516,4.36604118347168,0.9181260466575623
1.9912238121032715,4.399472713470459,0.9306359887123108
2.0119504928588867,4.531395435333252,0.9637935161590576
1.999502182006836,4.593830108642578,0.9821039438247681
3.518836498260498,8.251985549926758,1.7734099626541138
1.944872260093689,4.651280879974365,1.004531979560852
1.9089962244033813,4.656217575073242,1.010513424873352
1.884135127067566,4.689497470855713,1.0225282907485962
1.8409037590026855,4.680452823638916,1.0247929096221924
1.816575288772583,4.721222877502441,1.0380988121032715
1.7955890893936157,4.768637180328369,1.0528392791748047
1.7367687225341797,4.71153450012207,1.0443916320800781
1.3350666761398315,3.700791597366333,0.8236316442489624
1.2980830669403076,3.68044376373291,0.8220104575157166
1.6576286554336548,4.812648296356201,1.0785155296325684
1.6247460842132568,4.830563068389893,1.0861564874649048
1.6199208498001099,4.931466579437256,1.1125034093856812
1.5827692747116089,4.934163570404053,1.1167595386505127
1.553642749786377,4.962083339691162,1.1267880201339722
1.5281929969787598,5.008663177490234,1.14053475856781
1.4688116312026978,4.941659450531006,1.128251552581787
1.4391216039657593,4.973039627075195,1.138458013534546
1.407908320426941,4.996659755706787,1.1468912363052368
1.3647634983062744,4.9758381843566895,1.1451345682144165
1.3092013597488403,4.906778335571289,1.1322671175003052
1.2820965051651,4.94835090637207,1.144394040107727
1.2501050233840942,4.971273422241211,1.152044415473938
1.2233213186264038,5.0161824226379395,1.1648705005645752
1.1823277473449707,5.001538276672363,1.1639072895050049
1.1600784063339233,5.064418315887451,1.1810166835784912
1.1239573955535889,5.071566581726074,1.1852632761001587
1.091277003288269,5.093387603759766,1.1925513744354248
1.0517398118972778,5.085351467132568,1.1924593448638916
1.0242245197296143,5.136753559112549,1.2063801288604736
0.7837103605270386,4.0816121101379395,0.9601017832756042
0.7602294683456421,4.116378307342529,0.9698546528816223
0.736103355884552,4.147183418273926,0.9787184596061707
0.7045930027961731,4.136585712432861,0.9778461456298828
0.6708675622940063,4.11472749710083,0.9736824035644531
0.6457323431968689,4.145211219787598,0.9819526076316833
0.6179884076118469,4.164322853088379,0.9876093864440918
0.5865747332572937,4.153019428253174,0.9860716462135315
0.5626691579818726,4.194212913513184,0.9970435500144958
0.531507670879364,4.182464122772217,0.9954847693443298
0.5085811614990234,4.238503932952881,1.0098156929016113
0.4816446602344513,4.268096446990967,1.0175050497055054
0.45261216163635254,4.2862229347229,1.02252995967865
0.42161643505096436,4.281411170959473,1.0221236944198608
0.3858228921890259,4.219586372375488,1.0081360340118408
0.36315950751304626,4.3013596534729,1.0285065174102783
0.3281800448894501,4.239055156707764,1.0144797563552856
0.2990163564682007,4.256231307983398,1.0190116167068481
0.26671209931373596,4.220139026641846,1.0106452703475952
0.23476636409759521,4.180012226104736,1.0013563632965088
0.2017187923192978,4.105501174926758,0.9838697910308838
0.17316797375679016,4.1066412925720215,0.9845506548881531
0.1429731696844101,4.073428630828857,0.9770469665527344
0.11443533003330231,4.066568374633789,0.9758997559547424
0.12353302538394928,5.836947917938232,1.4005964994430542
0.08349210023880005,5.879434585571289,1.4106661081314087
0.042712822556495667,5.91024923324585,1.4180026054382324
0.0008660653256811202,5.902795314788818,1.4162267446517944
-0.04071510210633278,5.974815845489502,1.4335888624191284
-0.08286096900701523,6.019954681396484,1.4445723295211792
-0.12490709125995636,6.026849746704102,1.4463025331497192
-0.16753274202346802,6.056429862976074,1.4526981115341187
-0.20926092565059662,6.047744274139404,1.4499824047088623
-0.25372180342674255,6.088084697723389,1.4590775966644287
-0.17605309188365936,3.6199610233306885,0.8672690391540527
-0.19997243583202362,3.596017599105835,0.8612805604934692
-0.22451646625995636,3.587083339691162,0.8589306473731995
-0.43555256724357605,6.261550426483154,1.4987014532089233
-0.4830285608768463,6.30426025390625,1.5076428651809692
-0.5591751337051392,6.6912689208984375,1.5989336967468262
-0.6023191213607788,6.65366792678833,1.5887690782546997
-0.6292654871940613,6.453119277954102,1.5398070812225342
-0.6709948778152466,6.418813705444336,1.5306211709976196
-0.7214685678482056,6.459712028503418,1.5394253730773926
-0.7615559101104736,6.417430877685547,1.52791166305542
-0.8009352684020996,6.375021457672119,1.515989899635315
-0.838193953037262,6.321067810058594,1.501421570777893
-0.8774513006210327,6.285715103149414,1.4913609027862549
-0.9241291284561157,6.295105457305908,1.4919458627700806
-0.9737199544906616,6.326807975769043,1.4979058504104614
-1.0256105661392212,6.369397163391113,1.5064949989318848
-1.0756280422210693,6.4006123542785645,1.5115926265716553
-1.1318994760513306,6.465240478515625,1.5244359970092773
-1.1816052198410034,6.488229274749756,1.5274953842163086
-1.2376805543899536,6.536847114562988,1.5365757942199707
-1.2913312911987305,6.570108413696289,1.5420985221862793
-1.3477859497070312,6.614138126373291,1.5501916408538818
-1.405495285987854,6.661526203155518,1.558892011642456
-1.446954607963562,6.634371757507324,1.5493499040603638
-1.4846625328063965,6.5882248878479,1.5354211330413818
-1.5192642211914062,6.534603595733643,1.5199168920516968
-0.6752356290817261,2.8160600662231445,0.6537120938301086
-0.6912726163864136,2.7969906330108643,0.6480218768119812
-0.7042545080184937,2.766746759414673,0.6397925019264221
-0.7283647656440735,2.7807981967926025,0.6414917707443237
-0.7453111410140991,2.7690162658691406,0.6371552348136902
-0.7682273387908936,2.779183864593506,0.6378948092460632
-1.7589341402053833,6.198482036590576,1.4191697835922241
-1.7873585224151611,6.136117935180664,1.4013733863830566
-1.822351098060608,6.095360279083252,1.3885622024536133
-1.8543781042099,6.051214694976807,1.3747538328170776
-1.8862284421920776,6.010899066925049,1.3613566160202026
-1.9176785945892334,5.970391273498535,1.348012924194336
-1.949918270111084,5.933323383331299,1.335539698600769
-1.9776482582092285,5.877370834350586,1.3187260627746582
-2.00766658782959,5.832364559173584,1.304563283920288
-2.037996292114258,5.791003227233887,1.2910741567611694
-2.0693459510803223,5.7571845054626465,1.2787219285964966
-2.0963757038116455,5.7124152183532715,1.2640407085418701
-2.1243488788604736,5.671062469482422,1.2502094507217407
-2.1622464656829834,5.650269508361816,1.2407349348068237
-2.2076172828674316,5.65084171295166,1.2360920906066895
-2.2708981037139893,5.69759464263916,1.2412302494049072
-2.332390308380127,5.740758895874023,1.2449867725372314
-2.3652536869049072,5.712587833404541,1.2332875728607178
-2.3931024074554443,5.669636249542236,1.2183200120925903
-2.418093204498291,5.619250297546387,1.201783537864685
-3.643625020980835,8.307527542114258,1.7683374881744385
-3.7269153594970703,8.344922065734863,1.7670013904571533
-3.8068675994873047,8.375039100646973,1.7637115716934204
-3.8674533367156982,8.358778953552246,1.750494360923767
-3.98001766204834,8.449170112609863,1.7593250274658203
-4.048250675201416,8.441198348999023,1.7474831342697144
-4.140735626220703,8.485045433044434,1.745942234992981
-4.212993144989014,8.491406440734863,1.7358115911483765
-4.274363994598389,8.472723007202148,1.7203947305679321
-4.380354881286621,8.538728713989258,1.7219531536102295
-4.503198623657227,8.630290031433105,1.7281508445739746
-4.576246738433838,8.625911712646484,1.7147151231765747
-4.682984352111816,8.690402030944824,1.7139360904693604
-1.1773778200149536,2.151315212249756,0.4209130108356476
-1.2112798690795898,2.1775715351104736,0.4224337339401245
-4.973598480224609,8.796805381774902,1.6917389631271362
-5.082352638244629,8.849772453308105,1.6865296363830566
-5.185803413391113,8.89648723602295,1.6792373657226562
-1.2331560850143433,2.084540605545044,0.3896642327308655
-1.2602297067642212,2.096397638320923,0.38768628239631653
-2.944711208343506,4.822282314300537,0.8822513818740845
-2.980745315551758,4.811608791351318,0.8701131939888
-3.0289859771728516,4.8203277587890625,0.8614469170570374
-3.0336661338806152,4.7558698654174805,0.8391726016998291
-3.049548864364624,4.70688533782959,0.8193636536598206
-3.0808756351470947,4.688969612121582,0.8047587871551514
-3.0623691082000732,4.5970377922058105,0.7775735259056091
-3.081714630126953,4.558689117431641,0.7589111328125
-3.101166009902954,4.5199432373046875,0.7400069832801819
-3.1531827449798584,4.533698558807373,0.7289711236953735
-2.861724853515625,4.059332370758057,0.6407329440116882
-2.8863730430603027,4.0348052978515625,0.6238569617271423
-2.8951449394226074,3.9927031993865967,0.6040968894958496
-2.920720338821411,3.9764177799224854,0.5881936550140381
-2.9237289428710938,3.923699140548706,0.5654340386390686
-2.4609434604644775,3.475632429122925,-0.24349799752235413
-2.8965911865234375,4.1547417640686035,-0.30915695428848267
-2.8783061504364014,4.194351673126221,-0.3299584686756134
-2.880516767501831,4.2620720863342285,-0.35252901911735535
-2.8610641956329346,4.301684856414795,-0.37279900908470154
-2.8246891498565674,4.314742565155029,-0.39040929079055786
-2.8107335567474365,4.3593549728393555,-0.4102593660354614
-2.790346145629883,4.398435592651367,-0.4297500550746918
-1.2652270793914795,2.027204990386963,-0.20528680086135864
-2.727590560913086,4.4387431144714355,-0.4643400013446808
-2.143124580383301,3.545069456100464,-0.38262099027633667
-2.6591975688934326,4.471945285797119,-0.49732381105422974
-2.6410818099975586,4.512441158294678,-0.5158431529998779
-2.623110771179199,4.55694055557251,-0.5352213978767395
-2.5968868732452393,4.587894916534424,-0.552883505821228
-2.580674886703491,4.635171413421631,-0.5723039507865906
-2.5585691928863525,4.672041416168213,-0.5904671549797058
-2.523844003677368,4.688897132873535,-0.6060957908630371
-2.503190040588379,4.73303747177124,-0.6254833340644836
-2.478318452835083,4.765963077545166,-0.6429023146629333
-2.4472954273223877,4.788624286651611,-0.6589451432228088
-2.4259872436523438,4.832086563110352,-0.6778688430786133
-1.0797922611236572,2.18915057182312,-0.3128611445426941
-1.047023892402649,2.1610870361328125,-0.31451892852783203
-1.0512691736221313,2.2096400260925293,-0.32718539237976074
-1.0252779722213745,2.195239782333374,-0.3305758535861969
-1.0159904956817627,2.2156245708465576,-0.33909356594085693
-1.006564974784851,2.2359185218811035,-0.3476465940475464
-0.991909384727478,2.2457010746002197,-0.3544972240924835
-0.9845229983329773,2.2732224464416504,-0.3643079698085785
-0.9682673811912537,2.279186964035034,-0.37055620551109314
-0.954973042011261,2.2921388149261475,-0.3779652416706085
-0.9441978931427002,2.312274932861328,-0.38644763827323914
-0.9331744313240051,2.332348108291626,-0.3950032591819763
-0.9134423732757568,2.330812692642212,-0.3999408781528473
-0.899654746055603,2.343392848968506,-0.40721186995506287
-0.9004142880439758,2.3956832885742188,-0.4213029444217682
-0.8752086162567139,2.3793389797210693,-0.42339321970939636
-1.0291298627853394,2.8591785430908203,-0.5146898627281189
-1.010990023612976,2.8725199699401855,-0.5231285095214844
-0.9979068636894226,2.90028977394104,-0.5338727235794067
-0.9672977924346924,2.8769445419311523,-0.5352032780647278
-0.9516382217407227,2.8971173763275146,-0.5445820689201355
-0.9287551045417786,2.8952081203460693,-0.5498340129852295
-0.9180915951728821,2.9336347579956055,-0.5626016855239868
-0.882570207118988,2.891129732131958,-0.5596952438354492
-0.7985326647758484,2.6826705932617188,-0.5241851806640625
-0.7699457406997681,2.6539466381073,-0.5233611464500427
-0.7511345148086548,2.658263683319092,-0.5287600755691528
-0.7414036393165588,2.695754289627075,-0.5407187342643738
-0.7111039161682129,2.6591858863830566,-0.5378977656364441
-0.7029492259025574,2.703869581222534,-0.551450252532959
-0.7007614970207214,2.7745721340179443,-0.5702834725379944
-0.6683852076530457,2.726348876953125,-0.5645018219947815
-0.6393998265266418,2.689009189605713,-0.5608563423156738
-0.6063829064369202,2.632827043533325,-0.5532192587852478
-0.5770198702812195,2.587526559829712,-0.5475158095359802
-0.5507300496101379,2.5532565116882324,-0.5437226891517639
-0.5210500359535217,2.5000531673431396,-0.5357974767684937
-0.498964786529541,2.4803085327148438,-0.5349551439285278
-0.47180110216140747,2.4341843128204346,-0.5283624529838562
-0.4491129517555237,2.4066526889801025,-0.5252311825752258
-0.4207821488380432,2.34511137008667,-0.5145890712738037
-0.40562939643859863,2.3548030853271484,-0.519538938999176
-0.3816754221916199,2.3116767406463623,-0.512812614440918
-0.3640158474445343,2.306161880493164,-0.5140011310577393
-0.3439021110534668,2.2816390991210938,-0.5108348727226257
-0.3236067295074463,2.253185749053955,-0.5067563652992249
-0.30217868089675903,2.2132441997528076,-0.5000454187393188
-0.2838013768196106,2.1920981407165527,-0.49721062183380127
-0.262963205575943,2.148158311843872,-0.4889965355396271
-0.24463647603988647,2.1230008602142334,-0.48505836725234985
-0.22897614538669586,2.1166157722473145,-0.4853748381137848
-0.2157268524169922,2.1328959465026855,-0.49069303274154663
-0.19799423217773438,2.1036643981933594,-0.48526620864868164
-0.1800190955400467,2.0667154788970947,-0.47804030776023865
-0.16659297049045563,2.082756519317627,-0.48310157656669617
-0.14959783852100372,2.0493810176849365,-0.4765717089176178
-0.13383832573890686,2.0273571014404297,-0.4722771942615509
-0.12063466012477875,2.043196439743042,-0.47682297229766846
-0.1060451865196228,2.0361523628234863,-0.4760536551475525
-0.09164801985025406,2.036614179611206,-0.4770668148994446
-0.07778813689947128,2.044684410095215,-0.4793531596660614
-0.06358417868614197,2.0450568199157715,-0.4798593521118164
-0.049822546541690826,2.0643391609191895,-0.48483040928840637
-0.03512762114405632,2.0455052852630615,-0.4808732569217682
-0.020769452676177025,2.057084321975708,-0.4836631715297699
-0.00645692553371191,2.057178497314453,-0.4836655259132385
0.007884948514401913,2.0647780895233154,-0.4854559004306793
0.022030407562851906,2.045661449432373,-0.480988085269928
0.036384452134370804,2.0531327724456787,-0.4824776351451874
0.05067284405231476,2.052949905395508,-0.4819669723510742
0.06554865837097168,2.064065456390381,-0.4841229021549225
0.08048754185438156,2.0788824558258057,-0.487172394990921
0.09373220056295395,2.0518410205841064,-0.4802354872226715
0.09439954161643982,1.7930549383163452,-0.41887545585632324
0.10869324207305908,1.8229435682296753,-0.4250729978084564
0.12158556282520294,1.822342872619629,-0.4241565763950348
0.154122993350029,2.0911364555358887,-0.48577630519866943
0.17236179113388062,2.1358931064605713,-0.49478843808174133
0.18823839724063873,2.1463794708251953,-0.49584895372390747
0.2031923234462738,2.145379066467285,-0.4942726790904999
0.22070927917957306,2.1669845581054688,-0.4978921413421631
0.23047488927841187,2.1166415214538574,-0.48455265164375305
0.247885063290596,2.138153553009033,-0.48768797516822815
0.2660558223724365,2.163315773010254,-0.49164068698883057
0.2860639989376068,2.1996755599975586,-0.4981093406677246
0.29961904883384705,2.183048725128174,-0.49218302965164185
0.3230365514755249,2.2380967140197754,-0.5023030638694763
0.34438157081604004,2.274091958999634,-0.5080752372741699
0.3692494034767151,2.328751802444458,-0.5179448127746582
0.39177271723747253,2.3644297122955322,-0.5232675671577454
0.39791861176490784,2.302168369293213,-0.50672447681427
0.429896742105484,2.386427879333496,-0.5223748683929443
0.46069201827049255,2.459172010421753,-0.5353847742080688
0.47353968024253845,2.4341561794281006,-0.5269349217414856
0.5080029368400574,2.517784595489502,-0.5415893197059631
0.5342748761177063,2.5561866760253906,-0.5463678240776062
0.5590103268623352,2.5830941200256348,-0.548556923866272
0.5854957103729248,2.617323875427246,-0.5522632002830505
0.6116343140602112,2.6476850509643555,-0.5546373128890991
0.647083044052124,2.715070962905884,-0.5646405220031738
0.6826127767562866,2.778407096862793,-0.5736165642738342
0.7128390073776245,2.8153436183929443,-0.5769323110580444
0.7461264133453369,2.8633005619049072,-0.5820642113685608
0.7940086126327515,2.962820529937744,-0.5973865985870361
0.8270922303199768,3.0026934146881104,-0.6004509925842285
0.8587068319320679,3.0348799228668213,-0.6018682718276978
0.8943318724632263,3.0778298377990723,-0.6049326658248901
0.9598511457443237,3.2199292182922363,-0.6270976662635803
1.0128365755081177,3.313596725463867,-0.6394139528274536
1.0672600269317627,3.4067208766937256,-0.6512836813926697
1.1135714054107666,3.4700796604156494,-0.6569925546646118
1.1863930225372314,3.609670877456665,-0.6764047145843506
1.2706583738327026,3.7777857780456543,-0.7006850242614746
1.3337223529815674,3.8758184909820557,-0.7114182710647583
1.4199038743972778,4.034997940063477,-0.7327415943145752
1.4938297271728516,4.153529644012451,-0.745838463306427
1.5588797330856323,4.242361545562744,-0.7531740069389343
1.5989631414413452,4.258111476898193,-0.747089147567749
1.6262856721878052,4.241319179534912,-0.7353811264038086
1.6503558158874512,4.21729850769043,-0.7221788763999939
1.6755601167678833,4.196707248687744,-0.7096624970436096
1.6849491596221924,4.136466026306152,-0.6904788017272949
1.4108994007110596,3.3949670791625977,-0.5591623187065125
1.4345946311950684,3.386500597000122,-0.550139844417572
1.4612709283828735,3.384953260421753,-0.542259931564331
1.4821897745132446,3.368865728378296,-0.5319383144378662
1.5028969049453735,3.3526487350463867,-0.5216362476348877
1.5266358852386475,3.3433752059936523,-0.5121351480484009
1.546628475189209,3.3270604610443115,-0.5017397403717041
1.563604474067688,3.3034138679504395,-0.4901563823223114
1.5936877727508545,3.3076119422912598,-0.482697069644928
1.606357216835022,3.2770023345947266,-0.4700765013694763
1.636427402496338,3.280815601348877,-0.4622659683227539
1.6492080688476562,3.249723196029663,-0.4495304226875305
2.0420594215393066,3.956165313720703,-0.5370003581047058
2.058532238006592,3.922974109649658,-0.5221911668777466
2.0821640491485596,3.9032862186431885,-0.509188711643219
2.0821311473846436,3.8387813568115234,-0.4902975559234619
2.1299381256103516,3.862889051437378,-0.48255211114883423
2.124143600463867,3.792088747024536,-0.46318161487579346
2.1545684337615967,3.7853341102600098,-0.4515540897846222
2.1892356872558594,3.784853935241699,-0.4404926896095276
2.1914350986480713,3.731027603149414,-0.4232729375362396
2.2173612117767334,3.717111587524414,-0.410493403673172
2.2599363327026367,3.729249954223633,-0.40025484561920166
2.2654402256011963,3.6816906929016113,-0.3836366832256317
2.2821154594421387,3.654374122619629,-0.36927908658981323
2.3285024166107178,3.672513961791992,-0.3590835928916931
2.3378663063049316,3.63090443611145,-0.3426499366760254
2.357917070388794,3.609872341156006,-0.32850515842437744
2.408564567565918,3.6337509155273438,-0.318012535572052
2.4125306606292725,3.58548641204834,-0.3007923364639282
2.42751407623291,3.5576722621917725,-0.2854927182197571
2.483262538909912,3.586750030517578,-0.27402982115745544
2.486067771911621,3.538397789001465,-0.25632739067077637
2.5046985149383545,3.5167300701141357,-0.24075588583946228
2.5653011798858643,3.5511209964752197,-0.22819319367408752
2.229940414428711,3.0434324741363525,-0.1822381317615509
2.1797525882720947,2.9357964992523193,-0.16285941004753113
2.795809030532837,3.9311606884002686,0.5856212973594666
2.759214162826538,3.9449121952056885,0.6017186641693115
2.7305855751037598,3.962459087371826,0.6168296933174133
2.7155168056488037,4.0032429695129395,0.6354069113731384
2.6876602172851562,4.028909206390381,0.6514530181884766
2.645078659057617,4.026992321014404,0.6621125936508179
2.6192469596862793,4.050795078277588,0.6768726706504822
2.603761911392212,4.095242023468018,0.6945428252220154
2.5761218070983887,4.1195831298828125,0.7087073922157288
2.5505802631378174,4.142431735992432,0.7219544053077698
2.535865068435669,4.185523509979248,0.7386121153831482
2.508639097213745,4.213242053985596,0.7524762153625488
2.4551777839660645,4.193417549133301,0.757476806640625
2.4327945709228516,4.222290515899658,0.7707934975624084
2.4112963676452637,4.2548065185546875,0.7846778035163879
2.3897595405578613,4.291479110717773,0.7990185618400574
2.285950183868408,4.179473400115967,0.7856361865997314
2.2560551166534424,4.193883419036865,0.7952029705047607
2.204448938369751,4.167208194732666,0.7969533205032349
2.2084076404571533,4.250336170196533,0.8192092180252075
2.1725282669067383,4.2583699226379395,0.8270825743675232
2.1491200923919678,4.289993762969971,0.8395199775695801
2.1185178756713867,4.303494453430176,0.8481583595275879
2.097536087036133,4.33771276473999,0.860831618309021
2.061507225036621,4.3448100090026855,0.8676632642745972
2.0352139472961426,4.372507572174072,0.8786669373512268
2.003326892852783,4.385608196258545,0.8866212964057922
1.971676230430603,4.398334980010986,0.8944925665855408
2.005157709121704,4.558349609375,0.9323431849479675
1.9863616228103638,4.60687255859375,0.9470510482788086
1.9579875469207764,4.6341233253479,0.957489550113678
1.9343490600585938,4.671586036682129,0.9700421094894409
3.4149439334869385,8.415292739868164,1.7559878826141357
1.8463399410247803,4.642212390899658,0.9733454585075378
1.8275978565216064,4.693510055541992,0.9882407188415527
1.811981201171875,4.75562858581543,1.0054227113723755
1.7715072631835938,4.753098011016846,1.0090161561965942
1.3396635055541992,3.674025535583496,0.7830868363380432
1.3240668773651123,3.7111763954162598,0.7941333651542664
1.2875581979751587,3.6905503273010254,0.7927289009094238
1.6654977798461914,4.887211322784424,1.0532068014144897
1.6163913011550903,4.8580780029296875,1.050389051437378
1.6005171537399292,4.930490970611572,1.0696358680725098
1.5658529996871948,4.94039249420166,1.0752418041229248
1.5457638502120972,4.997550010681152,1.0912247896194458
2.4418303966522217,8.096521377563477,1.7731901407241821
1.4661931991577148,4.991326332092285,1.0959529876708984
1.4435713291168213,5.048521041870117,1.1114113330841064
1.4065542221069336,5.057851314544678,1.1164453029632568
1.3330979347229004,4.926412105560303,1.090259075164795
1.3034031391143799,4.95306396484375,1.0990394353866577
1.2654595375061035,4.950076580047607,1.1010504961013794
1.2380609512329102,4.991518974304199,1.1124857664108276
1.2049974203109741,5.014394760131836,1.11990487575531
1.1740678548812866,5.044338226318359,1.1289362907409668
1.1430033445358276,5.0701470375061035,1.1370480060577393
1.1066992282867432,5.073402404785156,1.1401680707931519
1.0797905921936035,5.121212482452393,1.153314232826233
1.0410465002059937,5.1207051277160645,1.154910922050476
1.0029494762420654,5.119803428649902,1.1564464569091797
1.506097674369812,7.988927841186523,1.8073101043701172
1.44443678855896,7.968192100524902,1.805449366569519
1.3927477598190308,7.999500274658203,1.815443754196167
1.3346692323684692,8.00053596496582,1.8187155723571777
1.279401183128357,8.016345024108887,1.8245397806167603
0.6421934366226196,4.215628147125244,0.960483729839325
0.610084593296051,4.204548358917236,0.9589977264404297
0.5865901112556458,4.253605365753174,0.971280574798584
0.5524584054946899,4.226989269256592,0.9663400650024414
0.5211377739906311,4.215173721313477,0.9647976160049438
0.496096670627594,4.256119251251221,0.9753144383430481
0.4669218063354492,4.266788959503174,0.9783279895782471
0.4367958605289459,4.269684791564941,0.9796097278594971
0.40670228004455566,4.272362232208252,0.9808892011642456
0.37357163429260254,4.244510650634766,0.9752114415168762
0.34031984210014343,4.201178550720215,0.9659954309463501
0.3155575394630432,4.263911247253418,0.9812172651290894
0.2847522497177124,4.250592231750488,0.9786964654922485
0.2526129484176636,4.21434211730957,0.9705676436424255
0.22175800800323486,4.200685977935791,0.9676913619041443
0.1910327672958374,4.175379276275635,0.9621723294258118
0.22396737337112427,5.774022102355957,1.3310527801513672
0.1849110722541809,5.809487342834473,1.3397858142852783
0.14452064037322998,5.810438632965088,1.3406271934509277
0.10350415110588074,5.8188796043396,1.3425917625427246
0.06351569294929504,5.865141868591309,1.3530839681625366
0.02274525910615921,5.892096042633057,1.3591852188110352
-0.018480580300092697,5.945409774780273,1.3714321851730347
-0.05992399901151657,5.9603729248046875,1.3748986721038818
-0.1025480180978775,5.986450672149658,1.380997896194458
-0.1447422355413437,6.008434295654297,1.3862196207046509
-0.18760837614536285,6.0455427169799805,1.394075870513916
-0.23106443881988525,6.086162090301514,1.402761459350586
-0.2746518850326538,6.115058422088623,1.4088035821914673
-0.1865372210741043,3.5964646339416504,0.8282394409179688
-0.21199552714824677,3.5951881408691406,0.8276561498641968
-0.4106539189815521,6.226393222808838,1.4329686164855957
-0.458640456199646,6.288210868835449,1.44664466381073
-0.5026113986968994,6.2929368019104,1.4464412927627563
-0.5474016666412354,6.30493688583374,1.4479721784591675
-0.5977485179901123,6.365846633911133,1.4607704877853394
-0.6476123929023743,6.418841361999512,1.4718173742294312
-0.6938206553459167,6.4297943115234375,1.473280906677246
-0.7384725213050842,6.4252800941467285,1.4712690114974976
-0.7787762880325317,6.386544227600098,1.4610371589660645
-0.8204895853996277,6.358956813812256,1.4528648853302002
-0.8559154868125916,6.293437480926514,1.436152458190918
-0.8974921703338623,6.27675724029541,1.430672526359558
-0.9473045468330383,6.312492847442627,1.437180995941162
-0.9995048642158508,6.359128952026367,1.4462143182754517
-1.048885464668274,6.378901958465576,1.4491616487503052
-1.0978057384490967,6.402459144592285,1.4522426128387451
-1.1543145179748535,6.46700382232666,1.464451789855957
-1.2027138471603394,6.482351779937744,1.4655532836914062
-1.2609763145446777,6.545986652374268,1.4775956869125366
-1.3141932487487793,6.575343608856201,1.481894612312317
-1.3740516901016235,6.630290985107422,1.4919615983963013
-1.4265432357788086,6.651409149169922,1.494247555732727
-1.4637348651885986,6.605401039123535,1.4807432889938354
-1.4968866109848022,6.544313430786133,1.4639750719070435
-1.531973123550415,6.4941911697387695,1.4497668743133545
-0.6779099106788635,2.7858996391296387,0.6206234097480774
-0.6973572969436646,2.7815895080566406,0.6184057593345642
-0.7196094989776611,2.7882425785064697,0.6186527013778687
-0.7357125878334045,2.7727444171905518,0.6136681437492371
-0.7595767974853516,2.7866809368133545,0.6151425242424011
-1.7337936162948608,6.19315242767334,1.3635172843933105
-1.7743130922317505,6.175008296966553,1.356014370918274
-1.8044521808624268,6.119766712188721,1.3404098749160767
-1.835076928138733,6.0680251121521,1.325679898262024
-1.8699288368225098,6.034736156463623,1.3145911693572998
-1.8987579345703125,5.983071804046631,1.29910409450531
-1.932123064994812,5.949683666229248,1.2877659797668457
-1.9583159685134888,5.8941826820373535,1.2717024087905884
-1.9935660362243652,5.863608360290527,1.2610093355178833
-2.0196168422698975,5.807519912719727,1.2449404001235962
-2.0456113815307617,5.755240440368652,1.2293986082077026
-2.0773963928222656,5.721006870269775,1.217268705368042
-2.1107194423675537,5.6940202713012695,1.2068591117858887
-2.138859748840332,5.652317523956299,1.193359375
-2.175891637802124,5.631555080413818,1.1842377185821533
-2.2381114959716797,5.67471981048584,1.1885695457458496
-2.3020007610321045,5.7211713790893555,1.1929365396499634
-2.3492913246154785,5.728560447692871,1.1889111995697021
-2.376068353652954,5.686007499694824,1.1745812892913818
-2.4064199924468994,5.649993896484375,1.1615564823150635
-2.4615511894226074,5.669881343841553,1.1599653959274292
-3.78125262260437,8.544079780578613,1.7392680644989014
-3.855954647064209,8.55990219116211,1.7327759265899658
-3.9438397884368896,8.603053092956543,1.7317754030227661
-4.031162738800049,8.641815185546875,1.729770302772522
-4.12692928314209,8.689038276672363,1.728916049003601
-4.192787170410156,8.669129371643066,1.7145228385925293
-4.2772536277771,8.695307731628418,1.7085810899734497
-4.385312557220459,8.769506454467773,1.711578369140625
-4.466635704040527,8.787788391113281,1.7035481929779053
-4.560683727264404,8.820886611938477,1.6976463794708252
-4.6395063400268555,8.822319030761719,1.6855614185333252
-4.764510631561279,8.91225814819336,1.6892355680465698
-1.1715081930160522,2.1574506759643555,0.40560945868492126
-1.1896783113479614,2.15716552734375,0.40222567319869995
-5.084173202514648,9.069125175476074,1.6761231422424316
-5.213689804077148,9.150431632995605,1.6760869026184082
-5.291337013244629,9.145493507385254,1.658737301826477
-2.5684425830841064,4.373994827270508,0.7855185270309448
-1.2497971057891846,2.096170663833618,0.3725614547729492
-2.9217941761016846,4.82385778427124,0.8480278253555298
-2.954988479614258,4.8058319091796875,0.835257887840271
-2.9995198249816895,4.807806015014648,0.8254671692848206
-3.031784772872925,4.789787769317627,0.8122392892837524
-3.0576422214508057,4.757316589355469,0.7959702014923096
-3.0714926719665527,4.709213733673096,0.77700275182724
-3.040313482284546,4.597724437713623,0.7475492358207703
-3.0911736488342285,4.608080863952637,0.737558901309967
-3.0632576942443848,4.498495578765869,0.7079700231552124
-3.11342716217041,4.508760929107666,0.6971415281295776
-3.147178888320923,4.497105121612549,0.6826668977737427
-2.864363193511963,4.034751892089844,0.6001652479171753
-2.874915361404419,3.9913623332977295,0.5808069109916687
-2.914146661758423,3.993896007537842,0.5680816173553467
-2.9599123001098633,4.001138210296631,0.5549775958061218
-2.464343786239624,3.4549858570098877,-0.22930555045604706
-2.4440581798553467,3.4778215885162354,-0.24556763470172882
-2.880735158920288,4.165565013885498,-0.3116510510444641
-2.8678126335144043,4.210872173309326,-0.3316919207572937
-2.865280866622925,4.272304058074951,-0.3528427183628082
-2.8133602142333984,4.263213634490967,-0.3682585060596466
-2.8053946495056152,4.318133354187012,-0.3886270225048065
-2.8072783946990967,4.38950252532959,-0.41037851572036743
-2.7844109535217285,4.425434112548828,-0.4290580749511719
-1.2788951396942139,2.0647058486938477,-0.20693764090538025
-2.7324154376983643,4.481845855712891,-0.46359753608703613
-2.118154287338257,3.53324031829834,-0.37692999839782715
-2.6496505737304688,4.491761684417725,-0.4929702579975128
-2.625369071960449,4.522281646728516,-0.5098382234573364
-1.198543667793274,2.0994935035705566,-0.24290229380130768
-2.584876537322998,4.604490280151367,-0.5461202263832092
-2.5608463287353516,4.638277530670166,-0.5633492469787598
-2.5418496131896973,4.682260036468506,-0.5816729068756104
-2.5108869075775146,4.70585823059082,-0.5975319147109985
-2.491377115249634,4.749425411224365,-0.6157301068305969
-2.46286678314209,4.7754693031311035,-0.6316388845443726
-2.4411823749542236,4.819431781768799,-0.6500840187072754
-2.4092416763305664,4.842165470123291,-0.6655613780021667
-1.0792521238327026,2.207522392272949,-0.3089037239551544
-1.0751447677612305,2.238748073577881,-0.31877514719963074
-1.0587531328201294,2.2456274032592773,-0.32518458366394043
-1.0212948322296143,2.2066426277160645,-0.32481926679611206
