X,Y,Z
0.045798275619745255,4.9728684425354,0.4789966344833374
0.010548831894993782,4.996394157409668,0.4812816083431244
-0.02426321804523468,5.011895656585693,0.4828169643878937
-0.05943441390991211,5.034929275512695,0.4851018786430359
-0.09458319842815399,5.042166233062744,0.4858885109424591
-0.13007597625255585,5.060850620269775,0.48747462034225464
-0.1651914417743683,5.059857368469238,0.4871502220630646
-0.20056885480880737,5.050827503204346,0.48607268929481506
-0.23680634796619415,5.07264518737793,0.4879896938800812
-0.27497079968452454,5.125267028808594,0.49289149045944214
-0.3078131079673767,5.076685905456543,0.48808372020721436
-0.29156506061553955,4.314098358154297,0.4143785834312439
-0.3187671899795532,4.269339561462402,0.409686803817749
-0.3495749235153198,4.282589912414551,0.4105908274650574
-0.3792528212070465,4.280119895935059,0.4100055992603302
-0.40530019998550415,4.238725662231445,0.40571343898773193
-0.42721718549728394,4.162362575531006,0.3981019854545593
-0.45294663310050964,4.128428936004639,0.3942752480506897
-0.4764067232608795,4.082805156707764,0.3893676996231079
-0.5016466379165649,4.056351184844971,0.38631558418273926
-0.524189829826355,4.010441303253174,0.38143429160118103
-0.5457119941711426,3.9605448246002197,0.3762010633945465
-0.5664086937904358,3.9066402912139893,0.37058085203170776
-0.5861983895301819,3.8566219806671143,0.36512723565101624
-0.6065500378608704,3.8141977787017822,0.36042520403862
-0.6257099509239197,3.767838478088379,0.35538262128829956
-0.6451512575149536,3.725189685821533,0.35071519017219543
-0.6696667671203613,3.71305513381958,0.34894266724586487
-0.6878786087036133,3.6663060188293457,0.3438640236854553
-0.7054886221885681,3.6234567165374756,0.33900976181030273
-0.7263927459716797,3.599602460861206,0.33596163988113403
-0.7413998246192932,3.548983097076416,0.3304468095302582
-0.7553792595863342,3.494427442550659,0.32458755373954773
-0.7732899785041809,3.4587411880493164,0.3205015957355499
-0.7988056540489197,3.4610490798950195,0.3198477327823639
-0.8151023387908936,3.4253954887390137,0.3155979514122009
-0.8346900343894958,3.4047868251800537,0.3127600848674774
-0.8532470464706421,3.380255937576294,0.3095792829990387
-0.8654036521911621,3.3290774822235107,0.30396077036857605
-0.8824957609176636,3.3005576133728027,0.30046138167381287
-0.8997540473937988,3.2758686542510986,0.29714423418045044
-0.9198527932167053,3.262343406677246,0.2948364019393921
-0.9332898855209351,3.226273536682129,0.2905184030532837
-0.9470956921577454,3.1899333000183105,0.2861700654029846
-0.9692671298980713,3.183413028717041,0.2845325767993927
-0.9806798100471497,3.1433918476104736,0.279850035905838
-0.9924063682556152,3.1071958541870117,0.27541908621788025
-1.0060791969299316,3.0783917903900146,0.27167758345603943
-1.0274345874786377,3.071491003036499,0.26985490322113037
-1.0349600315093994,3.023897409439087,0.2644813358783722
-1.0585706233978271,3.024122476577759,0.2633100748062134
-1.0736693143844604,3.0024328231811523,0.2600625455379486
-1.0805102586746216,2.958730936050415,0.2549434006214142
-1.0881973505020142,2.9187088012695312,0.2501823604106903
-1.1144092082977295,2.9256482124328613,0.24939946830272675
-1.1150038242340088,2.867173194885254,0.24309319257736206
-1.1257104873657227,2.838040590286255,0.23918306827545166
-1.140321969985962,2.819777250289917,0.23619535565376282
-1.156223177909851,2.805044412612915,0.23352321982383728
-1.1458743810653687,2.725154161453247,0.2253979593515396
-1.1479486227035522,2.6778979301452637,0.22006770968437195
-1.1627763509750366,2.663172483444214,0.21730665862560272
-1.167830467224121,2.6270692348480225,0.21281187236309052
-1.191835641860962,2.633556365966797,0.21177570521831512
-1.2040050029754639,2.6110498905181885,0.20832352340221405
-1.2321068048477173,2.623939037322998,0.20771624147891998
-1.269676685333252,2.658071279525757,0.20862925052642822
-1.2771228551864624,2.628722906112671,0.204552561044693
-1.288030743598938,2.606210708618164,0.2010057419538498
-1.3134840726852417,2.6111350059509277,0.19950413703918457
-1.2974119186401367,2.5364511013031006,0.19193442165851593
-1.2961246967315674,2.493454694747925,0.18678610026836395
-1.3052310943603516,2.471268653869629,0.18324381113052368
-1.3150904178619385,2.448547601699829,0.1795763522386551
-1.3301243782043457,2.436167001724243,0.1766694337129593
-1.338791847229004,2.4137966632843018,0.1729261577129364
-1.3469384908676147,2.3915700912475586,0.1692618727684021
-1.3634470701217651,2.382396697998047,0.16642731428146362
-1.376064658164978,2.3663136959075928,0.163088858127594
-1.3994083404541016,2.370914936065674,0.16108931601047516
-1.3830705881118774,2.308234691619873,0.15452224016189575
-1.4111896753311157,2.3187921047210693,0.15280145406723022
-1.4270175695419312,2.3092880249023438,0.1497020572423935
-1.429469108581543,2.2803969383239746,0.14531780779361725
-1.444420576095581,2.27115535736084,0.14216962456703186
-1.4584743976593018,2.257725477218628,0.13854873180389404
-1.4604783058166504,2.228700876235962,0.13399004936218262
-1.4790984392166138,2.2259626388549805,0.131007581949234
-1.4856593608856201,2.2029995918273926,0.1266506165266037
-1.5003974437713623,2.1931967735290527,0.12299235165119171
-1.510062575340271,2.1772682666778564,0.1189158484339714
-1.4866353273391724,2.1129164695739746,0.11212410777807236
-1.4961024522781372,2.0968472957611084,0.10787468403577805
-1.5091725587844849,2.087658643722534,0.1039673238992691
-1.5050694942474365,2.052229642868042,0.0984441265463829
-1.52274751663208,2.049085855484009,0.09442159533500671
-1.505632758140564,2.1247739791870117,-0.0829007625579834
-1.5127148628234863,2.167336940765381,-0.08882571756839752
-1.4960640668869019,2.178666830062866,-0.09353578835725784
-1.4890261888504028,2.202162504196167,-0.09855607897043228
-1.4768873453140259,2.219505548477173,-0.1032247543334961
-1.473077416419983,2.2498762607574463,-0.10847694426774979
-1.4594179391860962,2.263206958770752,-0.1127045750617981
-1.4361774921417236,2.263967275619507,-0.11628176271915436
-1.4295676946640015,2.2909669876098633,-0.1212044209241867
-1.4175784587860107,2.3073644638061523,-0.12538859248161316
-1.4124964475631714,2.337663412094116,-0.13034696877002716
-1.4072308540344238,2.3678934574127197,-0.13532298803329468
-1.3866991996765137,2.3707289695739746,-0.13859879970550537
-1.3807392120361328,2.401024341583252,-0.14351622760295868
-1.351457953453064,2.390557050704956,-0.1459389626979828
-1.3346110582351685,2.399790048599243,-0.14940214157104492
-1.324936866760254,2.422725200653076,-0.15370874106884003
-1.310795783996582,2.4390439987182617,-0.15759135782718658
-1.3020105361938477,2.465592622756958,-0.16216140985488892
-1.2919577360153198,2.4882442951202393,-0.16638581454753876
-1.2881238460540771,2.5250778198242188,-0.17155452072620392
-1.2854045629501343,2.565544605255127,-0.17703187465667725
-1.2655045986175537,2.5708484649658203,-0.18004126846790314
-1.2691749334335327,2.625213861465454,-0.18654975295066833
-1.2183103561401367,2.5672292709350586,-0.18493244051933289
-1.1864567995071411,2.54752254486084,-0.18598975241184235
-1.1717782020568848,2.562662363052368,-0.189496710896492
-1.169677972793579,2.6061770915985107,-0.1951242983341217
-1.1554944515228271,2.625053644180298,-0.19887323677539825
-1.1361230611801147,2.6332669258117676,-0.20187635719776154
-1.1100910902023315,2.62298583984375,-0.20333537459373474
-1.1320170164108276,2.727635145187378,-0.21376021206378937
-1.131471872329712,2.7823898792266846,-0.22029049694538116
-1.1258926391601562,2.826399564743042,-0.22604583203792572
-1.109871506690979,2.8450441360473633,-0.22981715202331543
-1.1177204847335815,2.9252865314483643,-0.23859180510044098
-1.0994395017623901,2.940295696258545,-0.24197383224964142
-1.0823137760162354,2.9588565826416016,-0.2456672489643097
-1.0692535638809204,2.9881997108459473,-0.2502577006816864
-1.055762529373169,3.0175223350524902,-0.25489771366119385
-1.0394306182861328,3.0394277572631836,-0.2587984800338745
-1.022674560546875,3.061307668685913,-0.2626725137233734
-1.006938099861145,3.0867769718170166,-0.2668830156326294
-0.9877586960792542,3.1009163856506348,-0.2701061964035034
-0.9702156782150269,3.122532606124878,-0.2739953100681305
-0.9615169763565063,3.1738462448120117,-0.2803587019443512
-0.9400138854980469,3.1841228008270264,-0.2831396758556366
-0.9283998012542725,3.2278292179107666,-0.28890618681907654
-0.9058253765106201,3.234018325805664,-0.2913421392440796
-0.8931533694267273,3.2776849269866943,-0.2970258295536041
-0.8724097609519958,3.295135736465454,-0.3003515303134918
-0.854876697063446,3.3236327171325684,-0.30468007922172546
-0.8317050933837891,3.329301357269287,-0.30691495537757874
-0.813936710357666,3.357511043548584,-0.3112105429172516
-0.8088838458061218,3.442521095275879,-0.3206271529197693
-0.7711808681488037,3.3911523818969727,-0.31739428639411926
-0.7490456700325012,3.40388822555542,-0.32011741399765015
-0.7471751570701599,3.5115561485290527,-0.3318229019641876
-0.7280286550521851,3.5431935787200928,-0.33627554774284363
-0.7090889811515808,3.578584909439087,-0.34099167585372925
-0.6877793669700623,3.606322765350342,-0.3450402617454529
-0.670341432094574,3.6529319286346436,-0.35089749097824097
-0.6448889970779419,3.657334566116333,-0.352731853723526
-0.625665545463562,3.6999614238739014,-0.35804131627082825
-0.5996425151824951,3.7041172981262207,-0.3595958650112152
-0.5808781385421753,3.7581088542938232,-0.3660418689250946
-0.5604052543640137,3.800370216369629,-0.37135905027389526
-0.540955126285553,3.8540799617767334,-0.37783199548721313
-0.5149392485618591,3.8653624057769775,-0.37985584139823914
-0.4936882555484772,3.915036201477051,-0.3856830298900604
-0.46766525506973267,3.9298486709594727,-0.3881077468395233
-0.4493351876735687,4.017927646636963,-0.3978234529495239
-0.42499881982803345,4.055631637573242,-0.40250903367996216
-0.40230220556259155,4.116439342498779,-0.40925878286361694
-0.3749142587184906,4.134537696838379,-0.4117952287197113
-0.3460671305656433,4.136953353881836,-0.4127906262874603
-0.31352031230926514,4.096565246582031,-0.4095385670661926
-0.289590984582901,4.164482116699219,-0.416982501745224
-0.2595343291759491,4.150823593139648,-0.41604533791542053
-0.23144178092479706,4.167994022369385,-0.41821804642677307
-0.20051951706409454,4.130621910095215,-0.4149348735809326
-0.17112495005130768,4.127991199493408,-0.41516488790512085
-0.141604483127594,4.105732440948486,-0.41324692964553833
-0.11255056411027908,4.091054916381836,-0.4119260013103485
-0.08354859799146652,4.068401336669922,-0.40982043743133545
-0.05493704602122307,4.0455427169799805,-0.4077114760875702
-0.02629334293305874,4.041918754577637,-0.40756329894065857
0.0017850787844508886,4.042001724243164,-0.4075847864151001
0.02984294481575489,4.034130096435547,-0.4066844880580902
0.05798003450036049,4.041609764099121,-0.4073515236377716
0.08579471707344055,4.025577068328857,-0.40566837787628174
0.11357437074184418,4.017124652862549,-0.4047691822052002
0.1397981345653534,3.9541118144989014,-0.39812609553337097
0.1661376655101776,3.925910234451294,-0.39491188526153564
0.19378025829792023,3.93247389793396,-0.39521610736846924
0.21940599381923676,3.9000322818756104,-0.39162060618400574
0.24602827429771423,3.89070200920105,-0.39036837220191956
0.27240198850631714,3.8734359741210938,-0.38804376125335693
0.30222925543785095,3.9102914333343506,-0.39110466837882996
0.3280439078807831,3.8926899433135986,-0.38873299956321716
0.35722821950912476,3.9136223793029785,-0.39022570848464966
0.3813958764076233,3.8801772594451904,-0.3863162696361542
0.41196370124816895,3.9084389209747314,-0.3882274627685547
0.4355272650718689,3.8747055530548096,-0.3839954137802124
0.5471459031105042,4.581977844238281,-0.45306631922721863
0.5789976119995117,4.578198432922363,-0.45168671011924744
0.6030851602554321,4.516399383544922,-0.4445832669734955
0.6380399465560913,4.535327434539795,-0.44507187604904175
0.670482337474823,4.538678169250488,-0.4440670311450958
0.7018877863883972,4.534099578857422,-0.4423021674156189
0.7322087287902832,4.521597385406494,-0.4397798776626587
0.7597233653068542,4.493576526641846,-0.43568122386932373
0.7880643010139465,4.4731059074401855,-0.4320701062679291
0.8208493590354919,4.4753217697143555,-0.4306487739086151
0.7193929553031921,3.774428606033325,-0.36185333132743835
0.7411261796951294,3.746609926223755,-0.357856810092926
0.7670536041259766,3.741572618484497,-0.355922669172287
0.9292668104171753,4.379419803619385,-0.41473326086997986
0.9616022109985352,4.38063383102417,-0.4129657447338104
0.9937475323677063,4.381663799285889,-0.4112098813056946
1.0242518186569214,4.374866485595703,-0.40873175859451294
1.0489650964736938,4.345250606536865,-0.40390172600746155
1.0788131952285767,4.338195323944092,-0.4011155962944031
1.1130372285842896,4.345870494842529,-0.39966320991516113
1.1373637914657593,4.315688133239746,-0.39476242661476135
1.1673632860183716,4.307929515838623,-0.3919258713722229
1.1947728395462036,4.292611122131348,-0.38814812898635864
1.2199225425720215,4.269623756408691,-0.3837048411369324
1.247715950012207,4.253756999969482,-0.3798748254776001
1.2818377017974854,4.260139465332031,-0.37806540727615356
1.30670964717865,4.236575126647949,-0.3734866678714752
1.335676908493042,4.227829933166504,-0.37009382247924805
1.359825611114502,4.2040581703186035,-0.36540907621383667
1.3919737339019775,4.202029705047607,-0.36255311965942383
1.4150149822235107,4.174073696136475,-0.3575204312801361
1.4383922815322876,4.149905681610107,-0.35262900590896606
1.464063286781311,4.1329665184021,-0.34836697578430176
1.497774600982666,4.137747764587402,-0.34592175483703613
1.5184913873672485,4.10559606552124,-0.3403725028038025
1.5472462177276611,4.0951666831970215,-0.3364929258823395
1.5723000764846802,4.0775861740112305,-0.33197835087776184
1.5943025350570679,4.0526123046875,-0.326896995306015
1.6225357055664062,4.041712284088135,-0.32290029525756836
1.6535614728927612,4.037859916687012,-0.31944596767425537
1.6813604831695557,4.026698112487793,-0.3152052164077759
1.7177685499191284,4.037045955657959,-0.3127020299434662
2.0015180110931396,4.615237712860107,-0.35360953211784363
2.03999400138855,4.615785598754883,-0.34973862767219543
2.079258918762207,4.619995594024658,-0.3459416627883911
2.1061229705810547,4.595343112945557,-0.3399088382720947
2.134392261505127,4.574066162109375,-0.3341578543186188
2.16957426071167,4.566501140594482,-0.3293690085411072
2.1970252990722656,4.545088291168213,-0.3234492838382721
2.2309720516204834,4.53759765625,-0.31850466132164
2.262655735015869,4.522277355194092,-0.31284013390541077
2.295969247817993,4.510220050811768,-0.30741751194000244
2.3173775672912598,4.477705955505371,-0.30050575733184814
2.363675594329834,4.493516445159912,-0.296823650598526
1.736208438873291,3.246345281600952,-0.21089591085910797
1.7476552724838257,3.2138679027557373,-0.20520636439323425
1.7336066961288452,3.137340545654297,-0.1966705620288849
1.7392566204071045,3.0987439155578613,-0.19068868458271027
1.7840169668197632,3.1274728775024414,-0.18868498504161835
1.3495899438858032,2.329026222229004,-0.13766856491565704
1.3056235313415527,2.219364643096924,-0.12843655049800873
0.9586461186408997,1.6042919158935547,-0.09075891971588135
0.9637571573257446,1.5876878499984741,-0.0877174511551857
0.9782974123954773,1.5880793333053589,-0.08560065180063248
0.9887660145759583,1.581715703010559,-0.08310450613498688
1.001851201057434,1.5782216787338257,-0.08064021170139313
1.0209825038909912,1.5846524238586426,-0.07860556989908218
1.0163294076919556,1.5552324056625366,-0.07484595477581024
1.033577561378479,1.5580284595489502,-0.07250408083200455
1.0483297109603882,1.5576900243759155,-0.06996507197618484
1.0517956018447876,1.5413193702697754,-0.06670776009559631
2.563262462615967,3.7001755237579346,-0.15348775684833527
2.5784292221069336,3.6708507537841797,-0.14569123089313507
2.6067748069763184,3.660654306411743,-0.13855178654193878
2.6228623390197754,3.63018536567688,-0.13017456233501434
2.6018638610839844,3.5539934635162354,-0.1203019991517067
2.6840028762817383,3.6149942874908447,-0.11451369524002075
2.636408567428589,3.698437213897705,0.21209274232387543
2.603203535079956,3.711867332458496,0.22013895213603973
2.590341329574585,3.748882532119751,0.22894996404647827
1.0635004043579102,1.5647886991500854,0.09824474900960922
1.0691447257995605,1.598425269126892,0.10295529663562775
1.044986605644226,1.5861845016479492,0.10456112027168274
1.0368565320968628,1.6006197929382324,0.10789787769317627
1.0249465703964233,1.6080838441848755,0.11067163944244385
0.9970313906669617,1.588646411895752,0.11144518852233887
0.9890579581260681,1.6026124954223633,0.11447707563638687
0.9809016585350037,1.6165612936019897,0.11751679331064224
0.9653691053390503,1.6166346073150635,0.11942712962627411
0.9575598239898682,1.6301466226577759,0.12227059155702591
1.3448177576065063,2.3291096687316895,0.1772640347480774
1.8127156496047974,3.1927192211151123,0.24639014899730682
1.7542189359664917,3.140355110168457,0.2455413043498993
1.755074381828308,3.19746470451355,0.25317397713661194
1.7699735164642334,3.2821879386901855,0.2630256414413452
2.397721767425537,4.523521900177002,0.3666659891605377
2.3696353435516357,4.546650409698486,0.3725913166999817
2.3328113555908203,4.5564703941345215,0.37726935744285583
2.3053886890411377,4.587411403656006,0.38373157382011414
2.2687079906463623,4.596549034118652,0.38823774456977844
2.239910840988159,4.618892192840576,0.39375537633895874
2.203340530395508,4.627411365509033,0.39796900749206543
2.17578387260437,4.657225608825684,0.4038955271244049
2.138209819793701,4.665620803833008,0.4079877734184265
2.108191967010498,4.687402725219727,0.4131569266319275
2.072242021560669,4.694500923156738,0.4169940948486328
2.031623601913452,4.69488000869751,0.4199630618095398
1.7403557300567627,4.103557586669922,0.3696349263191223
1.7108203172683716,4.1156325340271,0.3732558488845825
1.6814804077148438,4.127379894256592,0.37684229016304016
1.6580078601837158,4.153316020965576,0.38162901997566223
1.6248772144317627,4.157729148864746,0.38427069783210754
1.6000733375549316,4.183701038360596,0.3889320492744446
1.567535638809204,4.187389850616455,0.3914910554885864
1.5458440780639648,4.2200164794921875,0.3967747986316681
1.513368844985962,4.223214626312256,0.39918336272239685
1.487930178642273,4.248458385467529,0.4035162031650543
1.4546483755111694,4.251465797424316,0.40576139092445374
1.4281129837036133,4.272483825683594,0.40971308946609497
1.3977304697036743,4.282241344451904,0.4126107096672058
1.3699921369552612,4.299092769622803,0.41611480712890625
1.3413281440734863,4.316019058227539,0.4194106459617615
1.3124905824661255,4.3327531814575195,0.4227151572704315
1.2836873531341553,4.349234104156494,0.42601144313812256
1.2533090114593506,4.357840061187744,0.42851996421813965
1.2265700101852417,4.381344795227051,0.43254804611206055
1.1993008852005005,4.404785633087158,0.4363040328025818
1.1657005548477173,4.4055304527282715,0.437804639339447
1.139892339706421,4.436146259307861,0.4423012137413025
1.1069562435150146,4.436245918273926,0.4437466263771057
1.077300786972046,4.45131778717041,0.446731835603714
1.0477958917617798,4.466135501861572,0.4495527446269989
1.0159441232681274,4.4732985496521,0.45143526792526245
0.986589789390564,4.491615295410156,0.45446765422821045
0.9563535451889038,4.505908012390137,0.4571157693862915
0.7988097071647644,3.899305582046509,0.3966341018676758
0.7542977929115295,3.816911458969116,0.3892863988876343
0.7258451581001282,3.8143746852874756,0.3898470401763916
0.834453284740448,4.5609846115112305,0.46708059310913086
0.8087896108627319,4.604913234710693,0.4725360572338104
0.7758592367172241,4.610416412353516,0.4740872383117676
0.7443517446517944,4.619389057159424,0.47599416971206665
0.7121443152427673,4.624309062957764,0.4774925410747528
0.6839587092399597,4.659862995147705,0.4818563461303711
0.6499342918395996,4.656759738922119,0.48225027322769165
0.6205080151557922,4.692005157470703,0.4866565763950348
0.5886855721473694,4.703813552856445,0.48864051699638367
0.5577853322029114,4.723105430603027,0.49142614006996155
0.5256696343421936,4.734490871429443,0.49334266781806946
0.49239033460617065,4.737982273101807,0.4941595792770386
0.462458074092865,4.776045322418213,0.4986100196838379
0.42893731594085693,4.786886692047119,0.5002574920654297
0.39559271931648254,4.789671897888184,0.5010743141174316
0.36398711800575256,4.815469264984131,0.5043255686759949
0.33144792914390564,4.833320140838623,0.506670355796814
0.2985159158706665,4.850987434387207,0.5087549686431885
0.26458123326301575,4.864579677581787,0.5104429125785828
0.2315807044506073,4.889549732208252,0.5133478045463562
0.19787299633026123,4.898757457733154,0.5146225690841675
0.16461896896362305,4.923262119293213,0.5175305604934692
0.13100610673427582,4.947551727294922,0.5203292369842529
0.09599585831165314,4.952230930328369,0.5208252668380737
0.0616944283246994,4.96830940246582,0.522545576095581
0.027121415361762047,4.9841485023498535,0.5242664813995361
-0.007576436270028353,5.007516384124756,0.5268051624298096
-0.04254522919654846,5.030641555786133,0.5293444395065308
-0.07833001017570496,5.041870594024658,0.5305394530296326
-0.1136440560221672,5.056773662567139,0.5318723917007446
-0.14899319410324097,5.063660144805908,0.5323864817619324
-0.1841609925031662,5.062535285949707,0.5320835709571838
-0.21965673565864563,5.068928241729736,0.532596230506897
-0.2568648159503937,5.106109619140625,0.5363681316375732
-0.29447123408317566,5.1313629150390625,0.5387959480285645
-0.2788456976413727,4.334488868713379,0.45472562313079834
-0.3052450716495514,4.282138824462891,0.4488614797592163
-0.33604052662849426,4.295480251312256,0.44990846514701843
-0.36688458919525146,4.304715156555176,0.4505426287651062
-0.3934102952480316,4.25951623916626,0.4454982280731201
-0.41909199953079224,4.2180938720703125,0.4407818913459778
-0.4403359293937683,4.141792297363281,0.4322204291820526
-0.4662345051765442,4.115588665008545,0.42892101407051086
-0.48854535818099976,4.062219619750977,0.4228207468986511
-0.5113797187805176,4.012500762939453,0.41711944341659546
-0.5345982313156128,3.9742794036865234,0.4126533567905426
-0.5566424131393433,3.932109832763672,0.4077032208442688
-0.5750410556793213,3.8706603050231934,0.4005933105945587
-0.6003892421722412,3.859060525894165,0.3986738920211792
-0.6192097067832947,3.805027723312378,0.3923878073692322
-0.6430481672286987,3.7854206562042236,0.3896859586238861
-0.6571592688560486,3.7120888233184814,0.381487101316452
-0.6792365908622742,3.6884799003601074,0.3783109486103058
-0.6986268758773804,3.6533429622650146,0.3738330602645874
-0.7160197496414185,3.610494375228882,0.36860108375549316
-0.737273633480072,3.5865132808685303,0.36530911922454834
-0.7492560148239136,3.520603656768799,0.35778510570526123
-0.7662066221237183,3.481273651123047,0.35300129652023315
-0.788349449634552,3.4685020446777344,0.35076868534088135
-0.8048514723777771,3.4329304695129395,0.3461669385433197
-0.824959933757782,3.412313938140869,0.3430856466293335
-0.841803252696991,3.3803131580352783,0.3388964831829071
-0.8575759530067444,3.344399929046631,0.33433517813682556
-0.8748736381530762,3.3159477710723877,0.33055099844932556
-0.895341694355011,3.302595376968384,0.3280762732028961
-0.9045448899269104,3.2478156089782715,0.3214918375015259
-0.9244241118431091,3.2342941761016846,0.3190450966358185
-0.942434549331665,3.213055372238159,0.3158365488052368
-0.9603171348571777,3.1916849613189697,0.31263449788093567
-0.9765406250953674,3.166591167449951,0.3090052306652069
-0.986589789390564,3.122898817062378,0.303438663482666
-0.9981059432029724,3.086733818054199,0.29866790771484375
-1.0142645835876465,3.065260648727417,0.29533863067626953
-1.0319045782089233,3.0472347736358643,0.2923373281955719
-1.0505876541137695,3.0327959060668945,0.28970372676849365
-1.068432331085205,3.0185039043426514,0.28688865900039673
-1.0864506959915161,3.003995895385742,0.28404879570007324
-1.0959097146987915,2.967595100402832,0.27919241786003113
-1.1069319248199463,2.9346084594726562,0.27465173602104187
-1.1245148181915283,2.919776439666748,0.2718413472175598
-1.1214519739151,2.8543622493743896,0.2642252445220947
-1.132191777229309,2.8251874446868896,0.25994694232940674
-1.1510555744171143,2.817758798599243,0.2577233910560608
-1.1541072130203247,2.7703919410705566,0.2518237233161926
-1.1323007345199585,2.665745735168457,0.24079914391040802
-1.1440980434417725,2.643951892852783,0.23721477389335632
-1.165147066116333,2.643467664718628,0.23548048734664917
-1.1763718128204346,2.6216378211975098,0.2318885326385498
-1.1897262334823608,2.602979898452759,0.22853247821331024
-1.2325220108032227,2.6477773189544678,0.23072481155395508
-1.2368651628494263,2.6115427017211914,0.22572001814842224
-1.2713849544525146,2.6384377479553223,0.22612670063972473
-1.2890759706497192,2.630063533782959,0.22350652515888214
-1.293522596359253,2.5933330059051514,0.21843014657497406
-1.2849044799804688,2.5324878692626953,0.21135811507701874
-1.2944577932357788,2.5103259086608887,0.20747026801109314
-1.3037734031677246,2.4881441593170166,0.2036123424768448
-1.3138772249221802,2.46541166305542,0.19961434602737427
-1.3236889839172363,2.4426753520965576,0.19565416872501373
-1.3379729986190796,2.430666208267212,0.19246415793895721
-1.3387356996536255,2.394820213317871,0.18741004168987274
-1.354958415031433,2.385911464691162,0.18442930281162262
-1.3641048669815063,2.362948417663574,0.18027406930923462
-1.3797237873077393,2.354098320007324,0.17717033624649048
-1.391066074371338,2.338580369949341,0.17355132102966309
-1.4189778566360474,2.349360227584839,0.17178113758563995
-1.4191046953201294,2.313011884689331,0.16649237275123596
-1.4262113571166992,2.290529251098633,0.16211426258087158
-1.4410372972488403,2.2814676761627197,0.15874753892421722
-1.4525235891342163,2.2651591300964355,0.1547195166349411
-1.4657613039016724,2.2522096633911133,0.15087421238422394
-1.4715579748153687,2.22999906539917,0.1463802456855774
-1.4822487831115723,2.213772773742676,0.14214587211608887
-1.4976755380630493,2.2036166191101074,0.13820135593414307
-1.4983302354812622,2.175050735473633,0.1330682635307312
-1.4834071397781372,2.1239168643951416,0.12656573951244354
-1.493800401687622,2.1073124408721924,0.1219279021024704
-1.5072658061981201,2.0979502201080322,0.11759024113416672
-1.5118485689163208,2.0756146907806396,0.1124473288655281
-1.5165252685546875,2.0530736446380615,0.10709202289581299
-1.5265125036239624,2.1385397911071777,-0.08692149817943573
-1.4866383075714111,2.113949775695801,-0.09052807837724686
-1.4905858039855957,2.153812885284424,-0.09683221578598022
-1.4834980964660645,2.177396059036255,-0.10230536758899689
-1.4852519035339355,2.213677406311035,-0.10823984444141388
-1.468445062637329,2.224625825881958,-0.11298876255750656
-1.4565436840057373,2.2415153980255127,-0.11787446588277817
-1.4402152299880981,2.2518064975738525,-0.12228100001811981
-1.427450180053711,2.268902063369751,-0.12706121802330017
-1.4257615804672241,2.301914691925049,-0.13256728649139404
-1.4090250730514526,2.311953544616699,-0.13675357401371002
-1.4034645557403564,2.342405080795288,-0.14224012196063995
-1.3907628059387207,2.3587822914123535,-0.14668263494968414
-1.3816784620285034,2.3819186687469482,-0.15152138471603394
-1.3562709093093872,2.3782784938812256,-0.15463559329509735
-1.3467450141906738,2.4013328552246094,-0.15939953923225403
-1.3295843601226807,2.4106192588806152,-0.1632457822561264
-1.3155574798583984,2.4269208908081055,-0.1674669235944748
-1.305040955543518,2.450014352798462,-0.1721893548965454
-1.2933015823364258,2.469186782836914,-0.17652776837348938
-1.307810664176941,2.5404555797576904,-0.18465308845043182
-1.2924302816390991,2.5567800998687744,-0.1888899952173233
-1.2670972347259521,2.5517663955688477,-0.1914539784193039
-1.2492311000823975,2.5602965354919434,-0.19494856894016266
-1.220701813697815,2.547855854034424,-0.19677002727985382
-1.1706770658493042,2.4893875122070312,-0.1949225813150406
-1.170893907546997,2.5363121032714844,-0.20125576853752136
-1.1897755861282349,2.6259429454803467,-0.21111661195755005
-1.1565972566604614,2.602140188217163,-0.21178188920021057
-1.1704325675964355,2.6851584911346436,-0.22117266058921814
-1.1253411769866943,2.6322379112243652,-0.2193402796983719
-1.088829517364502,2.5966851711273193,-0.21883372962474823
-1.0979995727539062,2.6727304458618164,-0.2277015596628189
-1.132519006729126,2.813960552215576,-0.24224869906902313
-1.116806983947754,2.8325209617614746,-0.24634036421775818
-1.1082172393798828,2.869034767150879,-0.2520013749599457
-1.109847068786621,2.9348230361938477,-0.2602161765098572
-1.0857207775115967,2.9352571964263916,-0.2626801133155823
-1.0740998983383179,2.9682483673095703,-0.26802530884742737
-1.0611510276794434,2.997413158416748,-0.2730329632759094
-1.0501807928085327,3.033967971801758,-0.2786962389945984
-1.0334687232971191,3.05587100982666,-0.28294771909713745
-1.0063797235488892,3.0482394695281982,-0.2845154404640198
-0.9898554682731628,3.069737434387207,-0.28872865438461304
-0.9742595553398132,3.0948550701141357,-0.2933121621608734
-0.9613757729530334,3.1311984062194824,-0.29880642890930176
-0.9413315057754517,3.1451478004455566,-0.30220311880111694
-0.9213362336158752,3.1589105129241943,-0.30558839440345764
-0.9052174687385559,3.187570333480835,-0.3104706406593323
-0.8858268857002258,3.204871654510498,-0.3141099810600281
-0.865094780921936,3.21834397315979,-0.31729504466056824
-0.8441895842552185,3.231686592102051,-0.3204941153526306
-0.8254413604736328,3.252333879470825,-0.32441458106040955
-0.8023232221603394,3.2578678131103516,-0.3268764615058899
-0.7900667190551758,3.308624505996704,-0.3336299955844879
-0.7780340909957886,3.363142490386963,-0.3408252000808716
-0.7611879110336304,3.398644208908081,-0.3461385667324066
-0.7407838106155396,3.418832540512085,-0.34991830587387085
-0.7188017964363098,3.435213804244995,-0.35324907302856445
-0.7007277011871338,3.4704678058624268,-0.3583607077598572
-0.6837055683135986,3.5132555961608887,-0.3642958104610443
-0.6656041145324707,3.552112102508545,-0.3698599934577942
-0.6491193175315857,3.6023426055908203,-0.3766576647758484
-0.6280620098114014,3.6334874629974365,-0.38129952549934387
-0.6063200831413269,3.6606285572052,-0.38545122742652893
-0.586689829826355,3.702983856201172,-0.39124438166618347
-0.564937174320221,3.733686685562134,-0.39583954215049744
-0.5466650128364563,3.7911767959594727,-0.40332159399986267
-0.5275017619132996,3.8525571823120117,-0.4109334349632263
-0.5044481158256531,3.886826753616333,-0.41568106412887573
-0.48147761821746826,3.9248061180114746,-0.42086178064346313
-0.4595368802547455,3.9742026329040527,-0.42730239033699036
-0.4364745616912842,4.019629955291748,-0.4332715570926666
-0.41225239634513855,4.061105728149414,-0.43856847286224365
-0.38698819279670715,4.10247802734375,-0.4439062476158142
-0.3627609312534332,4.15524959564209,-0.4505006968975067
-0.32731831073760986,4.076254844665527,-0.442822128534317
-0.30320245027542114,4.1364264488220215,-0.4500957429409027
-0.2714926302433014,4.095737934112549,-0.4461919963359833
-0.244015172123909,4.124617099761963,-0.4498962461948395
-0.21525046229362488,4.126137733459473,-0.4506322741508484
-0.18528415262699127,4.100301742553711,-0.44839781522750854
-0.15731987357139587,4.1169610023498535,-0.45057782530784607
-0.12737995386123657,4.079110145568848,-0.4466601014137268
-0.09821292012929916,4.0721116065979,-0.4461444914340973
-0.0696365013718605,4.057130813598633,-0.4447692334651947
-0.04138661548495293,4.049715518951416,-0.4442428946495056
-0.013198337517678738,4.042139530181885,-0.4433901011943817
0.014899819158017635,4.038260459899902,-0.44287535548210144
0.04321170598268509,4.014767169952393,-0.4402305483818054
0.06738558411598206,3.8047313690185547,-0.4171562194824219
0.09863321483135223,3.9982707500457764,-0.43835175037384033
0.12612998485565186,3.989776611328125,-0.4370567798614502
0.15234826505184174,3.9500527381896973,-0.43234381079673767
0.1796102374792099,3.945070505142212,-0.43145811557769775
0.20669707655906677,3.92824125289917,-0.42929354310035706
0.23400837182998657,3.9267632961273193,-0.42879432439804077
0.2602367401123047,3.909637928009033,-0.42625224590301514
0.2867754399776459,3.900085687637329,-0.42456111311912537
0.31260359287261963,3.882608413696289,-0.4220307767391205
0.34011220932006836,3.8803889751434326,-0.4211694598197937
0.3663496971130371,3.870300531387329,-0.419383704662323
0.39391252398490906,3.8755319118499756,-0.41900449991226196
0.4174027442932129,3.8419508934020996,-0.4144535958766937
0.44184935092926025,3.8197972774505615,-0.41116517782211304
0.46980080008506775,3.8244194984436035,-0.410765677690506
0.4943109452724457,3.8058090209960938,-0.4077393710613251
0.5184957385063171,3.787074089050293,-0.4045313000679016
0.5435522794723511,3.775876045227051,-0.4021548330783844
0.5674436092376709,3.7568106651306152,-0.39896130561828613
0.597699761390686,3.7758865356445312,-0.3998119831085205
0.6162227392196655,3.7258498668670654,-0.39315831661224365
0.6445799469947815,3.7370200157165527,-0.392879843711853
0.6730895042419434,3.747981548309326,-0.3925880193710327
0.6991753578186035,3.7434041500091553,-0.3906676769256592
0.7207896709442139,3.715754508972168,-0.38636714220046997
0.7484034895896912,3.7184505462646484,-0.38493096828460693
0.7819532752037048,3.751479387283325,-0.38663291931152344
0.9569806456565857,4.437708854675293,-0.45533686876296997
0.981116771697998,4.4008564949035645,-0.4495519995689392
1.0090715885162354,4.3828444480896,-0.44565972685813904
1.0343544483184814,4.3532867431640625,-0.4402998685836792
1.0605980157852173,4.331261157989502,-0.4357839822769165
1.0886975526809692,4.316566467285156,-0.432022362947464
1.116817593574524,4.301644802093506,-0.42825356125831604
1.1485562324523926,4.3016462326049805,-0.4258069097995758
1.170404314994812,4.263836860656738,-0.4194520115852356
1.2060123682022095,4.278477191925049,-0.4183294475078583
1.2336368560791016,4.262826442718506,-0.4142206907272339
1.2567059993743896,4.2320709228515625,-0.40867939591407776
1.2845778465270996,4.219979286193848,-0.4046839475631714
1.311690330505371,4.203835964202881,-0.4002634584903717
1.338311791419983,4.18761682510376,-0.39589723944664
1.369970440864563,4.1859049797058105,-0.3928864300251007
1.4013725519180298,4.184062480926514,-0.3897538483142853
1.4274457693099976,4.167381763458252,-0.38510861992836
1.453386902809143,4.150524616241455,-0.3804726004600525
1.482770323753357,4.1404924392700195,-0.3763794004917145
1.5035679340362549,4.108490943908691,-0.3703705668449402
1.5261030197143555,4.083935737609863,-0.36483511328697205
1.5622156858444214,4.095643043518066,-0.3625539541244507
1.5848318338394165,4.070616245269775,-0.3569846749305725
1.613716721534729,4.05963659286499,-0.35258230566978455
1.6385689973831177,4.041652679443359,-0.3475049138069153
1.666020154953003,4.030801296234131,-0.34299010038375854
1.6965982913970947,4.026865482330322,-0.3390502333641052
1.9429899454116821,4.523469924926758,-0.3767220675945282
1.991841435432434,4.549433708190918,-0.37454891204833984
2.0289876461029053,4.550502777099609,-0.370250403881073
2.0695548057556152,4.55832576751709,-0.3664703965187073
2.1209716796875,4.586647033691406,-0.36417311429977417
2.152590751647949,4.5723490715026855,-0.3584046959877014
2.1805808544158936,4.550890922546387,-0.35189089179039
2.2113256454467773,4.536483287811279,-0.3460181951522827
2.2464256286621094,4.52836799621582,-0.340480238199234
2.2740468978881836,4.506287574768066,-0.33385196328163147
2.3078157901763916,4.498305797576904,-0.328185111284256
2.3435561656951904,4.493434906005859,-0.32271063327789307
2.3790972232818604,4.484015941619873,-0.3166354298591614
1.7359732389450073,3.218979835510254,-0.22342893481254578
1.7536945343017578,3.2007946968078613,-0.21824860572814941
1.73940110206604,3.1243715286254883,-0.20912282168865204
1.774658203125,3.1362075805664062,-0.20585636794567108
1.8115487098693848,3.15140962600708,-0.20262734591960907
1.3389451503753662,2.294076919555664,-0.14445693790912628
0.9529542922973633,1.6071951389312744,-0.0989636704325676
0.9579340219497681,1.5907487869262695,-0.09568849205970764
0.9745308756828308,1.5945273637771606,-0.09361624717712402
0.9834386706352234,1.5846205949783325,-0.09063687175512314
0.9965554475784302,1.5811787843704224,-0.08799546211957932
1.0005825757980347,1.5649110078811646,-0.08463539928197861
1.017328143119812,1.5682034492492676,-0.08230086416006088
1.0261287689208984,1.5579441785812378,-0.07911420613527298
1.036499261856079,1.5512168407440186,-0.07605629414319992
1.0576562881469727,1.5606499910354614,-0.0737721249461174
1.0641027688980103,1.546946406364441,-0.07021890580654144
2.5701189041137695,3.685600757598877,-0.16029441356658936
2.590034008026123,3.662414312362671,-0.15203483402729034
2.6244864463806152,3.65739107131958,-0.14399905502796173
2.6155009269714355,3.5967695713043213,-0.13398194313049316
2.6401517391204834,3.579038143157959,-0.1250286102294922
2.616623878479004,3.7013587951660156,0.23729777336120605
2.5855062007904053,3.7131147384643555,0.24527859687805176
1.0446463823318481,1.5252059698104858,0.10365383327007294
1.06605863571167,1.58115553855896,0.11028658598661423
1.0501232147216797,1.5822079181671143,0.11301000416278839
1.0378650426864624,1.5900477170944214,0.11617422848939896
1.0179530382156372,1.5841467380523682,0.11814503371715546
1.0148377418518066,1.6044111251831055,0.121988445520401
0.9982290267944336,1.6054030656814575,0.12437330931425095
0.9864258766174316,1.6124697923660278,0.12709829211235046
0.9750881791114807,1.619144320487976,0.12970437109470367
0.9589058756828308,1.6195226907730103,0.13173049688339233
1.3601750135421753,2.3370656967163086,0.19294916093349457
1.8447147607803345,3.2221786975860596,0.26974260807037354
1.77774178981781,3.1567800045013428,0.26776835322380066
1.754027009010315,3.169637680053711,0.2722362279891968
1.7768691778182983,3.2677836418151855,0.2841154634952545
1.753932237625122,3.279778003692627,0.28840237855911255
2.3913230895996094,4.55025053024292,0.4046037793159485
2.3395471572875977,4.532801151275635,0.40723592042922974
2.3162882328033447,4.57042121887207,0.41482990980148315
2.27728533744812,4.572098731994629,0.41893917322158813
2.2519853115081787,4.601463794708252,0.4255829453468323
2.2207400798797607,4.624774932861328,0.4314894378185272
2.189908027648926,4.647577285766602,0.43731507658958435
2.1533420085906982,4.65558385848999,0.4416622221469879
2.120706081390381,4.670074462890625,0.4465640187263489
2.0870511531829834,4.684756278991699,0.4513164758682251
2.057269811630249,4.710200786590576,0.45701396465301514
1.9852948188781738,4.639129638671875,0.45337530970573425
1.7330127954483032,4.128742694854736,0.4062112271785736
1.7011688947677612,4.133171558380127,0.4093696177005768
1.6740012168884277,4.152276515960693,0.4137396514415741
1.6436843872070312,4.164008140563965,0.4173654019832611
1.6157915592193604,4.182882785797119,0.42175769805908203
1.589269757270813,4.200996398925781,0.42597702145576477
1.5598715543746948,4.211646556854248,0.4294644594192505
1.5293551683425903,4.222492694854736,0.4327065944671631
1.5025734901428223,4.244140625,0.4370754361152649
1.4700831174850464,4.25105094909668,0.4399808645248413
1.4403409957885742,4.260896682739258,0.44310349225997925
1.416628122329712,4.288987159729004,0.4481542706489563
1.3834084272384644,4.291347026824951,0.4502753019332886
1.354721188545227,4.308339595794678,0.45390012860298157
1.3276039361953735,4.332729339599609,0.458369642496109
1.295013189315796,4.334177017211914,0.4603501856327057
1.2734975814819336,4.372643947601318,0.46628469228744507
1.2404156923294067,4.373785972595215,0.46810299158096313
1.2110854387283325,4.389796257019043,0.47137120366096497
1.1836447715759277,4.413101673126221,0.4754529297351837
1.1537566184997559,4.428771018981934,0.4787554144859314
1.1209745407104492,4.42890739440918,0.4803479015827179
1.0937976837158203,4.451439380645752,0.48439037799835205
1.0620063543319702,4.458903789520264,0.4864709973335266
1.034529209136963,4.485065937042236,0.4906216561794281
1.0019186735153198,4.49222993850708,0.4927489161491394
0.9688791632652283,4.4913010597229,0.49395906925201416
0.9351987242698669,4.486310005187988,0.4947371184825897
0.7666157484054565,3.8110532760620117,0.4213022291660309
0.739530086517334,3.8162434101104736,0.4227321147918701
0.8470759391784668,4.546651840209961,0.5047013759613037
0.8217009902000427,4.590570449829102,0.5106495022773743
0.7909584641456604,4.603659629821777,0.5131885409355164
0.7588583827018738,4.6088714599609375,0.5148745179176331
0.7294418811798096,4.6331071853637695,0.518490195274353
0.6983185410499573,4.653453350067139,0.5215688943862915
0.6642740368843079,4.6504411697387695,0.5220425128936768
0.6325390934944153,4.662550449371338,0.5242359042167664
0.6040723919868469,4.697490692138672,0.5290178060531616
0.5732279419898987,4.716847896575928,0.5320801734924316
0.5409852266311646,4.728351593017578,0.5339913964271545
0.5075485110282898,4.735854148864746,0.5353787541389465
0.476510226726532,4.762378692626953,0.5389378070831299
0.4459926187992096,4.79641580581665,0.5433775186538696
0.4133290946483612,4.807026386260986,0.5451892018318176
0.37987804412841797,4.80967903137207,0.5461266040802002
0.3478359580039978,4.843160152435303,0.5502962470054626
0.3141902983188629,4.849286079406738,0.5512919425964355
0.2806486189365387,4.859055042266846,0.552730143070221
0.24826836585998535,4.891843795776367,0.5568157434463501
0.21424119174480438,4.8933892250061035,0.5573726296424866
0.1802065372467041,4.910231113433838,0.5597072243690491
0.14665907621383667,4.934617519378662,0.5626004934310913
0.11248936504125595,4.947144508361816,0.5640723705291748
0.07821311056613922,4.963314533233643,0.5659875869750977
0.04390576854348183,4.994770526885986,0.5696739554405212
0.008592591620981693,5.0027008056640625,0.5707078576087952
-0.026329245418310165,5.025909423828125,0.5735112428665161
-0.061417195945978165,5.037263870239258,0.5746921300888062
-0.09638264030218124,5.036746501922607,0.5744286179542542
-0.13220691680908203,5.067022800445557,0.5777034759521484
-0.16794398427009583,5.0815277099609375,0.5792065262794495
-0.2038588672876358,5.080244541168213,0.5789356231689453
-0.23990404605865479,5.094242572784424,0.5804362297058105
-0.2779300808906555,5.142900466918945,0.5856388211250305
-0.31256723403930664,5.1254353523254395,0.5831925272941589
-0.29120731353759766,4.2867817878723145,0.4874075651168823
-0.32082581520080566,4.27694845199585,0.4859478175640106
-0.34996116161346436,4.266939163208008,0.48449698090553284
-0.38202551007270813,4.291532039642334,0.4869977831840515
-0.4069160521030426,4.23864221572876,0.4805131256580353
-0.4293583035469055,4.170199394226074,0.472162663936615
-0.45266392827033997,4.1131696701049805,0.4651334583759308
-0.47882941365242004,4.090764999389648,0.46206095814704895
-0.5015298128128052,4.041208267211914,0.4559488594532013
-0.5230594277381897,3.9876842498779297,0.4494231939315796
-0.5463175177574158,3.953334093093872,0.44489437341690063
-0.5694308280944824,3.9188244342803955,0.44023597240448
-0.587556779384613,3.8573813438415527,0.4326023757457733
-0.6079996228218079,3.8150312900543213,0.42714640498161316
-0.6300332546234131,3.784034013748169,0.4229877293109894
-0.6497111916542053,3.7414307594299316,0.4175627827644348
-0.6698920726776123,3.7064552307128906,0.4128316640853882
-0.6935064792633057,3.6904168128967285,0.4101204574108124
-0.7097945809364319,3.6400086879730225,0.4036391079425812
-0.7263411283493042,3.5933263301849365,0.3976057767868042
-0.7433626651763916,3.5503294467926025,0.3920081555843353
-0.7598215341567993,3.5072672367095947,0.3864402174949646
-0.7816693186759949,3.490701198577881,0.3835751414299011
-0.7984288930892944,3.4552011489868164,0.37861764430999756
-0.8147412538528442,3.4196319580078125,0.37368854880332947
-0.8318008780479431,3.387707471847534,0.3691803812980652
-0.8477731347084045,3.3518764972686768,0.36426958441734314
-0.8695234060287476,3.338451862335205,0.3617919981479645
-0.8881479501724243,3.317660093307495,0.3583250939846039
-0.9044697284698486,3.2892744541168213,0.35406821966171265
-0.9152007102966309,3.2421114444732666,0.34782764315605164
-0.9333354234695435,3.2209551334381104,0.34439072012901306
-0.9516849517822266,3.1995673179626465,0.34093254804611206
-0.9690895676612854,3.178295850753784,0.3374272882938385
-0.9800863265991211,3.1385130882263184,0.3318544626235962
-0.9918028712272644,3.102415084838867,0.32671162486076355
-1.0080841779708862,3.0810208320617676,0.3231402039527893
-1.02994966506958,3.074000358581543,0.3210422098636627
-1.0450596809387207,3.048570394515991,0.31707054376602173
-1.060486912727356,3.026998519897461,0.3133072853088379
-1.078271508216858,3.0126824378967285,0.31031426787376404
-1.0958834886550903,2.998271942138672,0.3073350191116333
-1.1030911207199097,2.954389810562134,0.30132532119750977
-1.1212252378463745,2.9394681453704834,0.2982771098613739
-1.1171423196792603,2.8704302310943604,0.2896775007247925
-1.1248536109924316,2.834207534790039,0.2843904495239258
-1.1467193365097046,2.834061861038208,0.2827487289905548
-1.1529289484024048,2.7939484119415283,0.27709460258483887
-1.1350414752960205,2.6962850093841553,0.26577216386795044
-1.1441822052001953,2.667278289794922,0.2612152695655823
-1.1588729619979858,2.6526830196380615,0.2580210268497467
-1.152860164642334,2.5917892456054688,0.2503751218318939
-1.1820085048675537,2.6088056564331055,0.2502255439758301
-1.200575351715088,2.6005654335021973,0.24759458005428314
-1.2346874475479126,2.627865791320801,0.24824969470500946
-1.2622194290161133,2.640920639038086,0.247481107711792
-1.2559623718261719,2.5836973190307617,0.24015654623508453
-1.2687900066375732,2.564662218093872,0.23634490370750427
-1.3061635494232178,2.594137668609619,0.236953005194664
-1.2895437479019165,2.519881248474121,0.22800715267658234
-1.3097490072250366,2.5184834003448486,0.22571197152137756
-1.3049637079238892,2.468494415283203,0.2190435230731964
-1.3148397207260132,2.445844888687134,0.21479035913944244
-1.3257050514221191,2.426936388015747,0.21081022918224335
-1.334351658821106,2.404663324356079,0.20647263526916504
-1.3503413200378418,2.395988702774048,0.2033357173204422
-1.3632255792617798,2.3799848556518555,0.1994689702987671
-1.3715355396270752,2.357468605041504,0.1950322985649109
-1.3829530477523804,2.3420181274414062,0.191142275929451
-1.406723141670227,2.3462917804718018,0.1887807995080948
-1.41499662399292,2.3233642578125,0.184136763215065
-1.4264507293701172,2.3074734210968018,0.1800210028886795
-1.4289286136627197,2.278658866882324,0.1748874932527542
-1.444169521331787,2.269313097000122,0.17117756605148315
-1.4497275352478027,2.242884874343872,0.16601957380771637
-1.4684805870056152,2.240267038345337,0.1626160442829132
-1.4785338640213013,2.2245662212371826,0.1582634001970291
-1.4678895473480225,2.175671100616455,0.151341512799263
-1.4998897314071655,2.191936492919922,0.14892016351222992
-1.4873384237289429,2.144033670425415,0.14206650853157043
-1.515597939491272,2.153135061264038,0.13877205550670624
-1.4958686828613281,2.095688819885254,0.13112565875053406
-1.5044881105422974,2.0801687240600586,0.12617358565330505
