X,Y,Z
-0.7433637976646423,2.241246223449707,-0.4203900098800659
-0.7155299782752991,2.208970069885254,-0.41847071051597595
-0.6823824048042297,2.1581180095672607,-0.4128863215446472
-0.6557332873344421,2.125279426574707,-0.41057687997817993
-0.6384643316268921,2.12160325050354,-0.4138314723968506
-0.609309196472168,2.0773470401763916,-0.4088166058063507
-0.5816119909286499,2.0365660190582275,-0.40439993143081665
-0.557953953742981,2.0065362453460693,-0.40191853046417236
-0.5398128628730774,1.9947867393493652,-0.4030212163925171
-0.5198615789413452,1.9755361080169678,-0.4023120105266571
-0.49735361337661743,1.9449896812438965,-0.3991885483264923
-0.4796891510486603,1.9328737258911133,-0.3998423218727112
-0.4552784264087677,1.8907923698425293,-0.394170343875885
-0.438430517911911,1.8783570528030396,-0.3943728804588318
-0.41924360394477844,1.8546098470687866,-0.39206579327583313
-0.4012436866760254,1.8344340324401855,-0.3904602825641632
-0.377855122089386,1.787951111793518,-0.38320404291152954
-0.36070212721824646,1.7674806118011475,-0.3812088668346405
-0.3468044400215149,1.7618948221206665,-0.38225650787353516
-0.33159199357032776,1.7486953735351562,-0.3816399574279785
-0.31930917501449585,1.750402569770813,-0.3842785954475403
-0.298271119594574,1.7031960487365723,-0.37602972984313965
-0.28632834553718567,1.7047522068023682,-0.37825557589530945
-0.26833316683769226,1.6685551404953003,-0.37207937240600586
-0.2554931938648224,1.6623672246932983,-0.3725629448890686
-0.2394254058599472,1.633466124534607,-0.3678571581840515
-0.2277931421995163,1.6347200870513916,-0.36966967582702637
-0.22036758065223694,1.6660922765731812,-0.3783110976219177
-0.20778147876262665,1.6596176624298096,-0.37839818000793457
-0.19799096882343292,1.6757497787475586,-0.3836456537246704
-0.1854819804430008,1.6691868305206299,-0.38334888219833374
-0.17307381331920624,1.6625328063964844,-0.38303878903388977
-0.1620073914527893,1.6709611415863037,-0.3862471282482147
-0.14829832315444946,1.6489734649658203,-0.382411390542984
-0.1386922150850296,1.6724704504013062,-0.3887825012207031
-0.1198260635137558,1.578302264213562,-0.36773425340652466
-0.10648781061172485,1.5447089672088623,-0.36074647307395935
-0.10306140780448914,1.666683316230774,-0.3901723027229309
-0.08626659214496613,1.5722397565841675,-0.3686671853065491
-0.07407951354980469,1.5460667610168457,-0.3630329668521881
-0.06332696974277496,1.546403408050537,-0.3636334538459778
-0.05722353607416153,1.6834708452224731,-0.39645111560821533
-0.044688623398542404,1.6609272956848145,-0.3915089964866638
-0.03261676803231239,1.634533166885376,-0.38547083735466003
-0.021396322175860405,1.646070122718811,-0.38839519023895264
-0.009787234477698803,1.6195118427276611,-0.3823474943637848
0.0014684005873277783,1.6119197607040405,-0.3806261420249939
0.013210398145020008,1.6537284851074219,-0.3903224766254425
0.0248239915817976,1.661241054534912,-0.3919409215450287
0.03579353541135788,1.6344622373580933,-0.3854893743991852
0.04749027267098427,1.6456385850906372,-0.3879088759422302
0.05948633700609207,1.660604476928711,-0.39090919494628906
0.07234327495098114,1.6906816959381104,-0.39747154712677
0.07920225709676743,1.5877131223678589,-0.3727875053882599
0.09607115387916565,1.6897886991500854,-0.3962399661540985
0.10687663406133652,1.6741284132003784,-0.39168328046798706
0.11799395829439163,1.665986180305481,-0.3889172673225403
0.12960556149482727,1.6653542518615723,-0.38792651891708374
0.1433403342962265,1.687379240989685,-0.39220723509788513
0.1537139117717743,1.6714950799942017,-0.38732534646987915
0.1691240519285202,1.7085868120193481,-0.3946916162967682
0.1810448318719864,1.7076915502548218,-0.3932746946811676
0.19594353437423706,1.7332031726837158,-0.39794111251831055
0.20598387718200684,1.713261365890503,-0.3918505012989044
0.22420570254325867,1.7613297700881958,-0.401231974363327
0.2405712604522705,1.7903605699539185,-0.40622395277023315
0.255751371383667,1.8079367876052856,-0.40859249234199524
0.2655973434448242,1.7877284288406372,-0.4022051990032196
0.2824341058731079,1.8126919269561768,-0.40579211711883545
0.3024919033050537,1.856371283531189,-0.4135432839393616
0.31932148337364197,1.8773078918457031,-0.4161767065525055
0.3384634554386139,1.9094184637069702,-0.4210793673992157
0.3546302616596222,1.9226374626159668,-0.4215478003025055
0.37098419666290283,1.9357305765151978,-0.42197385430336
0.384798526763916,1.933666706085205,-0.41905465722084045
0.40455085039138794,1.961503267288208,-0.4225409924983978
0.4302860498428345,2.0154061317443848,-0.4312657415866852
0.4510396420955658,2.0429306030273438,-0.4342411160469055
0.4679458439350128,2.0516257286071777,-0.43317705392837524
0.48789864778518677,2.071319103240967,-0.4343191981315613
0.5114786624908447,2.1058459281921387,-0.4382314682006836
0.5383710265159607,2.1513075828552246,-0.44430238008499146
0.5697500109672546,2.2113637924194336,-0.4532342851161957
0.5971047878265381,2.252594470977783,-0.4581579267978668
0.6283239722251892,2.3046889305114746,-0.46475449204444885
0.6610702872276306,2.3602473735809326,-0.4719127416610718
0.689358651638031,2.3970487117767334,-0.4751645624637604
0.7355982065200806,2.4924919605255127,-0.4898207187652588
0.7675896286964417,2.5360782146453857,-0.4937838315963745
0.8084980249404907,2.6049883365631104,-0.5023163557052612
0.8443311452865601,2.6552488803863525,-0.5071086287498474
0.8976354002952576,2.7563278675079346,-0.5213190317153931
0.9401718378067017,2.820435047149658,-0.5280066728591919
0.993514895439148,2.9133005142211914,-0.5396602749824524
1.052072286605835,3.016505241394043,-0.5528292655944824
1.1022541522979736,3.0899477005004883,-0.5600674152374268
1.1662206649780273,3.1992578506469727,-0.5733693838119507
1.2249470949172974,3.289904832839966,-0.5827689170837402
1.2590137720108032,3.311469554901123,-0.579682469367981
1.2922804355621338,3.3290505409240723,-0.5757436156272888
1.517983078956604,3.830462694168091,-0.6540823578834534
1.6011838912963867,3.960970163345337,-0.6676771640777588
1.6687325239181519,4.0477190017700195,-0.6733740568161011
1.6974751949310303,4.037522315979004,-0.6626645922660828
1.780711054801941,4.1550612449646,-0.6725257039070129
1.9850436449050903,4.544393539428711,-0.7248560786247253
1.9210034608840942,4.316834926605225,-0.6785191297531128
1.507635474205017,3.325597047805786,-0.5148734450340271
1.5212581157684326,3.2952754497528076,-0.5022825598716736
1.5507265329360962,3.300048828125,-0.4949987232685089
1.5608566999435425,3.2624013423919678,-0.48120710253715515
1.5874558687210083,3.2595648765563965,-0.4726350009441376
1.6067959070205688,3.2428178787231445,-0.46198955178260803
1.6327416896820068,3.2398841381073,-0.45328736305236816
1.6448639631271362,3.2089879512786865,-0.44061964750289917
1.6102931499481201,3.0884833335876465,-0.4159042537212372
1.6665841341018677,3.143476963043213,-0.41472509503364563
1.719563603401184,3.191256284713745,-0.4124068319797516
1.7271603345870972,3.1530914306640625,-0.39871862530708313
1.7286536693572998,3.104746103286743,-0.3838593065738678
1.770957589149475,3.1312458515167236,-0.3782259225845337
1.8006665706634521,3.133453845977783,-0.3693125247955322
1.3191739320755005,2.2591099739074707,-0.2595190703868866
0.9658885598182678,1.62873375415802,-0.18220247328281403
0.8887014389038086,1.4761168956756592,-0.16065613925457
0.8828016519546509,1.4438543319702148,-0.15261264145374298
0.9485505819320679,1.527308464050293,-0.15645208954811096
0.9879101514816284,1.5675219297409058,-0.1555124670267105
1.0175644159317017,1.5907667875289917,-0.15255199372768402
1.0203701257705688,1.570999026298523,-0.14524328708648682
1.0266220569610596,1.5581445693969727,-0.13865195214748383
1.0416717529296875,1.5580458641052246,-0.13304677605628967
1.0570966005325317,1.5575867891311646,-0.1271921843290329
1.0630673170089722,1.5445703268051147,-0.120328888297081
2.5597057342529297,3.6672511100769043,-0.2716224789619446
2.5901200771331787,3.6565632820129395,-0.2559123933315277
2.6144516468048096,3.6403191089630127,-0.2395617961883545
2.611452341079712,3.5857691764831543,-0.22060146927833557
2.650028944015503,3.587529420852661,-0.20446760952472687
2.618177652359009,3.71826434135437,0.5920124053955078
2.594975471496582,3.7415003776550293,0.608124852180481
2.5750679969787598,3.7715694904327393,0.6250013709068298
1.0542839765548706,1.5706192255020142,0.2652118504047394
1.0467617511749268,1.583956241607666,0.2719863951206207
1.0309220552444458,1.584152102470398,0.2763307988643646
1.0100306272506714,1.57829749584198,0.2793993055820465
1.0264806747436523,1.6309559345245361,0.2928720712661743
1.0063669681549072,1.6243938207626343,0.29555946588516235
0.9941697120666504,1.6309930086135864,0.3004550039768219
0.965539813041687,1.6113452911376953,0.30035144090652466
0.9727932214736938,1.6510156393051147,0.31125369668006897
1.3572651147842407,2.340634346008301,0.4459312856197357
1.8815125226974487,3.300147294998169,0.635194718837738
1.8164846897125244,3.2423455715179443,0.6300355792045593
1.7655773162841797,3.207341194152832,0.6290965676307678
1.7883946895599365,3.302992105484009,0.6534853577613831
1.76458740234375,3.314221143722534,0.6613049507141113
2.4051530361175537,4.600895881652832,0.925278902053833
2.362990379333496,4.603323459625244,0.9328895211219788
2.32908034324646,4.618546009063721,0.9428731799125671
2.2995212078094482,4.6399312019348145,0.9539628028869629
2.2723653316497803,4.668429851531982,0.9662931561470032
2.233185291290283,4.676848411560059,0.9742267727851868
2.194603681564331,4.684682369232178,0.9819729924201965
2.1702232360839844,4.719520092010498,0.9952118396759033
2.136631727218628,4.732985496520996,1.0039087533950806
2.108407735824585,4.760608196258545,1.0153487920761108
2.0636351108551025,4.753387451171875,1.0189791917800903
2.013943910598755,4.735431671142578,1.0204015970230103
1.740718126296997,4.175484657287598,0.9042087197303772
1.711117148399353,4.186245918273926,0.9109265804290771
1.6840236186981201,4.204020977020264,0.919119656085968
1.6556823253631592,4.222123622894287,0.9269081950187683
1.6293052434921265,4.247372150421143,0.936410129070282
1.5980355739593506,4.257863998413086,0.9426282644271851
1.5679409503936768,4.267714977264404,0.9485980868339539
1.5352404117584229,4.270138263702393,0.9529521465301514
1.504355549812317,4.279871463775635,0.958526611328125
1.4823094606399536,4.318663597106934,0.9704811573028564
1.4530737400054932,4.3354339599609375,0.9775073528289795
1.4218394756317139,4.344580173492432,0.9828155040740967
1.3935985565185547,4.360564708709717,0.9896499514579773
1.3652012348175049,4.3763580322265625,0.9965003728866577
1.336315393447876,4.396143436431885,1.0037767887115479
1.308703064918518,4.419308185577393,1.0117372274398804
1.276595950126648,4.42763090133667,1.016361951828003
1.2449618577957153,4.4355854988098145,1.0209100246429443
1.217775821685791,4.457906723022461,1.0287837982177734
1.1844626665115356,4.457948207855225,1.0315709114074707
1.1575372219085693,4.487705707550049,1.0407222509384155
1.1269383430480957,4.502447605133057,1.04630446434021
1.0961862802505493,4.516975402832031,1.0518985986709595
1.0691720247268677,4.5460357666015625,1.0609184503555298
1.0373796224594116,4.552516460418701,1.0646865367889404
1.0057621002197266,4.5626068115234375,1.0693973302841187
0.9733918309211731,4.568840026855469,1.0727342367172241
0.9337714314460754,4.541402816772461,1.0679476261138916
0.765146791934967,3.860295295715332,0.9092273712158203
0.7375538349151611,3.8650472164154053,0.9118388295173645
0.8480927348136902,4.62178897857666,1.0921955108642578
0.8224069476127625,4.664341926574707,1.1041128635406494
0.7896676063537598,4.669312953948975,1.1069979667663574
0.7600585222244263,4.696780204772949,1.1147135496139526
0.7272480130195618,4.705256462097168,1.117983102798462
0.695419192314148,4.7248640060424805,1.123983383178711
0.6653822660446167,4.751661777496338,1.1317224502563477
0.630267858505249,4.7405476570129395,1.1304779052734375
0.6000880002975464,4.766891002655029,1.1382231712341309
0.5682981014251709,4.78566312789917,1.1436395645141602
0.5362200736999512,4.804271697998047,1.1488779783248901
0.5025004148483276,4.815159797668457,1.1523473262786865
0.4685351848602295,4.818192481994629,1.1539803743362427
0.43801799416542053,4.855010986328125,1.1637580394744873
0.4061220586299896,4.880268096923828,1.1708306074142456
0.37091904878616333,4.867460250854492,1.1687357425689697
0.338767409324646,4.907665729522705,1.1787383556365967
0.30481937527656555,4.917288780212402,1.1814512014389038
0.2709035277366638,4.930471420288086,1.18507981300354
0.2371155172586441,4.947207450866699,1.1896218061447144
0.2033395916223526,4.963702201843262,1.194163203239441
0.1687610000371933,4.97998046875,1.1987252235412598
0.13424186408519745,4.988495826721191,1.2011065483093262
0.09999140352010727,5.015863418579102,1.2076131105422974
0.06511973589658737,5.024007320404053,1.2095494270324707
0.030216334387660027,5.054695129394531,1.2169723510742188
-0.005574852228164673,5.0699462890625,1.2207403182983398
-0.040982846170663834,5.0925445556640625,1.2263360023498535
-0.07653737813234329,5.099704265594482,1.2282745838165283
-0.11209248006343842,5.106747627258301,1.229672908782959
-0.14877861738204956,5.147767066955566,1.2390494346618652
-0.18448255956172943,5.146774768829346,1.2383702993392944
-0.2214968502521515,5.160687446594238,1.241329550743103
-0.25697314739227295,5.1516008377075195,1.2388226985931396
-0.24145571887493134,4.247303009033203,1.0211474895477295
-0.27701336145401,4.340426445007324,1.0433664321899414
-0.30752092599868774,4.346277236938477,1.043986201286316
-0.3288928270339966,4.226901054382324,1.0145375728607178
-0.3680168688297272,4.34217643737793,1.041473150253296
-0.39214271306991577,4.2755045890808105,1.0248075723648071
-0.41593411564826965,4.212464809417725,1.0090763568878174
-0.4408164620399475,4.16819429397583,0.9979059100151062
-0.4702511727809906,4.165304183959961,0.9965369701385498
-0.48581260442733765,4.052966594696045,0.9685527086257935
-0.5098939538002014,4.019782543182373,0.9595678448677063
-0.5339993238449097,3.990227222442627,0.9515109062194824
-0.5531324744224548,3.926619529724121,0.935393750667572
-0.5820618271827698,3.9305477142333984,0.935401976108551
-0.5983719825744629,3.8554153442382812,0.9166700839996338
-0.6201143860816956,3.821645975112915,0.9074848890304565
-0.6405467987060547,3.784101724624634,0.8971939086914062
-0.6572340726852417,3.727708578109741,0.8825046420097351
-0.6807265281677246,3.712416887283325,0.8776096701622009
-0.698424756526947,3.663196325302124,0.8647164106369019
-0.7225195169448853,3.651292324066162,0.8607081770896912
-0.7334794998168945,3.575838565826416,0.841786801815033
-0.7500237226486206,3.534135580062866,0.8303201198577881
-0.7725552320480347,3.5221147537231445,0.8258840441703796
-0.786090075969696,3.469012975692749,0.8118537664413452
-0.8047656416893005,3.4418861865997314,0.8039880990982056
-0.824263870716095,3.4183037281036377,0.7969898581504822
-0.8389157652854919,3.3761115074157715,0.7857129573822021
-0.8583133220672607,3.356174945831299,0.7793821096420288
-0.8756610155105591,3.328780174255371,0.7710996270179749
-0.8892917037010193,3.2903473377227783,0.7603606581687927
-0.9034954905509949,3.255533218383789,0.7505247592926025
-0.9283507466316223,3.2571847438812256,0.7490923404693604
-0.9447387456893921,3.2293474674224854,0.7409200668334961
-0.9533268809318542,3.1758198738098145,0.7267583012580872
-0.9726358652114868,3.1627750396728516,0.7215933203697205
-0.9895501136779785,3.1423163414001465,0.7147817611694336
-1.0061969757080078,3.121772527694702,0.7080070376396179
-1.0123947858810425,3.068333387374878,0.6937921643257141
-1.0294067859649658,3.0473532676696777,0.6869433522224426
-1.043155550956726,3.0192337036132812,0.6784997582435608
-1.0585145950317383,2.9985437393188477,0.6714034676551819
-1.0749059915542603,2.9813783168792725,0.6651514172554016
-1.081864833831787,2.9389986991882324,0.6533419489860535
-1.0943007469177246,2.910752773284912,0.6446779370307922
-1.1123778820037842,2.8965768814086914,0.6391271352767944
-1.1255186796188354,2.8718361854553223,0.6312082409858704
-1.1391892433166504,2.8508875370025635,0.6238605976104736
-1.1497375965118408,2.8227789402008057,0.615008533000946
-1.1291484832763672,2.7203421592712402,0.5900979042053223
-1.1203773021697998,2.6460235118865967,0.5712993144989014
-1.1390959024429321,2.6389124393463135,0.5671591758728027
-1.1448709964752197,2.6038761138916016,0.5568109750747681
-1.1718155145645142,2.6180317401885986,0.5568771362304688
-1.199023962020874,2.6319403648376465,0.5568646192550659
-1.2256428003311157,2.6418042182922363,0.5558483004570007
-1.2426942586898804,2.6305758953094482,0.5503931045532227
-1.2543854713439941,2.6089930534362793,0.5427138209342957
-1.2752152681350708,2.608461618423462,0.5391668677330017
-1.2755943536758423,2.566472053527832,0.5271064043045044
-1.2899569272994995,2.5517210960388184,0.5205956101417542
-1.2974965572357178,2.523043394088745,0.5112366676330566
-1.311645269393921,2.508092164993286,0.5046635270118713
-1.3193371295928955,2.4833755493164062,0.49587979912757874
-1.3322352170944214,2.4688050746917725,0.4891805946826935
-1.3380167484283447,2.4404499530792236,0.479716032743454
-1.3519668579101562,2.4250659942626953,0.47263574600219727
-1.3574751615524292,2.3965704441070557,0.46301817893981934
-1.3638314008712769,2.3718738555908203,0.45401936769485474
-1.3757421970367432,2.3571617603302,0.44699376821517944
-1.388380765914917,2.3419244289398193,0.439679354429245
-1.401442050933838,2.326301097869873,0.43218478560447693
-1.4089360237121582,2.304860830307007,0.42346492409706116
-1.4160460233688354,2.2834975719451904,0.41479286551475525
-1.4194117784500122,2.2552478313446045,0.4047686457633972
-1.4336152076721191,2.2428715229034424,0.3974195122718811
-1.4448907375335693,2.2276456356048584,0.389308363199234
-1.451124668121338,2.2062950134277344,0.3802056610584259
-1.4577593803405762,2.1845614910125732,0.3708842396736145
-1.4972974061965942,2.2105109691619873,0.3693927526473999
-1.5052285194396973,2.192305088043213,0.36022332310676575
-1.4931751489639282,2.1454017162323,0.3463587462902069
-1.5040109157562256,2.129650354385376,0.3371765911579132
-1.5096734762191772,2.1079022884368896,0.3269134759902954
-1.5141971111297607,2.0867974758148193,0.3167029619216919
-1.5217353105545044,2.068204164505005,0.30647310614585876
-1.5361119508743286,2.058898448944092,0.2972721755504608
-1.4956351518630981,2.1135878562927246,-0.1528436690568924
-1.4748293161392212,2.117879867553711,-0.16289961338043213
-1.4971439838409424,2.182232141494751,-0.1770586222410202
-1.484649419784546,2.199310302734375,-0.18783238530158997
-1.4680674076080322,2.2095513343811035,-0.19771790504455566
-1.4608384370803833,2.232123851776123,-0.20827716588974
-1.4544895887374878,2.2585537433624268,-0.21932798624038696
-1.4355701208114624,2.265094518661499,-0.22837018966674805
-1.4025688171386719,2.248136520385742,-0.23476526141166687
-1.3734229803085327,2.2377769947052,-0.24155506491661072
-1.3365986347198486,2.2137081623077393,-0.2466137856245041
-1.310837984085083,2.2055487632751465,-0.2529560327529907
-1.304326057434082,2.2309861183166504,-0.2631586790084839
-1.29121994972229,2.2465553283691406,-0.2724108397960663
-1.275051236152649,2.254791021347046,-0.28040796518325806
-1.2737444639205933,2.290130853652954,-0.2918255031108856
-1.2641592025756836,2.312106132507324,-0.3016522526741028
-1.25462007522583,2.33388090133667,-0.3114238977432251
-1.241269826889038,2.348712921142578,-0.32031574845314026
-1.2311511039733887,2.37044358253479,-0.33004868030548096
-1.2436143159866333,2.4370203018188477,-0.3462434411048889
-1.3755007982254028,2.742539167404175,-0.3971974849700928
-1.4345613718032837,2.910837173461914,-0.42948055267333984
-1.2442575693130493,2.5715935230255127,-0.3864423334598541
-1.203914761543274,2.53393292427063,-0.38752299547195435
-1.2021523714065552,2.5763237476348877,-0.4007050395011902
-1.1738485097885132,2.5626299381256104,-0.4051583409309387
-1.1582975387573242,2.576953887939453,-0.41395410895347595
-1.1536481380462646,2.6158511638641357,-0.4267672002315521
-1.205182671546936,2.7859232425689697,-0.4615045189857483
-1.1940879821777344,2.8145456314086914,-0.4730505347251892
-1.1425293684005737,2.7469639778137207,-0.4682568609714508
-1.0892459154129028,2.671645164489746,-0.46174466609954834
-1.0315595865249634,2.581385612487793,-0.45219117403030396
-0.9775241017341614,2.497896909713745,-0.44335052371025085
-0.9388027787208557,2.4497342109680176,-0.4403209388256073
-0.8901200294494629,2.372302770614624,-0.43170827627182007
-0.8479968309402466,2.3087921142578125,-0.4252815544605255
-0.8209882378578186,2.284766912460327,-0.4257615804672241
-0.7774969935417175,2.213413715362549,-0.417246013879776
-0.7442010641098022,2.166959047317505,-0.4130608141422272
-0.7153798341751099,2.1310808658599854,-0.41068896651268005
-0.688219428062439,2.0986413955688477,-0.4086509346961975
-0.6650410890579224,2.076937198638916,-0.408538281917572
-0.6408506631851196,2.051412343978882,-0.4076443016529083
-0.6117487549781799,2.0072503089904785,-0.40283578634262085
-0.5887365341186523,1.981238603591919,-0.40135008096694946
-0.5682205557823181,1.9624089002609253,-0.40116190910339355
-0.5480284094810486,1.943393588066101,-0.40086695551872253
-0.5170508027076721,1.8835623264312744,-0.39199793338775635
-0.499521404504776,1.8716139793395996,-0.3928598165512085
-0.4776022732257843,1.8409786224365234,-0.38955357670783997
-0.4589579403400421,1.8212751150131226,-0.3884824216365814
-0.4406541585922241,1.8014060258865356,-0.3873099684715271
-0.41822510957717896,1.7628203630447388,-0.3818846046924591
-0.4038582444190979,1.7576216459274292,-0.38350874185562134
-0.3814973533153534,1.7149916887283325,-0.37685927748680115
-0.36379677057266235,1.69082510471344,-0.37417057156562805
-0.35190707445144653,1.6926878690719604,-0.3771072328090668
-0.34225285053253174,1.705731749534607,-0.3823525309562683
-0.32498106360435486,1.6812955141067505,-0.37923556566238403
-0.30480504035949707,1.6379460096359253,-0.37172892689704895
-0.2919690012931824,1.6319578886032104,-0.37257513403892517
-0.2895662784576416,1.6860102415084839,-0.3869214355945587
-0.2740479111671448,1.6649044752120972,-0.38407421112060547
-0.23731853067874908,1.5082926750183105,-0.3498023748397827
-0.2420213371515274,1.6110665798187256,-0.3755743205547333
-0.22428187727928162,1.5670719146728516,-0.3668900728225708
-0.20923157036304474,1.5380103588104248,-0.3616424798965454
-0.19507338106632233,1.5126042366027832,-0.3572161793708801
-0.18542122840881348,1.521058201789856,-0.36078453063964844
-0.17464062571525574,1.5219827890396118,-0.36226195096969604
-0.1685107946395874,1.564387559890747,-0.37361881136894226
-0.15188919007778168,1.5084636211395264,-0.3614986836910248
-0.13995303213596344,1.4940166473388672,-0.3592768609523773
-0.1351298689842224,1.5590156316757202,-0.37589672207832336
-0.1165534183382988,1.4650264978408813,-0.354126900434494
-0.09664852172136307,1.4735885858535767,-0.35801005363464355
-0.08817121386528015,1.5043530464172363,-0.36615613102912903
-0.07615454494953156,1.474443793296814,-0.3594313859939575
-0.0660499781370163,1.4823660850524902,-0.36194923520088196
-0.05544857308268547,1.4750452041625977,-0.36075276136398315
-0.045411836355924606,1.4828745126724243,-0.3630423843860626
-0.03456490486860275,1.4603279829025269,-0.3577447831630707
-0.024530397728085518,1.4680529832839966,-0.3598782420158386
-0.014367113821208477,1.4908827543258667,-0.3657416105270386
-0.003966017626225948,1.475749135017395,-0.3621104657649994
0.006233364809304476,1.4605920314788818,-0.3582819700241089
0.01633901335299015,1.4567457437515259,-0.3572466969490051
0.027229130268096924,1.498348593711853,-0.36737260222435
0.03727230802178383,1.4830125570297241,-0.36340591311454773
0.04777726158499718,1.4828338623046875,-0.36290499567985535
0.05809018760919571,1.4825860261917114,-0.3624131679534912
0.06980149447917938,1.5125938653945923,-0.36932632327079773
0.07952062040567398,1.4970580339431763,-0.36502882838249207
0.09472961723804474,1.5762521028518677,-0.38351133465766907
0.10590182989835739,1.575769305229187,-0.38257095217704773
0.11912724375724792,1.6055099964141846,-0.38898593187332153
0.13094335794448853,1.6124528646469116,-0.3898122012615204
0.14587563276290894,1.653443694114685,-0.39849692583084106
0.1574360877275467,1.6527159214019775,-0.3971143662929535
0.16645032167434692,1.625433325767517,-0.38937294483184814
0.172811821103096,1.5792255401611328,-0.3771733045578003
0.19220630824565887,1.6501274108886719,-0.39254581928253174
0.20559488236904144,1.6642601490020752,-0.39435237646102905
0.2182169109582901,1.6707472801208496,-0.39434385299682617
0.23113347589969635,1.6771211624145508,-0.3942888677120209
0.24507682025432587,1.6910300254821777,-0.39565372467041016
0.25921621918678284,1.7048391103744507,-0.39695245027542114
0.2765411138534546,1.7373425960540771,-0.40257033705711365
0.293695867061615,1.7659469842910767,-0.40723511576652527
0.3073764741420746,1.7719502449035645,-0.40635696053504944
0.3240922689437866,1.7928407192230225,-0.4087483882904053
0.343009889125824,1.8248660564422607,-0.41366609930992126
0.3587523400783539,1.8380126953125,-0.41425877809524536
0.3777221739292145,1.8660444021224976,-0.4179213345050812
0.3994728624820709,1.905146837234497,-0.4238489270210266
0.42281436920166016,1.9477564096450806,-0.43040600419044495
0.44068408012390137,1.9641094207763672,-0.4311386048793793
0.45966801047325134,1.9840779304504395,-0.4324286878108978
0.4789554178714752,2.003922700881958,-0.43346747756004333
0.49489864706993103,2.0087497234344482,-0.4312271177768707
0.5177716016769409,2.0393571853637695,-0.43441763520240784
0.5534369349479675,2.1179730892181396,-0.4475806653499603
0.5812666416168213,2.1630170345306396,-0.4532385766506195
0.6077324748039246,2.2004175186157227,-0.45715510845184326
0.6358304023742676,2.241255283355713,-0.4616493284702301
0.6658735871315002,2.2854702472686768,-0.46653249859809875
0.701727032661438,2.347903251647949,-0.47477713227272034
0.7418787479400635,2.4209907054901123,-0.4849207103252411
0.7808828353881836,2.4863369464874268,-0.4932326078414917
0.8208298683166504,2.551314115524292,-0.5011770129203796
0.861944854259491,2.615898847579956,-0.5084291696548462
0.9086230397224426,2.6947238445281982,-0.5182474255561829
0.9565306901931763,2.773057460784912,-0.5276318192481995
1.0081554651260376,2.8581624031066895,-0.5379449725151062
1.0712908506393433,2.9718105792999268,-0.5529258251190186
1.1347583532333374,3.081183433532715,-0.5666244029998779
1.1935796737670898,3.171703338623047,-0.5762561559677124
1.2644325494766235,3.290494680404663,-0.5906721353530884
1.3001574277877808,3.315399169921875,-0.5876278281211853
1.4480257034301758,3.619190216064453,-0.6332547068595886
1.5465584993362427,3.789090871810913,-0.6542841792106628
1.6496646404266357,3.9612550735473633,-0.6747075915336609
1.710618019104004,4.029633522033691,-0.6767354011535645
1.8845670223236084,4.3561296463012695,-0.7211422920227051
1.9372260570526123,4.394190311431885,-0.7168143391609192
1.932016134262085,4.3012518882751465,-0.691179633140564
1.5185328722000122,3.3190629482269287,-0.5249149203300476
1.5318769216537476,3.288870096206665,-0.5119001865386963
1.5485817193984985,3.2654380798339844,-0.49990561604499817
1.581836462020874,3.2767696380615234,-0.4931945204734802
1.5977978706359863,3.253265857696533,-0.48111048340797424
1.617349624633789,3.236422538757324,-0.4699418246746063
1.6544440984725952,3.2539095878601074,-0.46366792917251587
1.6221849918365479,3.136859655380249,-0.43842509388923645
1.6204462051391602,3.0823018550872803,-0.4222758710384369
1.6419037580490112,3.072277545928955,-0.4123237133026123
1.7101047039031982,3.1470789909362793,-0.41333064436912537
1.7530406713485718,3.1736273765563965,-0.407471626996994
1.7121384143829346,3.051084518432617,-0.3828398287296295
1.7970482110977173,3.1516196727752686,-0.38601526618003845
1.3227007389068604,2.28277587890625,-0.27262553572654724
0.9716907739639282,1.651523470878601,-0.19214826822280884
0.9413232803344727,1.575289011001587,-0.1782946139574051
0.8859226107597351,1.4594814777374268,-0.1604500710964203
0.9000828266143799,1.4605216979980469,-0.15579524636268616
0.9780572056770325,1.563825249671936,-0.16167408227920532
0.9973540902137756,1.5706764459609985,-0.15700088441371918
1.019096851348877,1.5804873704910278,-0.15234492719173431
1.014809489250183,1.5513495206832886,-0.14405520260334015
1.029819130897522,1.5513570308685303,-0.13839387893676758
1.032024621963501,1.5316946506500244,-0.13084551692008972
1.0575989484786987,1.5478413105010986,-0.1263343095779419
2.534313440322876,3.655395030975342,-0.2836701571941376
2.5823352336883545,3.670649528503418,-0.2696923017501831
2.601947784423828,3.6483681201934814,-0.2528776228427887
2.622417449951172,3.625206708908081,-0.23538197576999664
2.6194727420806885,3.5705249309539795,-0.21556146442890167
2.6938118934631348,3.6233534812927246,-0.20210802555084229
2.6386430263519287,3.7194628715515137,0.6144384145736694
2.6180765628814697,3.7455172538757324,0.6317765116691589
2.5968894958496094,3.77636981010437,0.6495925784111023
1.0547364950180054,1.5594004392623901,0.27333638072013855
1.0434025526046753,1.5659937858581543,0.27908092737197876
1.0356463193893433,1.579358696937561,0.28593602776527405
1.0395680665969849,1.6125932931900024,0.2964782118797302
1.0150140523910522,1.5998064279556274,0.2982783615589142
1.0238405466079712,1.638855218887329,0.30963751673698425
0.9867573380470276,1.6064223051071167,0.3072689473628998
0.9820701479911804,1.626356601715088,0.31485795974731445
0.9817138314247131,1.6525729894638062,0.3235646188259125
0.9620208740234375,1.645376205444336,0.3256339430809021
1.3347234725952148,2.3226318359375,0.4642159342765808
1.8502116203308105,3.2763240337371826,0.6612150073051453
1.7755470275878906,3.197403907775879,0.6512330770492554
1.7706166505813599,3.242335081100464,0.6663272380828857
1.784430742263794,3.32499098777771,0.6889546513557434
1.7625216245651245,3.3436901569366455,0.6983324289321899
2.379678726196289,4.596508502960205,0.9674926996231079
2.3502449989318848,4.618091106414795,0.9791449308395386
2.319936990737915,4.639766693115234,0.9909893870353699
2.284731388092041,4.655123710632324,1.0007131099700928
2.2527449131011963,4.6771063804626465,1.0119279623031616
2.211407423019409,4.677774429321289,1.0184533596038818
2.184537172317505,4.705296993255615,1.0306111574172974
2.157249927520752,4.732715606689453,1.0427777767181396
2.1179747581481934,4.740110397338867,1.049961805343628
2.088559865951538,4.767963886260986,1.0616471767425537
2.035054922103882,4.739226818084717,1.0607014894485474
1.7623579502105713,4.1842041015625,0.941111147403717
1.7297704219818115,4.18791389465332,0.9465973973274231
1.7040833234786987,4.2134013175964355,0.9565655589103699
1.6756409406661987,4.2315263748168945,0.964735209941864
1.6414546966552734,4.235213756561279,0.9696717858314514
1.6138310432434082,4.252537727355957,0.9776368141174316
1.5809791088104248,4.2552714347839355,0.9822632670402527
1.5551260709762573,4.279606342315674,0.9917706847190857
1.5235638618469238,4.289621829986572,0.9974737763404846
1.4893897771835327,4.292203903198242,1.0015016794204712
1.4677237272262573,4.330564975738525,1.0139249563217163
1.4395688772201538,4.34675407409668,1.0211082696914673
1.4107091426849365,4.3629045486450195,1.0284065008163452
1.3793604373931885,4.371700286865234,1.0335652828216553
1.3486336469650269,4.384112358093262,1.039294719696045
1.3188434839248657,4.399961948394775,1.0459054708480835
1.293399691581726,4.430161476135254,1.0559800863265991
1.2560043334960938,4.416037559509277,1.055460810661316
1.2325128316879272,4.453105449676514,1.0672879219055176
1.2007758617401123,4.46071720123291,1.0716708898544312
1.172354817390442,4.4830217361450195,1.0792959928512573
1.1436731815338135,4.5051374435424805,1.0869472026824951
1.1111449003219604,4.5122809410095215,1.0910468101501465
1.0789740085601807,4.519102096557617,1.095094919204712
1.0515998601913452,4.544096946716309,1.1035698652267456
1.0228098630905151,4.565324783325195,1.1109669208526611
0.9884675145149231,4.564300060272217,1.1124727725982666
0.9541919827461243,4.563019275665283,1.1139672994613647
0.7790631055831909,3.8652431964874268,0.9452223181724548
0.7569188475608826,3.8960556983947754,0.9543613195419312
0.8622845411300659,4.6097822189331055,1.1311323642730713
0.835426390171051,4.644792556762695,1.1417256593704224
0.8049220442771912,4.664944648742676,1.1480175256729126
0.7711027264595032,4.670015335083008,1.1506125926971436
0.7407511472702026,4.693508625030518,1.1577895879745483
0.7120171189308167,4.72802734375,1.1677504777908325
0.6790703535079956,4.7322492599487305,1.1702710390090942
0.6460990905761719,4.736240386962891,1.1727913618087769
0.615238606929779,4.76273250579834,1.1806696653366089
0.5834360718727112,4.781571388244629,1.1862019300460815
0.5505325198173523,4.792660236358643,1.189874529838562
0.5175012946128845,4.803519248962402,1.1935526132583618
0.4865253269672394,4.832988262176514,1.2019124031066895
0.45356547832489014,4.8433637619018555,1.2055844068527222
0.4199155271053314,4.853553295135498,1.2092921733856201
0.3871077597141266,4.871184825897217,1.214292287826538
0.3539923429489136,4.888652801513672,1.2190791368484497
0.3208979368209839,4.9096760749816895,1.224816083908081
0.28686368465423584,4.919120788574219,1.2277274131774902
0.2531384825706482,4.943484306335449,1.2344331741333008
0.21939292550086975,4.96001672744751,1.2392370700836182
0.1851472109556198,4.9687418937683105,1.2421538829803467
0.1508820503950119,4.985003471374512,1.2461943626403809
0.1163957417011261,5.001031875610352,1.2502201795578003
0.08122166246175766,5.028196811676025,1.2570937871932983
0.04593437537550926,5.005845069885254,1.2516475915908813
0.011208037845790386,5.01356315612793,1.253779649734497
-0.02393302135169506,5.074091911315918,1.269182562828064
-0.05922714248299599,5.081360340118408,1.2711656093597412
-0.09533169120550156,5.0961174964904785,1.2743724584579468
-0.06725187599658966,2.6216135025024414,0.6553658843040466
-0.08332396298646927,2.5567657947540283,0.6389772891998291
-0.17145395278930664,4.336068630218506,1.083404541015625
-0.20231489837169647,4.350037574768066,1.0866963863372803
-0.23175916075706482,4.3335089683532715,1.0824220180511475
-0.2610218822956085,4.309254169464111,1.0759835243225098
-0.2903182804584503,4.300071716308594,1.0729334354400635
-0.32287803292274475,4.336053371429443,1.0811989307403564
-0.34518182277679443,4.239543437957764,1.0564874410629272
-0.38028621673583984,4.301533222198486,1.0713279247283936
-0.4067373275756836,4.257513046264648,1.059804081916809
-0.43092766404151917,4.202060222625732,1.0455069541931152
-0.4553568959236145,4.157907962799072,1.0336487293243408
-0.48394954204559326,4.15512228012085,1.031859278678894
-0.500908613204956,4.058028221130371,1.0067225694656372
-0.5224177837371826,4.002204895019531,0.9918924570083618
-0.5466062426567078,3.9726004600524902,0.9836340546607971
-0.5689160823822021,3.9315645694732666,0.972602903842926
-0.5929121971130371,3.90541672706604,0.9653165340423584
-0.6055185198783875,3.811840772628784,0.9408585429191589
-0.6283923983573914,3.7856204509735107,0.9330211877822876
-0.6453623175621033,3.729393720626831,0.9178791642189026
-0.6696648001670837,3.7179384231567383,0.9138200283050537
-0.6892448663711548,3.680145263671875,0.9033306241035461
-0.7090560793876648,3.6459779739379883,0.8937954306602478
-0.7312913537025452,3.626661777496338,0.887797474861145
-0.7416664958000183,3.5515291690826416,0.8677375912666321
-0.762673020362854,3.5321884155273438,0.8614169955253601
-0.7776587009429932,3.4867544174194336,0.8487976789474487
-0.7949284911155701,3.452314615249634,0.8389056921005249
-0.8137860894203186,3.4251320362091064,0.8308233618736267
-0.8317795991897583,3.394068717956543,0.8218380808830261
-0.8513258099555969,3.374265670776367,0.8152395486831665
-0.8723713755607605,3.3617827892303467,0.8103325366973877
-0.885477602481842,3.31974458694458,0.7983605265617371
-0.8910467624664307,3.251965284347534,0.7802867889404297
-0.9162803292274475,3.253617286682129,0.7788645029067993
-0.9284980893135071,3.211286783218384,0.7669983506202698
-0.9485465884208679,3.1982624530792236,0.7619750499725342
-0.9580487608909607,3.1525039672851562,0.7489110231399536
-0.9749321341514587,3.132197380065918,0.7419618964195251
-0.9873175621032715,3.097170352935791,0.7315539717674255
-1.0089881420135498,3.0910189151763916,0.7279958128929138
-1.0246765613555908,3.066601276397705,0.7201741933822632
-1.0386154651641846,3.038592576980591,0.7114523649215698
-1.0491546392440796,3.0035839080810547,0.7007853984832764
-1.066928744316101,2.990124225616455,0.6952117681503296
-1.0849649906158447,2.976425886154175,0.6895791292190552
-1.0911145210266113,2.930330991744995,0.6764836311340332
-1.1008617877960205,2.89493727684021,0.6659336686134338
-1.1348240375518799,2.923743486404419,0.6700354814529419
-1.1306260824203491,2.8566172122955322,0.6518802046775818
-1.1416393518447876,2.82850980758667,0.6426903605461121
-1.1403769254684448,2.7721879482269287,0.627231776714325
-1.1259454488754272,2.683917999267578,0.6045793294906616
-1.1223559379577637,2.6240718364715576,0.5884935259819031
-1.1495556831359863,2.6383111476898193,0.5888471603393555
-1.1738791465759277,2.645367383956909,0.5873555541038513
-1.1853901147842407,2.6244356632232666,0.579735279083252
-1.2242926359176636,2.6624503135681152,0.5850562453269958
-1.2398808002471924,2.647825241088867,0.5787147879600525
-1.2502399682998657,2.622791051864624,0.5701023936271667
-1.2648040056228638,2.608398914337158,0.5634475946426392
-1.2755088806152344,2.587175130844116,0.5554348826408386
-1.3188114166259766,2.6310110092163086,0.5613327026367188
-1.2939844131469727,2.537196636199951,0.5377512574195862
-1.305015206336975,2.5153675079345703,0.5295939445495605
-1.316529631614685,2.4974968433380127,0.5219560265541077
-1.3335826396942139,2.489600419998169,0.5163581967353821
-1.3357800245285034,2.4546170234680176,0.505233108997345
-1.3496018648147583,2.4394493103027344,0.49805960059165955
-1.3556063175201416,2.410855293273926,0.4881676435470581
-1.3678982257843018,2.3962457180023193,0.48087042570114136
-1.374518871307373,2.3714380264282227,0.47152015566825867
-1.390920639038086,2.3630666732788086,0.4654102325439453
-1.3959555625915527,2.334440231323242,0.4552215337753296
-1.403947114944458,2.3128645420074463,0.44629764556884766
-1.4152384996414185,2.2981550693511963,0.43862298130989075
-1.4227310419082642,2.2766005992889404,0.42956632375717163
-1.4308382272720337,2.2545509338378906,0.4202219247817993
-1.4423832893371582,2.239291191101074,0.4120863974094391
-1.4508112668991089,2.221296548843384,0.40331587195396423
-1.4570672512054443,2.1999568939208984,0.39395663142204285
-1.4732571840286255,2.1905295848846436,0.38620084524154663
-1.5079387426376343,2.2104125022888184,0.38351258635520935
-1.5180412530899048,2.195437431335449,0.37458518147468567
-1.5308650732040405,2.1831746101379395,0.36587995290756226
-1.5017129182815552,2.1103909015655518,0.3469124436378479
-1.5110831260681152,2.0955440998077393,0.3373272120952606
-1.5294232368469238,2.0931692123413086,0.3297676146030426
-1.528499722480774,2.061633348464966,0.3169061839580536
-1.4987157583236694,2.1019797325134277,-0.1503509134054184
-1.5025941133499146,2.1414108276367188,-0.16340741515159607
-1.4824193716049194,2.1451404094696045,-0.1733315885066986
-1.4665191173553467,2.1551995277404785,-0.18350890278816223
-1.449966549873352,2.165480852127075,-0.19372086226940155
-1.4686832427978516,2.226982593536377,-0.2081443965435028
-1.45181405544281,2.2370684146881104,-0.21809519827365875
-1.4222345352172852,2.227362871170044,-0.22589948773384094
-1.402111530303955,2.2299556732177734,-0.23436526954174042
-1.373344898223877,2.2194151878356934,-0.24135282635688782
-1.3384021520614624,2.1987955570220947,-0.2470824122428894
-1.3142445087432861,2.194223165512085,-0.25426822900772095
-1.3021597862243652,2.2094459533691406,-0.2635457217693329
-1.293386459350586,2.231539011001587,-0.27372467517852783
-1.2828493118286133,2.2499940395355225,-0.2833578586578369
-1.2781257629394531,2.2783749103546143,-0.29419606924057007
-1.2759169340133667,2.314021348953247,-0.3062222898006439
-1.2588040828704834,2.3222591876983643,-0.3145737648010254
-1.242105484008789,2.3301236629486084,-0.32268965244293213
-1.2412561178207397,2.368894100189209,-0.335162878036499
-1.3052760362625122,2.5353000164031982,-0.3662411570549011
-1.4018621444702148,2.7717056274414062,-0.4085884094238281
-1.4441052675247192,2.9050681591033936,-0.4365006387233734
-1.3583283424377441,2.781954288482666,-0.42579159140586853
-1.2375808954238892,2.5811431407928467,-0.4022517800331116
-1.2074885368347168,2.5641822814941406,-0.40659618377685547
-1.189042091369629,2.57149338722229,-0.41470375657081604
-1.173103928565979,2.5859670639038086,-0.42400649189949036
-1.1447689533233643,2.571969985961914,-0.428509920835495
-1.1356415748596191,2.599998950958252,-0.4398879408836365
-1.1488571166992188,2.6812376976013184,-0.4604758322238922
-1.0950082540512085,2.6063570976257324,-0.4541354477405548
-1.0464346408843994,2.5416905879974365,-0.4493093490600586
-0.9980006217956543,2.472745180130005,-0.4431826174259186
-0.9476690888404846,2.3961892127990723,-0.4352465867996216
-0.906700849533081,2.340717077255249,-0.4307079613208771
-0.861151397228241,2.270425796508789,-0.4231315553188324
-0.8246104121208191,2.2213258743286133,-0.4192471206188202
-0.7929598689079285,2.1826658248901367,-0.4169350862503052
-0.757980465888977,2.1328790187835693,-0.4121733009815216
-0.7275345921516418,2.093632936477661,-0.40925198793411255
-0.6990250945091248,2.05770206451416,-0.40678149461746216
-0.6647167801856995,2.003390073776245,-0.40045365691185
-0.6479921340942383,1.9998059272766113,-0.403927743434906
-0.6186439990997314,1.9558640718460083,-0.3991518020629883
-0.5923396944999695,1.9189387559890747,-0.3956073522567749
-0.5764948129653931,1.9148131608963013,-0.39864829182624817
-0.5456233024597168,1.8591563701629639,-0.3906818926334381
-0.5342644453048706,1.8695015907287598,-0.39657220244407654
-0.5035812854766846,1.8096747398376465,-0.3874114155769348
-0.4867710471153259,1.797563076019287,-0.38824281096458435
-0.4594222605228424,1.7446980476379395,-0.37996581196784973
-0.43568697571754456,1.7026865482330322,-0.3738917410373688
-0.423433393239975,1.7049733400344849,-0.37753134965896606
-0.41138067841529846,1.7071415185928345,-0.3810429871082306
-0.38456761837005615,1.6460998058319092,-0.37011510133743286
-0.3763146698474884,1.6629414558410645,-0.3766382932662964
-0.34583163261413574,1.579167127609253,-0.36027199029922485
-0.34948769211769104,1.651755452156067,-0.37958458065986633
-0.3363296389579773,1.6460548639297485,-0.38069722056388855
-0.3107498288154602,1.5767347812652588,-0.3669988512992859
-0.3103276789188385,1.634346604347229,-0.3828366994857788
-0.2756012976169586,1.5085556507110596,-0.3556239902973175
-0.27340424060821533,1.558644413948059,-0.36946290731430054
-0.263774573802948,1.5674636363983154,-0.37357357144355774
-0.24793057143688202,1.5386927127838135,-0.3687245547771454
-0.23943209648132324,1.554865837097168,-0.3746466636657715
-0.21805419027805328,1.4846088886260986,-0.3593621850013733
-0.2064315229654312,1.4781373739242554,-0.3594444990158081
-0.1931055635213852,1.4565073251724243,-0.35579508543014526
-0.1867198646068573,1.4874964952468872,-0.36502382159233093
0.08268311619758606,1.4634547233581543,-0.3698073923587799
0.10252156108617783,1.4550273418426514,-0.36622270941734314
0.11440551280975342,1.4771909713745117,-0.3709408938884735
0.12424536794424057,1.4691041707992554,-0.367792546749115
0.13862882554531097,1.5138109922409058,-0.3778718113899231
0.14697684347629547,1.4904812574386597,-0.37096619606018066
0.1581919938325882,1.4972989559173584,-0.371474951505661
0.17123189568519592,1.5191758871078491,-0.37543153762817383
0.18296608328819275,1.5258673429489136,-0.37559956312179565
0.19600829482078552,1.5437870025634766,-0.37855613231658936
0.22344082593917847,1.6669890880584717,-0.40711596608161926
0.23300054669380188,1.6508797407150269,-0.40124237537384033
0.2412423938512802,1.6271895170211792,-0.39358803629875183
0.25866618752479553,1.6635125875473022,-0.4004247486591339
0.26788631081581116,1.6471952199935913,-0.39455530047416687
0.2845474183559418,1.6758779287338257,-0.3991357684135437
0.2950069010257721,1.6669632196426392,-0.39474841952323914
0.31084418296813965,1.6879191398620605,-0.39743873476982117
0.3320122957229614,1.734921932220459,-0.40616458654403687
0.34741365909576416,1.748167634010315,-0.406515508890152
0.3658786714076996,1.7762463092803955,-0.41031378507614136
0.39189663529396057,1.8377197980880737,-0.4217067062854767
0.40482401847839355,1.8356612920761108,-0.41844767332077026
0.42454177141189575,1.863330364227295,-0.4215869903564453
0.44577649235725403,1.8945081233978271,-0.4253622591495514
0.4717423617839813,1.944091796875,-0.43320196866989136
0.4882372319698334,1.9526809453964233,-0.43182164430618286
0.5096545219421387,1.979697346687317,-0.43416309356689453
0.5275465250015259,1.9917582273483276,-0.4331195652484894
0.5629845261573792,2.0663437843322754,-0.44545310735702515
0.5971928834915161,2.133270263671875,-0.455949991941452
0.6164906024932861,2.144745111465454,-0.45420515537261963
0.6457375288009644,2.1891281604766846,-0.4592459499835968
0.6745299100875854,2.2295711040496826,-0.463300496339798
0.7167143821716309,2.3099417686462402,-0.47533613443374634
0.7504715323448181,2.360776901245117,-0.4808962643146515
0.7920652627944946,2.43320894241333,-0.4905053675174713
0.8335370421409607,2.5015788078308105,-0.4989932179450989
0.882262110710144,2.587695598602295,-0.5106827020645142
0.9296236634254456,2.666126251220703,-0.5203375220298767
0.9732703566551208,2.729541301727295,-0.5265129208564758
1.0346999168395996,2.839564323425293,-0.5413771271705627
1.0991765260696411,2.9525203704833984,-0.5562683343887329
1.1542484760284424,3.036090612411499,-0.5650210976600647
1.2257704734802246,3.158642292022705,-0.5804070830345154
1.3094661235809326,3.3053557872772217,-0.5994385480880737
1.3994351625442505,3.4619476795196533,-0.619601845741272
1.4826725721359253,3.596278190612793,-0.6349385380744934
1.6080800294876099,3.825798988342285,-0.6660334467887878
1.7049503326416016,3.979421615600586,-0.6829279661178589
1.8311388492584229,4.191831588745117,-0.7086977362632751
1.9266437292099,4.32907772064209,-0.7208882570266724
1.9457660913467407,4.292996406555176,-0.7038154006004333
1.9387540817260742,4.200575351715088,-0.6777377128601074
1.5361595153808594,3.2683725357055664,-0.5187016129493713
1.5595529079437256,3.2589118480682373,-0.5083158016204834
1.5890781879425049,3.263432264328003,-0.5001946091651917
1.6052016019821167,3.2398407459259033,-0.4877038896083832
1.6352657079696655,3.2436959743499756,-0.47926661372184753
1.6331218481063843,3.185488700866699,-0.46169421076774597
1.594297170639038,3.0587217807769775,-0.4346536695957184
1.6308271884918213,3.0760271549224854,-0.428029328584671
1.6380047798156738,3.0384461879730225,-0.41384971141815186
1.7167918682098389,3.1339170932769775,-0.41751629114151
1.7271009683609009,3.1030380725860596,-0.40412405133247375
