X,Y,Z
-1.5634578466415405,3.257300853729248,-0.33845317363739014
-1.543803334236145,3.2746102809906006,-0.345429003238678
-1.5167405605316162,3.278017282485962,-0.3508014976978302
-1.505329966545105,3.316784620285034,-0.3600916564464569
-1.4993247985839844,3.3657078742980957,-0.37036508321762085
-1.523870587348938,3.485883951187134,-0.3886920213699341
-1.5093839168548584,3.5211122035980225,-0.3975691795349121
-1.9489731788635254,4.6378655433654785,-0.5301700830459595
-1.9083529710769653,4.632819652557373,-0.536026656627655
-1.8554083108901978,4.594794273376465,-0.537881076335907
-1.8395215272903442,4.65045166015625,-0.5503928661346436
-1.3405267000198364,3.4607949256896973,-0.4140583574771881
-1.3160932064056396,3.4695072174072266,-0.41949182748794556
-1.751819133758545,4.718806743621826,-0.5766007900238037
-2.0134217739105225,5.543660640716553,-0.6840088367462158
-1.0465421676635742,2.9466378688812256,-0.3670617938041687
-1.0231815576553345,2.9460835456848145,-0.3704279959201813
-0.9937998056411743,2.9269330501556396,-0.3714102804660797
-0.9678466320037842,2.9187557697296143,-0.373648077249527
-0.9446706771850586,2.9176836013793945,-0.37663620710372925
-0.9041249752044678,2.8609564304351807,-0.3723704218864441
-0.8063924908638,2.6148681640625,-0.34310978651046753
-0.7756839990615845,2.5792136192321777,-0.3410971462726593
-0.7595217823982239,2.591676950454712,-0.34524571895599365
-0.7471274733543396,2.6190264225006104,-0.3514709174633026
-0.7484694123268127,2.6946823596954346,-0.3642030656337738
-0.7356288433074951,2.721855878829956,-0.3704926669597626
-0.7173395752906799,2.7303266525268555,-0.3740140497684479
-0.6998807787895203,2.742436408996582,-0.3780372440814972
-0.6718758940696716,2.7131330966949463,-0.376368910074234
-0.6565027832984924,2.7324142456054688,-0.38139021396636963
-0.6434630751609802,2.7629477977752686,-0.3878841996192932
-0.6290512084960938,2.789698362350464,-0.393728643655777
-0.6110170483589172,2.8012478351593018,-0.39746758341789246
-0.5959077477455139,2.8278446197509766,-0.4033987820148468
-0.5800191760063171,2.8505051136016846,-0.4087837338447571
-0.564437985420227,2.876945972442627,-0.41441813111305237
-0.5513543486595154,2.918508291244507,-0.4222759008407593
-0.5309181809425354,2.9219508171081543,-0.4246525764465332
-0.5148302316665649,2.9519548416137695,-0.4309539794921875
-0.49930986762046814,2.9856557846069336,-0.43765729665756226
-0.48079967498779297,3.0040550231933594,-0.44193437695503235
-0.46556055545806885,3.0452616214752197,-0.44961678981781006
-0.44824281334877014,3.0748980045318604,-0.45563629269599915
-0.4264476001262665,3.077684164047241,-0.45774248242378235
-0.4069076180458069,3.0956616401672363,-0.4617559611797333
-0.39095762372016907,3.144197702407837,-0.47030121088027954
-0.3703494071960449,3.1581099033355713,-0.47371143102645874
-0.35088691115379333,3.1833996772766113,-0.47886285185813904
-0.3311002850532532,3.2085790634155273,-0.4839443266391754
-0.3112387955188751,3.2414188385009766,-0.4898744225502014
-0.29032400250434875,3.262556791305542,-0.49405738711357117
-0.2719956636428833,3.3181991577148438,-0.5035109519958496
-0.25088468194007874,3.346776247024536,-0.5089071989059448
-0.22807474434375763,3.3559939861297607,-0.511106014251709
-0.20612283051013947,3.388237953186035,-0.516646683216095
-0.18559394776821136,3.4473073482513428,-0.526309072971344
-0.16234740614891052,3.4638144969940186,-0.5295105576515198
-0.13888029754161835,3.4801628589630127,-0.532719612121582
-0.11643507331609726,3.535017251968384,-0.5413647294044495
-0.09249428659677505,3.5781586170196533,-0.5482213497161865
-0.06817062944173813,3.609545946121216,-0.55330491065979
-0.043398015201091766,3.636904716491699,-0.5578019022941589
-0.018189648166298866,3.652531623840332,-0.5603716969490051
0.007312874775379896,3.706653118133545,-0.5684791207313538
0.03399036452174187,3.756730318069458,-0.575985848903656
0.05998630076646805,3.7487106323242188,-0.5746140480041504
0.08808785676956177,3.8370158672332764,-0.5880326628684998
0.11567983031272888,3.8672707080841064,-0.5922162532806396
0.1446877270936966,3.924370765686035,-0.6003144979476929
0.1751711219549179,3.9966859817504883,-0.6107482314109802
0.2065400779247284,4.05717658996582,-0.6193739175796509
0.2394198328256607,4.136725425720215,-0.6309282779693604
0.26661697030067444,4.112053871154785,-0.6260091662406921
0.29735463857650757,4.14113712310791,-0.6292864084243774
0.3224751055240631,4.092981815338135,-0.6208594441413879
0.35708680748939514,4.156233310699463,-0.6293355226516724
0.38277608156204224,4.1192779541015625,-0.6224870681762695
0.40752679109573364,4.0783820152282715,-0.614703357219696
0.43498149514198303,4.068071365356445,-0.6115790009498596
0.46106594800949097,4.046051502227783,-0.6067304015159607
0.489708811044693,4.042983531951904,-0.6047327518463135
0.5157714486122131,4.024508953094482,-0.6001047492027283
0.5415690541267395,4.005892753601074,-0.595325231552124
0.569342851638794,4.002409934997559,-0.5928286910057068
0.5949070453643799,3.983429431915283,-0.5880658030509949
0.6218990087509155,3.9718587398529053,-0.5843684077262878
0.6412639021873474,3.918300151824951,-0.5741021633148193
0.6644412875175476,3.891336679458618,-0.5678067803382874
0.6982674598693848,3.9251222610473633,-0.570380449295044
0.7172060012817383,3.87495493888855,-0.5607782602310181
0.7383162379264832,3.8399434089660645,-0.5532199144363403
0.7631139755249023,3.8237593173980713,-0.5481142401695251
0.7896149158477783,3.818862199783325,-0.5447083115577698
0.8048692941665649,3.7607855796813965,-0.5337685346603394
0.8377460837364197,3.785789728164673,-0.5346624851226807
0.8639122843742371,3.7804369926452637,-0.5308817625045776
0.8869112133979797,3.7597477436065674,-0.5248834490776062
0.9111953973770142,3.74650239944458,-0.5200032591819763
0.9298088550567627,3.710535764694214,-0.5120112299919128
0.9595015048980713,3.7195119857788086,-0.5101101994514465
0.979252278804779,3.6909029483795166,-0.5028269290924072
1.004178762435913,3.6807644367218018,-0.49805155396461487
1.030957818031311,3.677950143814087,-0.49431052803993225
1.0534870624542236,3.660036563873291,-0.4885675311088562
1.0787863731384277,3.653264045715332,-0.48402732610702515
1.1118910312652588,3.6722869873046875,-0.48285356163978577
1.3757774829864502,4.431249618530273,-0.5780953168869019
1.403249979019165,4.411159038543701,-0.5710036158561707
1.433890461921692,4.402044773101807,-0.5651905536651611
1.4617228507995605,4.385475158691406,-0.5582447648048401
1.4844856262207031,4.354005336761475,-0.5494452714920044
1.509863018989563,4.329604148864746,-0.5415364503860474
1.2629953622817993,3.541134834289551,-0.4388798773288727
1.2979627847671509,3.5621719360351562,-0.43724220991134644
1.3116194009780884,3.524698257446289,-0.42844313383102417
1.6243870258331299,4.274472713470459,-0.5144175291061401
1.6473218202590942,4.245646953582764,-0.5057912468910217
1.6770529747009277,4.234792709350586,-0.4990330636501312
1.7031419277191162,4.2167768478393555,-0.49150365591049194
1.7264679670333862,4.1912665367126465,-0.4830828905105591
1.7588497400283813,4.186992168426514,-0.47708529233932495
1.778578519821167,4.154089450836182,-0.4677213132381439
1.8074654340744019,4.142400741577148,-0.4605979919433594
1.8328784704208374,4.123495578765869,-0.45275187492370605
1.861757516860962,4.1113200187683105,-0.4455875754356384
1.8901287317276,4.099135875701904,-0.43833670020103455
1.9080829620361328,4.065830707550049,-0.4287717938423157
1.9398880004882812,4.0601630210876465,-0.42198559641838074
1.9616059064865112,4.033200740814209,-0.41299328207969666
1.984265923500061,4.009854793548584,-0.4043477773666382
2.0132317543029785,4.000511646270752,-0.39706864953041077
2.031916856765747,3.969970464706421,-0.3876330554485321
2.063352108001709,3.963263988494873,-0.38044214248657227
2.0909066200256348,3.94956374168396,-0.3723900318145752
2.1064682006835938,3.915522575378418,-0.3625422716140747
2.1335413455963135,3.9015815258026123,-0.3544367253780365
2.124962091445923,3.8225557804107666,-0.3404497504234314
2.1429929733276367,3.7953102588653564,-0.3311510682106018
2.161130428314209,3.767770528793335,-0.32175949215888977
2.1993606090545654,3.7733819484710693,-0.3149932622909546
2.2253549098968506,3.7588131427764893,-0.30649465322494507
2.2423815727233887,3.7311899662017822,-0.2969321310520172
2.2638590335845947,3.7097530364990234,-0.2877171039581299
2.294450521469116,3.700782537460327,-0.279156357049942
2.3023288249969482,3.65975022315979,-0.26833802461624146
2.3394460678100586,3.664571762084961,-0.26079756021499634
2.365100860595703,3.648726463317871,-0.2513999938964844
2.376534938812256,3.6139485836029053,-0.24073146283626556
2.400800943374634,3.5985000133514404,-0.23118723928928375
2.439181327819824,3.6015331745147705,-0.22240246832370758
2.445368766784668,3.5601348876953125,-0.21089446544647217
2.4777917861938477,3.557269334793091,-0.20155829191207886
2.5117175579071045,3.5531256198883057,-0.19152384996414185
2.5122735500335693,3.5053939819335938,-0.1790468990802765
2.5771448612213135,3.5457708835601807,-0.17068664729595184
2.186497211456299,2.9663162231445312,-0.13361772894859314
2.767350435256958,3.912649154663086,0.34346988797187805
2.7472596168518066,3.944763660430908,0.3561151921749115
2.7203874588012695,3.97173810005188,0.3682118058204651
2.678304433822632,3.9710941314697266,0.376987099647522
2.666039228439331,4.015799045562744,0.38972216844558716
2.6261332035064697,4.022425174713135,0.39866113662719727
2.605522394180298,4.0533857345581055,0.4093979299068451
2.590874195098877,4.094098091125488,0.42099693417549133
2.5587618350982666,4.113278865814209,0.43032532930374146
2.5260469913482666,4.127956867218018,0.4388439953327179
2.5149004459381104,4.174777984619141,0.45048773288726807
2.4679994583129883,4.165648937225342,0.4559064209461212
2.4401049613952637,4.190145492553711,0.4648948907852173
2.409186840057373,4.207108497619629,0.4728724956512451
2.390944719314575,4.243431568145752,0.4828142821788788
2.3310282230377197,4.209264278411865,0.48444879055023193
2.2527883052825928,4.140537261962891,0.48188093304634094
2.2338874340057373,4.17641544342041,0.4911922812461853
2.209381341934204,4.201790809631348,0.4992935061454773
2.1750473976135254,4.210137367248535,0.5050668716430664
2.1540908813476562,4.246261119842529,0.5140804052352905
2.1263742446899414,4.268108367919922,0.5213379263877869
2.0997331142425537,4.289170742034912,0.5283529162406921
2.0753982067108154,4.317465305328369,0.5363068580627441
2.0432686805725098,4.332027435302734,0.5422196388244629
2.007812261581421,4.339283466339111,0.5472363829612732
1.9800372123718262,4.359836578369141,0.5537980794906616
2.0014877319335938,4.489870548248291,0.5743484497070312
1.9738032817840576,4.514098644256592,0.5813019871711731
1.9719709157943726,4.6029372215271,0.5965171456336975
1.9244672060012817,4.584453582763672,0.5978288650512695
1.9009935855865479,4.618724346160889,0.6058748364448547
1.890395998954773,4.6851606369018555,0.6182056069374084
1.839731216430664,4.654628276824951,0.6175409555435181
1.8036881685256958,4.663902759552002,0.6219891905784607
1.766846776008606,4.669050693511963,0.6258565783500671
1.3488175868988037,3.641423463821411,0.49052345752716064
1.320651888847351,3.6430041790008545,0.4931410551071167
1.305175542831421,3.68100643157959,0.5006135106086731
1.2804310321807861,3.6974284648895264,0.5049856305122375
1.6271144151687622,4.810694217681885,0.6597861647605896
1.5903037786483765,4.814250469207764,0.6630027890205383
1.5613598823547363,4.839425086975098,0.6691781282424927
1.5333037376403809,4.86811637878418,0.675891101360321
1.5021860599517822,4.8934807777404785,0.6817830801010132
1.4845128059387207,4.963043212890625,0.6938154697418213
1.435645580291748,4.928503036499023,0.6913343667984009
1.4075511693954468,4.960238933563232,0.698095440864563
1.3708372116088867,4.961968421936035,0.7006744146347046
1.3087905645370483,4.8700761795043945,0.6898794174194336
1.2751697301864624,4.886539936065674,0.6940949559211731
1.2362816333770752,4.8801164627075195,0.6950608491897583
1.2171448469161987,4.952247142791748,0.7072587013244629
1.1843575239181519,4.967710494995117,0.7113844752311707
1.1566392183303833,5.005568504333496,0.7187666296958923
1.1240493059158325,5.0284295082092285,0.723824143409729
1.0914016962051392,5.0510735511779785,0.7285960912704468
1.0576975345611572,5.069716930389404,0.7328360080718994
1.0179457664489746,5.057751178741455,0.7326744198799133
0.985576868057251,5.079548358917236,0.7374153137207031
1.9302728176116943,10.339324951171875,1.5043375492095947
1.8745454549789429,10.447132110595703,1.5227810144424438
1.7865012884140015,10.379566192626953,1.5152333974838257
1.7102009057998657,10.376137733459473,1.5171042680740356
1.6382060050964355,10.394980430603027,1.522287368774414
1.5656952857971191,10.413369178771973,1.5274949073791504
0.2894190549850464,2.0204005241394043,0.29685768485069275
1.4054428339004517,10.325881004333496,1.5192537307739258
1.3315165042877197,10.327448844909668,1.521051049232483
1.2609081268310547,10.355344772338867,1.5268038511276245
1.1831550598144531,10.321294784545898,1.5234899520874023
1.1030189990997314,10.263656616210938,1.5167627334594727
1.0270200967788696,10.224510192871094,1.5127898454666138
0.40898820757865906,4.378692150115967,0.6485252976417542
0.3712315261363983,4.300495624542236,0.6372967958450317
0.34166309237480164,4.31058931350708,0.6391770243644714
0.31251412630081177,4.335934162139893,0.6433612108230591
0.2835819721221924,4.357174396514893,0.6469611525535583
0.32720616459846497,5.631895542144775,0.8368533849716187
0.2872649133205414,5.618459701538086,0.8354895114898682
0.2513613998889923,5.697478294372559,0.8473454117774963
0.21052417159080505,5.691342830657959,0.8465827107429504
0.17198140919208527,5.73510217666626,0.8532821536064148
0.13258306682109833,5.759280204772949,0.8571112751960754
0.0932304710149765,5.8025007247924805,0.8638182282447815
0.053043123334646225,5.826132774353027,0.8676546812057495
0.011796991340816021,5.810920238494873,0.8652695417404175
-0.029778659343719482,6.034987926483154,0.8983869552612305
-0.07059358060359955,5.938086986541748,0.8837618827819824
-0.11523067206144333,6.115188121795654,0.9099578857421875
-0.15874648094177246,6.152902126312256,0.915450930595398
-0.20266582071781158,6.1864423751831055,0.9203662872314453
-0.23996835947036743,6.022782802581787,0.8957071304321289
-0.28169363737106323,6.0211052894592285,0.8948332667350769
-0.1901053786277771,3.538173198699951,0.5254875421524048
-0.2150854915380478,3.5445613861083984,0.5261187553405762
-0.5289143323898315,7.818634986877441,1.1598726511001587
-0.5813155770301819,7.776335716247559,1.1529994010925293
-0.5266211032867432,6.443538188934326,0.9548580050468445
-0.5887150764465332,6.640166282653809,0.9828748106956482
-0.6260284781455994,6.547712802886963,0.9681272506713867
-0.651378870010376,6.351260185241699,0.9380944967269897
-0.6979538202285767,6.362104415893555,0.9387272596359253
-0.745743453502655,6.388049125671387,0.941643238067627
-0.7816504240036011,6.3138957023620605,0.9298535585403442
-0.8176114559173584,6.251185417175293,0.9192524552345276
-0.4912317991256714,3.565166473388672,0.5234535336494446
-0.5172681212425232,3.569484233856201,0.5232833623886108
-0.5395960211753845,3.5507235527038574,0.519766628742218
-0.5564125180244446,3.497431993484497,0.5112279653549194
-0.5807178616523743,3.4936628341674805,0.5099644660949707
-1.097240924835205,6.331934452056885,0.9225883483886719
-1.1535425186157227,6.39701509475708,0.930173933506012
-1.203765869140625,6.41967248916626,0.9315698146820068
-1.258986234664917,6.468615531921387,0.9368221759796143
-1.315488338470459,6.5169997215271,0.9419836401939392
-1.3703495264053345,6.553556442260742,0.9454525709152222
-1.4244680404663086,6.58604097366333,0.9480087161064148
-1.4641923904418945,6.550128936767578,0.9403935074806213
-1.5018749237060547,6.510369777679443,0.9323312640190125
-1.5339782238006592,6.447750568389893,0.921054482460022
-0.6903472542762756,2.8147389888763428,0.40107542276382446
-0.7004619836807251,2.772578239440918,0.39409181475639343
-0.7217652201652527,2.7753612995147705,0.3933652639389038
-0.73659348487854,2.7557077407836914,0.38936659693717957
-0.7552874088287354,2.7509074211120605,0.3874911665916443
-0.77834552526474,2.760830879211426,0.38768884539604187
-1.7695856094360352,6.113639831542969,0.855833113193512
-1.8030519485473633,6.0681233406066895,0.8467941880226135
-1.1450738906860352,3.759716033935547,0.5228063464164734
-1.1647446155548096,3.7338058948516846,0.517256498336792
-1.1852948665618896,3.7114856243133545,0.5122449994087219
-1.198807716369629,3.6668293476104736,0.5041683316230774
-1.2174971103668213,3.636587619781494,0.49806690216064453
-1.2340657711029053,3.6027557849884033,0.49156108498573303
-1.2506693601608276,3.57285213470459,0.48529472947120667
-1.2721266746520996,3.557482957839966,0.48103561997413635
-1.2933993339538574,3.541994571685791,0.47679418325424194
-1.304582953453064,3.4970061779022217,0.4685501456260681
-1.3294298648834229,3.488091468811035,0.4651471674442291
-1.356130599975586,3.4865808486938477,0.46263283491134644
-1.3766132593154907,3.4706828594207764,0.4580654799938202
-1.3897056579589844,3.436675786972046,0.45114824175834656
-1.4162640571594238,3.434689521789551,0.44840896129608154
-1.4346470832824707,3.4107236862182617,0.4427425265312195
-1.4200341701507568,3.312058925628662,0.427468866109848
-1.4421007633209229,3.3030083179473877,0.4236069619655609
-1.45783269405365,3.2796125411987305,0.41793227195739746
-1.4865398406982422,3.2842464447021484,0.41579630970954895
-1.5196821689605713,3.2952260971069336,0.41432541608810425
-1.5739630460739136,3.3518240451812744,0.4185507595539093
-1.5962351560592651,3.3418209552764893,0.4141659736633301
-1.6286205053329468,3.352619171142578,0.412357896566391
-1.6704007387161255,3.3802683353424072,0.4125027358531952
-1.708490252494812,3.3965768814086914,0.41106557846069336
-2.7366943359375,5.34937858581543,0.6419699788093567
-2.7577788829803467,5.304469585418701,0.6308903694152832
-2.785642623901367,5.273240089416504,0.6215099692344666
-2.790978193283081,5.196505069732666,0.6066027879714966
-1.177168846130371,2.155669927597046,0.2491728514432907
-1.1842677593231201,2.1344192028045654,0.24410438537597656
-2.507229804992676,4.450397491455078,0.5035105347633362
-2.5353541374206543,4.4307966232299805,0.49568071961402893
-2.5763344764709473,4.430466175079346,0.48977068066596985
-6.055483818054199,10.253866195678711,1.1195403337478638
-1.247959852218628,2.0817511081695557,0.22431010007858276
-1.2659015655517578,2.080415964126587,0.22116915881633759
-2.7081377506256104,4.382166862487793,0.4592316150665283
-2.754117727279663,4.391107559204102,0.4533431828022003
-2.9933459758758545,4.7058305740356445,0.4783218502998352
-3.0254006385803223,4.6862921714782715,0.46837010979652405
-3.0583930015563965,4.665849208831787,0.45808085799217224
-3.0523416996002197,4.591537952423096,0.44240233302116394
-3.0774803161621094,4.566316604614258,0.431537926197052
-3.0851211547851562,4.510382652282715,0.4171495735645294
-3.1249334812164307,4.5029120445251465,0.40696534514427185
-3.1489667892456055,4.477617263793945,0.3951966464519501
-2.8446621894836426,3.987487316131592,0.34274691343307495
-2.8716864585876465,3.9690170288085938,0.3315926790237427
-2.9265105724334717,3.9926939010620117,0.32377225160598755
-2.919154405593872,3.926426887512207,0.30770233273506165
-2.4552621841430664,3.4645473957061768,-0.17634785175323486
-2.4523069858551025,3.5137698650360107,-0.18886379897594452
-2.4044742584228516,3.4988503456115723,-0.19760659337043762
-2.327094316482544,3.4423811435699463,-0.2038246989250183
-2.2487969398498535,3.376899003982544,-0.20825928449630737
-2.204428195953369,3.363553524017334,-0.21563878655433655
-2.1709423065185547,3.366126537322998,-0.22380594909191132
-2.1429684162139893,3.374191999435425,-0.23190340399742126
-2.117391586303711,3.3896946907043457,-0.2405993789434433
-1.269639253616333,2.066049814224243,-0.15111659467220306
-2.060168504714966,3.405369281768799,-0.25603538751602173
-2.0351479053497314,3.419774055480957,-0.26401734352111816
-2.035288095474243,3.477895498275757,-0.27544695138931274
-1.2015173435211182,2.086958885192871,-0.16928261518478394
-1.2095235586166382,2.1358513832092285,-0.177215576171875
-2.5674099922180176,4.612043857574463,-0.3911251127719879
-2.5549304485321045,4.667046546936035,-0.40402525663375854
-2.536931276321411,4.711438179016113,-0.4159737825393677
-2.509164333343506,4.743051052093506,-0.4268876016139984
-2.4852187633514404,4.781120777130127,-0.4383040964603424
-2.4568593502044678,4.808024883270264,-0.44846928119659424
-2.4331085681915283,4.845372200012207,-0.45962250232696533
-2.414919853210449,4.897021770477295,-0.4721008837223053
-1.5785906314849854,3.2606372833251953,-0.3194056749343872
-1.552297592163086,3.2640442848205566,-0.3245738744735718
-1.5289218425750732,3.2744791507720947,-0.3303713798522949
-1.5115981101989746,3.299051523208618,-0.33754831552505493
-1.497535228729248,3.330475091934204,-0.3454252779483795
-1.5243874788284302,3.4541423320770264,-0.36298060417175293
-1.51474130153656,3.500173330307007,-0.37257033586502075
-1.4864311218261719,3.503239393234253,-0.37747228145599365
-1.9301460981369019,4.639930725097656,-0.5059345960617065
-1.8931554555892944,4.641761779785156,-0.512016236782074
-1.851471185684204,4.632659435272217,-0.5167299509048462
-1.3617264032363892,3.4803500175476074,-0.392452597618103
-1.3382614850997925,3.493014335632324,-0.39803820848464966
-1.7571030855178833,4.683518886566162,-0.5391796231269836
-2.029200553894043,5.526132583618164,-0.6425022482872009
-1.9646480083465576,5.470200061798096,-0.6419941186904907
-1.623940110206604,4.626310348510742,-0.5481075644493103
-1.5978189706802368,4.65518045425415,-0.556523859500885
-1.9070212841033936,5.6847357749938965,-0.6856797337532043
-0.9531723856925964,2.9095005989074707,-0.3538166582584381
-0.9394923448562622,2.937950372695923,-0.36019256711006165
-0.8999685049057007,2.8848876953125,-0.3565656840801239
-0.7780969142913818,2.556713581085205,-0.31850844621658325
-0.7710226774215698,2.598964214324951,-0.3261401951313019
-0.750377357006073,2.596557140350342,-0.3281499147415161
-0.7498810887336731,2.6648690700531006,-0.3391479253768921
-0.7414791584014893,2.707056999206543,-0.346903532743454
-0.7161624431610107,2.689422130584717,-0.346975713968277
-0.7097305655479431,2.7428507804870605,-0.3560260534286499
-0.6818020939826965,2.713618755340576,-0.35437625646591187
-0.6683484315872192,2.740546703338623,-0.36004021763801575
-0.650114119052887,2.7485530376434326,-0.3632541000843048
-1.4502769708633423,6.3325676918029785,-0.8414399027824402
-1.4006057977676392,6.319192409515381,-0.8439952731132507
-1.3456640243530273,6.278894424438477,-0.8429322838783264
-0.5951364040374756,2.8744595050811768,-0.38787370920181274
-0.581061601638794,2.908607006072998,-0.3944077491760254
-0.5543500185012817,2.881976366043091,-0.39250439405441284
-0.5340312719345093,2.8855135440826416,-0.39468249678611755
-0.52472323179245,2.9498543739318848,-0.4052170515060425
-0.5087043642997742,2.9798457622528076,-0.4111024737358093
-0.486576110124588,2.975423812866211,-0.41201284527778625
-0.47368866205215454,3.032090187072754,-0.42133408784866333
-0.45471206307411194,3.0503828525543213,-0.4253503680229187
-0.4383207857608795,3.0876951217651367,-0.4320570230484009
-0.41883742809295654,3.1057522296905518,-0.4360852539539337
-0.400027334690094,3.131420373916626,-0.44084060192108154
-0.38131576776504517,3.160815954208374,-0.44616222381591797
-0.3606175184249878,3.1785964965820312,-0.44989773631095886
-0.3425844609737396,3.219273090362549,-0.45689278841018677
-0.32169753313064575,3.2367794513702393,-0.4604571759700775
-0.30053314566612244,3.254187822341919,-0.46378645300865173
-0.28141599893569946,3.298431158065796,-0.47097933292388916
-0.2586812376976013,3.30788254737854,-0.47325262427330017
-0.23925527930259705,3.3595786094665527,-0.4815931022167206
-0.2168448120355606,3.376478433609009,-0.4846459627151489
-0.19551947712898254,3.4164068698883057,-0.4909183382987976
-0.17326003313064575,3.448474645614624,-0.4960961639881134
-0.1503588706254959,3.484271287918091,-0.5018549561500549
-0.12722249329090118,3.5160393714904785,-0.5070348978042603
-0.10353916883468628,3.5438528060913086,-0.5112089514732361
-0.07935954630374908,3.5676403045654297,-0.5148298144340515
-0.05523735284805298,3.614455223083496,-0.5218024253845215
-0.03004835918545723,3.6649727821350098,-0.5293455719947815
-0.004589008167386055,3.680542230606079,-0.5316846966743469
0.021252265200018883,3.7191784381866455,-0.5370441675186157
0.04768020287156105,3.7614972591400146,-0.5429569482803345
0.07509096711874008,3.8268213272094727,-0.5522118806838989
0.10210782289505005,3.8417000770568848,-0.5542103052139282
0.13054104149341583,3.8796074390411377,-0.5592042803764343
0.15886612236499786,3.913487672805786,-0.5634464621543884
0.18898552656173706,3.974195718765259,-0.5715622305870056
0.21932443976402283,4.023091793060303,-0.5779894590377808
0.25085973739624023,4.0794758796691895,-0.5855038166046143
0.2794049382209778,4.073935031890869,-0.5836180448532104
0.30534082651138306,4.0412421226501465,-0.5778578519821167
0.3333812355995178,4.0392165184021,-0.5765189528465271
0.3635106682777405,4.06010627746582,-0.5784713625907898
0.39247140288352966,4.065390110015869,-0.5780938863754272
0.4231116771697998,4.082032680511475,-0.5789003968238831
0.44584664702415466,4.029291152954102,-0.5699333548545837
0.47384655475616455,4.026360034942627,-0.5680526494979858
0.5008694529533386,4.015555381774902,-0.5650913119316101
0.5276956558227539,4.004616737365723,-0.5618625283241272
0.5580176115036011,4.016469478607178,-0.5615849494934082
0.5824841856956482,3.989865779876709,-0.5559923052787781
0.6067376136779785,3.9630935192108154,-0.5504157543182373
0.6330953240394592,3.9514589309692383,-0.54698246717453
0.6598107814788818,3.9435460567474365,-0.5436714887619019
0.6844309568405151,3.9240217208862305,-0.5387385487556458
0.7079957127571106,3.896627902984619,-0.5327265858650208
0.7308321595191956,3.869157075881958,-0.5267872214317322
0.7622095942497253,3.887173891067505,-0.5269540548324585
0.785999596118927,3.8670706748962402,-0.5216293931007385
0.7976142764091492,3.789964199066162,-0.5086957812309265
0.8294051289558411,3.8073630332946777,-0.5084461569786072
0.8525442481040955,3.7868006229400635,-0.5031876564025879
0.8735137581825256,3.758620262145996,-0.4966999888420105
0.9066853523254395,3.783116579055786,-0.4970455467700958
0.9384682178497314,3.7997918128967285,-0.4963371157646179
0.9616327285766602,3.7784924507141113,-0.4906144142150879
1.1971452236175537,4.57085657119751,-0.5899802446365356
1.228697419166565,4.5631103515625,-0.5850622057914734
1.2518922090530396,4.525254726409912,-0.5763416886329651
1.2833467721939087,4.51706075668335,-0.5714212656021118
1.3111093044281006,4.493557929992676,-0.564518392086029
1.3399661779403687,4.477586269378662,-0.5584428906440735
1.3730621337890625,4.476324081420898,-0.5540538430213928
1.3992925882339478,4.452587127685547,-0.5469067096710205
1.4221378564834595,4.417476654052734,-0.5383666753768921
1.451069712638855,4.400553226470947,-0.5319811105728149
1.4763902425765991,4.376426696777344,-0.5245321393013
1.5064756870269775,4.366837978363037,-0.5188708305358887
1.2618035078048706,3.5770552158355713,-0.4212869703769684
1.2841695547103882,3.561387777328491,-0.4157078266143799
1.3087164163589478,3.5530107021331787,-0.41080597043037415
1.611117959022522,4.282328128814697,-0.4902450144290924
1.646314263343811,4.28626012802124,-0.4858410656452179
1.6678094863891602,4.253606796264648,-0.4772645831108093
1.697236180305481,4.242645740509033,-0.4710485637187958
1.7189056873321533,4.213636875152588,-0.46271809935569763
1.7483606338500977,4.202208042144775,-0.4562479853630066
1.7717243432998657,4.176225662231445,-0.44822707772254944
1.8007707595825195,4.164479732513428,-0.4417145550251007
1.8165875673294067,4.1243367195129395,-0.43208831548690796
1.8320239782333374,4.0841169357299805,-0.42253172397613525
1.880506992340088,4.1141037940979,-0.42001083493232727
1.9026111364364624,4.087465763092041,-0.41174688935279846
1.927003264427185,4.068109512329102,-0.4041121304035187
1.9546219110488892,4.055596828460693,-0.3971799910068512
1.9761887788772583,4.028496265411377,-0.3886740803718567
2.001206398010254,4.008125305175781,-0.38074013590812683
2.028294563293457,3.9951674938201904,-0.37352076172828674
2.050015449523926,3.9715981483459473,-0.36532455682754517
2.077850818634033,3.9577889442443848,-0.35785403847694397
2.097834348678589,3.9302566051483154,-0.3491429090499878
2.1205520629882812,3.9098496437072754,-0.34102559089660645
2.143925189971924,3.8888587951660156,-0.3326929807662964
2.138780117034912,3.816607713699341,-0.3200410306453705
2.1570003032684326,3.789057493209839,-0.31121447682380676
2.1901025772094727,3.7886626720428467,-0.3046109974384308
2.1926536560058594,3.7336854934692383,-0.29343780875205994
2.2350869178771973,3.7454354763031006,-0.2873317003250122
2.2599780559539795,3.7310822010040283,-0.2792585790157318
2.2729220390319824,3.6963841915130615,-0.2695987820625305
2.302940607070923,3.687565326690674,-0.26159968972206116
2.340109348297119,3.692416191101074,-0.2544980049133301
2.3395819664001465,3.6378161907196045,-0.24319538474082947
2.3693573474884033,3.6284055709838867,-0.23465299606323242
2.410968065261841,3.6389572620391846,-0.2273414582014084
2.4129624366760254,3.5912773609161377,-0.21641312539577484
2.4424636363983154,3.5812933444976807,-0.20725253224372864
2.480041980743408,3.5844333171844482,-0.19863030314445496
2.4810123443603516,3.536717176437378,-0.18729186058044434
2.510279893875122,3.5261218547821045,-0.17735262215137482
2.551262617111206,3.5356664657592773,-0.16835753619670868
2.5656211376190186,3.5064289569854736,-0.15703843533992767
2.179827928543091,2.937690258026123,-0.12276109308004379
2.796405553817749,3.92323637008667,0.3148423433303833
2.7579071521759033,3.9304442405700684,0.32512980699539185
2.7471022605895996,3.9750635623931885,0.33795541524887085
2.689452648162842,3.9569759368896484,0.34524574875831604
2.673476457595825,3.99507737159729,0.35677918791770935
2.653203010559082,4.02638578414917,0.36745360493659973
2.621392250061035,4.046281337738037,0.37709537148475647
2.5957682132720947,4.071161270141602,0.3867097795009613
2.5711612701416016,4.095117568969727,0.3959774076938629
2.539876937866211,4.113766193389893,0.4044868052005768
2.492387056350708,4.105496883392334,0.41026046872138977
2.4828834533691406,4.155853271484375,0.42154401540756226
2.4586870670318604,4.182966709136963,0.4303494095802307
2.4230401515960693,4.193939685821533,0.4373244345188141
2.411168336868286,4.244784832000732,0.44838061928749084
2.3850257396698,4.267679691314697,0.45628467202186584
2.278561592102051,4.148060321807861,0.4487494230270386
2.243593215942383,4.157510757446289,0.4547518193721771
2.212886333465576,4.173211097717285,0.46135392785072327
2.1961493492126465,4.212057113647461,0.47032782435417175
2.166088581085205,4.226894855499268,0.4765785336494446
2.1374757289886475,4.249438762664795,0.4835469126701355
2.1057891845703125,4.264536380767822,0.48962196707725525
2.0892598628997803,4.3065690994262695,0.498609721660614
2.052255153656006,4.3064494132995605,0.5027456879615784
2.02390718460083,4.327773094177246,0.5091139674186707
1.9982610940933228,4.356123924255371,0.5162829160690308
1.9755268096923828,4.391388416290283,0.5243262052536011
1.994854211807251,4.518177509307861,0.5432374477386475
1.9876307249069214,4.5884881019592285,0.5554969906806946
1.9568767547607422,4.60950231552124,0.5614914298057556
1.8960652351379395,4.558645248413086,0.5587226152420044
1.8993602991104126,4.661596775054932,0.5748246312141418
1.8537241220474243,4.641738414764404,0.5757147669792175
1.8210638761520386,4.654048919677734,0.5805463194847107
1.7912136316299438,4.677518367767334,0.5864388942718506
1.7842528820037842,4.76254940032959,0.6001342535018921
1.3291051387786865,3.6275827884674072,0.45943933725357056
1.3141943216323853,3.665564775466919,0.4665105640888214
1.2859816551208496,3.6669082641601562,0.4689550995826721
3.6829423904418945,10.748291969299316,1.3803375959396362
1.6265361309051514,4.860964775085449,0.6268506050109863
1.590750813484192,4.872262954711914,0.6309595704078674
1.5566816329956055,4.882748603820801,0.6348626017570496
1.5340595245361328,4.9300055503845215,0.6435971260070801
1.4787417650222778,4.873531341552734,0.6385754942893982
1.4501779079437256,4.9059062004089355,0.6449663043022156
1.425510287284851,4.953011512756348,0.6533533334732056
1.3876985311508179,4.955228328704834,0.6558661460876465
1.348978877067566,4.949398517608643,0.6572691202163696
1.2935314178466797,4.879607200622559,0.6501685976982117
1.2605290412902832,4.895847797393799,0.6540949940681458
1.2253823280334473,4.9043779373168945,0.6569749712944031
1.1996008157730103,4.9542036056518555,0.6654664874076843
1.1684470176696777,4.977177619934082,0.6703312397003174
1.1405677795410156,5.015037536621094,0.6772444248199463
1.105514645576477,5.022503852844238,0.6800356507301331
1.0761114358901978,5.060237407684326,0.6865338683128357
1.0378583669662476,5.059985637664795,0.6879428029060364
1.0018031597137451,5.066921710968018,0.6903371214866638
2.055326223373413,10.78966999053955,1.473117709159851
1.9681754112243652,10.738324165344238,1.469246745109558
1.8870621919631958,10.716851234436035,1.469282627105713
1.8045575618743896,10.69910717010498,1.4690361022949219
1.7224255800247192,10.672898292541504,1.4676520824432373
1.6585580110549927,10.760811805725098,1.4820401668548584
1.5705952644348145,10.68350887298584,1.4737054109573364
1.496124505996704,10.693669319152832,1.477488398551941
1.4012198448181152,10.561583518981934,1.4615190029144287
1.3094139099121094,10.432588577270508,1.445078730583191
1.2234785556793213,10.337440490722656,1.433367371559143
1.1436562538146973,10.283915519714355,1.4274749755859375
1.060723066329956,10.183513641357422,1.415101170539856
0.9939437508583069,10.23265552520752,1.4235643148422241
0.3911548852920532,4.346890449523926,0.6054595708847046
0.3545483350753784,4.276175022125244,0.5959163904190063
0.32744044065475464,4.317047595977783,0.6019508242607117
0.294996440410614,4.288269519805908,0.5983036160469055
0.2674998641014099,4.328744888305664,0.6043458580970764
0.30807241797447205,5.632270812988281,0.7868949770927429
0.27005699276924133,5.657341003417969,0.7909885048866272
0.23182488977909088,5.689957618713379,0.795703113079071
0.19305238127708435,5.718460559844971,0.7997772097587585
0.1535201519727707,5.735097408294678,0.8022316098213196
0.113440603017807,5.76694393157959,0.8068568706512451
0.07388845086097717,5.810102462768555,0.813103199005127
0.033477384597063065,5.818171977996826,0.8144804835319519
-0.007112815044820309,5.8801655769348145,0.8231076598167419
-0.049327701330184937,6.034751892089844,0.8444651961326599
-0.09296468645334244,6.092316627502441,0.8522735238075256
-0.13420717418193817,6.041286468505859,0.8449357151985168
-0.18020471930503845,6.179462909698486,0.8640996217727661
-0.22044841945171356,6.104649543762207,0.8535194993019104
-0.259945809841156,6.0373334884643555,0.8438571691513062
-0.17865565419197083,3.574169158935547,0.49919959902763367
-0.20339278876781464,3.5651707649230957,0.49758777022361755
-0.22902970016002655,3.5791962146759033,0.49921926856040955
-0.5581791996955872,7.865300178527832,1.0963689088821411
-0.6059828996658325,7.7726664543151855,1.0828475952148438
-0.5617038607597351,6.611841678619385,0.9206348061561584
-0.6049010157585144,6.573293209075928,0.9141339063644409
-0.37886154651641846,3.82753586769104,0.5316632390022278
-0.3966592848300934,3.7441585063934326,0.5194961428642273
-0.4200398325920105,3.7183732986450195,0.5153564214706421
-0.4398936629295349,3.6655423641204834,0.5075029730796814
-0.4638962149620056,3.647108554840088,0.5044366121292114
-0.4833267331123352,3.6018028259277344,0.49740079045295715
-0.5085947513580322,3.602403402328491,0.49667438864707947
-0.5225464701652527,3.5262527465820312,0.485404372215271
-0.5445309281349182,3.50742769241333,0.48206308484077454
-0.5649757385253906,3.476917028427124,0.47713109850883484
-1.066933035850525,6.289695739746094,0.8618491888046265
-1.1228890419006348,6.355013370513916,0.8691402673721313
-1.176107406616211,6.400885581970215,0.8735694885253906
-1.2277604341506958,6.434933185577393,0.8764012455940247
-1.2825950384140015,6.479893207550049,0.8807172775268555
-1.3370707035064697,6.5127716064453125,0.883355975151062
-1.395277976989746,6.564311981201172,0.8885735869407654
-1.4428751468658447,6.566366195678711,0.8867349624633789
-1.481674075126648,6.530411720275879,0.8795529007911682
-1.5138037204742432,6.467844486236572,0.8688587546348572
-1.554514765739441,6.438751220703125,0.8626668453216553
-0.6930322647094727,2.785578966140747,0.3722460865974426
-0.7104877233505249,2.773390769958496,0.36966922879219055
-0.7294560074806213,2.768692970275879,0.36793890595436096
-0.7441979050636292,2.7489545345306396,0.3641400933265686
-0.7756184935569763,2.7887940406799316,0.3682185709476471
-1.7470686435699463,6.118777751922607,0.8052992224693298
-1.7820749282836914,6.080953598022461,0.7977384328842163
-1.8199856281280518,6.0540690422058105,0.7916687726974487
-1.153620719909668,3.745321273803711,0.48791006207466125
-1.1781946420669556,3.733978271484375,0.4845154583454132
-1.1962754726409912,3.704158067703247,0.47879114747047424
-1.2243850231170654,3.703507661819458,0.47681933641433716
-1.2328020334243774,3.643826723098755,0.46728241443634033
-1.241498351097107,3.587944507598877,0.4582420885562897
-1.2604684829711914,3.5652737617492676,0.4532429575920105
-1.2822226285934448,3.54966402053833,0.44914042949676514
-1.300970435142517,3.5266993045806885,0.4441555142402649
-1.328296184539795,3.5251972675323486,0.441844642162323
-1.3445169925689697,3.494513511657715,0.43590644001960754
-1.3639028072357178,3.474912643432617,0.4311670958995819
-1.3818385601043701,3.451538324356079,0.4258781969547272
-1.407884955406189,3.4498047828674316,0.42332810163497925
-1.4170007705688477,3.404500961303711,0.415377676486969
-1.4180898666381836,3.3413102626800537,0.4053158462047577
-1.4378349781036377,3.3248400688171387,0.40084490180015564
-1.4572999477386475,3.3083248138427734,0.39621415734291077
-1.4793872833251953,3.298950433731079,0.39250892400741577
-1.508715033531189,3.3031857013702393,0.3903302848339081
-1.5564203262329102,3.3458120822906494,0.3926258385181427
-1.5825841426849365,3.342590808868408,0.38937807083129883
-1.608559489250183,3.3392891883850098,0.3859405815601349
-1.6341791152954102,3.335965394973755,0.382556676864624
-1.6539223194122314,3.3180408477783203,0.3773767948150635
-2.698504686355591,5.32081413269043,0.6001240611076355
-2.7484216690063477,5.331033706665039,0.595930814743042
-2.745652437210083,5.241290092468262,0.5805307626724243
-2.7905189990997314,5.240409851074219,0.5748674273490906
-2.823544502258301,5.214698314666748,0.566339910030365
-1.1663475036621094,2.1192264556884766,0.227802574634552
-1.1878564357757568,2.125436544418335,0.22598625719547272
-2.522660970687866,4.4456071853637695,0.46746617555618286
-2.5249383449554443,4.377846717834473,0.4547964334487915
-2.585150718688965,4.411103248596191,0.452689528465271
-2.60799503326416,4.384825706481934,0.44414615631103516
-1.262964129447937,2.0926051139831543,0.20915980637073517
-2.6707916259765625,4.35754919052124,0.4293192923069
-2.673067092895508,4.292886734008789,0.4165717661380768
-2.9794788360595703,4.717355728149414,0.45057663321495056
-3.009996175765991,4.698792934417725,0.4416169226169586
-3.0237367153167725,4.649106979370117,0.429217129945755
-3.051004409790039,4.622812747955322,0.4189589321613312
-3.063694477081299,4.577846527099609,0.40676575899124146
-3.0856170654296875,4.545167922973633,0.3954911530017853
-3.0976979732513428,4.495331287384033,0.38239967823028564
-3.1463608741760254,4.50515079498291,0.37419989705085754
-2.912299156188965,4.113144874572754,0.33307909965515137
-2.85974383354187,3.9791276454925537,0.31311866641044617
-2.9282824993133545,4.021790027618408,0.3071843981742859
-2.9106881618499756,3.9436705112457275,0.2915301024913788
-2.4867520332336426,3.4811205863952637,-0.16421061754226685
-2.442220687866211,3.4738869667053223,-0.17368848621845245
-2.4311182498931885,3.509683609008789,-0.18453572690486908
-2.3625905513763428,3.466278076171875,-0.19110354781150818
-2.298163652420044,3.424539804458618,-0.1970718502998352
-2.2240850925445557,3.3655447959899902,-0.20144623517990112
-2.1790030002593994,3.352573871612549,-0.2084668129682541
-2.14658260345459,3.3544020652770996,-0.21576999127864838
-2.1306538581848145,3.382471799850464,-0.22464223206043243
-1.2857329845428467,2.075150728225708,-0.142104372382164
-2.0809717178344727,3.4121944904327393,-0.24031375348567963
-2.056159734725952,3.4266581535339355,-0.2479647547006607
-2.0346248149871826,3.4479942321777344,-0.2559765577316284
-2.009735107421875,3.4620137214660645,-0.2632787227630615
-1.19471275806427,2.091383457183838,-0.1627088189125061
-1.1678297519683838,2.0794036388397217,-0.16535432636737823
-1.9506189823150635,3.5340962409973145,-0.2871371805667877
-2.550272226333618,4.697602272033691,-0.3892863690853119
-2.5238070487976074,4.728792667388916,-0.39942672848701477
-2.4999115467071533,4.767110347747803,-0.41015732288360596
-2.478219747543335,4.808351516723633,-0.4210493564605713
-2.4508445262908936,4.839052677154541,-0.43108445405960083
-2.4261176586151123,4.876834869384766,-0.4415369927883148
-1.5873775482177734,3.2495925426483154,-0.29889950156211853
-1.5644456148147583,3.260185718536377,-0.3044000566005707
-1.5349220037460327,3.256474256515503,-0.30853143334388733
-1.5145740509033203,3.2740583419799805,-0.31452861428260803
-1.4936299324035645,3.29168963432312,-0.3206419050693512
-1.4910379648208618,3.3477981090545654,-0.3303852081298828
-1.521968960762024,3.4824411869049072,-0.3480945825576782
-1.5029183626174927,3.5071067810058594,-0.35482853651046753
-1.4534385204315186,3.459967613220215,-0.3542681336402893
-1.929085373878479,4.685039520263672,-0.4853322207927704
-1.8685503005981445,4.629232406616211,-0.4849954843521118
-1.8237731456756592,4.612947940826416,-0.48842379450798035
-1.3499550819396973,3.4870588779449463,-0.37308892607688904
-1.3115870952606201,3.459627628326416,-0.3739220201969147
-1.7532764673233032,4.725285053253174,-0.5159220099449158
-2.0178372859954834,5.558757305145264,-0.6126088500022888
-1.9208228588104248,5.411177635192871,-0.6018155217170715
-1.6150325536727905,4.653219699859619,-0.5221710801124573
-1.578697919845581,4.652716636657715,-0.5267219543457031
-1.8908501863479614,5.7065653800964355,-0.651536762714386
-1.8716449737548828,5.785635471343994,-0.6658464074134827
-0.9783955812454224,3.098928928375244,-0.3594663441181183
-0.9281224012374878,3.0125350952148438,-0.3521556854248047
-0.7718462944030762,2.568753242492676,-0.30255821347236633
-0.7579440474510193,2.5887508392333984,-0.3070286512374878
-0.7498693466186523,2.63114857673645,-0.31424999237060547
-0.7490299940109253,2.6995816230773926,-0.3246171474456787
-0.7321622371673584,2.7119083404541016,-0.32830390334129333
-0.7169225215911865,2.731705904006958,-0.33274388313293457
-0.7004255056381226,2.7476820945739746,-0.3366738557815552
-0.6741830110549927,2.7259607315063477,-0.33601534366607666
-0.6614739298820496,2.7566895484924316,-0.34178492426872253
-0.6439360976219177,2.768495559692383,-0.345194011926651
-1.366385579109192,6.067373752593994,-0.7602810859680176
-1.3128305673599243,6.026997089385986,-0.7589889168739319
-1.2754905223846436,6.062122821807861,-0.7672635912895203
-1.2469900846481323,6.1386494636535645,-0.7808060646057129
-1.1889828443527222,6.070602893829346,-0.7755821943283081
-1.1440544128417969,6.066863059997559,-0.7783061265945435
-1.0985947847366333,6.058969974517822,-0.7805179357528687
-1.007166862487793,5.787376403808594,-0.7486621737480164
-0.9604941606521606,5.755517959594727,-0.7476304769515991
-0.9568374156951904,5.991225719451904,-0.7808074355125427
-0.9159879684448242,6.005002975463867,-0.7851940989494324
-0.8790417313575745,6.045312881469727,-0.7930977940559387
-0.836156964302063,6.05094051361084,-0.7965461015701294
-0.4138459861278534,3.156754493713379,-0.41683751344680786
-0.39172887802124023,3.1593923568725586,-0.4182208180427551
-0.37366804480552673,3.196491003036499,-0.4241965711116791
-0.3556097447872162,3.2373263835906982,-0.43070968985557556
-0.32987213134765625,3.2087225914001465,-0.428007572889328
-0.31334254145622253,3.2763538360595703,-0.4379471242427826
-0.28972485661506653,3.2706146240234375,-0.437946081161499
-0.2693766951560974,3.3032937049865723,-0.4431155025959015
-0.2513422966003418,3.3705806732177734,-0.452966570854187
-0.22948656976222992,3.395279884338379,-0.45713910460472107
-0.2054435759782791,3.39672589302063,-0.4578321576118469
-0.1846729815006256,3.452110528945923,-0.46576470136642456
-0.16224128007888794,3.4880292415618896,-0.4711058437824249
-0.13827654719352722,3.496722459793091,-0.4727981388568878
-0.11561010032892227,3.547816038131714,-0.4801919460296631
-0.09143730252981186,3.5872154235839844,-0.48563864827156067
-0.06687593460083008,3.6109588146209717,-0.4889897406101227
-0.042063064873218536,3.6384034156799316,-0.4928675889968872
-0.016889333724975586,3.669545888900757,-0.4972730576992035
0.008749889209866524,3.7276337146759033,-0.5051733255386353
0.035413600504398346,3.758479356765747,-0.5091080665588379
0.06220102310180664,3.7968809604644775,-0.514090895652771
0.08922185748815536,3.823481559753418,-0.5174974203109741
0.11767026782035828,3.8847122192382812,-0.525611937046051
0.14594313502311707,3.9186954498291016,-0.529739260673523
0.1745099276304245,3.9486308097839355,-0.5331497192382812
0.2053813636302948,4.005398273468018,-0.540183961391449
0.23685133457183838,4.0658159255981445,-0.5477280616760254
0.2656097710132599,4.071905612945557,-0.5479702949523926
0.2946793735027313,4.081717491149902,-0.5482814311981201
0.32086724042892456,4.052731037139893,-0.5433492064476013
0.3538227379322052,4.100689888000488,-0.5487353801727295
0.3844742178916931,4.1214399337768555,-0.5505061745643616
0.40845987200737,4.072620391845703,-0.5429455637931824
0.43623802065849304,4.066085338592529,-0.5406243801116943
0.4599873125553131,4.024729251861572,-0.5337142944335938
0.49027952551841736,4.036999702453613,-0.533921480178833
0.5183597207069397,4.033729076385498,-0.5321153998374939
0.5411533117294312,3.991912603378296,-0.5250664353370667
0.5654928088188171,3.965357542037964,-0.5197930932044983
0.5963716506958008,3.9846293926239014,-0.5205519795417786
0.6191592216491699,3.9461617469787598,-0.5137589573860168
0.6547818183898926,3.9917516708374023,-0.517957329750061
0.33140867948532104,1.9364365339279175,-0.2502768337726593
0.7059053182601929,3.960101366043091,-0.5096920132637024
0.8838235139846802,4.767131805419922,-0.6110089421272278
0.9126080274581909,4.738444805145264,-0.604805588722229
0.9454385638237,4.728477954864502,-0.600970447063446
0.9788609147071838,4.726108551025391,-0.5976905226707458
1.0090830326080322,4.708329200744629,-0.592491626739502
1.0417354106903076,4.701686382293701,-0.5887194275856018
