X,Y,Z
-1.4150676727294922,4.076208114624023,0.2845660150051117
-1.4460327625274658,4.073745250701904,0.28298667073249817
-1.4710698127746582,4.056633949279785,0.2802610993385315
-1.4983137845993042,4.046806335449219,0.27799466252326965
-1.5136479139328003,4.003767967224121,0.27343985438346863
-1.548461675643921,4.011492729187012,0.2723504602909088
-1.5791676044464111,4.008044242858887,0.270505428314209
-1.6092448234558105,4.004631519317627,0.26856133341789246
-1.6197150945663452,3.9542675018310547,0.26342540979385376
-1.6496721506118774,3.9504833221435547,0.2613815367221832
-1.684730887413025,3.9570276737213135,0.2599888741970062
-1.7060216665267944,3.931068181991577,0.2564692795276642
-1.7245852947235107,3.901825428009033,0.25265008211135864
-1.750515103340149,3.8904354572296143,0.24995648860931396
-1.7673996686935425,3.8572487831115723,0.24582596123218536
-1.8041608333587646,3.8662075996398926,0.24435797333717346
-1.821033239364624,3.832575798034668,0.24020835757255554
-1.8430662155151367,3.8135502338409424,0.2368459850549698
-1.8545750379562378,3.7734105587005615,0.23220518231391907
-1.8774104118347168,3.753567695617676,0.228730708360672
-1.9017421007156372,3.737107276916504,0.2254871279001236
-1.9323476552963257,3.7347402572631836,0.22303077578544617
-1.964172601699829,3.7359251976013184,0.22072160243988037
-1.9855769872665405,3.715938091278076,0.21711738407611847
-2.0077602863311768,3.695314884185791,0.213401660323143
-1.7128008604049683,3.1008622646331787,0.17688757181167603
-1.7216465473175049,3.069309711456299,0.17286790907382965
-0.8420342803001404,1.4781279563903809,0.08216265588998795
-0.8445082306861877,1.4587903022766113,0.07995594292879105
-0.8544705510139465,1.4530569314956665,0.078497014939785
-0.8720877766609192,1.4608418941497803,0.0777091532945633
-0.8777565360069275,1.4484049081802368,0.07583770155906677
-0.8877972364425659,1.4423543214797974,0.07425796985626221
-0.8849808573722839,1.4166293144226074,0.07166598737239838
-0.9024283289909363,1.4241749048233032,0.07074800878763199
-0.8954029083251953,1.3916993141174316,0.06775476783514023
-0.8901130557060242,1.3626494407653809,0.06496915221214294
-0.8945104479789734,1.3504917621612549,0.06299316138029099
-0.9447977542877197,1.4061776399612427,0.06407681852579117
-2.397423028945923,3.5152440071105957,0.15617425739765167
-1.2323440313339233,1.781987190246582,0.07706145197153091
-1.6227551698684692,2.314194679260254,0.09726490080356598
-1.3916977643966675,1.9906644821166992,-0.061752207577228546
-1.224015712738037,1.7789678573608398,-0.05774104967713356
-1.3114814758300781,1.9366439580917358,-0.0655381977558136
-1.2890663146972656,1.9327937364578247,-0.06789787113666534
-1.2872506380081177,1.9619823694229126,-0.0714184120297432
-1.2435952425003052,1.9250819683074951,-0.07235872000455856
-1.1459976434707642,1.8020496368408203,-0.06981166452169418
-1.2481080293655396,1.996025562286377,-0.07963291555643082
-2.1554055213928223,3.6774473190307617,-0.16175594925880432
-0.8228474259376526,1.4269391298294067,-0.06413337588310242
-2.1309328079223633,3.7587597370147705,-0.17238430678844452
-1.7253767251968384,3.0955522060394287,-0.14475271105766296
-2.0377519130706787,3.716503620147705,-0.1769743263721466
-2.0464258193969727,3.796006202697754,-0.18395619094371796
-2.010745048522949,3.797180414199829,-0.18720494210720062
-1.9801440238952637,3.804246187210083,-0.19058173894882202
-1.9340482950210571,3.779547929763794,-0.19228512048721313
-1.8927617073059082,3.765303611755371,-0.19440005719661713
-1.8186677694320679,3.684331178665161,-0.1929623931646347
-1.6748403310775757,3.454803228378296,-0.18345840275287628
-1.4778915643692017,3.103421211242676,-0.16700111329555511
-1.5248175859451294,3.262319803237915,-0.1777799278497696
-1.488072156906128,3.2447853088378906,-0.17902742326259613
-1.4909310340881348,3.311897039413452,-0.1848939061164856
-1.4583332538604736,3.3006539344787598,-0.1864093542098999
-1.4186569452285767,3.2752819061279297,-0.1870308518409729
-1.3903870582580566,3.2745251655578613,-0.18898479640483856
-1.3688572645187378,3.2876644134521484,-0.1916903704404831
-1.3296687602996826,3.257267713546753,-0.19183330237865448
-1.3064616918563843,3.2665045261383057,-0.1942097395658493
-1.2611957788467407,3.2213590145111084,-0.1933223009109497
-1.2216299772262573,3.1863622665405273,-0.19293974339962006
-1.18430757522583,3.1545064449310303,-0.19268780946731567
-1.151319980621338,3.1333484649658203,-0.193013995885849
-1.118299961090088,3.112029552459717,-0.19321922957897186
-1.0879364013671875,3.097860336303711,-0.19387328624725342
-1.0663599967956543,3.1052322387695312,-0.19581091403961182
-1.0360478162765503,3.0865769386291504,-0.1961044818162918
-0.9995138049125671,3.049285411834717,-0.195066899061203
-0.9670470356941223,3.0228021144866943,-0.19468320906162262
-0.93382328748703,2.9922990798950195,-0.19402141869068146
-0.9175329208374023,3.0135302543640137,-0.19667990505695343
-0.881965160369873,2.971194267272949,-0.19513821601867676
-0.8543482422828674,2.9548113346099854,-0.19517898559570312
-0.8270086646080017,2.938188076019287,-0.195196732878685
-0.7982736229896545,2.9137048721313477,-0.19466133415699005
-0.7735761404037476,2.9041268825531006,-0.195133775472641
-0.7442970871925354,2.8754537105560303,-0.19419626891613007
-0.7220113277435303,2.8730061054229736,-0.19497092068195343
-0.697999119758606,2.862802028656006,-0.19521932303905487
-0.670866847038269,2.8371644020080566,-0.19439655542373657
-0.6464055776596069,2.8227622509002686,-0.1943526417016983
-0.6281532049179077,2.8347887992858887,-0.19597384333610535
-0.6015677452087402,2.8085970878601074,-0.19493839144706726
-0.5755264163017273,2.782144784927368,-0.19387204945087433
-0.5523392558097839,2.7669007778167725,-0.19357596337795258
-0.5298117399215698,2.7553577423095703,-0.19354340434074402
-0.5103844404220581,2.758960723876953,-0.19441816210746765
-0.4909564256668091,2.762422561645508,-0.19529186189174652
-0.46640753746032715,2.7349932193756104,-0.19397957623004913
-0.4461058974266052,2.7304208278656006,-0.19428670406341553
-0.42435750365257263,2.7180511951446533,-0.19403088092803955
-0.3989305794239044,2.678523540496826,-0.1916806995868683
-0.37082192301750183,2.615626096725464,-0.1876477748155594
-0.35306471586227417,2.621967315673828,-0.18857789039611816
-0.3367849886417389,2.63977313041687,-0.19034354388713837
-0.31419268250465393,2.6071953773498535,-0.1884559541940689
-0.29470792412757874,2.601592779159546,-0.1883826106786728
-0.27646076679229736,2.603560209274292,-0.18886011838912964
-0.2559857964515686,2.5821285247802734,-0.18764470517635345
-0.2416093498468399,2.6226069927215576,-0.1909383237361908
-0.22072041034698486,2.593135356903076,-0.18912604451179504
-0.20348632335662842,2.6101531982421875,-0.19057431817054749
-0.18469180166721344,2.6037163734436035,-0.19031646847724915
-0.16977153718471527,2.655461072921753,-0.19432371854782104
-0.14975593984127045,2.6293272972106934,-0.19264265894889832
-0.1295226365327835,2.591374397277832,-0.19008265435695648
-0.11145676672458649,2.6000022888183594,-0.19079653918743134
-0.09357509016990662,2.6084933280944824,-0.1915089339017868
-0.07562657445669174,2.6168601512908936,-0.19222182035446167
-0.05724746733903885,2.609522819519043,-0.1917903572320938
-0.03876321017742157,2.5864758491516113,-0.19020643830299377
-0.02043360471725464,2.5866880416870117,-0.1901761144399643
-0.0024091280065476894,2.5711867809295654,-0.18900084495544434
0.01572713442146778,2.610100030899048,-0.1918344497680664
0.03347155824303627,2.5787665843963623,-0.18951423466205597
0.05173574388027191,2.594053030014038,-0.19062946736812592
0.06891769170761108,2.5624897480010986,-0.1881556659936905
0.0880928635597229,2.5931010246276855,-0.19024719297885895
0.10610473155975342,2.592440605163574,-0.19005456566810608
0.12373897433280945,2.5838723182678223,-0.18929177522659302
0.1421128511428833,2.590744733810425,-0.18966931104660034
0.15906831622123718,2.5741705894470215,-0.18819230794906616
0.17720317840576172,2.573012351989746,-0.1878281682729721
0.19503478705883026,2.5717482566833496,-0.1874699592590332
0.21228212118148804,2.5625898838043213,-0.18654507398605347
0.23080599308013916,2.5688374042510986,-0.18675076961517334
0.24860265851020813,2.567211866378784,-0.1862601488828659
0.2691037356853485,2.588686466217041,-0.18741416931152344
0.2879030406475067,2.594541549682617,-0.18744821846485138
0.3068420886993408,2.600254774093628,-0.18747776746749878
0.32297343015670776,2.5826327800750732,-0.18583497405052185
0.3418447971343994,2.5881097316741943,-0.1857418566942215
0.36429113149642944,2.6165719032287598,-0.18725547194480896
0.37898170948028564,2.5909080505371094,-0.18491077423095703
0.40117210149765015,2.615213394165039,-0.18613605201244354
0.41630756855010986,2.593165636062622,-0.1840696632862091
0.43423837423324585,2.590280532836914,-0.18326415121555328
0.4521077275276184,2.587280511856079,-0.18242590129375458
0.476570188999176,2.618603467941284,-0.18399649858474731
0.5034399628639221,2.6612393856048584,-0.18635942041873932
0.5234149694442749,2.6653871536254883,-0.18602336943149567
0.5487265586853027,2.69616436958313,-0.18741700053215027
0.5655806064605713,2.684786319732666,-0.18585240840911865
0.5926981568336487,2.7189064025878906,-0.18741923570632935
0.6184911131858826,2.745199680328369,-0.18844057619571686
0.6375908851623535,2.7409005165100098,-0.18736328184604645
0.6564003229141235,2.736539125442505,-0.18616026639938354
0.6854604482650757,2.773674488067627,-0.1877594292163849
0.7068530917167664,2.77643084526062,-0.18700245022773743
0.7360825538635254,2.80922532081604,-0.18826933205127716
0.7556129693984985,2.804121255874634,-0.18698400259017944
0.7820605635643005,2.8252789974212646,-0.18731145560741425
0.8077902793884277,2.84244966506958,-0.18736335635185242
0.8365170359611511,2.866729974746704,-0.18784263730049133
0.860938310623169,2.8758697509765625,-0.18733333051204681
0.8888265490531921,2.8960328102111816,-0.18749602138996124
0.9179121851921082,2.9197635650634766,-0.1877896934747696
0.9354156255722046,2.9061172008514404,-0.1856786012649536
0.9705904126167297,2.9439756870269775,-0.18680575489997864
0.9811012148857117,2.907693386077881,-0.18324992060661316
1.0124647617340088,2.93418288230896,-0.18357042968273163
1.018102765083313,2.886898994445801,-0.17924298346042633
1.0458004474639893,2.9019765853881836,-0.1787918508052826
1.0808113813400269,2.9349913597106934,-0.17940197885036469
1.1674715280532837,3.1025962829589844,-0.18810530006885529
1.1968464851379395,3.1165895462036133,-0.18732929229736328
1.2293092012405396,3.137589931488037,-0.1869564950466156
1.2553778886795044,3.1399853229522705,-0.1854240596294403
1.3096489906311035,3.2107417583465576,-0.18787983059883118
1.3544135093688965,3.2557177543640137,-0.18865729868412018
1.3961691856384277,3.293320417404175,-0.18894924223423004
1.1340136528015137,2.624913215637207,-0.1490749567747116
1.1491199731826782,2.6099252700805664,-0.14667879045009613
1.160651445388794,2.587836980819702,-0.14387832581996918
1.1702214479446411,2.562208652496338,-0.1408223658800125
1.1957428455352783,2.5720388889312744,-0.1397407501935959
1.220334529876709,2.577855110168457,-0.13837569952011108
1.2449294328689575,2.5835182666778564,-0.1369807869195938
1.756760597229004,3.584322214126587,-0.18759728968143463
1.8108450174331665,3.6317453384399414,-0.18753598630428314
1.9031884670257568,3.7514498233795166,-0.19103369116783142
1.9702563285827637,3.8181240558624268,-0.19167634844779968
1.3847962617874146,2.6404123306274414,-0.13059809803962708
1.373109221458435,2.576077938079834,-0.12548589706420898
1.3463711738586426,2.484229564666748,-0.11907307058572769
1.3203306198120117,2.39628005027771,-0.11293049901723862
1.3094614744186401,2.3399229049682617,-0.10837945342063904
1.3098067045211792,2.303985834121704,-0.10479915142059326
1.3121592998504639,2.2712528705596924,-0.10135230422019958
1.3195053339004517,2.249013662338257,-0.09839106351137161
1.3345320224761963,2.240233898162842,-0.09599094092845917
1.3459172248840332,2.2243969440460205,-0.09323687106370926
1.357138752937317,2.208512783050537,-0.09047122299671173
1.363267183303833,2.1864545345306396,-0.08745206147432327
1.365418553352356,2.157540798187256,-0.0841306820511818
1.3933271169662476,2.1676273345947266,-0.08221903443336487
1.398881196975708,2.1455254554748535,-0.07911209762096405
1.402294397354126,2.120025157928467,-0.07585792988538742
1.4213756322860718,2.116791009902954,-0.0732957199215889
1.430700421333313,2.1011531352996826,-0.07029549777507782
1.4492541551589966,2.097993850708008,-0.06759022176265717
1.459275484085083,2.0816006660461426,-0.06437607109546661
1.454310417175293,2.04695725440979,-0.060645341873168945
1.4589606523513794,2.024512529373169,-0.057148322463035583
1.453933835029602,1.9896464347839355,-0.05326934903860092
1.475907325744629,1.9929590225219727,-0.05036568269133568
2.1224429607391357,2.9705045223236084,0.10466308146715164
2.108322858810425,2.9947190284729004,0.10948453098535538
2.084968328475952,3.0108587741851807,0.11397870630025864
2.59560227394104,3.806192398071289,0.14860662817955017
3.1447224617004395,4.683592319488525,0.18819689750671387
3.132305860519409,4.743199825286865,0.19587767124176025
3.087615728378296,4.748904228210449,0.2010081708431244
3.0890371799468994,4.826716899871826,0.20906098186969757
1.6363275051116943,2.6000001430511475,0.11511699855327606
1.6178635358810425,2.611402988433838,0.11794952303171158
3.0525295734405518,5.005283355712891,0.23042066395282745
3.026172637939453,5.048336982727051,0.23671908676624298
3.001218557357788,5.090173721313477,0.24279871582984924
2.973435878753662,5.124273777008057,0.2483789622783661
2.8509185314178467,4.996417999267578,0.24591746926307678
2.7505133152008057,4.905020713806152,0.24500896036624908
2.675528049468994,4.852726459503174,0.2458067089319229
2.6230521202087402,4.836730003356934,0.24826903641223907
2.567282199859619,4.817766189575195,0.25041288137435913
2.5062167644500732,4.788026809692383,0.2519276440143585
2.456385612487793,4.7741217613220215,0.25408896803855896
2.3942739963531494,4.735517501831055,0.25491955876350403
2.3267033100128174,4.686263561248779,0.25491470098495483
1.2460378408432007,2.556715726852417,0.140500009059906
1.2279049158096313,2.5653719902038574,0.14234615862369537
1.2066681385040283,2.566709041595459,0.14376872777938843
1.188280463218689,2.575173854827881,0.1455370932817459
1.1642411947250366,2.5731916427612305,0.1466933935880661
1.1599071025848389,2.6135079860687256,0.15023790299892426
1.1276357173919678,2.589250087738037,0.15003792941570282
2.0642480850219727,4.831659317016602,0.2821975648403168
2.035033941268921,4.860784530639648,0.285945862531662
2.018162488937378,4.922484397888184,0.29168984293937683
1.9892429113388062,4.95089054107666,0.29539668560028076
1.9875473976135254,5.0479350090026855,0.3032313287258148
2.0163815021514893,5.229070663452148,0.3161528408527374
1.9977195262908936,5.294458866119385,0.3220214545726776
1.9735088348388672,5.349105358123779,0.3273197114467621
1.9532794952392578,5.410289764404297,0.33296552300453186
1.9038621187210083,5.390501499176025,0.3336421847343445
1.8949772119522095,5.488442420959473,0.341530442237854
1.8715460300445557,5.54984188079834,0.3470679521560669
1.8356966972351074,5.578062534332275,0.35059642791748047
1.9064444303512573,5.932116985321045,0.37464773654937744
1.8766849040985107,5.982309818267822,0.3796389400959015
1.8630331754684448,6.088424205780029,0.3881276547908783
1.8270927667617798,6.1276373863220215,0.3922124207019806
1.7960638999938965,6.185382843017578,0.3975240886211395
1.7656490802764893,6.246662616729736,0.40309733152389526
1.728384017944336,6.281186580657959,0.4069397747516632
1.7076807022094727,6.379563331604004,0.4149346649646759
1.671905517578125,6.429183483123779,0.4195252060890198
0.8225563168525696,3.258197784423828,0.21330626308918
1.554608702659607,6.349956512451172,0.41710612177848816
0.7988459467887878,3.364198923110962,0.22170372307300568
1.4537458419799805,6.317545413970947,0.4177023768424988
1.410727620124817,6.33515739440918,0.42003747820854187
1.3499773740768433,6.272525787353516,0.41697508096694946
1.2973911762237549,6.2476701736450195,0.41644471883773804
1.2462282180786133,6.218214988708496,0.41557177901268005
1.1829097270965576,6.123304843902588,0.4103209376335144
1.137284517288208,6.115978717803955,0.41087591648101807
1.092597484588623,6.1161112785339355,0.4116944670677185
1.0465198755264282,6.112209320068359,0.4122747778892517
1.0034767389297485,6.1193342208862305,0.4135981798171997
0.9524757862091064,6.072165012359619,0.41125383973121643
0.8946163654327393,5.974485397338867,0.4054874777793884
0.8505733609199524,5.965093612670898,0.4055347740650177
0.8130016326904297,6.0095953941345215,0.4091370701789856
0.7621930241584778,5.949394702911377,0.40561920404434204
0.7187753915786743,5.939029216766357,0.40550515055656433
0.5750381350517273,5.045473575592041,0.3450128436088562
0.5528064966201782,5.1694231033325195,0.3540346920490265
0.40775755047798157,4.083436965942383,0.27992677688598633
0.3785504698753357,4.086217880249023,0.2803688049316406
0.3525216281414032,4.119807720184326,0.28293606638908386
0.329039603471756,4.188178062438965,0.28790977597236633
0.2998937964439392,4.190335273742676,0.2883501350879669
0.26951226592063904,4.172843933105469,0.28743940591812134
0.24046887457370758,4.186313629150391,0.28846481442451477
0.39239707589149475,7.7802653312683105,0.5363160967826843
0.3366779386997223,7.75164270401001,0.534572422504425
0.28139349818229675,7.718721866607666,0.5325556993484497
0.22761769592761993,7.7204670906066895,0.5329553484916687
0.1721630096435547,7.690698146820068,0.5311145186424255
0.1179390475153923,7.656643390655518,0.5286943316459656
0.0641782134771347,7.610517501831055,0.5254669189453125
0.011045386083424091,7.602985858917236,0.5249300003051758
-0.04159638285636902,7.567807197570801,0.5225096940994263
-0.0948193296790123,7.543943405151367,0.5208966135978699
-0.14644397795200348,7.504150867462158,0.5180560350418091
-0.19808140397071838,7.487399101257324,0.5165911912918091
-0.24936340749263763,7.466397762298584,0.5148593783378601
-0.30052071809768677,7.448939323425293,0.5133979320526123
-0.35336506366729736,7.470054626464844,0.5146192908287048
-0.2952575385570526,5.42835807800293,0.3738102316856384
-0.33195260167121887,5.410650730133057,0.3723037540912628
-0.1630239635705948,2.3872580528259277,0.1640862375497818
-0.18126767873764038,2.4094090461730957,0.16543522477149963
-0.2005130797624588,2.4391849040985107,0.1673113852739334
-0.21149097383022308,2.3678553104400635,0.16225995123386383
-0.22791768610477448,2.3663480281829834,0.16200849413871765
-0.2430557757616043,2.353109836578369,0.16088134050369263
-0.260515034198761,2.3630292415618896,0.16130807995796204
-0.2744925320148468,2.3418524265289307,0.159620463848114
-0.29435959458351135,2.366957902908325,0.1610885113477707
-0.6012836694717407,4.575194835662842,0.3109259307384491
-0.6287357807159424,4.540077209472656,0.3081085681915283
-0.6559841632843018,4.508714199066162,0.3053649961948395
-0.6874857544898987,4.508024215698242,0.30468976497650146
-0.7182720899581909,4.4993391036987305,0.30347874760627747
-0.7456756830215454,4.471235275268555,0.3009780943393707
-0.7753949165344238,4.4583282470703125,0.2995190918445587
-0.8049401640892029,4.445232391357422,0.2980291545391083
-0.8295446634292603,4.409058570861816,0.29481929540634155
-0.849958062171936,4.353627681732178,0.29034972190856934
-0.7465448379516602,3.6867198944091797,0.24522188305854797
-0.7689272165298462,3.6662516593933105,0.2432277947664261
-0.945679247379303,4.358010292053223,0.28837940096855164
-0.9670841693878174,4.313453197479248,0.28460484743118286
-1.0052322149276733,4.344834327697754,0.2857460677623749
-1.0298748016357422,4.315107345581055,0.282863050699234
-1.0577964782714844,4.300408840179443,0.28098779916763306
-1.0799837112426758,4.262815475463867,0.2776329815387726
-1.1096099615097046,4.255289554595947,0.2762550413608551
-1.1364837884902954,4.240220069885254,0.2742112874984741
-1.1657531261444092,4.232369422912598,0.2726203203201294
-1.1945735216140747,4.22442626953125,0.2710508406162262
-1.2217170000076294,4.208639621734619,0.26897260546684265
-1.2475858926773071,4.1889424324035645,0.2666621506214142
-1.2716680765151978,4.165497779846191,0.2640365660190582
-1.2979217767715454,4.14933443069458,0.2617848515510559
-1.3330390453338623,4.162868976593018,0.26143568754196167
-1.3496426343917847,4.116611957550049,0.2573191523551941
-1.3831862211227417,4.122031211853027,0.25644537806510925
-1.4090453386306763,4.105132579803467,0.25414755940437317
-1.431464672088623,4.080963611602783,0.25127896666526794
-1.4514895677566528,4.049158573150635,0.24793925881385803
-1.4792633056640625,4.039216041564941,0.24595387279987335
-1.5045892000198364,4.021646022796631,0.243500754237175
-1.5351448059082031,4.018555641174316,0.24191726744174957
-1.559202790260315,4.001040458679199,0.2393328845500946
-1.579243779182434,3.9723243713378906,0.23607219755649567
-1.6137561798095703,3.9796111583709717,0.2349545657634735
-1.638444423675537,3.9612014293670654,0.23230190575122833
-1.661226511001587,3.939136028289795,0.22942548990249634
-1.6844062805175781,3.920926570892334,0.22667118906974792
-1.7172433137893677,3.9238317012786865,0.2251158356666565
-1.7458133697509766,3.9156136512756348,0.22290030121803284
-1.7714096307754517,3.8999555110931396,0.2202533781528473
-1.7946847677230835,3.880845069885254,0.21736867725849152
-1.8137683868408203,3.854865312576294,0.2140456587076187
-1.8298081159591675,3.8214828968048096,0.21029505133628845
-1.8666354417800903,3.829834222793579,0.208803191781044
-1.8794232606887817,3.7889082431793213,0.20463623106479645
-1.893991470336914,3.755592107772827,0.20079442858695984
-1.925873875617981,3.757035493850708,0.19881100952625275
-1.9479725360870361,3.73697566986084,0.19561710953712463
-1.9707586765289307,3.7163305282592773,0.19233691692352295
-1.9994724988937378,3.7099790573120117,0.18977707624435425
-2.0463085174560547,3.7379794120788574,0.18891319632530212
-1.7110834121704102,3.076237440109253,0.1535210907459259
-1.7363008260726929,3.071173667907715,0.1512555181980133
-0.8475527167320251,1.4755183458328247,0.07165718823671341
-0.857147753238678,1.4700273275375366,0.07037314027547836
-0.8710444569587708,1.4709786176681519,0.0693572610616684
-0.8651956915855408,1.438170075416565,0.06673336774110794
-0.8706722259521484,1.4257848262786865,0.06506568938493729
-0.8718471527099609,1.4067931175231934,0.0630861222743988
-0.9022824764251709,1.4338715076446533,0.06311382353305817
-0.8995393514633179,1.4079419374465942,0.06078232452273369
-0.9085323810577393,1.4022186994552612,0.05931263044476509
-0.9263596534729004,1.409294605255127,0.05833468213677406
-0.9407056570053101,1.4092247486114502,0.056946612894535065
-2.4140243530273438,3.5660483837127686,0.1405927836894989
-1.4083034992218018,2.0214953422546387,0.07545050978660583
-1.250056505203247,1.770123839378357,0.06410066783428192
-1.380835771560669,1.9603506326675415,-0.05310964956879616
-1.4816712141036987,2.137543201446533,-0.06071631610393524
-1.3241645097732544,1.9706677198410034,-0.06067974865436554
-1.2990357875823975,1.9638766050338745,-0.06267052888870239
-1.2806317806243896,1.9665354490280151,-0.06489048898220062
-1.253130316734314,1.9563281536102295,-0.06661321967840195
-1.3120105266571045,2.0807511806488037,-0.07290975004434586
-0.842241644859314,1.4023770093917847,-0.05306705832481384
-0.8291002511978149,1.4506304264068604,-0.05856793746352196
-2.1220483779907227,3.7734978199005127,-0.15530844032764435
-1.7035173177719116,3.081547737121582,-0.12924645841121674
-2.0628411769866943,3.7970077991485596,-0.1621333509683609
-2.0359809398651123,3.8113327026367188,-0.16550929844379425
-2.009392738342285,3.8252716064453125,-0.1688385307788849
-1.9708333015441895,3.818800449371338,-0.1711713820695877
-1.938934087753296,3.826197624206543,-0.17415004968643188
-1.8930433988571167,3.801064968109131,-0.17547215521335602
-1.8801039457321167,3.8421308994293213,-0.1798391491174698
-1.8774232864379883,3.908346176147461,-0.18534930050373077
-1.8291079998016357,3.8793325424194336,-0.18634550273418427
-1.5856112241744995,3.424389362335205,-0.16650071740150452
-1.5579748153686523,3.428354263305664,-0.16872158646583557
-1.54905104637146,3.4750421047210693,-0.17294353246688843
-1.4270461797714233,3.2643239498138428,-0.16425755620002747
-1.4165489673614502,3.3027734756469727,-0.16795219480991364
-1.3995561599731445,3.326833486557007,-0.17094431817531586
-1.3602533340454102,3.3008201122283936,-0.17127981781959534
-1.3656253814697266,3.382791519165039,-0.1772124469280243
-1.3634997606277466,3.4465525150299072,-0.18220876157283783
-1.3507858514785767,3.4849367141723633,-0.1859050840139389
-1.3357205390930176,3.5198516845703125,-0.18936821818351746
-1.3209012746810913,3.5586352348327637,-0.19306226074695587
-1.2451205253601074,3.4284300804138184,-0.18750184774398804
-1.218577265739441,3.42956805229187,-0.18904969096183777
-1.1842663288116455,3.4084410667419434,-0.18932588398456573
-1.149821400642395,3.3871755599975586,-0.1894744485616684
-1.1116539239883423,3.354619264602661,-0.18899589776992798
-1.0858486890792847,3.354764938354492,-0.19029363989830017
-1.050719976425171,3.3249518871307373,-0.18988259136676788
-1.0076473951339722,3.268843650817871,-0.1878436803817749
-0.9775895476341248,3.2534420490264893,-0.18808354437351227
-0.9502077102661133,3.245204448699951,-0.18872369825839996
-0.9175638556480408,3.218012809753418,-0.1882580816745758
-0.8909465670585632,3.2092111110687256,-0.1888352930545807
-0.8701777458190918,3.2229063510894775,-0.1906001716852188
-0.8354285955429077,3.1836512088775635,-0.18923071026802063
-0.8044078350067139,3.155346155166626,-0.188487708568573
-0.7839178442955017,3.16845703125,-0.19022929668426514
-0.7580927014350891,3.1586227416992188,-0.1905415952205658
-0.7233714461326599,3.110663652420044,-0.1884332299232483
-0.7004729509353638,3.1118366718292236,-0.1892971247434616
-0.6787429451942444,3.1165826320648193,-0.19037525355815887
-0.6518707275390625,3.0983433723449707,-0.1900634616613388
-0.6286386847496033,3.0951216220855713,-0.1905931830406189
-0.5992951393127441,3.061159610748291,-0.1891390085220337
-0.5777098536491394,3.065250873565674,-0.19003671407699585
-0.5487123727798462,3.0269417762756348,-0.18829816579818726
-0.5286017656326294,3.0383782386779785,-0.18966740369796753
-0.5034711360931396,3.0188796520233154,-0.18902388215065002
-0.4809737801551819,3.0146048069000244,-0.18926043808460236
-0.4538906216621399,2.9793248176574707,-0.1875513792037964
-0.43428412079811096,2.990081310272217,-0.18873858451843262
-0.4110097885131836,2.9775826930999756,-0.18847417831420898
-0.3826366066932678,2.9223549365997314,-0.18541210889816284
-0.3559246063232422,2.874634265899658,-0.18274246156215668
-0.3366791605949402,2.8847687244415283,-0.18375442922115326
-0.31316229701042175,2.856011152267456,-0.1822931468486786
-0.2964291274547577,2.889116048812866,-0.18478932976722717
-0.2758910655975342,2.891120672225952,-0.18524138629436493
-0.2528587877750397,2.861896514892578,-0.1836073100566864
-0.2315135896205902,2.8480353355407715,-0.1829640120267868
-0.2093714326620102,2.818455219268799,-0.18131379783153534
-0.19081825017929077,2.8353779315948486,-0.1826622635126114
-0.17071649432182312,2.8366405963897705,-0.1829526275396347
-0.1508856564760208,2.8377525806427,-0.1831379234790802
-0.1310729682445526,2.8387246131896973,-0.1833229959011078
-0.11344225704669952,2.8940887451171875,-0.18703173100948334
-0.09183322638273239,2.848041534423828,-0.1841956526041031
-0.0720786601305008,2.8641982078552246,-0.18534669280052185
-0.05240966007113457,2.880218982696533,-0.186380535364151
-0.032170794904232025,2.8649210929870605,-0.1853967159986496
-0.01223192922770977,2.8572776317596436,-0.18491707742214203
0.007708094548434019,2.880680561065674,-0.1864558458328247
0.02800539880990982,2.872757911682129,-0.18595099449157715
0.04730524867773056,2.8335273265838623,-0.183296337723732
0.06735146790742874,2.848726987838745,-0.18417255580425262
0.08692127466201782,2.8404057025909424,-0.18353654444217682
0.10813451558351517,2.878695011138916,-0.18592026829719543
0.1270834058523178,2.854517936706543,-0.18427534401416779
0.14720429480075836,2.8535704612731934,-0.18397286534309387
0.1665320247411728,2.844717264175415,-0.1831742376089096
0.18525968492031097,2.8279519081115723,-0.18187646567821503
0.20406952500343323,2.814950466156006,-0.18083135783672333
0.22116315364837646,2.7823946475982666,-0.1785418838262558
0.24277810752391815,2.8040976524353027,-0.17960049211978912
0.2621952295303345,2.802377462387085,-0.17915500700473785
0.28355032205581665,2.8199169635772705,-0.1799471378326416
0.3039853572845459,2.825657844543457,-0.17999066412448883
0.32715216279029846,2.8544921875,-0.18150998651981354
0.34628546237945557,2.8444175720214844,-0.1804284304380417
0.3698682487010956,2.872934579849243,-0.18177780508995056
0.387617290019989,2.854896068572998,-0.18018648028373718
0.4157613515853882,2.9100584983825684,-0.18321388959884644
0.4336794912815094,2.8917136192321777,-0.18161609768867493
0.4564113914966583,2.9040472507476807,-0.18183401226997375
0.47766563296318054,2.9085781574249268,-0.18153853714466095
0.5003713369369507,2.920630931854248,-0.18171514570713043
0.5220494270324707,2.9248046875,-0.18140140175819397
0.5466567277908325,2.9441521167755127,-0.1820315718650818
0.5691641569137573,2.951853036880493,-0.1818387657403946
0.5928542613983154,2.963153123855591,-0.1818159520626068
0.6164225935935974,2.9743285179138184,-0.18179748952388763
0.6403785943984985,2.985276222229004,-0.18175958096981049
0.6678940653800964,3.011261463165283,-0.18263527750968933
0.6868595480918884,2.9990572929382324,-0.18109579384326935
0.7131426930427551,3.0170321464538574,-0.1813346892595291
0.736656904220581,3.023486852645874,-0.18089167773723602
0.7633991837501526,3.041043996810913,-0.1811019629240036
0.7884697318077087,3.050823450088501,-0.1808474063873291
0.8133898973464966,3.0604937076568604,-0.18045929074287415
0.8346717357635498,3.0548362731933594,-0.17913313210010529
0.8651952743530273,3.0828824043273926,-0.17979054152965546
0.8952978849411011,3.106837511062622,-0.18018685281276703
0.9279424548149109,3.138016939163208,-0.18098492920398712
0.9515747427940369,3.139169454574585,-0.179923877120018
0.974518358707428,3.1362946033477783,-0.17861489951610565
1.0008891820907593,3.144442081451416,-0.1779422163963318
0.9889125823974609,3.0336413383483887,-0.17056982219219208
0.9925685524940491,2.9750165939331055,-0.16616246104240417
1.0153074264526367,2.9756643772125244,-0.16501788794994354
1.0380773544311523,2.9761481285095215,-0.16386736929416656
1.2150911092758179,3.406057357788086,-0.1861380785703659
1.2280902862548828,3.3682913780212402,-0.18271362781524658
1.2360961437225342,3.3197100162506104,-0.17864662408828735
1.2793526649475098,3.3660640716552734,-0.17965129017829895
1.3080097436904907,3.3718812465667725,-0.1784546822309494
1.3448013067245483,3.3952829837799072,-0.1781228631734848
1.4076985120773315,3.483689785003662,-0.18115712702274323
1.4251970052719116,3.4598069190979004,-0.17823508381843567
1.4696507453918457,3.500593423843384,-0.17863331735134125
1.0901700258255005,2.5469441413879395,-0.1286890208721161
1.1441045999526978,2.621490716934204,-0.13111251592636108
1.1523289680480957,2.592372179031372,-0.12828324735164642
1.166528582572937,2.577536106109619,-0.12617099285125732
1.1842377185821533,2.569535732269287,-0.12437177449464798
1.202114224433899,2.5613090991973877,-0.12254976481199265
1.2231554985046387,2.560070514678955,-0.12100466340780258
1.231709361076355,2.534374952316284,-0.11831865459680557
1.9651706218719482,3.974412441253662,-0.1831827461719513
1.241987943649292,2.468510150909424,-0.11227301508188248
1.2071837186813354,2.3593289852142334,-0.10583771765232086
1.271506667137146,2.4448132514953613,-0.10811642557382584
1.264695167541504,2.391174554824829,-0.1041555255651474
1.2701747417449951,2.3617939949035645,-0.10129690915346146
1.2860291004180908,2.3532826900482178,-0.0993267074227333
1.2977441549301147,2.3380000591278076,-0.09706545621156693
1.3022587299346924,2.30871844291687,-0.09418165683746338
1.3341388702392578,2.3266003131866455,-0.09316541999578476
1.3318287134170532,2.2874388694763184,-0.08987024426460266
1.3230977058410645,2.238326072692871,-0.08623135834932327
1.3306008577346802,2.21575927734375,-0.08357258886098862
1.3415515422821045,2.2000858783721924,-0.08118477463722229
1.360246181488037,2.197844982147217,-0.07924887537956238
1.36273193359375,2.1687657833099365,-0.07631183415651321
1.3903090953826904,2.179112195968628,-0.07472524791955948
1.3916690349578857,2.1504673957824707,-0.07178962975740433
1.4103047847747803,2.1477181911468506,-0.06967023760080338
1.4254597425460815,2.1377687454223633,-0.06719695776700974
1.4303867816925049,2.1157212257385254,-0.06438715010881424
1.4422434568405151,2.1029975414276123,-0.061792295426130295
1.4522610902786255,2.0866589546203613,-0.059004031121730804
1.4519708156585693,2.0583231449127197,-0.05589495599269867
1.4570266008377075,2.0356409549713135,-0.05278073623776436
1.4658564329147339,2.019718885421753,-0.04985038563609123
1.4694721698760986,1.9977971315383911,-0.0467367097735405
2.113288164138794,2.977447271347046,0.09185205399990082
2.092238664627075,2.996912956237793,0.09599065035581589
2.586146593093872,3.761436700820923,0.12452682107686996
3.1623666286468506,4.672761917114258,0.1595899909734726
3.1394052505493164,4.716196060180664,0.16583074629306793
3.1085119247436523,4.7411041259765625,0.17102885246276855
3.0907280445098877,4.78974723815918,0.17706449329853058
1.6295582056045532,2.5680251121520996,0.09718471765518188
1.6277881860733032,2.6059505939483643,0.10073763877153397
1.600902795791626,2.604142189025879,0.10270856320858002
2.9989092350006104,4.961432456970215,0.19947883486747742
1.4040824174880981,2.398735284805298,0.09986065328121185
1.4092761278152466,2.4497928619384766,0.10366564244031906
2.4554617404937744,4.34255838394165,0.18664027750492096
2.436601400375366,4.379840850830078,0.19094935059547424
2.426280975341797,4.434422492980957,0.19603458046913147
2.4359030723571777,4.531179904937744,0.20296242833137512
2.4405438899993896,4.621425151824951,0.2097005844116211
2.4496209621429443,4.717853546142578,0.21665816009044647
2.430400848388672,4.7627105712890625,0.2212720364332199
2.372492551803589,4.734986782073975,0.22239768505096436
2.3103463649749756,4.695976257324219,0.22292686998844147
1.2344220876693726,2.5545847415924072,0.12251855432987213
1.2131619453430176,2.5560343265533447,0.12380673736333847
1.1894809007644653,2.5541553497314453,0.1248549148440361
1.1739798784255981,2.5698232650756836,0.12676721811294556
1.155936598777771,2.577915668487549,0.12826602160930634
1.152064323425293,2.6179895401000977,0.13137106597423553
2.0756633281707764,4.811846733093262,0.2434249222278595
2.049635648727417,4.84828519821167,0.24715687334537506
2.0208442211151123,4.877121925354004,0.2504938840866089
2.0059328079223633,4.937934875488281,0.2554570138454437
1.985895037651062,4.9879150390625,0.2598962187767029
2.032695770263672,5.216759204864502,0.273581862449646
2.0059874057769775,5.260374546051025,0.2776212990283966
1.9810738563537598,5.307173252105713,0.281819611787796
1.960167407989502,5.3646721839904785,0.2865995466709137
1.9277714490890503,5.392844200134277,0.2898011803627014
1.8907326459884644,5.414081573486328,0.2925131320953369
1.8806636333465576,5.512354373931885,0.2994004189968109
1.8480170965194702,5.543826103210449,0.30266696214675903
1.9095780849456787,5.864318370819092,0.3218050003051758
1.8979355096817017,5.970381259918213,0.3292533755302429
1.8715425729751587,6.039867877960205,0.3345751166343689
1.8416341543197632,6.097846031188965,0.3392753303050995
1.812992811203003,6.159178733825684,0.34417155385017395
1.7829585075378418,6.216527462005615,0.3488689363002777
1.746973991394043,6.254965782165527,0.3525254726409912
1.7185766696929932,6.327409267425537,0.357876718044281
1.6814848184585571,6.373565673828125,0.3618006110191345
1.647984504699707,6.430526256561279,0.36633673310279846
0.8100423812866211,3.2549355030059814,0.18608492612838745
1.5454425811767578,6.399557590484619,0.36716556549072266
0.78473299741745,3.353217601776123,0.192969411611557
1.4295300245285034,6.314329147338867,0.36443257331848145
1.3762340545654297,6.286146640777588,0.36385536193847656
1.3227591514587402,6.249696254730225,0.3627808094024658
1.2690777778625488,6.208987712860107,0.36146077513694763
1.212728500366211,6.152593612670898,0.3591468036174774
1.1640132665634155,6.138105869293213,0.3590933084487915
1.124621868133545,6.169156551361084,0.3617103695869446
1.0631426572799683,6.073108196258545,0.35687384009361267
1.0234358310699463,6.095670700073242,0.35900643467903137
0.9809902906417847,6.102572917938232,0.3602360785007477
0.9260885715484619,6.036135196685791,0.35695499181747437
0.8744277954101562,5.980729103088379,0.35424667596817017
0.8284279108047485,5.95966100692749,0.35358133912086487
0.7817701697349548,5.926575183868408,0.3522064983844757
0.7477484345436096,5.989860534667969,0.356577068567276
0.5992857813835144,5.088667869567871,0.3034425675868988
0.5628743767738342,5.092790126800537,0.30400827527046204
0.5354711413383484,5.178041934967041,0.30943194031715393
0.39894625544548035,4.141427040100098,0.24776409566402435
0.36282116174697876,4.062516212463379,0.2433260977268219
0.34384727478027344,4.1776123046875,0.25052204728126526
0.3144722580909729,4.183813571929932,0.25113990902900696
0.2843491733074188,4.174228668212891,0.25069350004196167
0.2541801929473877,4.1605329513549805,0.2500114142894745
0.22956594824790955,4.243954658508301,0.25517943501472473
0.36582714319229126,7.762518882751465,0.46704763174057007
0.3101683557033539,7.745401859283447,0.46635013818740845
0.2554723918437958,7.723975658416748,0.4651927351951599
0.20061393082141876,7.686583042144775,0.46295401453971863
0.14673654735088348,7.672194480895996,0.46212315559387207
0.0931771844625473,7.653528213500977,0.4610566198825836
0.0387771911919117,7.599401473999023,0.4578770697116852
-0.013930624350905418,7.583883762359619,0.45704376697540283
-0.06631708890199661,7.54852294921875,0.4547620713710785
-0.11856347322463989,7.540097713470459,0.4540559947490692
-0.1702420860528946,7.50792121887207,0.4519421458244324
-0.22194123268127441,7.490981578826904,0.450768381357193
-0.2733958065509796,7.44637393951416,0.4479503333568573
-0.3261477053165436,7.467681884765625,0.44912222027778625
-0.2708492875099182,5.3506999015808105,0.3214883506298065
-0.31256982684135437,5.430472373962402,0.32597389817237854
-0.34717848896980286,5.381507396697998,0.32274487614631653
-0.1693754345178604,2.364711284637451,0.14169549942016602
-0.18763825297355652,2.3868119716644287,0.1429046094417572
-0.20488643646240234,2.393233299255371,0.14316095411777496
-0.21923083066940308,2.3684842586517334,0.1414778232574463
-0.23288096487522125,2.339769124984741,0.1395685076713562
-0.2514077126979828,2.3574769496917725,0.14043216407299042
-0.2695407569408417,2.3711891174316406,0.14106431603431702
-0.290656179189682,2.4079930782318115,0.1430731862783432
-0.3072977662086487,2.4059462547302246,0.14273087680339813
-0.6065022945404053,4.502299785614014,0.2665744125843048
-0.6401354670524597,4.513441562652588,0.26671475172042847
-0.6701499819755554,4.501242637634277,0.26549360156059265
-0.7002043724060059,4.488818168640137,0.2642706632614136
-0.7313740253448486,4.483890056610107,0.26350271701812744
-0.7622307538986206,4.4788007736206055,0.26260122656822205
-0.7915138006210327,4.465853691101074,0.26119697093963623
-0.8197617530822754,4.444949626922607,0.25933220982551575
-0.8432244658470154,4.400912761688232,0.2561406195163727
-0.7429648041725159,3.7370948791503906,0.21698516607284546
-0.7547332644462585,3.663137674331665,0.21217811107635498
-0.7788556814193726,3.6541521549224854,0.21100279688835144
-0.9502047300338745,4.311437606811523,0.24818055331707
-0.9831792712211609,4.320104122161865,0.24791979789733887
-1.0168137550354004,4.328405380249023,0.24763189256191254
-1.0450598001480103,4.3137125968933105,0.2460402101278305
-1.0614649057388306,4.253518581390381,0.24178177118301392
-1.087968111038208,4.234812259674072,0.2398054450750351
-1.1167391538619995,4.227390766143799,0.238497793674469
-1.1530494689941406,4.246005535125732,0.2386513352394104
-1.1772096157073975,4.21920108795166,0.23625825345516205
-1.2096145153045654,4.222275733947754,0.2355344295501709
-1.2385897636413574,4.213951110839844,0.2340201735496521
-1.2591711282730103,4.17941951751709,0.23108439147472382
-1.2876615524291992,4.170812129974365,0.22958946228027344
-1.3142708539962769,4.15440559387207,0.2276589274406433
-1.3431189060211182,4.145252227783203,0.22613871097564697
-1.3668055534362793,4.121156215667725,0.22367021441459656
-1.3920422792434692,4.104552268981934,0.2216133326292038
-1.4223737716674805,4.102488994598389,0.2203456163406372
-1.4430725574493408,4.070518970489502,0.2174546718597412
-1.4766868352890015,4.075138092041016,0.21653111279010773
-1.49625825881958,4.043137073516846,0.21357674896717072
-1.523880958557129,4.032905578613281,0.21171371638774872
-1.548248529434204,4.015347480773926,0.20949633419513702
-1.5704090595245361,3.9900636672973633,0.20685355365276337
-1.598075270652771,3.979161262512207,0.2049727886915207
-1.6249752044677734,3.9683525562286377,0.20301584899425507
-1.6413862705230713,3.932114601135254,0.19970889389514923
-1.6709023714065552,3.92824649810791,0.1980740875005722
-1.6764721870422363,3.8665037155151367,0.19349944591522217
-1.703344464302063,3.8548426628112793,0.1914595067501068
-1.7547441720962524,3.9003922939300537,0.19213058054447174
-1.7778661251068115,3.8814334869384766,0.18957021832466125
-1.797694444656372,3.8551809787750244,0.1866600662469864
-1.8244826793670654,3.8426849842071533,0.1843971312046051
-1.8440133333206177,3.8161299228668213,0.18144260346889496
-1.8830115795135498,3.8319685459136963,0.1804279237985611
-1.8914083242416382,3.784360885620117,0.17640161514282227
-1.903510332107544,3.743406295776367,0.17267248034477234
-1.933066725730896,3.7371318340301514,0.17056156694889069
-1.9577208757400513,3.72438907623291,0.1680743247270584
-1.9784889221191406,3.704662799835205,0.16527444124221802
-2.0150725841522217,3.7116782665252686,0.1635812669992447
-1.7092900276184082,3.0959880352020264,0.13471366465091705
-1.7260189056396484,3.077842950820923,0.13216355443000793
-1.7461497783660889,3.066563844680786,0.12989674508571625
-0.8444628715515137,1.4597344398498535,0.06094196438789368
-0.8506696820259094,1.4471244812011719,0.05951174721121788
-0.8643506765365601,1.448143482208252,0.05860568583011627
-0.8737642168998718,1.4425300359725952,0.05744079500436783
-0.8919097781181335,1.4497979879379272,0.05672325938940048
-0.8852830529212952,1.417206883430481,0.05444910749793053
-0.898553192615509,1.418130874633789,0.053451057523489
-0.8679916262626648,1.3496805429458618,0.04983031377196312
-0.9034135937690735,1.3639552593231201,0.04814692586660385
-1.3436683416366577,1.943099021911621,0.0634024441242218
-1.3246270418167114,1.8898099660873413,0.05988927185535431
-1.3783148527145386,1.9717979431152344,-0.04795513674616814
-1.2287800312042236,1.7855335474014282,-0.04536626860499382
-1.2655731439590454,1.8691157102584839,-0.0494840145111084
-1.3218220472335815,1.9818230867385864,-0.054401054978370667
-1.242598533630371,1.8937031030654907,-0.05379577726125717
-1.55718195438385,2.4110922813415527,-0.07068832218647003
-1.2427314519882202,1.9539390802383423,-0.05897793918848038
-0.8315582275390625,1.3726005554199219,-0.044816214591264725
-0.7754221558570862,1.3015177249908447,-0.04348892718553543
-0.8761284351348877,1.5454216003417969,-0.05496826022863388
-1.1592673063278198,2.0804343223571777,-0.07541591674089432
-1.6850403547286987,3.0744950771331787,-0.11343485862016678
-2.019282341003418,3.7458910942077637,-0.140586256980896
-2.015075445175171,3.8055708408355713,-0.14519864320755005
-1.9838378429412842,3.8130390644073486,-0.14778660237789154
-1.9518944025039673,3.816232681274414,-0.1501169353723526
-1.910878300666809,3.801906108856201,-0.15171898901462555
-1.8969361782073975,3.8436319828033447,-0.15550558269023895
-1.8688421249389648,3.8572611808776855,-0.15818116068840027
-1.8352144956588745,3.8559834957122803,-0.16015031933784485
-1.819493293762207,3.893502712249756,-0.1637016385793686
-1.7700672149658203,3.8603622913360596,-0.1642138510942459
-1.5550528764724731,3.456343412399292,-0.14870624244213104
-1.5309394598007202,3.467000722885132,-0.15080270171165466
-1.535538911819458,3.5458359718322754,-0.15590687096118927
-1.6532573699951172,3.894451856613159,-0.17296503484249115
-1.4033690690994263,3.372807741165161,-0.1512846201658249
-1.3636811971664429,3.3426434993743896,-0.1513582170009613
-1.3519765138626099,3.3809595108032227,-0.15453548729419708
-1.3343716859817505,3.4088268280029297,-0.1571863293647766
-1.3322216272354126,3.4765372276306152,-0.16168954968452454
-1.5230730772018433,4.0593414306640625,-0.19036982953548431
-1.4274643659591675,3.8866069316864014,-0.1837712824344635
-1.3945857286453247,3.8818535804748535,-0.18496021628379822
-1.3895272016525269,3.958099603652954,-0.19000470638275146
-1.3462140560150146,3.9234774112701416,-0.18970774114131927
-1.280357837677002,3.817996025085449,-0.18591609597206116
-1.2172257900238037,3.715515375137329,-0.18218901753425598
-1.1716277599334717,3.664577007293701,-0.1808282434940338
-1.1473069190979004,3.680361032485962,-0.18277157843112946
-1.1238213777542114,3.6956820487976074,-0.18466222286224365
-1.085910677909851,3.6621785163879395,-0.18410532176494598
-1.0602195262908936,3.669626474380493,-0.18553653359413147
-1.013006329536438,3.6018776893615723,-0.18307244777679443
-0.9915511608123779,3.623957395553589,-0.18516619503498077
-0.9548495411872864,3.589341640472412,-0.18436294794082642
-0.9259434938430786,3.580724000930786,-0.18487289547920227
-0.8930683732032776,3.5568323135375977,-0.18449538946151733
-0.8660005331039429,3.5554304122924805,-0.18523691594600677
-0.8274345397949219,3.504443883895874,-0.18338657915592194
-0.802556574344635,3.5101661682128906,-0.18450380861759186
-0.7654452919960022,3.458479166030884,-0.18258453905582428
-0.7295824885368347,3.4103407859802246,-0.180715411901474
-0.710185706615448,3.4382872581481934,-0.1828538328409195
-0.6760685443878174,3.3934154510498047,-0.1811203509569168
-0.643237292766571,3.352090358734131,-0.17956985533237457
-0.6213752031326294,3.364098310470581,-0.1808655858039856
-0.5936295390129089,3.345296859741211,-0.18037620186805725
-0.571380615234375,3.3570432662963867,-0.1815226525068283
-0.5453488826751709,3.3455231189727783,-0.18141619861125946
-0.519271969795227,3.3338401317596436,-0.18131031095981598
-0.48981115221977234,3.2948849201202393,-0.17971108853816986
-0.467794805765152,3.3059303760528564,-0.18070988357067108
-0.44253024458885193,3.2936348915100098,-0.1804201751947403
-0.42044419050216675,3.3043606281280518,-0.18139901757240295
-0.3974460959434509,3.307175397872925,-0.18195080757141113
-0.3674769401550293,3.251736879348755,-0.1793060451745987
-0.3492245078086853,3.2968716621398926,-0.18208645284175873
