X,Y,Z
-1.7803895473480225,6.0851054191589355,0.7015364170074463
-1.150881052017212,3.834177255630493,0.440517783164978
-1.1536303758621216,3.7483885288238525,0.4291974902153015
-1.1794633865356445,3.740644931793213,0.42653557658195496
-1.2131363153457642,3.7587368488311768,0.42684483528137207
-1.2482894659042358,3.780244827270508,0.42753833532333374
-1.2845481634140015,3.8012027740478516,0.4281107187271118
-1.9988160133361816,5.782342433929443,0.6485246419906616
-2.031933546066284,5.750682830810547,0.6420961618423462
-2.058048963546753,5.700622081756592,0.6333467960357666
-2.0828473567962646,5.650724411010742,0.6247438192367554
-2.117471933364868,5.625899314880371,0.6189007759094238
-2.139974594116211,5.567966938018799,0.6094215512275696
-2.190042734146118,5.582390308380127,0.607867956161499
-2.252582311630249,5.629240036010742,0.6093560457229614
-2.3181447982788086,5.682957172393799,0.6115933656692505
-2.3566231727600098,5.667672157287598,0.6063472032546997
-2.3703970909118652,5.590786457061768,0.5944669246673584
-2.4325714111328125,5.628176212310791,0.594771683216095
-2.4896485805511475,5.654794692993164,0.5934524536132812
-3.9493045806884766,8.81104564666748,0.9183167815208435
-2.5427958965301514,5.57251501083374,0.576711893081665
-2.5701746940612793,5.530550479888916,0.5681912302970886
-4.277448654174805,9.039623260498047,0.9218741655349731
-2.6036531925201416,5.408385276794434,0.5470234155654907
-4.534800052642822,9.2632474899292,0.9292795658111572
-2.6829864978790283,5.388115882873535,0.5359703302383423
-2.710207462310791,5.348960876464844,0.5273944139480591
-2.747023105621338,5.330794334411621,0.5208159685134888
-2.775005578994751,5.299370765686035,0.5127389430999756
-2.761265993118286,5.188445091247559,0.49700361490249634
-1.137486457824707,2.102123498916626,0.1992587000131607
-1.182214379310608,2.1489455699920654,0.20153023302555084
-2.5105528831481934,4.493452548980713,0.4165939688682556
-2.543865442276001,4.484217166900635,0.41089582443237305
-2.5593879222869873,4.440061092376709,0.40176379680633545
-2.60615873336792,4.449522972106934,0.39746132493019104
-1.2541199922561646,2.109229803085327,0.18586556613445282
-1.255749225616455,2.08129620552063,0.18084999918937683
-2.6720173358917236,4.361945629119873,0.37340566515922546
-2.733915328979492,4.393049240112305,0.37010788917541504
-2.9893176555633545,4.73486852645874,0.39233288168907166
-3.0008974075317383,4.686614990234375,0.38175511360168457
-3.0375823974609375,4.6729278564453125,0.373547226190567
-3.039592742919922,4.607082366943359,0.36110228300094604
-3.0500457286834717,4.558711528778076,0.3498793840408325
-3.075962543487549,4.532538414001465,0.3402697443962097
-3.1031484603881836,4.505214214324951,0.330232709646225
-3.131649971008301,4.486145973205566,0.32063308358192444
-2.8453447818756104,4.020710468292236,0.27972808480262756
-2.8558743000030518,3.9755539894104004,0.26819363236427307
-2.8991658687591553,3.9833972454071045,0.26025402545928955
-2.897660732269287,3.9271156787872314,0.24767617881298065
-2.996659994125366,4.191747665405273,-0.19024936854839325
-2.4477250576019287,3.479898452758789,-0.16708362102508545
-2.4403679370880127,3.522653102874756,-0.1776944398880005
-2.379225730895996,3.488438367843628,-0.18415947258472443
-2.3114850521087646,3.4442689418792725,-0.1897524893283844
-2.2463810443878174,3.398099660873413,-0.19440792500972748
-2.1886541843414307,3.365492343902588,-0.19971752166748047
-2.1469433307647705,3.3547921180725098,-0.20589710772037506
-2.1274237632751465,3.375969171524048,-0.2136937379837036
-1.2740293741226196,2.0553271770477295,-0.1340090036392212
-1.2588695287704468,2.0643563270568848,-0.13841578364372253
-2.048814296722412,3.4137282371520996,-0.2349596917629242
-2.0317277908325195,3.4415688514709473,-0.24279913306236267
-2.018017292022705,3.476207971572876,-0.25116100907325745
-1.1949553489685059,2.0918662548065186,-0.15451323986053467
-1.1951402425765991,2.1273045539855957,-0.16052477061748505
-1.951378583908081,3.534843683242798,-0.2723948359489441
-1.9446680545806885,3.5824458599090576,-0.2814842164516449
-1.9084930419921875,3.5748660564422607,-0.2861722707748413
-2.5049803256988525,4.775059223175049,-0.38912349939346313
-2.4718053340911865,4.796020030975342,-0.39769166707992554
-2.4515678882598877,4.840676307678223,-0.4081340730190277
-2.420616388320923,4.864253044128418,-0.4167094826698303
-2.395310878753662,4.902101516723633,-0.42644330859184265
-2.366615056991577,4.932613372802734,-0.4355340600013733
-2.34367036819458,4.973024368286133,-0.44537416100502014
-1.5432145595550537,3.3353307247161865,-0.30284199118614197
-1.525055170059204,3.3603131771087646,-0.30925098061561584
-1.500949501991272,3.3706884384155273,-0.314237505197525
-1.4772998094558716,3.3806636333465576,-0.3191145062446594
-1.4685665369033813,3.4263863563537598,-0.3273448646068573
-1.4543402194976807,3.461550712585449,-0.3345527648925781
-1.4157798290252686,3.439195394515991,-0.33624184131622314
-1.3945837020874023,3.4557816982269287,-0.3415798246860504
-1.3701376914978027,3.4650931358337402,-0.3461494743824005
-1.3508634567260742,3.4888930320739746,-0.35206136107444763
-1.3230994939804077,3.4907491207122803,-0.355776846408844
-1.7566434144973755,4.7354350090026855,-0.4873962700366974
-2.0232255458831787,5.5729241371154785,-0.5790460705757141
-1.9234753847122192,5.418060779571533,-0.567939281463623
-1.6145505905151367,4.65252161026001,-0.49197232723236084
-1.5793359279632568,4.655818462371826,-0.49653464555740356
-1.8688039779663086,5.64022159576416,-0.6067034006118774
-1.865790605545044,5.767294883728027,-0.6252377033233643
-0.9766377806663513,3.093665838241577,-0.33796387910842896
-0.9547716975212097,3.100126028060913,-0.3412323296070099
-0.8090424537658691,2.6934242248535156,-0.2986763119697571
-0.7649790048599243,2.6130118370056152,-0.2918229401111603
-0.7460859417915344,2.6181836128234863,-0.29437193274497986
-0.7492631077766418,2.7017159461975098,-0.3057722747325897
-0.736490786075592,2.7290761470794678,-0.3108668029308319
-0.7203943729400635,2.7451207637786865,-0.3147145211696625
-0.7009987235069275,2.7498669624328613,-0.3170704245567322
-0.6709597110748291,2.713111400604248,-0.3146335184574127
-0.6590965390205383,2.747694253921509,-0.32043924927711487
-1.467032551765442,6.309094429016113,-0.7398859858512878
-1.3971779346466064,6.205056667327881,-0.7315598130226135
-1.3417385816574097,6.161151885986328,-0.7298548817634583
-1.2590962648391724,5.987833023071289,-0.7127816677093506
-1.205670714378357,5.938928127288818,-0.7103185653686523
-1.1612845659255981,5.9314398765563965,-0.712794840335846
-1.0988256931304932,5.82842493057251,-0.7033279538154602
-1.0418651103973389,5.747793197631836,-0.6963273882865906
-0.9854897260665894,5.6667633056640625,-0.6892706751823425
-0.9536138772964478,5.718975067138672,-0.6983674764633179
-0.9583785533905029,6.004601955413818,-0.7361325025558472
-0.9138622879981995,5.995473861694336,-0.7373006343841553
-0.880111813545227,6.058924198150635,-0.7474469542503357
-0.8401871919631958,6.087689399719238,-0.753413736820221
-0.633700430393219,4.839812278747559,-0.6008842587471008
-0.7385993003845215,5.963415622711182,-0.7425507307052612
-0.6968362927436829,5.968149185180664,-0.7448858022689819
-0.6512396931648254,5.937909126281738,-0.7428820133209229
-0.605901300907135,5.903453350067139,-0.7403565049171448
-0.5593349933624268,5.8571391105651855,-0.7363809943199158
-0.5177983045578003,5.852938652038574,-0.737293004989624
-0.47161024808883667,5.790536880493164,-0.7306020855903625
-0.25771814584732056,3.4629533290863037,-0.4376477599143982
-0.23361560702323914,3.4645440578460693,-0.4385879933834076
-0.20696964859962463,3.431175708770752,-0.4351300001144409
-0.18263502418994904,3.4247190952301025,-0.4347500205039978
-0.16807636618614197,3.627135753631592,-0.46084749698638916
-0.140371173620224,3.566194772720337,-0.45352089405059814
-0.09212163835763931,3.6374008655548096,-0.4634902775287628
-0.06624394655227661,3.606943130493164,-0.4596683979034424
-0.04216466471552849,3.696417808532715,-0.4711543023586273
-0.016374360769987106,3.6733555793762207,-0.4683201313018799
0.009354040957987309,3.7547366619110107,-0.47882625460624695
0.03603030741214752,3.770070791244507,-0.480840265750885
0.06221610680222511,3.7697691917419434,-0.48052939772605896
0.09048905223608017,3.858384847640991,-0.49156996607780457
0.1182621419429779,3.888688087463379,-0.4951970875263214
0.14721763134002686,3.9381520748138428,-0.5012832880020142
0.1749560534954071,3.944840669631958,-0.5017493367195129
0.20664091408252716,4.017139911651611,-0.5102711915969849
0.2359074205160141,4.038923263549805,-0.5123972296714783
0.266497939825058,4.075962066650391,-0.5164737701416016
0.29792866110801697,4.116633892059326,-0.5210226774215698
0.32310524582862854,4.072112560272217,-0.5145241022109985
0.35682806372642517,4.127819061279297,-0.5205097198486328
0.3839796483516693,4.109976768493652,-0.5172537565231323
0.41019460558891296,4.084235191345215,-0.5130354762077332
0.43734684586524963,4.06988525390625,-0.5102800726890564
0.46461164951324463,4.059270858764648,-0.5076302289962769
0.490359365940094,4.033034801483154,-0.5029584765434265
0.5173073410987854,4.022068023681641,-0.500247061252594
0.5541649460792542,4.083898544311523,-0.5065887570381165
0.5825782418251038,4.0801682472229,-0.504767894744873
0.722273051738739,4.820252418518066,-0.5942421555519104
0.7562106847763062,4.8153767585754395,-0.5915475487709045
0.7821012735366821,4.764411449432373,-0.5832688212394714
0.8152168393135071,4.759179592132568,-0.5806339979171753
0.8577852249145508,4.807201385498047,-0.5843281745910645
0.8909345269203186,4.801551342010498,-0.5811715126037598
0.9211497902870178,4.780426979064941,-0.5761744379997253
0.953454315662384,4.76656436920166,-0.5720322728157043
0.9834895133972168,4.744990825653076,-0.567044198513031
1.013056755065918,4.723306179046631,-0.5617820024490356
1.0448089838027954,4.712838649749756,-0.55771803855896
1.0704405307769775,4.675666809082031,-0.5505374670028687
1.0982568264007568,4.645719528198242,-0.5441917777061462
1.123265266418457,4.608203411102295,-0.5370693206787109
1.1588016748428345,4.615872859954834,-0.5348052382469177
1.1906076669692993,4.608236789703369,-0.5307782888412476
1.2155663967132568,4.574066162109375,-0.5237202048301697
1.2490246295928955,4.569539546966553,-0.5200256109237671
1.2754502296447754,4.542547702789307,-0.5137062072753906
1.3023550510406494,4.519240856170654,-0.5076075792312622
1.33340322971344,4.510672092437744,-0.5031996965408325
1.3603471517562866,4.486883163452148,-0.4970783591270447
1.387585997581482,4.462765216827393,-0.4909057319164276
1.413536548614502,4.43882417678833,-0.48456767201423645
1.446405053138733,4.436915397644043,-0.48060938715934753
1.4684842824935913,4.401508331298828,-0.47303149104118347
1.496656060218811,4.384311676025391,-0.46743252873420715
1.519309401512146,4.352341651916504,-0.4601849615573883
1.276536464691162,3.576998472213745,-0.3748229742050171
1.2983455657958984,3.56130313873291,-0.3698712885379791
1.3204830884933472,3.5452988147735596,-0.3648528456687927
1.6259145736694336,4.274225234985352,-0.435818612575531
1.6508716344833374,4.252684116363525,-0.42931652069091797
1.6875654458999634,4.259734153747559,-0.4256362020969391
1.7098259925842285,4.230424404144287,-0.41834792494773865
1.7364567518234253,4.211692810058594,-0.4121149480342865
1.7623496055603027,4.19303560256958,-0.40575918555259705
1.7878074645996094,4.1743292808532715,-0.39937055110931396
1.8170753717422485,4.162231922149658,-0.3935001790523529
1.8366762399673462,4.128623962402344,-0.3856542110443115
1.8650944232940674,4.116413593292236,-0.37973877787590027
1.889733076095581,4.097137928009033,-0.3731105327606201
1.9078598022460938,4.063482761383057,-0.3651737570762634
1.9434535503387451,4.064408779144287,-0.3601858913898468
1.967969298362732,4.044482231140137,-0.3533645272254944
1.9883314371109009,4.017679691314697,-0.3458991050720215
2.0140228271484375,4.001043319702148,-0.33928045630455017
2.0384740829467773,3.980435609817505,-0.33222657442092896
2.0711140632629395,3.9772725105285645,-0.3265669345855713
2.089205265045166,3.946314811706543,-0.31848305463790894
2.112555980682373,3.925550937652588,-0.3112603425979614
2.1362481117248535,3.9043610095977783,-0.30392786860466003
2.1625704765319824,3.8903706073760986,-0.2971022129058838
2.1521191596984863,3.811851978302002,-0.285427063703537
2.1789908409118652,3.7970833778381348,-0.27831295132637024
2.2053709030151367,3.7823362350463867,-0.27124446630477905
2.2146167755126953,3.741229295730591,-0.26227226853370667
2.2518579959869385,3.746752977371216,-0.2565111517906189
2.2739386558532715,3.7247612476348877,-0.24863050878047943
2.2911388874053955,3.696361780166626,-0.24020609259605408
2.3112947940826416,3.6750547885894775,-0.2323886752128601
2.3494787216186523,3.679053544998169,-0.22577638924121857
2.3575122356414795,3.63724946975708,-0.21632857620716095
2.3855748176574707,3.628706693649292,-0.20888693630695343
2.4239532947540283,3.6318416595458984,-0.20158417522907257
2.4179935455322266,3.5704734325408936,-0.19075895845890045
2.454362392425537,3.5744495391845703,-0.18347038328647614
2.4878711700439453,3.5706989765167236,-0.17525024712085724
2.5026743412017822,3.541668176651001,-0.16567832231521606
2.525846004486084,3.5255980491638184,-0.15654146671295166
2.5459280014038086,3.5018973350524902,-0.14649748802185059
2.5821828842163086,3.5047857761383057,-0.13753485679626465
2.7793781757354736,3.9270379543304443,0.2980651557445526
2.726109027862549,3.915987253189087,0.30614718794822693
2.7194955348968506,3.9671576023101807,0.31845715641975403
2.6986594200134277,3.9993979930877686,0.3291589617729187
2.6587698459625244,4.006547451019287,0.3375419080257416
2.638289213180542,4.037948131561279,0.3474104404449463
2.5881357192993164,4.0232954025268555,0.3530656397342682
2.569615364074707,4.062087059020996,0.36323586106300354
2.5473289489746094,4.093717575073242,0.3726694583892822
2.5265772342681885,4.124125003814697,0.3816538453102112
2.4875121116638184,4.12891960144043,0.38806676864624023
2.4639625549316406,4.160405158996582,0.39696359634399414
2.438380002975464,4.183781623840332,0.4047222137451172
2.4004030227661133,4.187052249908447,0.4105745255947113
2.368772029876709,4.204348564147949,0.41747546195983887
2.3145182132720947,4.180479526519775,0.4202421307563782
2.2572059631347656,4.144726753234863,0.42139309644699097
2.227895975112915,4.159915924072266,0.42765000462532043
2.2034308910369873,4.18987512588501,0.4352750778198242
2.175624132156372,4.212501525878906,0.4421064257621765
2.1511385440826416,4.237537384033203,0.4489799737930298
2.1178905963897705,4.2449517250061035,0.4539887011051178
2.0969340801239014,4.280739784240723,0.4617975652217865
2.064582347869873,4.295826435089111,0.46743130683898926
2.03678560256958,4.317084312438965,0.4736020565032959
2.0064830780029297,4.330674648284912,0.47884342074394226
1.9756141901016235,4.344270706176758,0.4840139150619507
2.0052874088287354,4.496560573577881,0.5045117139816284
1.986083984375,4.542688846588135,0.5132634043693542
1.9502222537994385,4.54917573928833,0.5175032019615173
1.9213374853134155,4.5693206787109375,0.5232216715812683
1.9003934860229492,4.611152172088623,0.5312992334365845
1.872411847114563,4.63880729675293,0.5376063585281372
1.8512192964553833,4.684365749359131,0.5460527539253235
1.8022418022155762,4.657120704650879,0.5459620952606201
1.779271125793457,4.694500923156738,0.5533947944641113
1.3637070655822754,3.6764137744903564,0.4356323480606079
1.326356291770935,3.6566543579101562,0.43536490201950073
1.30233633518219,3.6731364727020264,0.4394230544567108
1.2733399868011475,3.674696445465088,0.44169729948043823
1.622428297996521,4.789544582366943,0.578360378742218
1.5862637758255005,4.792996406555176,0.5813723206520081
1.55873703956604,4.826052665710449,0.5876798033714294
1.5261507034301758,4.844151020050049,0.5922107100486755
1.5011670589447021,4.888042449951172,0.5999583601951599
1.4670460224151611,4.897957801818848,0.6034863591194153
1.437159776687622,4.922540187835693,0.6088612675666809
1.4221415519714355,5.003157138824463,0.6209065318107605
1.3727434873580933,4.964247703552246,0.6180423498153687
1.3078198432922363,4.864985466003418,0.6076362133026123
1.2750146389007568,4.88131856918335,0.611644983291626
1.2485496997833252,4.919787883758545,0.6184285879135132
1.2178566455841064,4.943076133728027,0.6232994794845581
1.1851706504821777,4.962646484375,0.627326250076294
1.1514441967010498,4.978209972381592,0.6308823823928833
1.1254020929336548,5.0315046310424805,0.6392979621887207
1.0919609069824219,5.046474456787109,0.6428251266479492
1.059899926185608,5.068819046020508,0.6473326683044434
1.012071132659912,5.015025615692139,0.6419860124588013
0.9793060421943665,5.037049770355225,0.6460478901863098
2.061588764190674,11.028387069702148,1.417322039604187
1.9765375852584839,11.003986358642578,1.4170173406600952
1.8926564455032349,10.974888801574707,1.4161067008972168
1.8148483037948608,10.979588508605957,1.4196168184280396
1.7306548357009888,10.945571899414062,1.4177669286727905
1.6512367725372314,10.953459739685059,1.4207978248596191
1.5472073554992676,10.78034496307373,1.4003551006317139
1.4518091678619385,10.64851188659668,1.385273814201355
1.3597383499145508,10.51961898803711,1.3705635070800781
1.271993637084961,10.40919017791748,1.3582711219787598
1.1823543310165405,10.27121353149414,1.3420610427856445
1.0983779430389404,10.182838439941406,1.3317457437515259
1.0294573307037354,10.216998100280762,1.3374921083450317
0.40275514125823975,4.300045013427734,0.5634777545928955
0.3771771788597107,4.352787017822266,0.5709820985794067
0.34284278750419617,4.304994106292725,0.5653270483016968
0.314566969871521,4.338108539581299,0.5702311992645264
0.28588926792144775,4.367194652557373,0.5743070840835571
0.3298371136188507,5.644930839538574,0.7426978945732117
0.28928613662719727,5.6276750564575195,0.7408248782157898
0.25026750564575195,5.633334636688232,0.7420008182525635
0.2121632844209671,5.6813154220581055,0.7487989068031311
0.17383399605751038,5.721277713775635,0.7545467615127563
0.13475707173347473,5.75717830657959,0.7592759728431702
0.09486983716487885,5.773448944091797,0.7614532709121704
0.054615747183561325,5.773952484130859,0.7615880966186523
0.013915171846747398,5.824521064758301,0.768366277217865
-0.049511462450027466,10.855025291442871,1.432254672050476
-0.12522120773792267,10.877620697021484,1.4355735778808594
-0.16122782230377197,8.73532772064209,1.152478575706482
-0.2196061760187149,8.645035743713379,1.1401177644729614
-0.2763954997062683,8.54661750793457,1.1267499923706055
-0.24057558178901672,6.102683067321777,0.8043088316917419
-0.2781590521335602,5.996464729309082,0.790113091468811
-0.19042609632015228,3.5695953369140625,0.4702470004558563
-0.2142309546470642,3.552786350250244,0.4677531123161316
-0.23879876732826233,3.551297426223755,0.4671606719493866
-0.5797097682952881,7.8021931648254395,1.0255160331726074
-0.31185346841812134,3.837313175201416,0.5039933323860168
-0.3354887366294861,3.8004095554351807,0.49879100918769836
-0.35825812816619873,3.759507179260254,0.49309462308883667
-0.38427668809890747,3.757037878036499,0.49232590198516846
-0.4072352945804596,3.7235774993896484,0.48729407787323
-0.43065300583839417,3.701570987701416,0.4838038384914398
-0.4504674971103668,3.6525044441223145,0.47681039571762085
-0.4703581631183624,3.607151985168457,0.4703330993652344
-0.4912227690219879,3.5732123851776123,0.46537792682647705
-0.510895848274231,3.531447172164917,0.4593428671360016
-0.5374352931976318,3.5433456897735596,0.46007049083709717
-0.5690200328826904,3.585660457611084,0.4647551476955414
-0.589806854724884,3.5589025020599365,0.4605035185813904
-1.0989924669265747,6.3575592041015625,0.8212547302246094
-1.148685097694397,6.3805694580078125,0.8228763937950134
-1.205786108970642,6.437379837036133,0.8287599086761475
-1.2600260972976685,6.482639789581299,0.8326908349990845
-1.3104140758514404,6.504652500152588,0.8336472511291504
-1.365118145942688,6.545251369476318,0.8370020389556885
-1.419551968574524,6.577674865722656,0.8392948508262634
-1.461878776550293,6.548935890197754,0.8337826728820801
-1.4950512647628784,6.486156940460205,0.8239298462867737
-1.529268503189087,6.434802532196045,0.815098226070404
-0.6906073093414307,2.820692777633667,0.35629960894584656
-0.6946150064468384,2.755969762802124,0.3471616208553314
-0.7161017656326294,2.758678436279297,0.34651169180870056
-0.739327073097229,2.768800735473633,0.3468189835548401
-0.750252902507782,2.7339065074920654,0.3414352834224701
-0.7771986722946167,2.7588417530059814,0.3433651924133301
-1.7674120664596558,6.1148271560668945,0.7584478259086609
-1.123835563659668,3.789684772491455,0.4684184193611145
-1.143425703048706,3.759813070297241,0.46311843395233154
-1.1672724485397339,3.744664192199707,0.45966702699661255
-1.1952472925186157,3.7443079948425293,0.4578614830970764
-1.2204877138137817,3.7365031242370605,0.45502954721450806
-1.2559441328048706,3.757833242416382,0.45572006702423096
-1.9848114252090454,5.805959224700928,0.7011662125587463
-2.0136969089508057,5.759562015533447,0.6926360726356506
-2.0459113121032715,5.724017143249512,0.685458779335022
-2.0709877014160156,5.674277305603027,0.6761611104011536
-2.1036205291748047,5.646276473999023,0.6695144772529602
-2.1271848678588867,5.592363357543945,0.6597816348075867
-2.169095516204834,5.585172176361084,0.6555498242378235
-2.2239387035369873,5.610137939453125,0.6550916433334351
-2.2882864475250244,5.660305023193359,0.65724116563797
-2.33955979347229,5.677778720855713,0.6554089784622192
-2.3662490844726562,5.633671760559082,0.646430253982544
-2.3916046619415283,5.585599422454834,0.6369994878768921
-2.460064649581909,5.637082576751709,0.6389133334159851
-2.522068500518799,5.674140930175781,0.6389008164405823
-3.995121717453003,8.830304145812988,0.987389326095581
-2.5363101959228516,5.507003307342529,0.6114177703857422
-2.561370849609375,5.461771011352539,0.6019495725631714
-2.6230456829071045,5.493494033813477,0.6009426116943359
-2.6432876586914062,5.441315650939941,0.5905268788337708
-2.6656088829040527,5.396467685699463,0.5808285474777222
-2.700435161590576,5.375504493713379,0.5736509561538696
-2.716780662536621,5.315649509429932,0.5622366070747375
-2.739635944366455,5.269595623016357,0.5523694753646851
-2.774460554122925,5.252094745635986,0.5451911687850952
-2.7924838066101074,5.2035746574401855,0.5348252654075623
-1.1736230850219727,2.151954174041748,0.21889615058898926
-1.1776275634765625,2.123431921005249,0.21362939476966858
-2.510019540786743,4.455239772796631,0.4431781768798828
-2.5372633934020996,4.435967922210693,0.4360775649547577
-2.5628674030303955,4.412896156311035,0.4285510778427124
-2.5819003582000732,4.375385284423828,0.4193982183933258
-1.2410422563552856,2.0705008506774902,0.1957523375749588
-2.652644157409668,4.361627578735352,0.4065508246421814
-2.66108775138855,4.311478614807129,0.39598795771598816
-2.958155870437622,4.719115257263184,0.4265744686126709
-2.981497287750244,4.686732292175293,0.41665521264076233
-3.022791624069214,4.684195041656494,0.40915346145629883
-3.035270929336548,4.635058403015137,0.39738863706588745
-3.0504984855651855,4.588471412658691,0.3856809437274933
-3.0667827129364014,4.550228118896484,0.37452682852745056
-3.0852560997009277,4.514925479888916,0.3635643422603607
-3.117499589920044,4.493569850921631,0.35293659567832947
-2.837207317352295,4.033907413482666,0.308774471282959
-2.8628897666931152,4.016443729400635,0.29922962188720703
-2.902420997619629,4.0128326416015625,0.2898738980293274
-2.893434524536133,3.947761058807373,0.2760372459888458
-2.9188435077667236,3.929755687713623,0.26522698998451233
-2.4706456661224365,3.48266339302063,-0.17098303139209747
-2.4348089694976807,3.4882640838623047,-0.1807888150215149
-2.4183247089385986,3.518150568008423,-0.19128677248954773
-2.341745615005493,3.4612057209014893,-0.1968201845884323
-2.274343967437744,3.4166219234466553,-0.20252205431461334
-2.209639072418213,3.370020866394043,-0.20722249150276184
-2.171977996826172,3.366072654724121,-0.21436674892902374
-2.142686605453491,3.3750240802764893,-0.2221948653459549
-2.118518352508545,3.389719009399414,-0.23010854423046112
-1.2826533317565918,2.0859951972961426,-0.14576248824596405
-2.060115098953247,3.4062347412109375,-0.24470080435276031
-2.04009747505188,3.426806688308716,-0.25251147150993347
-2.0230753421783447,3.454418897628784,-0.2608509957790375
-2.010545015335083,3.4926705360412598,-0.2701635956764221
-1.209878921508789,2.1363227367401123,-0.16891486942768097
-1.1548550128936768,2.0730361938476562,-0.1674075424671173
-1.932960867881775,3.5300872325897217,-0.2909153401851654
-2.536989450454712,4.713123321533203,-0.39604511857032776
-2.5032598972320557,4.730364799499512,-0.40502020716667175
-2.479797124862671,4.768304824829102,-0.41559281945228577
-2.4572250843048096,4.809834957122803,-0.42652225494384766
-2.4335553646087646,4.847245693206787,-0.4369433522224426
-2.406385660171509,4.877391815185547,-0.4467085897922516
-2.377073287963867,4.908265113830566,-0.4565311074256897
-2.3597311973571777,4.9632887840271,-0.4685671925544739
-1.5674134492874146,3.3569328784942627,-0.321431040763855
-1.5372223854064941,3.353222131729126,-0.3255500793457031
-1.509673833847046,3.3566620349884033,-0.33020997047424316
-1.4853177070617676,3.3669826984405518,-0.3355507254600525
-1.4798097610473633,3.419797420501709,-0.34512969851493835
-1.4815503358840942,3.490453004837036,-0.35655730962753296
-1.4369454383850098,3.453833818435669,-0.35689711570739746
-1.4061535596847534,3.449166774749756,-0.36048516631126404
-1.3920000791549683,3.483705759048462,-0.36809754371643066
-1.3642516136169434,3.4857821464538574,-0.37238049507141113
-1.3419395685195923,3.502246856689453,-0.37793058156967163
-1.7520368099212646,4.671997547149658,-0.5092113614082336
-2.0444602966308594,5.569901466369629,-0.612979531288147
-1.9778027534484863,5.506492614746094,-0.6118144392967224
-1.6226024627685547,4.621896743774414,-0.5182205438613892
-1.5895055532455444,4.6327338218688965,-0.5239940881729126
-1.5616639852523804,4.657932758331299,-0.5313791632652283
-1.8735605478286743,5.719790458679199,-0.658032238483429
-0.980468213558197,3.065736770629883,-0.3555368185043335
-0.9536110758781433,3.057523250579834,-0.357339084148407
-0.8155479431152344,2.6812965869903564,-0.31574109196662903
-0.7581520676612854,2.556347608566284,-0.3032628297805786
-0.7574777007102966,2.620908498764038,-0.3132028579711914
-0.7525409460067749,2.6744518280029297,-0.3217146396636963
-0.7396886348724365,2.7018496990203857,-0.327156126499176
-0.7183728218078613,2.6992318630218506,-0.32900577783584595
-0.7082666754722595,2.737647294998169,-0.3358435332775116
-0.6804829239845276,2.7083914279937744,-0.33423736691474915
-0.6650156378746033,2.7278993129730225,-0.33854058384895325
-0.6573556065559387,2.7812771797180176,-0.3471065163612366
-1.4404217004776,6.29302453994751,-0.7898253202438354
-1.3788267374038696,6.222747802734375,-0.7853184938430786
-1.3275487422943115,6.197597503662109,-0.7858591675758362
-1.2822405099868774,6.198599815368652,-0.7897258400917053
-1.228181004524231,6.153602600097656,-0.7877085208892822
-1.177978754043579,6.127279758453369,-0.7881105542182922
-1.1245086193084717,6.0776472091674805,-0.7851251363754272
-1.077707052230835,6.061991214752197,-0.7861602902412415
-0.9524057507514954,5.583835124969482,-0.7269921898841858
-0.9746552109718323,5.964565277099609,-0.7796114087104797
-0.9382200241088867,6.009097099304199,-0.7885945439338684
-0.4537380039691925,3.0458574295043945,-0.40101173520088196
-0.43832895159721375,3.0909366607666016,-0.4082123041152954
-0.416673868894577,3.093712568283081,-0.4098603129386902
-0.3970891833305359,3.111687183380127,-0.41354072093963623
-0.38143137097358704,3.164144992828369,-0.4218003749847412
-0.3606455624103546,3.1819944381713867,-0.4251755475997925
-0.34081214666366577,3.207369565963745,-0.42957326769828796
-0.32151204347610474,3.2403147220611572,-0.4350181519985199
-0.30146756768226624,3.2692818641662598,-0.4399661421775818
-0.2806713283061981,3.294290781021118,-0.4442403018474579
-0.2602866291999817,3.3346691131591797,-0.45039650797843933
-0.23811498284339905,3.3517229557037354,-0.45342370867729187
-0.2175057977437973,3.3956658840179443,-0.4601214826107025
-0.1952219307422638,3.420154094696045,-0.4642191529273987
-0.173126682639122,3.4561357498168945,-0.46960189938545227
-0.14928841590881348,3.4726712703704834,-0.47224465012550354
-0.10270553082227707,3.5361714363098145,-0.4817419946193695
-0.07904689013957977,3.5792906284332275,-0.4880872368812561
-0.054805487394332886,3.626180410385132,-0.4945257902145386
-0.02939443849027157,3.6612980365753174,-0.49936643242836
-0.0039438167586922646,3.6923651695251465,-0.5036791563034058
0.022066393867135048,3.7503459453582764,-0.5116897821426392
0.04823466017842293,3.7578439712524414,-0.5127326846122742
0.07541986554861069,3.8116471767425537,-0.5197270512580872
0.10321971029043198,3.861384630203247,-0.5261832475662231
0.13157793879508972,3.8915603160858154,-0.5299869775772095
0.16035398840904236,3.9331490993499756,-0.5353707671165466
0.18987302482128143,3.978423833847046,-0.541038453578949
0.22020985186100006,4.027381896972656,-0.5469440817832947
0.25171107053756714,4.083837509155273,-0.5538746118545532
0.2811366319656372,4.089808464050293,-0.5539587140083313
0.3075540065765381,4.060859680175781,-0.549355149269104
0.33508703112602234,4.051088809967041,-0.5470038056373596
0.36700722575187683,4.091277122497559,-0.551268458366394
0.39350512623786926,4.0695624351501465,-0.5472133755683899
0.425885409116745,4.101537227630615,-0.5503776669502258
0.4496932625770569,4.056341648101807,-0.5432349443435669
0.4740928113460541,4.022631645202637,-0.537173330783844
0.5028777718544006,4.027199745178223,-0.5362505316734314
0.5267496705055237,3.9931578636169434,-0.5302172899246216
0.5582630038261414,4.012600898742676,-0.5312814116477966
0.5788887143135071,3.959071397781372,-0.522616982460022
0.6068651676177979,3.959113121032715,-0.5207321047782898
0.6355153322219849,3.9627768993377686,-0.5193408727645874
0.661109983921051,3.9471182823181152,-0.5154396295547485
0.6832488179206848,3.9121978282928467,-0.5090633630752563
0.710807740688324,3.907633066177368,-0.5063791871070862
0.7348970770835876,3.887765407562256,-0.5015900135040283
0.7543005347251892,3.844923257827759,-0.49388831853866577
0.780346691608429,3.836127519607544,-0.49058717489242554
0.8054761290550232,3.823366403579712,-0.48681163787841797
0.8257358074188232,3.7877159118652344,-0.4797496497631073
0.851875364780426,3.7823238372802734,-0.47657328844070435
0.8913029432296753,3.833367109298706,-0.48047882318496704
0.9180681705474854,3.82745361328125,-0.4772166311740875
1.1410491466522217,4.615792274475098,-0.5723487734794617
1.167721152305603,4.585658073425293,-0.565108597278595
1.2033132314682007,4.593026638031006,-0.5625827312469482
1.228216290473938,4.558849334716797,-0.554976224899292
1.2579491138458252,4.543218612670898,-0.5496717095375061
1.2871593236923218,4.527527332305908,-0.5440845489501953
1.3144924640655518,4.504082202911377,-0.5374341607093811
1.3456246852874756,4.495450496673584,-0.5326371192932129
1.3724595308303833,4.471663475036621,-0.526044487953186
1.4012668132781982,4.455158710479736,-0.5202580690383911
1.429492473602295,4.438627243041992,-0.5142304301261902
1.4581007957458496,4.421741485595703,-0.5081268548965454
1.4802299737930298,4.3862996101379395,-0.49996039271354675
1.5083048343658447,4.369099140167236,-0.49392396211624146
1.2474861145019531,3.5350022315979004,-0.3961119055747986
1.284885287284851,3.563408374786377,-0.3956995904445648
1.3122029304504395,3.5622270107269287,-0.39194434881210327
1.6099921464920044,4.277054786682129,-0.4661174416542053
1.6423677206039429,4.273673057556152,-0.46121764183044434
1.6687394380569458,4.255723476409912,-0.45460474491119385
1.6907336711883545,4.2267279624938965,-0.4468410313129425
1.7246861457824707,4.226214408874512,-0.44203224778175354
1.7500914335250854,4.203758239746094,-0.43482229113578796
1.7695971727371216,4.170881748199463,-0.4264793395996094
1.8010798692703247,4.166482448577881,-0.4210851788520813
1.8239214420318604,4.140169143676758,-0.4133743941783905
1.8401741981506348,4.0995025634765625,-0.4042823016643524
1.8782273530960083,4.1085333824157715,-0.3998246490955353
1.8930140733718872,4.068052291870117,-0.39066803455352783
1.9280058145523071,4.069446086883545,-0.38544023036956787
1.9530447721481323,4.049469470977783,-0.3781816363334656
1.9838392734527588,4.043771266937256,-0.3721015751361847
1.995964765548706,3.999300718307495,-0.36240819096565247
2.0361762046813965,4.010194778442383,-0.3576759994029999
2.0552432537078857,3.97917103767395,-0.34917476773262024
2.0748112201690674,3.952028751373291,-0.3409382998943329
2.097769021987915,3.931663751602173,-0.33333277702331543
2.1178417205810547,3.903780221939087,-0.3249114751815796
2.1527926921844482,3.90303635597229,-0.31862184405326843
2.135119676589966,3.8109123706817627,-0.3050108253955841
2.1648669242858887,3.8036444187164307,-0.2982291579246521
2.179750919342041,3.768728017807007,-0.28913554549217224
2.2091782093048096,3.7611701488494873,-0.2821221649646759
2.234616756439209,3.7466819286346436,-0.2744520604610443
2.2565510272979736,3.7249674797058105,-0.26611095666885376
2.274139404296875,3.6965157985687256,-0.2572472095489502
2.3151144981384277,3.708369016647339,-0.25112390518188477
2.3193812370300293,3.6601555347442627,-0.24078264832496643
2.3454084396362305,3.6440839767456055,-0.23228253424167633
2.3735568523406982,3.63565731048584,-0.2243621051311493
2.3891968727111816,3.607211112976074,-0.2150822877883911
2.4058008193969727,3.5778884887695312,-0.205422505736351
2.455599784851074,3.601217031478882,-0.19871947169303894
2.4533767700195312,3.5464353561401367,-0.1873578131198883
2.4914660453796387,3.548924207687378,-0.17882491648197174
2.5232434272766113,3.5460500717163086,-0.16993659734725952
2.5288643836975098,3.50407075881958,-0.1587514877319336
2.570761203765869,3.512681484222412,-0.14954246580600739
2.186068296432495,2.9478821754455566,-0.11731014400720596
2.769606590270996,3.884704828262329,0.31416457891464233
2.7665388584136963,3.9432373046875,0.3285311162471771
2.740771770477295,3.969745635986328,0.3399728238582611
2.6995737552642822,3.9687676429748535,0.3483427166938782
2.6601357460021973,3.9756925106048584,0.35714852809906006
2.655761957168579,4.033818244934082,0.37034422159194946
2.6182568073272705,4.038857936859131,0.3783526122570038
2.58762788772583,4.057703018188477,0.3873247504234314
2.5688204765319824,4.096373081207275,0.39818257093429565
2.5398662090301514,4.113581657409668,0.4064306914806366
2.513942241668701,4.137771129608154,0.41529715061187744
2.483706474304199,4.159690856933594,0.4238883852958679
2.451059579849243,4.173698902130127,0.4313593804836273
2.4177989959716797,4.183296203613281,0.43810662627220154
2.3966259956359863,4.217074871063232,0.44723284244537354
2.3685550689697266,4.2410383224487305,0.4552672505378723
2.2735185623168945,4.141756534576416,0.4498516917228699
2.2480075359344482,4.163774013519287,0.4572456181049347
2.222959041595459,4.189688205718994,0.4649163782596588
2.189657211303711,4.202086448669434,0.47099658846855164
2.1606271266937256,4.220744609832764,0.47768622636795044
2.137408971786499,4.249258041381836,0.48542606830596924
2.110474109649658,4.270683765411377,0.4922196567058563
2.0821032524108887,4.292551517486572,0.4988543391227722
2.053520917892456,4.314225196838379,0.5055072903633118
2.0197346210479736,4.320919990539551,0.5102283358573914
1.989373803138733,4.334330081939697,0.5157379508018494
1.9667909145355225,4.369541168212891,0.5236954689025879
1.9940873384475708,4.518275260925293,0.5452337861061096
1.9902856349945068,4.599783897399902,0.5588241815567017
1.9261592626571655,4.5379438400268555,0.5548670291900635
1.8898452520370483,4.539948463439941,0.5586766004562378
1.8971812725067139,4.6538405418396,0.5760571956634521
1.8659169673919678,4.674213409423828,0.5818553566932678
1.8164350986480713,4.6472649574279785,0.5817383527755737
1.8019142150878906,4.7063751220703125,0.5923134088516235
1.7744399309158325,4.732786178588867,0.5988394618034363
1.3404762744903564,3.6562411785125732,0.46489354968070984
1.3138519525527954,3.66546630859375,0.4682447612285614
1.2769414186477661,3.645204544067383,0.4678335189819336
1.6584938764572144,4.842170238494873,0.6242586970329285
1.6135042905807495,4.820017337799072,0.624211311340332
1.5894067287445068,4.864206790924072,0.6326080560684204
1.5589072704315186,4.889846324920654,0.6383611559867859
1.5165643692016602,4.878293514251709,0.6392917633056641
1.4696122407913208,4.847620964050293,0.6376652121543884
1.4544012546539307,4.920462131500244,0.6496639847755432
1.4200588464736938,4.929993629455566,0.6533632278442383
1.3944672346115112,4.977100372314453,0.661666214466095
1.3383346796035767,4.911782741546631,0.6549911499023438
1.2920877933502197,4.879647731781006,0.6527299880981445
1.2599027156829834,4.8956379890441895,0.6568678617477417
1.2237999439239502,4.896381855010986,0.6589920520782471
1.202408790588379,4.961065292358398,0.6696646213531494
1.179267406463623,5.021960735321045,0.6795215606689453
1.1398133039474487,5.014806270599365,0.6802200675010681
1.1057697534561157,5.0299835205078125,0.6839678287506104
1.0755715370178223,5.059918403625488,0.6897290349006653
1.041990041732788,5.078425407409668,0.6940111517906189
0.9964756965637207,5.035920143127441,0.6897144317626953
0.978805422782898,5.137641429901123,0.7049369812011719
1.9591230154037476,10.695755004882812,1.4703254699707031
1.8680534362792969,10.621020317077637,1.462841510772705
0.8925530314445496,5.293774127960205,0.7305411100387573
1.710121512413025,10.591460227966309,1.4644924402236938
1.6369879245758057,10.610291481018066,1.469526767730713
1.5574277639389038,10.590496063232422,1.468701958656311
1.4868050813674927,10.631427764892578,1.4763728380203247
1.3978700637817383,10.545425415039062,1.4665056467056274
1.3104491233825684,10.443095207214355,1.4543403387069702
1.2239551544189453,10.336243629455566,1.4415733814239502
1.1417125463485718,10.255711555480957,1.4321154356002808
1.061073899269104,10.182369232177734,1.4230564832687378
0.9933789968490601,10.231644630432129,1.4312028884887695
0.3927035629749298,4.369624137878418,0.6117997765541077
0.35496985912323,4.283441066741943,0.6003108024597168
0.3263565003871918,4.3011064529418945,0.6033950448036194
0.2958309054374695,4.295440196990967,0.6031517386436462
0.2686197757720947,4.343667984008789,0.6101589798927307
0.3074057996273041,5.620048999786377,0.7898024320602417
0.270084410905838,5.6644744873046875,0.7964305877685547
0.23161858320236206,5.689314365386963,0.8003459572792053
0.1920374482870102,5.690695762634277,0.8010017275810242
0.15365014970302582,5.7343339920043945,0.8076471090316772
0.11389145255088806,5.781672477722168,0.8142924904823303
0.07354054600000381,5.774578094482422,0.8132851719856262
0.03360971808433533,5.832958698272705,0.8215391039848328
-0.00705327931791544,5.879456520080566,0.8281601071357727
-0.048864636570215225,5.995291709899902,0.8445903062820435
-0.09250001609325409,6.072134971618652,0.8555759191513062
-0.13465586304664612,6.0713958740234375,0.8552259802818298
-0.17899273335933685,6.143852233886719,0.8650324940681458
-0.22190424799919128,6.150269985198975,0.8655779957771301
-0.25782808661460876,5.990204811096191,0.8427419662475586
-0.17789770662784576,3.5582361221313477,0.500437319278717
-0.2043769508600235,3.580106496810913,0.5033749938011169
-0.22643645107746124,3.5362062454223633,0.4969414174556732
-0.554314136505127,7.810187339782715,1.096582293510437
-0.605479896068573,7.771670818328857,1.0902519226074219
-0.5643008947372437,6.649601459503174,0.9320951700210571
-0.6060056090354919,6.587834358215332,0.922724723815918
-0.6343383193016052,6.406525135040283,0.8966904878616333
-0.6722716093063354,6.3405914306640625,0.8867663741111755
-0.7228524684906006,6.397582054138184,0.8935479521751404
-0.437858909368515,3.649679660797119,0.5090932846069336
-0.4614538848400116,3.631317615509033,0.5058926343917847
-0.4846188724040985,3.612828254699707,0.502708911895752
-0.5037615895271301,3.567369222640991,0.4958062469959259
-0.5251727104187012,3.54095196723938,0.4915834665298462
-0.5458894968032837,3.514509916305542,0.4870365858078003
-0.5815591216087341,3.5795745849609375,0.4951556324958801
-1.0698821544647217,6.3118462562561035,0.8715875148773193
-1.1290314197540283,6.392302989959717,0.8811846971511841
-1.1819214820861816,6.4303202629089355,0.884933590888977
-1.2316958904266357,6.44891357421875,0.8860377073287964
-1.288659691810608,6.505300998687744,0.8918152451515198
-1.3431761264801025,6.542145729064941,0.8947874307632446
-1.3942948579788208,6.563551902770996,0.8957006335258484
-1.4470101594924927,6.588262557983398,0.897068977355957
-1.4799773693084717,6.521836280822754,0.8860599994659424
-1.5120232105255127,6.455277919769287,0.8751125931739807
-0.6756379008293152,2.7971620559692383,0.3781485855579376
-0.6946408748626709,2.7927284240722656,0.376484215259552
-0.7135862112045288,2.7881717681884766,0.3748222589492798
-0.7249502539634705,2.7534310817718506,0.3691127598285675
-0.7380313277244568,2.726104974746704,0.3644271492958069
-0.7677459120750427,2.758352756500244,0.3676985204219818
-1.749581217765808,6.1251397132873535,0.813700258731842
-1.781262993812561,6.080242156982422,0.8049442172050476
-1.146934151649475,3.8193278312683105,0.5038944482803345
-1.15748131275177,3.759772539138794,0.49430179595947266
-1.1841377019882202,3.7518296241760254,0.4915061891078949
-1.2101240158081055,3.743896722793579,0.4886954724788666
-1.2377840280532837,3.743408203125,0.4866035580635071
-1.2829145193099976,3.7941253185272217,0.491151362657547
-2.0003662109375,5.7866997718811035,0.7459756135940552
-2.0329887866973877,5.751279354095459,0.7382469773292542
-2.0592775344848633,5.697214126586914,0.7281442284584045
-2.090034008026123,5.6618571281433105,0.7202343940734863
-2.115720510482788,5.615683555603027,0.7108393311500549
-2.147891044616699,5.587497711181641,0.7037779688835144
-2.193606376647949,5.5912299156188965,0.7006669044494629
-2.259364604949951,5.640989780426025,0.7031995058059692
-2.326254367828369,5.6941704750061035,0.706026017665863
-2.3524539470672607,5.650522708892822,0.6964771747589111
-2.3842337131500244,5.621061325073242,0.6887397766113281
-2.4257524013519287,5.6124749183654785,0.6835105419158936
-2.5377793312072754,5.759218215942383,0.696922242641449
-2.5332887172698975,5.643005847930908,0.6785156726837158
-2.53861403465271,5.556131839752197,0.6634005308151245
-2.5740480422973633,5.536309242248535,0.6563774347305298
-2.5917932987213135,5.477296352386475,0.6446832418441772
-2.6374270915985107,5.473543167114258,0.6393455266952515
-2.668304204940796,5.442062854766846,0.6307864189147949
-2.6869304180145264,5.39033842086792,0.6195973753929138
-2.7102127075195312,5.349009037017822,0.6096935868263245
-2.7398386001586914,5.317251682281494,0.6007350087165833
-2.7662997245788574,5.27806282043457,0.5908898711204529
-2.7679314613342285,5.194519996643066,0.5758964419364929
-1.1401240825653076,2.1063485145568848,0.2311958521604538
-1.1766077280044556,2.139944553375244,0.23249459266662598
-2.500836133956909,4.474484443664551,0.4808522164821625
-2.5030462741851807,4.407031059265137,0.46834030747413635
-2.551811456680298,4.424718379974365,0.4645453691482544
-6.030231952667236,10.301447868347168,1.0685116052627563
-1.2450790405273438,2.093655824661255,0.21432729065418243
-1.2597354650497437,2.085249662399292,0.21060411632061005
-2.7276265621185303,4.450098037719727,0.4430236518383026
-2.7570571899414062,4.432743072509766,0.4347587823867798
-2.98764705657959,4.730167388916016,0.456514835357666
-3.0118038654327393,4.697235107421875,0.4458397328853607
-3.046269416809082,4.685146331787109,0.4369518458843231
-3.045015811920166,4.617033958435059,0.4227302074432373
-3.045572519302368,4.547455310821533,0.40788936614990234
-3.079819917678833,4.534666061401367,0.3981984853744507
-3.1087660789489746,4.5157670974731445,0.387902170419693
-3.1602790355682373,4.523677825927734,0.37908002734184265
-2.8613839149475098,4.039137363433838,0.32977575063705444
-5.019618034362793,6.991835594177246,0.5552468299865723
-2.9196979999542236,4.008571624755859,0.308535635471344
-2.9018125534057617,3.9306859970092773,0.2926199734210968
-3.012352705001831,4.217974662780762,-0.21114079654216766
-2.452613353729248,3.4851467609405518,-0.18438002467155457
-2.4435667991638184,3.5289433002471924,-0.19666260480880737
-2.373973846435547,3.481494665145874,-0.20321200788021088
-2.307302951812744,3.43652081489563,-0.20932264626026154
-2.2273712158203125,3.3719825744628906,-0.21388711035251617
-2.188169002532959,3.364453077316284,-0.22136780619621277
-2.146599531173706,3.3535590171813965,-0.22834274172782898
-2.1213364601135254,3.368995428085327,-0.23703837394714355
-1.2696635723114014,2.0478358268737793,-0.14839552342891693
-1.2547327280044556,2.0566561222076416,-0.15332451462745667
-2.0551209449768066,3.4261882305145264,-0.26263532042503357
-2.034811019897461,3.446742057800293,-0.2709244191646576
-2.0139541625976562,3.467371940612793,-0.27919769287109375
-1.1863502264022827,2.0774409770965576,-0.17121461033821106
-1.2019059658050537,2.1398916244506836,-0.18027253448963165
-2.559535026550293,4.6336750984191895,-0.3987531065940857
-2.5495266914367676,4.696041584014893,-0.41231921315193176
-2.5187134742736816,4.720610618591309,-0.4226323068141937
-2.5036091804504395,4.7718119621276855,-0.4350763261318207
-2.465919256210327,4.7817816734313965,-0.4437727928161621
-2.4496610164642334,4.837291717529297,-0.4568004608154297
-2.421818494796753,4.867814064025879,-0.4673066735267639
-2.397831439971924,4.904806613922119,-0.4783477485179901
-2.3659257888793945,4.928033351898193,-0.48796868324279785
-1.57881498336792,3.350090265274048,-0.3366604447364807
-1.545137643814087,3.3394625186920166,-0.34040209650993347
-1.5244133472442627,3.3569135665893555,-0.34703123569488525
-1.5096940994262695,3.388524293899536,-0.3549579381942749
-1.4944461584091187,3.4201481342315674,-0.3629271686077118
-2.0428903102874756,4.766361236572266,-0.5121226906776428
-1.4565919637680054,3.464775323867798,-0.37682560086250305
-1.4253733158111572,3.460322856903076,-0.38079607486724854
-1.4033149480819702,3.477112054824829,-0.3869945704936981
-1.38723623752594,3.508042335510254,-0.39474692940711975
-1.3598203659057617,3.5098326206207275,-0.39921286702156067
-1.3292872905731201,3.5043132305145264,-0.40268126130104065
-1.7778944969177246,4.791223049163818,-0.5561429858207703
-2.016866683959961,5.554737567901611,-0.6510617136955261
-1.920723795890808,5.406854152679443,-0.6397855281829834
-1.6175845861434937,4.656726837158203,-0.5560716986656189
-1.5843310356140137,4.667409896850586,-0.5622098445892334
-0.9559405446052551,2.884154796600342,-0.35046297311782837
-0.9428735375404358,2.9124786853790283,-0.356895387172699
-0.9223921298980713,2.9185733795166016,-0.36060768365859985
-0.8067392110824585,2.6169731616973877,-0.32581204175949097
-0.7735708355903625,2.573974847793579,-0.3228934109210968
-0.7598236203193665,2.59385085105896,-0.32781466841697693
