X,Y,Z
1.2471113204956055,4.5179643630981445,-0.7470734715461731
1.278571367263794,4.510307312011719,-0.7401283979415894
1.3107349872589111,4.5022292137146,-0.7330149412155151
1.3334383964538574,4.4644775390625,-0.7212052941322327
1.3621336221694946,4.4489288330078125,-0.7125781178474426
1.393019199371338,4.4405436515808105,-0.7051360607147217
1.4146623611450195,4.402433395385742,-0.6929961442947388
1.4328689575195312,4.353009223937988,-0.6790772080421448
1.1880520582199097,3.527311325073242,-0.5451004505157471
1.2226104736328125,3.549191951751709,-0.543205201625824
1.2371312379837036,3.512360095977783,-0.5323166251182556
1.269666075706482,3.526380777359009,-0.5291441679000854
1.2889257669448853,3.5038959980010986,-0.5203357934951782
1.3095173835754395,3.484870433807373,-0.5118569135665894
1.333754539489746,3.4766576290130615,-0.5050796866416931
1.3554428815841675,3.4609384536743164,-0.49717214703559875
1.3796658515930176,3.452345371246338,-0.49023735523223877
1.4035314321517944,3.4437153339385986,-0.483140766620636
1.41888427734375,3.413264274597168,-0.47292789816856384
1.4429222345352173,3.4041635990142822,-0.4657401144504547
1.4667720794677734,3.3949403762817383,-0.4585055708885193
1.4901543855667114,3.3857343196868896,-0.45112308859825134
1.5039782524108887,3.3551087379455566,-0.4409404993057251
1.5280511379241943,3.3452131748199463,-0.43329378962516785
1.9000650644302368,4.08479118347168,-0.52141934633255
1.9114946126937866,4.037740707397461,-0.5076384544372559
1.9460294246673584,4.039619445800781,-0.50005042552948
1.9625592231750488,4.002540588378906,-0.48749104142189026
1.999699592590332,4.007009983062744,-0.4798398017883301
2.018300771713257,3.977053642272949,-0.46810805797576904
2.0492594242095947,3.9710752964019775,-0.459178626537323
2.079073190689087,3.9610838890075684,-0.44958755373954773
2.079087018966675,3.896228313446045,-0.43383046984672546
2.0889041423797607,3.8523061275482178,-0.42053207755088806
2.1479530334472656,3.8964786529541016,-0.4165056347846985
2.1278979778289795,3.7974610328674316,-0.3972397744655609
2.161478042602539,3.7974226474761963,-0.38845258951187134
2.175462484359741,3.7635159492492676,-0.37620946764945984
2.2018630504608154,3.749176263809204,-0.36565282940864563
2.232461929321289,3.7411513328552246,-0.35547226667404175
2.2455179691314697,3.707038640975952,-0.34297308325767517
2.2750179767608643,3.6991443634033203,-0.3327636122703552
2.3093607425689697,3.697178602218628,-0.3227767050266266
2.3174798488616943,3.6561992168426514,-0.3094158470630646
2.338221788406372,3.6346497535705566,-0.2975470721721649
2.376629114151001,3.6385629177093506,-0.28740596771240234
2.388279438018799,3.603806972503662,-0.27420830726623535
2.4207987785339355,3.6017229557037354,-0.26351243257522583
2.446145534515381,3.5854504108428955,-0.2510603964328766
2.452867269515991,3.543834686279297,-0.2367284893989563
2.4851412773132324,3.541167974472046,-0.22516277432441711
2.5282249450683594,3.549757957458496,-0.21335633099079132
2.5195322036743164,3.489546060562134,-0.19749994575977325
2.570509195327759,3.5111308097839355,-0.1858786791563034
2.185040235519409,2.942575693130493,-0.14436621963977814
2.7946949005126953,3.9277825355529785,0.47341474890708923
2.7750627994537354,3.9589433670043945,0.48920294642448425
2.721285820007324,3.9472367763519287,0.49933749437332153
2.7045328617095947,3.985234498977661,0.5150949954986572
2.699631452560425,4.038384437561035,0.532410740852356
2.652812957763672,4.03514289855957,0.5419709086418152
2.631869316101074,4.07028341293335,0.5565818548202515
2.5882489681243896,4.064439296722412,0.5647640228271484
2.553523302078247,4.0756330490112305,0.5750207901000977
2.5401663780212402,4.123438358306885,0.5903697609901428
2.5099833011627197,4.140366077423096,0.6008985638618469
2.4759368896484375,4.150270462036133,0.6103652119636536
2.4598822593688965,4.1942973136901855,0.6243576407432556
2.4159538745880127,4.191451072692871,0.6313709020614624
2.4009647369384766,4.234286308288574,0.6448440551757812
2.382216453552246,4.270062446594238,0.6572354435920715
2.2732865810394287,4.1475372314453125,0.6448326110839844
2.2490735054016113,4.176941871643066,0.655703067779541
2.2329955101013184,4.219277858734131,0.6684596538543701
2.188706159591675,4.206266403198242,0.672314465045929
2.1650149822235107,4.2346014976501465,0.6825547218322754
2.1428635120391846,4.270526885986328,0.6939217448234558
2.1209816932678223,4.306018352508545,0.7051934599876404
2.087148904800415,4.312716007232666,0.7114787101745605
2.0599563121795654,4.333100318908691,0.7200574278831482
2.021437883377075,4.332976341247559,0.7248415946960449
1.9923025369644165,4.353767395019531,0.7330424189567566
1.9864721298217773,4.427265167236328,0.7502599358558655
1.9971917867660522,4.535392761230469,0.7732632160186768
1.965114951133728,4.548205375671387,0.780158519744873
1.95124089717865,4.607567310333252,0.7946417331695557
1.9200135469436646,4.627894878387451,0.8023911714553833
1.885333776473999,4.640987396240234,0.8089804649353027
1.8726001977920532,4.70320463180542,0.8239622116088867
1.8114475011825562,4.643341064453125,0.817577600479126
1.780644416809082,4.66245698928833,0.824722945690155
1.7518359422683716,4.688809394836426,0.8329653143882751
1.3361668586730957,3.6585285663604736,0.6528044939041138
1.320537805557251,3.6961700916290283,0.6622973680496216
1.2869123220443726,3.6827759742736816,0.662656843662262
1.6355446577072144,4.787745952606201,0.8650146126747131
1.59700608253479,4.78766393661499,0.8680112957954407
1.593648910522461,4.897270679473877,0.8910537958145142
1.575597882270813,4.962787628173828,0.9061506390571594
1.5510292053222656,5.00588321685791,0.9171518087387085
1.5081747770309448,4.989924430847168,0.9173781275749207
2.662837266921997,9.03994083404541,1.667230248451233
1.4185594320297241,4.946490287780762,0.9148100018501282
2.507065773010254,8.98965835571289,1.66731858253479
1.3476588726043701,4.968660354614258,0.924138605594635
1.294244408607483,4.906564235687256,0.9151337742805481
1.2675350904464722,4.944515705108643,0.9248126149177551
1.232460618019104,4.952657699584961,0.9286418557167053
1.1998802423477173,4.975791931152344,0.9350365400314331
1.173740267753601,5.024768829345703,0.946325957775116
1.1396069526672363,5.039830207824707,0.951280951499939
1.1109559535980225,5.077028751373291,0.9604349136352539
1.069122076034546,5.0539398193359375,0.9582307934761047
1.0420483350753784,5.106013298034668,0.970076322555542
1.0093209743499756,5.131608009338379,0.9765228033065796
1.679746150970459,8.872888565063477,1.6912895441055298
0.3484654724597931,1.9149760007858276,0.3656436800956726
1.5380384922027588,8.799270629882812,1.6830098628997803
1.4780155420303345,8.82418441772461,1.6908012628555298
1.409588098526001,8.79173755645752,1.6874030828475952
1.3546838760375977,8.850133895874023,1.7005444765090942
1.2825078964233398,8.794254302978516,1.6918063163757324
1.2200500965118408,8.802433013916016,1.6954649686813354
1.1480438709259033,8.737889289855957,1.6851840019226074
1.0923837423324585,8.78686237335205,1.6968305110931396
1.0236847400665283,8.728784561157227,1.6878759860992432
0.20749767124652863,1.8835508823394775,0.36451998353004456
0.8984764814376831,8.718443870544434,1.6885014772415161
0.8400641679763794,8.75462532043457,1.696833610534668
0.38658344745635986,4.355127811431885,0.8448275327682495
0.35436755418777466,4.334549903869629,0.8415664434432983
0.32422155141830444,4.336678981781006,0.8427497148513794
0.29549768567085266,4.361599445343018,0.8482075929641724
0.345135360956192,5.683957576751709,1.1056989431381226
0.3019491732120514,5.636337757110596,1.0968236923217773
0.264377236366272,5.680295467376709,1.1058173179626465
0.22722335159778595,5.7431464195251465,1.1185483932495117
0.18914799392223358,5.801915645599365,1.1305484771728516
0.14898844063282013,5.810598850250244,1.132850170135498
0.10840386897325516,5.845973014831543,1.1397656202316284
0.06751435250043869,5.835079193115234,1.1375550031661987
0.026803147047758102,5.843070030212402,1.139081358909607
-0.02078690007328987,8.76082992553711,1.7079216241836548
-0.08112329989671707,8.702956199645996,1.6967568397521973
-0.14338111877441406,8.74432373046875,1.7050267457962036
-0.20392364263534546,8.735496520996094,1.7032980918884277
-0.26100078225135803,8.61911392211914,1.6797960996627808
-0.3198968768119812,8.594318389892578,1.6742372512817383
-0.36069756746292114,8.166903495788574,1.5903598070144653
-0.1826649010181427,3.572883129119873,0.6955200433731079
-0.20881566405296326,3.5869033336639404,0.6980428099632263
-0.23172737658023834,3.554842233657837,0.6916360259056091
-0.5681421756744385,7.875398635864258,1.5312275886535645
-0.5260205268859863,6.652129173278809,1.292281150817871
-0.5778167247772217,6.717453479766846,1.3039177656173706
-0.611908495426178,6.572267532348633,1.2747457027435303
-0.641564667224884,6.407890796661377,1.2419683933258057
-0.6844927668571472,6.388339519500732,1.2373456954956055
-0.7322673201560974,6.41426944732666,1.2414849996566772
-0.7745280265808105,6.39432954788208,1.2360434532165527
-0.8124576210975647,6.335963726043701,1.2232223749160767
-0.8483173847198486,6.273667812347412,1.2097541093826294
-0.8917447328567505,6.268117427825928,1.2072895765304565
-0.9388188123703003,6.284998893737793,1.2091902494430542
-0.9872871041297913,6.309122562408447,1.2125338315963745
-1.0383059978485107,6.344300270080566,1.2174615859985352
-1.0914123058319092,6.394433498382568,1.2250155210494995
-1.1446526050567627,6.440352916717529,1.2317814826965332
-1.1951566934585571,6.466960906982422,1.2348816394805908
-1.253314733505249,6.52699089050293,1.2443602085113525
-1.3085441589355469,6.567716598510742,1.2501870393753052
-1.3641685247421265,6.604176044464111,1.2549619674682617
-1.4164423942565918,6.6293439865112305,1.2569985389709473
-1.456771731376648,6.597832679748535,1.2483373880386353
-1.4941033124923706,6.554850101470947,1.2375911474227905
-1.5326423645019531,6.515212059020996,1.2275110483169556
-0.681546151638031,2.8081424236297607,0.5279564261436462
-0.6908501386642456,2.7626709938049316,0.5183491110801697
-0.7172666788101196,2.78810715675354,0.521710991859436
-0.736225426197052,2.7835795879364014,0.5194723606109619
-0.7531095743179321,2.7715089321136475,0.5158557891845703
-0.7767395973205566,2.781381845474243,0.5162961483001709
-1.764055609703064,6.151512622833252,1.1388568878173828
-1.7961459159851074,6.1030802726745605,1.1269359588623047
-1.8264334201812744,6.054964542388916,1.114464282989502
-1.8571826219558716,6.010427474975586,1.102637767791748
-1.8938896656036377,5.983885765075684,1.094132661819458
-1.9210690259933472,5.927750587463379,1.0802828073501587
-1.9565273523330688,5.896934986114502,1.0710951089859009
-1.985457420349121,5.8476738929748535,1.0586427450180054
-2.013716697692871,5.802485942840576,1.0463463068008423
-2.0451607704162598,5.768115997314453,1.036044955253601
-2.0717198848724365,5.718839645385742,1.0230779647827148
-2.1021554470062256,5.68013858795166,1.0120494365692139
-2.130955457687378,5.637612342834473,1.0004101991653442
-2.1701061725616455,5.623830795288086,0.9937971234321594
-2.2261552810668945,5.657022476196289,0.9949150085449219
-2.292062997817993,5.710937023162842,0.9995391368865967
-2.33662748336792,5.710798740386963,0.994712769985199
-2.366415500640869,5.670596599578857,0.9827844500541687
-2.4002809524536133,5.6408891677856445,0.9727575778961182
-2.477098226547241,5.7142486572265625,0.9800165891647339
-2.5395567417144775,5.751546382904053,0.9806714653968811
-4.019970417022705,8.943416595458984,1.5161619186401367
-2.5603084564208984,5.592679023742676,0.9424503445625305
-2.589832067489624,5.554941654205322,0.9304313659667969
-2.624713659286499,5.531445503234863,0.9205964207649231
-2.642031192779541,5.473265171051025,0.9046037793159485
-2.688720464706421,5.477787971496582,0.8991439342498779
-2.6904163360595703,5.387888431549072,0.8780412673950195
-4.838621616363525,9.52377700805664,1.5406405925750732
-2.7511403560638428,5.32538366317749,0.8548452854156494
-2.7703304290771484,5.27768611907959,0.8402705788612366
-2.8023390769958496,5.253544807434082,0.8294156789779663
-1.1622220277786255,2.143122434616089,0.3353806734085083
-1.1848667860031128,2.149038791656494,0.3332931697368622
-5.4689459800720215,9.765830993652344,1.50010085105896
-5.60807466506958,9.863780975341797,1.50017249584198
-2.543457269668579,4.404216289520264,0.6628614664077759
-1.231476068496704,2.0984995365142822,0.31239238381385803
-1.250009536743164,2.0972371101379395,0.3086823523044586
-2.9188411235809326,4.826079368591309,0.7018274068832397
-2.9466488361358643,4.801662921905518,0.6897699236869812
-2.9647510051727295,4.755708694458008,0.6739557385444641
-3.020577907562256,4.772702693939209,0.6671419739723206
-3.0117385387420654,4.692594051361084,0.6464654207229614
-3.0382325649261475,4.667879581451416,0.6335021257400513
-3.0435996055603027,4.60576868057251,0.614774227142334
-3.071289539337158,4.5797624588012695,0.6006463766098022
-3.0790395736694336,4.529369354248047,0.5833771228790283
-3.1318764686584473,4.542031288146973,0.5736917853355408
-2.983694553375244,4.263485431671143,0.527314305305481
-2.8558096885681152,4.027156829833984,0.4870915114879608
-2.896313428878784,4.028536796569824,0.47566333413124084
-2.9204766750335693,4.003143787384033,0.46025121212005615
-2.93685245513916,3.973475456237793,0.4441760182380676
-2.968066453933716,4.155759811401367,-0.25668373703956604
-2.4406888484954834,3.4718220233917236,-0.22800976037979126
-2.8920443058013916,4.178338527679443,-0.28995847702026367
-2.8619236946105957,4.197882175445557,-0.3060874938964844
-2.8536810874938965,4.254012584686279,-0.325031578540802
-2.82287335395813,4.273313045501709,-0.3405013084411621
-2.799673318862915,4.305896759033203,-0.35705631971359253
-2.7628297805786133,4.319092273712158,-0.37180808186531067
-1.2351104021072388,1.961119294166565,-0.1746593564748764
-1.2598153352737427,2.0323431491851807,-0.18694740533828735
-1.2607141733169556,2.0677247047424316,-0.19620512425899506
-2.106625556945801,3.511608839035034,-0.34306663274765015
-2.035963535308838,3.4484260082244873,-0.3461846709251404
-2.639406681060791,4.545814514160156,-0.4684670567512512
-2.631298065185547,4.607408046722412,-0.48680180311203003
-2.581333875656128,4.594043731689453,-0.4969864785671234
-2.5675418376922607,4.64919376373291,-0.5147364735603333
-2.536682367324829,4.673442840576172,-0.5289963483810425
-2.5218851566314697,4.724071025848389,-0.5458188652992249
-2.495274066925049,4.754231929779053,-0.5603717565536499
-2.465707302093506,4.781211853027344,-0.5745323896408081
-2.4374594688415527,4.811517715454102,-0.5892287492752075
-2.4171245098114014,4.854933261871338,-0.6052461862564087
-2.3921847343444824,4.89163064956665,-0.6204329133033752
-1.5921791791915894,3.3158979415893555,-0.42769283056259155
-1.5683720111846924,3.3261468410491943,-0.43599337339401245
-1.5447659492492676,3.3360941410064697,-0.44419652223587036
-1.520155668258667,3.346278190612793,-0.452420175075531
-1.492638349533081,3.34906268119812,-0.4595063626766205
-1.0107382535934448,2.3112008571624756,-0.32163360714912415
-1.0050625801086426,2.3424570560455322,-0.33053040504455566
-0.9776051640510559,2.3239128589630127,-0.3322758376598358
-0.957535982131958,2.3231136798858643,-0.33657872676849365
-0.9352441430091858,2.3147411346435547,-0.33960258960723877
-0.9302940964698792,2.349313259124756,-0.3489486873149872
-0.9134126305580139,2.3551857471466064,-0.35392385721206665
-0.8964709639549255,2.3609373569488525,-0.358885794878006
-0.8915417790412903,2.399198293685913,-0.36888155341148376
-0.879871666431427,2.4191975593566895,-0.37608081102371216
-0.8677405714988708,2.4392380714416504,-0.3831629753112793
-0.8527868390083313,2.451932191848755,-0.3891114592552185
-0.837893545627594,2.4644646644592285,-0.3950323164463043
-0.8299437165260315,2.49894380569458,-0.404599666595459
-0.8133992552757263,2.5076866149902344,-0.409812867641449
-0.800182044506073,2.5273847579956055,-0.41678526997566223
-0.784541130065918,2.539607524871826,-0.42255890369415283
-0.7710664868354797,2.559088945388794,-0.42957815527915955
-0.7638123631477356,2.6007285118103027,-0.44026419520378113
-0.7470914125442505,2.6128530502319336,-0.44592976570129395
-0.7481775283813477,2.6878833770751953,-0.4623885750770569
-0.7252544164657593,2.6774380207061768,-0.464206725358963
-0.7123197317123413,2.7040657997131348,-0.4724089205265045
-0.7056018114089966,2.756819009780884,-0.4849948585033417
-0.7460840940475464,3.0039350986480713,-0.532219409942627
-0.7213489413261414,2.993344306945801,-0.5340127348899841
-0.7055519223213196,3.020026206970215,-0.5424911975860596
-0.6825034618377686,3.0166966915130615,-0.54521244764328
-0.6644824147224426,3.0357396602630615,-0.5519615411758423
-0.7835949659347534,3.7055301666259766,-0.6778519749641418
-0.7353222966194153,3.600802183151245,-0.662632405757904
-0.5719160437583923,2.903651475906372,-0.5372671484947205
-0.5457689762115479,2.8767716884613037,-0.5350184440612793
-0.5283481478691101,2.8950250148773193,-0.5411697626113892
-0.5117106437683105,2.9207763671875,-0.5488284826278687
-0.49447041749954224,2.9426045417785645,-0.5556535124778748
-0.48118361830711365,2.990939140319824,-0.5671525597572327
-0.46257713437080383,3.0088558197021484,-0.5729596018791199
-0.4454365670681,3.0380396842956543,-0.5809711813926697
-0.42594441771507263,3.0557568073272705,-0.5868962407112122
-0.40254488587379456,3.0429646968841553,-0.5864713788032532
-0.38222232460975647,3.0528523921966553,-0.5903503894805908
-0.3595544397830963,3.043551445007324,-0.5905428528785706
-0.34049272537231445,3.064572334289551,-0.5966457724571228
-0.31755125522613525,3.0511934757232666,-0.5958224534988403
-0.2926022410392761,3.0186572074890137,-0.5909533500671387
-0.2695041596889496,2.99735951423645,-0.5882608890533447
-0.24671697616577148,2.975891590118408,-0.5855408906936646
-0.22281324863433838,2.935152053833008,-0.5789951086044312
-0.20287592709064484,2.9440488815307617,-0.5816824436187744
-0.17820800840854645,2.8839776515960693,-0.5707709193229675
-0.1581268608570099,2.884920120239258,-0.5719243884086609
-0.13714782893657684,2.8665850162506104,-0.5692763924598694
-0.11766089498996735,2.878801107406616,-0.5723337531089783
-0.09725321829319,2.867948055267334,-0.5706239938735962
-0.07693717628717422,2.868448495864868,-0.5712082386016846
-0.05666728317737579,2.8534796237945557,-0.5687286853790283
-0.03668674826622009,2.8460593223571777,-0.5676268935203552
-0.016743572428822517,2.8232619762420654,-0.5630383491516113
0.0029337871819734573,2.830972909927368,-0.5645614862442017
0.022814972326159477,2.8155596256256104,-0.5615009665489197
0.042480189353227615,2.8229949474334717,-0.5630241632461548
0.06243687495589256,2.8380491733551025,-0.5655884146690369
0.08213911205530167,2.8376617431640625,-0.5650129318237305
0.1010143831372261,2.814164638519287,-0.5598670840263367
0.1215573251247406,2.8364758491516113,-0.5638612508773804
0.1412361115217209,2.8280582427978516,-0.5615009665489197
0.16176019608974457,2.8425378799438477,-0.5633924007415771
0.18346954882144928,2.8721678256988525,-0.5682983994483948
0.20343150198459625,2.8710525035858154,-0.5671380758285522
0.22489586472511292,2.8889060020446777,-0.5697285532951355
0.2453204244375229,2.887589693069458,-0.5679711699485779
0.2681911587715149,2.9166955947875977,-0.572236180305481
0.2869918942451477,2.899837017059326,-0.5674999952316284
0.31284621357917786,2.951493978500366,-0.5761814713478088
0.3333909809589386,2.949657440185547,-0.5740602612495422
0.3620615303516388,3.0124237537384033,-0.5842511653900146
0.3820595443248749,3.002678394317627,-0.5804038643836975
0.40604814887046814,3.02321720123291,-0.5824264883995056
0.43194541335105896,3.0549964904785156,-0.5864675641059875
0.45546236634254456,3.067671298980713,-0.586396336555481
0.4842551052570343,3.110469102859497,-0.592021107673645
0.5152125358581543,3.1644368171691895,-0.5997540354728699
0.5456591844558716,3.2105672359466553,-0.6059459447860718
0.5733811259269714,3.2376255989074707,-0.6080126762390137
0.6028908491134644,3.27203369140625,-0.6113424897193909
0.6351251006126404,3.317512035369873,-0.6166807413101196
0.6647139191627502,3.343791961669922,-0.6183463335037231
0.702811598777771,3.4113683700561523,-0.6273643970489502
0.7450207471847534,3.4937076568603516,-0.6386791467666626
0.7776709198951721,3.5268237590789795,-0.640886664390564
0.8151718974113464,3.5784037113189697,-0.646365761756897
0.853886067867279,3.6295714378356934,-0.6515336632728577
0.9018818736076355,3.7179956436157227,-0.662834882736206
0.9641891121864319,3.858259916305542,-0.683121919631958
1.0094537734985352,3.923276662826538,-0.6898285746574402
1.0576465129852295,3.995321273803711,-0.6976225972175598
1.113308072090149,4.089216232299805,-0.7085137367248535
1.1854053735733032,4.23837947845459,-0.7286400198936462
1.2267500162124634,4.271924018859863,-0.7286412119865417
1.29054856300354,4.379045009613037,-0.7409929037094116
1.33233642578125,4.408082962036133,-0.7397034764289856
1.3738315105438232,4.433021068572998,-0.737271785736084
1.4000945091247559,4.409911632537842,-0.7269555330276489
1.4275211095809937,4.390236854553223,-0.717230498790741
1.4619752168655396,4.392397403717041,-0.7110031247138977
1.483802318572998,4.357873439788818,-0.6985203623771667
1.5014041662216187,4.312285423278809,-0.6843961477279663
1.5296632051467896,4.2954840660095215,-0.674748420715332
1.261130928993225,3.4650468826293945,-0.538765013217926
1.2905524969100952,3.4717934131622314,-0.5339407324790955
1.3214954137802124,3.48190975189209,-0.529604971408844
1.3445305824279785,3.4700229167938232,-0.5218555927276611
1.360897421836853,3.4397830963134766,-0.511280357837677
1.3877016305923462,3.4385013580322266,-0.5049355626106262
1.4085845947265625,3.422717332839966,-0.4964408874511719
1.4295541048049927,3.4066989421844482,-0.48789840936660767
1.456627368927002,3.404717206954956,-0.4813457727432251
1.4775816202163696,3.3883283138275146,-0.47249653935432434
1.4978314638137817,3.3720216751098633,-0.46375802159309387
1.5214229822158813,3.3625173568725586,-0.4559054672718048
1.5451598167419434,3.3527448177337646,-0.4479798972606659
1.5552115440368652,3.314913749694824,-0.4362570345401764
1.5884517431259155,3.3259973526000977,-0.43083655834198
1.9527455568313599,4.017391681671143,-0.5120630264282227
1.981142520904541,4.004734039306641,-0.5020339488983154
2.007044553756714,3.9887309074401855,-0.4914717674255371
2.0308785438537598,3.9691669940948486,-0.4804840683937073
2.0586657524108887,3.956068754196167,-0.4701427221298218
2.079786539077759,3.928678274154663,-0.4579324424266815
2.0678625106811523,3.843735456466675,-0.4392537474632263
2.09029483795166,3.823887586593628,-0.42821475863456726
2.1569583415985107,3.881563663482666,-0.4253920614719391
2.132383346557617,3.776139974594116,-0.4047388434410095
2.170036554336548,3.7827107906341553,-0.39605650305747986
2.1960904598236084,3.7687697410583496,-0.38520345091819763
2.2068705558776855,3.7274532318115234,-0.3713882565498352
2.236284017562866,3.7200591564178467,-0.3609738051891327
2.269460678100586,3.7192344665527344,-0.3511469066143036
2.283782958984375,3.684093475341797,-0.337498277425766
2.3009424209594727,3.656049966812134,-0.32474252581596375
2.346339702606201,3.6744070053100586,-0.3160438537597656
2.350576162338257,3.6263644695281982,-0.30127477645874023
2.363083839416504,3.591259717941284,-0.2875182032585144
2.4262571334838867,3.634535074234009,-0.2797325849533081
2.4205126762390137,3.5735745429992676,-0.26372554898262024
2.4454376697540283,3.557497024536133,-0.2508355975151062
2.486534833908081,3.567880392074585,-0.23975282907485962
2.481658935546875,3.510228157043457,-0.2236112654209137
2.5175485610961914,3.5094833374023438,-0.21057744324207306
2.5631747245788574,3.5254647731781006,-0.19863493740558624
2.258744239807129,3.0623111724853516,-0.16035176813602448
2.7788891792297363,3.9346346855163574,0.5082707405090332
2.743861675262451,3.9477741718292236,0.5221030712127686
2.7323009967803955,3.9962527751922607,0.5404177904129028
2.711751699447632,4.027126312255859,0.555587112903595
2.6574020385742188,4.010281562805176,0.5637109875679016
2.6362359523773193,4.045559883117676,0.5789739489555359
2.6110432147979736,4.069365978240967,0.5918349027633667
2.5897297859191895,4.099596977233887,0.605491042137146
2.544933795928955,4.098467826843262,0.6143122315406799
2.529811382293701,4.1424736976623535,0.6296048164367676
2.488223075866699,4.138879299163818,0.6371669173240662
2.47345232963562,4.182128429412842,0.6517762541770935
2.4489622116088867,4.212808609008789,0.6642624735832214
2.43782901763916,4.266712665557861,0.6804798245429993
2.3941502571105957,4.2587890625,0.6863709092140198
2.3518338203430176,4.254268646240234,0.6926112771034241
2.262172222137451,4.165218353271484,0.6845806837081909
2.230496406555176,4.180780410766602,0.6935997009277344
2.211045980453491,4.2158684730529785,0.7056077122688293
2.188175916671753,4.24375581741333,0.7163915038108826
2.1667869091033936,4.279326438903809,0.7280504107475281
2.131044626235962,4.287225246429443,0.7350243926048279
2.096229076385498,4.294408321380615,0.7417367100715637
2.0752456188201904,4.328932285308838,0.7531436681747437
2.045860767364502,4.345839023590088,0.7613410949707031
2.013317823410034,4.359734058380127,0.7686207890510559
1.9807162284851074,4.373358249664307,0.7758897542953491
2.016417980194092,4.537786483764648,0.8099576830863953
1.9889461994171143,4.561240196228027,0.8189730048179626
1.9679428339004517,4.602601051330566,0.8312413692474365
1.9174208641052246,4.576754570007324,0.8308372497558594
1.914225697517395,4.664438247680664,0.8511163592338562
1.8631561994552612,4.634099960327148,0.8498455882072449
1.8530657291412354,4.703249931335449,0.8667567372322083
1.819326400756836,4.7151970863342285,0.8732960820198059
1.779373049736023,4.712869167327881,0.8765527009963989
1.3635300397872925,3.692417860031128,0.6896379590034485
1.3259809017181396,3.6725075244903564,0.6888026595115662
1.3052587509155273,3.695422410964966,0.6959054470062256
1.2712467908859253,3.6820192337036133,0.6962497234344482
2.972900629043579,8.812034606933594,1.6726164817810059
1.59678316116333,4.848482131958008,0.9233971834182739
2.841813087463379,8.84354019165039,1.6899861097335815
2.763277530670166,8.814291954040527,1.6900875568389893
2.7025184631347656,8.83939266204834,1.700637698173523
2.6449244022369385,8.871103286743164,1.7124502658843994
1.455635905265808,5.012059211730957,0.9703351855278015
1.4246089458465576,5.040057182312012,0.9783793091773987
1.3667386770248413,4.971622943878174,0.9677274227142334
1.3125423192977905,4.909905433654785,0.958307683467865
1.279451608657837,4.925726890563965,0.9640450477600098
1.250587821006775,4.956058502197266,0.9726383686065674
1.2207385301589966,4.986453056335449,0.9808376431465149
1.1893279552459717,5.0130438804626465,0.9881238341331482
1.1567389965057373,5.035693645477295,0.9946981072425842
1.1253830194473267,5.065648555755615,1.0027923583984375
1.0899899005889893,5.0726799964904785,1.0063389539718628
1.0576704740524292,5.094478130340576,1.0128706693649292
1.0284618139266968,5.135011196136475,1.0228177309036255
0.9903720617294312,5.134106159210205,1.0242233276367188
0.3619599938392639,1.952208399772644,0.39008593559265137
0.34339624643325806,1.9280956983566284,0.3858967423439026
1.460545301437378,8.54438304901123,1.712923526763916
1.4021884202957153,8.560976028442383,1.719149112701416
1.348106861114502,8.607542037963867,1.7312383651733398
1.276974081993103,8.555675506591797,1.7226930856704712
1.209335207939148,8.514482498168945,1.7163270711898804
0.2646021842956543,1.9625545740127563,0.39607006311416626
1.0864742994308472,8.506441116333008,1.7187788486480713
1.0253361463546753,8.497892379760742,1.7191869020462036
0.964369535446167,8.488905906677246,1.7195823192596436
0.20372456312179565,1.915291666984558,0.3882844150066376
0.42809513211250305,4.313243865966797,0.8750094771385193
0.3969881534576416,4.308289051055908,0.8746378421783447
0.3660708963871002,4.303103923797607,0.8742581605911255
0.33524343371391296,4.29386043548584,0.8730868697166443
0.3048352599143982,4.295887470245361,0.8742614388465881
0.2790549695491791,4.3626484870910645,0.8884768486022949
0.32184284925460815,5.6522908210754395,1.1513993740081787
0.28334859013557434,5.677197456359863,1.1568106412887573
0.24639107286930084,5.743901252746582,1.1708012819290161
0.2073596715927124,5.7912492752075195,1.180917501449585
0.16708628833293915,5.792398452758789,1.1816661357879639
0.127895787358284,5.843011856079102,1.1925674676895142
0.08750931173563004,5.8590240478515625,1.1959023475646973
0.04650850594043732,5.836536407470703,1.1911752223968506
0.005241828504949808,5.913275241851807,1.2067557573318481
-0.05161270871758461,8.488948822021484,1.732358455657959
-0.1105521023273468,8.488396644592285,1.7322999238967896
-0.169737309217453,8.495088577270508,1.733803629875183
-0.22756868600845337,8.447816848754883,1.724303126335144
-0.28878575563430786,8.526620864868164,1.7394616603851318
-0.3374202847480774,8.241620063781738,1.6804896593093872
-0.17152512073516846,3.5824837684631348,0.7301598191261292
-0.196833997964859,3.588956356048584,0.7311936616897583
-0.22176870703697205,3.587608575820923,0.7306689620018005
-0.4273740351200104,6.213598728179932,1.2651184797286987
-0.4772717356681824,6.290858268737793,1.2801262140274048
-0.5244548320770264,6.333559513092041,1.2876665592193604
-0.5695116519927979,6.3454060554504395,1.288983941078186
-0.6158623695373535,6.368366241455078,1.2926133871078491
-0.6641077995300293,6.402380466461182,1.298530101776123
-0.7183088660240173,6.477816581726074,1.3128771781921387
-0.755743145942688,6.408380508422852,1.2979404926300049
-0.7969993948936462,6.380743026733398,1.2907603979110718
-0.8338305354118347,6.322492599487305,1.2773442268371582
-0.8704254627227783,6.267824172973633,1.2647380828857422
-0.9133810997009277,6.254509449005127,1.2605165243148804
-0.9656280875205994,6.3053364753723145,1.2692867517471313
-1.016808032989502,6.344396114349365,1.2757261991500854
-1.0657906532287598,6.368037223815918,1.2788012027740479
-1.1218960285186768,6.433032512664795,1.2896153926849365
-1.1714141368865967,6.456087112426758,1.2920470237731934
-1.2284877300262451,6.512531280517578,1.301152229309082
-1.2818384170532227,6.545958042144775,1.305693507194519
-1.3350228071212769,6.575191497802734,1.3094327449798584
-1.3910425901412964,6.615262985229492,1.3153667449951172
-1.442697525024414,6.636496543884277,1.3167500495910645
-1.4802885055541992,6.58984899520874,1.3046021461486816
-1.5121870040893555,6.524469375610352,1.2888972759246826
-0.6706855297088623,2.8059120178222656,0.5531228184700012
-0.683835506439209,2.775481700897217,0.5459669828414917
-0.7032003998756409,2.77103328704834,0.5439596176147461
-0.7293329834938049,2.7924892902374268,0.5467929244041443
-0.7413372993469238,2.7619783878326416,0.5393548607826233
-0.7753763198852539,2.8128561973571777,0.5478221774101257
-1.749314785003662,6.18115758895874,1.2006052732467651
-1.7839257717132568,6.140324115753174,1.189466118812561
-1.8155341148376465,6.088039875030518,1.1761469841003418
-1.8507493734359741,6.054432392120361,1.166181206703186
-1.876872181892395,5.995232105255127,1.150965929031372
-1.9104233980178833,5.961568832397461,1.140756368637085
-1.9391779899597168,5.912995338439941,1.1277490854263306
-1.9678210020065308,5.860125541687012,1.1138709783554077
-2.001396656036377,5.825517654418945,1.1036193370819092
-2.033726930618286,5.791079044342041,1.0930652618408203
-2.055889129638672,5.73142147064209,1.0774812698364258
-2.0865983963012695,5.696990013122559,1.0667409896850586
-2.1203038692474365,5.669369220733643,1.0572773218154907
-2.1539182662963867,5.637397289276123,1.046906590461731
-2.206098794937134,5.655667781829834,1.0459814071655273
-2.2615365982055664,5.684852600097656,1.0464894771575928
-2.3243942260742188,5.731552600860596,1.0500104427337646
-2.3511953353881836,5.68868350982666,1.0371415615081787
-2.386989116668701,5.662679672241211,1.027171015739441
-2.420685291290283,5.633025646209717,1.016654133796692
-2.479857921600342,5.663432598114014,1.0168051719665527
-3.9665040969848633,8.8984375,1.5884416103363037
-2.5491580963134766,5.618708610534668,0.9971983432769775
-2.5801618099212646,5.584874629974365,0.9852307438850403
-4.301279544830322,9.142854690551758,1.603028655052185
-4.394045829772949,9.174010276794434,1.598603367805481
-2.668708324432373,5.479297637939453,0.9482262134552002
-4.584732532501221,9.258316040039062,1.5911153554916382
-4.6764421463012695,9.284391403198242,1.5840905904769897
-4.7826457023620605,9.332963943481445,1.580527424812317
-4.875374794006348,9.353161811828613,1.5720453262329102
-4.979194641113281,9.40202522277832,1.5671757459640503
-1.1500962972640991,2.137810707092285,0.3533628582954407
-1.1776973009109497,2.1543309688568115,0.3530050218105316
-5.291534900665283,9.51900863647461,1.5453609228134155
-5.38784122467041,9.539219856262207,1.534067153930664
-2.5483360290527344,4.4444990158081055,0.7076030373573303
-5.59535551071167,9.614156723022461,1.515156626701355
-1.2453423738479614,2.106198787689209,0.3282914459705353
-1.2485908269882202,2.0779900550842285,0.3202057480812073
-2.933919906616211,4.812337875366211,0.732633113861084
-2.9675939083099365,4.797968864440918,0.7214844226837158
-3.0008628368377686,4.779072284698486,0.7091884613037109
-3.0118319988250732,4.723520278930664,0.6913427710533142
-3.026596784591675,4.679044723510742,0.6746678352355957
-3.04211163520813,4.6383466720581055,0.6587841510772705
-3.053133010864258,4.58647346496582,0.6406720280647278
-3.0767455101013184,4.55385160446167,0.6251435875892639
-3.0930356979370117,4.516485214233398,0.6086786389350891
-3.154496908187866,4.542065143585205,0.600167989730835
-2.8691115379333496,4.070533752441406,0.5264400243759155
-6.74729061126709,9.444032669067383,1.1940817832946777
-2.9218177795410156,4.036418914794922,0.49848300218582153
-2.941483736038208,4.0047430992126465,0.4812938868999481
-2.9375951290130615,3.946592092514038,0.4609156847000122
-2.4539129734039307,3.4625725746154785,-0.22671747207641602
-2.445404529571533,3.505682945251465,-0.2434844672679901
-2.8673057556152344,4.175249099731445,-0.3058600425720215
-2.8498194217681885,4.214211940765381,-0.324111670255661
-2.8176190853118896,4.23450231552124,-0.34075498580932617
-2.8230972290039062,4.308963298797607,-0.36124560236930847
-2.7961246967315674,4.334451198577881,-0.3775079548358917
-2.771695613861084,4.367178440093994,-0.39447832107543945
-1.2789812088012695,2.047696828842163,-0.19137077033519745
-1.2723703384399414,2.069453239440918,-0.1996064931154251
-2.128938913345337,3.520364284515381,-0.35002967715263367
-2.0654869079589844,3.471048355102539,-0.35507404804229736
-2.6443824768066406,4.515051364898682,-0.47442904114723206
-2.6373305320739746,4.5805559158325195,-0.4941241443157196
-1.206952691078186,2.1316468715667725,-0.23571227490901947
-2.5746312141418457,4.62188720703125,-0.5230740904808044
-2.546522617340088,4.6491475105285645,-0.5381177663803101
-2.5268311500549316,4.6935858726501465,-0.555223822593689
-2.4961025714874268,4.717144966125488,-0.5698405504226685
-2.476834535598755,4.76069974899292,-0.5866454243659973
-2.4453423023223877,4.7840094566345215,-0.6009153723716736
-2.4259445667266846,4.831296443939209,-0.6182783246040344
-2.3916287422180176,4.846695899963379,-0.6313114166259766
-1.600140929222107,3.3020148277282715,-0.43769949674606323
-1.5793169736862183,3.3194479942321777,-0.4473912715911865
-1.5405434370040894,3.297978639602661,-0.45172634720802307
-1.5219942331314087,3.3182144165039062,-0.46161267161369324
-1.022623896598816,2.271576166152954,-0.3208010792732239
-1.0061132907867432,2.2781331539154053,-0.32645997405052185
-0.9832881689071655,2.2703897953033447,-0.33008942008018494
-0.9671902060508728,2.2764925956726074,-0.3355730473995209
-0.9568086266517639,2.296851873397827,-0.34310221672058105
-0.9431264996528625,2.310056447982788,-0.34955549240112305
-0.9351957440376282,2.3374764919281006,-0.35819292068481445
-0.9155119061470032,2.336118698120117,-0.3624979257583618
-0.9043242335319519,2.3562264442443848,-0.3699721395969391
-0.8941215872764587,2.379948616027832,-0.3780178129673004
-0.8797792792320251,2.3926961421966553,-0.3843461573123932
-0.8707196116447449,2.41981840133667,-0.39300617575645447
-0.863458514213562,2.454340934753418,-0.4029290974140167
-0.8484064340591431,2.466923952102661,-0.4091380536556244
-0.8308125138282776,2.4720728397369385,-0.41413429379463196
-0.8205692172050476,2.4990265369415283,-0.4228019714355469
-0.8040344715118408,2.507612943649292,-0.42832615971565247
-0.7927296757698059,2.5346262454986572,-0.4369409680366516
-0.8331572413444519,2.7310261726379395,-0.47503215074539185
-0.79082190990448,2.6584088802337646,-0.46649599075317383
-0.7741923332214355,2.6704604625701904,-0.472682923078537
-0.7531418800354004,2.667656660079956,-0.47596418857574463
-0.7362268567085266,2.6795356273651123,-0.4818933308124542
-0.7110519409179688,2.6615989208221436,-0.4824996590614319
-0.70393306016922,2.7103848457336426,-0.4951845407485962
-0.7383701801300049,2.927049398422241,-0.5385527610778809
-0.7313892245292664,2.987365484237671,-0.5534809827804565
-0.7103409767150879,2.991581916809082,-0.5581022500991821
-0.6958631873130798,3.025655508041382,-0.5684146285057068
-0.6762632727622986,3.0371479988098145,-0.574187695980072
-0.67022305727005,3.112372636795044,-0.5919488072395325
-0.6772809624671936,3.2552692890167236,-0.6228421330451965
-0.5962619185447693,2.9693000316619873,-0.5715281963348389
-0.5583238005638123,2.88604998588562,-0.558725893497467
-0.548576831817627,2.945805072784424,-0.5732038021087646
-0.5251970887184143,2.933788537979126,-0.5737821459770203
-0.4975101947784424,2.895129919052124,-0.569115161895752
-0.4840962886810303,2.9394736289978027,-0.5807927250862122
-0.46430978178977966,2.9498238563537598,-0.5853312015533447
-0.4413648843765259,2.937251091003418,-0.5852891206741333
-0.414861798286438,2.8979482650756836,-0.5798962712287903
-0.3858300745487213,2.835658311843872,-0.5698419213294983
-0.3640681207180023,2.822584390640259,-0.569271445274353
-0.337845116853714,2.7713735103607178,-0.5607985854148865
-0.31422749161720276,2.739001512527466,-0.5561370253562927
-0.2935066223144531,2.7254464626312256,-0.5552529096603394
-0.27375462651252747,2.719391345977783,-0.5557318925857544
-0.2515984773635864,2.686596632003784,-0.5503594279289246
-0.23288533091545105,2.6879489421844482,-0.5519918203353882
-0.21260486543178558,2.673933267593384,-0.550512969493866
-0.1928582489490509,2.6597511768341064,-0.5489869117736816
-0.1713183969259262,2.614995241165161,-0.5406055450439453
-0.1530935913324356,2.615908145904541,-0.5416558980941772
-0.13527806103229523,2.624332904815674,-0.5442895293235779
-0.11584363877773285,2.605897903442383,-0.5413908958435059
-0.09742230921983719,2.598850727081299,-0.5405067205429077
-0.07887159287929535,2.584073066711426,-0.5378169417381287
-0.060550760477781296,2.5691640377044678,-0.5351208448410034
-0.04254858195781708,2.561774730682373,-0.534013569355011
-0.024507654830813408,2.5695862770080566,-0.5359576940536499
-0.006613627541810274,2.562059164047241,-0.5343019366264343
0.011221897788345814,2.569704055786133,-0.5358361601829529
0.029009714722633362,2.5619289875030518,-0.5341808795928955
0.04653078690171242,2.546384572982788,-0.5309315323829651
0.0644146203994751,2.5537595748901367,-0.5319780111312866
0.082980677485466,2.568657636642456,-0.5345433950424194
0.10112722963094711,2.575788974761963,-0.5355236530303955
0.11831732094287872,2.559868335723877,-0.5317384600639343
0.13612516224384308,2.559169054031372,-0.5308426022529602
0.15483054518699646,2.5736708641052246,-0.5328673124313354
0.17303180694580078,2.572751998901367,-0.5317026972770691
0.19348420202732086,2.606062650680542,-0.5376412868499756
0.21221795678138733,2.6125423908233643,-0.5379505753517151
0.23039087653160095,2.61135196685791,-0.5362507700920105
0.2514401972293854,2.6405179500579834,-0.540795624256134
0.2717318832874298,2.6542587280273438,-0.5421531200408936
0.2939683496952057,2.686906576156616,-0.5473991632461548
0.31046992540359497,2.6662261486053467,-0.5413232445716858
0.33328911662101746,2.698667287826538,-0.5459566116333008
0.3580217957496643,2.7423272132873535,-0.552833080291748
0.37744367122650146,2.740203380584717,-0.5504406094551086
0.4014565050601959,2.772162437438965,-0.554662823677063
0.4276311993598938,2.815352439880371,-0.5608221888542175
0.4520609974861145,2.843177318572998,-0.5638759732246399
0.4725654125213623,2.8443210124969482,-0.5616277456283569
0.5087970495223999,2.936020851135254,-0.5771312713623047
0.5248813629150391,2.9066295623779297,-0.5682787895202637
0.555799663066864,2.9601550102233887,-0.5756877660751343
0.5919427871704102,3.036003351211548,-0.5873198509216309
0.6116759181022644,3.0249850749969482,-0.5821025371551514
0.6469752192497253,3.089078187942505,-0.590880274772644
0.6778727769851685,3.1265316009521484,-0.5943018794059753
0.710654079914093,3.1712801456451416,-0.5990928411483765
0.7467405796051025,3.226962089538574,-0.6058434844017029
0.7898427844047546,3.308542490005493,-0.6170583367347717
0.8230507373809814,3.3449747562408447,-0.6194604635238647
0.8657445907592773,3.4145760536193848,-0.6278021335601807
0.9061857461929321,3.4726855754852295,-0.6339476704597473
0.9514680504798889,3.5453057289123535,-0.6424838900566101
1.01917564868927,3.6955173015594482,-0.664376974105835
1.0816497802734375,3.819112539291382,-0.6811116337776184
1.1293946504592896,3.882737636566162,-0.6867538094520569
1.1897743940353394,3.9866223335266113,-0.6993780732154846
1.2638323307037354,4.130583763122559,-0.7182101011276245
1.3260995149612427,4.229659080505371,-0.7288306355476379
1.3758207559585571,4.284019947052002,-0.7314821481704712
1.4293915033340454,4.345067977905273,-0.7349674701690674
1.469606637954712,4.365658283233643,-0.7312750220298767
1.4949607849121094,4.342184066772461,-0.7200692296028137
1.5279358625411987,4.340333461761475,-0.7124502062797546
1.550716519355774,4.309084892272949,-0.7000119090080261
1.5782747268676758,4.292300224304199,-0.6898084282875061
1.6005561351776123,4.260788440704346,-0.6769643425941467
1.3203221559524536,3.442612409591675,-0.5407735705375671
1.3530666828155518,3.45597767829895,-0.5365908145904541
1.3744200468063354,3.440397024154663,-0.5278290510177612
1.4012022018432617,3.439126968383789,-0.5210933089256287
1.4225795269012451,3.423166275024414,-0.5120223760604858
1.440773844718933,3.3999271392822266,-0.5019301772117615
1.4647443294525146,3.3908462524414062,-0.4939166009426117
1.4851387739181519,3.374682903289795,-0.48474618792533875
1.508588433265686,3.3654305934906006,-0.47659239172935486
1.5231151580810547,3.334522008895874,-0.4652056097984314
1.5530295372009277,3.3389508724212646,-0.4588688313961029
1.5660820007324219,3.3082776069641113,-0.44759559631347656
1.5923099517822266,3.305476665496826,-0.44012361764907837
1.603737235069275,3.2708675861358643,-0.42830774188041687
1.982228398323059,3.972303628921509,-0.5111750364303589
2.005963087081909,3.953012228012085,-0.49976760149002075
2.044020891189575,3.9610369205474854,-0.4917190670967102
2.0684940814971924,3.940887451171875,-0.47994813323020935
2.088587760925293,3.9139909744262695,-0.4673719108104706
2.072755813598633,3.8223178386688232,-0.4472465515136719
2.1242446899414062,3.8530378341674805,-0.441206157207489
2.1343467235565186,3.808659315109253,-0.42658889293670654
2.156512498855591,3.7884418964385986,-0.414705753326416
2.1705191135406494,3.7547051906585693,-0.40142586827278137
2.200925588607788,3.7472076416015625,-0.39062032103538513
2.2315003871917725,3.7393605709075928,-0.37953510880470276
2.2526891231536865,3.718696355819702,-0.36730673909187317
2.2620112895965576,3.677666425704956,-0.35294660925865173
2.3128044605255127,3.702298879623413,-0.344583660364151
2.3169174194335938,3.6548030376434326,-0.3294723629951477
2.3378098011016846,3.633307695388794,-0.3165678381919861
2.3762686252593994,3.6373207569122314,-0.3055398762226105
2.379347801208496,3.5896847248077393,-0.29022306203842163
2.4075279235839844,3.581244468688965,-0.27815067768096924
2.4547672271728516,3.5973567962646484,-0.2671423554420471
2.452779769897461,3.542933225631714,-0.25071442127227783
2.480623960494995,3.5339550971984863,-0.23776715993881226
2.5236458778381348,3.5426931381225586,-0.2250370979309082
2.5332577228546143,3.507875680923462,-0.20954692363739014
2.5843162536621094,3.52949595451355,-0.19694742560386658
2.1851518154144287,2.942115545272827,-0.1518574357032776
2.795259714126587,3.929821729660034,0.5297966003417969
2.772554397583008,3.9580185413360596,0.5463861227035522
2.7450144290924072,3.9844729900360107,0.5625168085098267
2.691415548324585,3.9674267768859863,0.571487307548523
2.675266742706299,4.00438928604126,0.5877707600593567
2.6583940982818604,4.046132564544678,0.604548454284668
2.6312649250030518,4.07108211517334,0.6186755299568176
2.593684673309326,4.074908256530762,0.628866970539093
2.5625033378601074,4.092729091644287,0.640859067440033
2.530449151992798,4.110746383666992,0.652798593044281
2.516500473022461,4.153761863708496,0.6681775450706482
2.4981131553649902,4.190083980560303,0.6826018691062927
2.4619858264923096,4.200694561004639,0.6922494769096375
2.4372379779815674,4.231183052062988,0.7052038908004761
2.410407304763794,4.253726005554199,0.7164129614830017
2.3800315856933594,4.269114971160889,0.7263627648353577
2.2860310077667236,4.173743724822998,0.7169961929321289
2.2431507110595703,4.169045448303223,0.7228096723556519
2.2052066326141357,4.170222282409668,0.7293933629989624
2.203994035720825,4.239062786102295,0.7476962804794312
2.183706045150757,4.274038314819336,0.7599663734436035
2.1438801288604736,4.275379180908203,0.7660461664199829
2.1047167778015137,4.276106834411621,0.7719236612319946
2.0926623344421387,4.3277435302734375,0.7867364883422852
2.0652434825897217,4.3479905128479,0.7959127426147461
2.030132293701172,4.354592323303223,0.8022738099098206
2.0039472579956055,4.382274627685547,0.8123332858085632
1.9674358367919922,4.3889360427856445,0.8186358213424683
2.0169191360473633,4.584682464599609,0.8600959777832031
1.9813966751098633,4.59037971496582,0.86612868309021
1.9480208158493042,4.603304386138916,0.8732134103775024
1.9138363599777222,4.616318702697754,0.880074679851532
1.8905072212219238,4.657810688018799,0.8925225734710693
1.84591805934906,4.641300678253174,0.8936492204666138
1.8243024349212646,4.681602954864502,0.9057186245918274
1.8060411214828491,4.732709884643555,0.9198290109634399
1.77118718624115,4.744682788848877,0.9259003400802612
1.3419232368469238,3.6775097846984863,0.7206218242645264
1.317803978919983,3.6934707164764404,0.7266730070114136
1.286789059638977,3.6872427463531494,0.728296160697937
2.9569406509399414,8.665963172912598,1.718431830406189
1.6275321245193481,4.8832855224609375,0.9717277884483337
1.5984057188034058,4.916038990020752,0.9815019369125366
1.5741931200027466,4.963048934936523,0.9941540360450745
1.5365550518035889,4.965747833251953,0.9979302287101746
1.4861760139465332,4.923957347869873,0.992729663848877
1.4602209329605103,4.962670803070068,1.0037992000579834
1.446663737297058,5.049514293670654,1.0241056680679321
