X,Y,Z
0.941317081451416,2.6122899055480957,-0.5158252120018005
0.9876203536987305,2.682713508605957,-0.5233955383300781
1.046319842338562,2.7812976837158203,-0.5358802676200867
1.10888671875,2.886564016342163,-0.5492218136787415
1.1826595067977905,3.016356945037842,-0.5664268732070923
1.2582911252975464,3.1453773975372314,-0.5828467011451721
1.3403695821762085,3.284224271774292,-0.6003414392471313
1.4322922229766846,3.439845085144043,-0.6199442744255066
1.5227512121200562,3.587675094604492,-0.6372948288917542
1.6383413076400757,3.7876226902008057,-0.6629778146743774
1.7462780475616455,3.961453437805176,-0.6829677820205688
1.8740516901016235,4.172881603240967,-0.7083518505096436
1.9407896995544434,4.242406368255615,-0.7084668278694153
1.9639900922775269,4.216893196105957,-0.6927760243415833
2.007364273071289,4.232892990112305,-0.683675229549408
1.5868539810180664,3.287443161010742,-0.5217956900596619
1.5927517414093018,3.2432401180267334,-0.505599856376648
1.622813105583191,3.2473084926605225,-0.4968084990978241
1.6495102643966675,3.244184970855713,-0.48687276244163513
1.6136648654937744,3.1205625534057617,-0.4591308534145355
1.608304500579834,3.059363603591919,-0.4410460591316223
1.6371076107025146,3.0631589889526367,-0.43236151337623596
1.6090114116668701,2.960878849029541,-0.4088042080402374
1.7312651872634888,3.1342217922210693,-0.4228231906890869
1.7054442167282104,3.039050340652466,-0.4004775583744049
1.7884955406188965,3.1362485885620117,-0.4031831920146942
1.3259210586547852,2.288268804550171,-0.2866898477077484
0.975197434425354,1.6573762893676758,-0.20218510925769806
0.9410115480422974,1.5744986534118652,-0.18672263622283936
0.8816326260566711,1.4521470069885254,-0.16717888414859772
0.903910219669342,1.4665151834487915,-0.16371220350265503
0.9654689431190491,1.5433934926986694,-0.16687606275081635
0.9972261190414429,1.5700422525405884,-0.16400186717510223
1.0083985328674316,1.5635695457458496,-0.15738940238952637
1.0210835933685303,1.5606112480163574,-0.15123702585697174
1.0362335443496704,1.5605884790420532,-0.14516158401966095
1.0363129377365112,1.537725567817688,-0.13686177134513855
1.0421785116195679,1.5249130725860596,-0.12956754863262177
2.534364700317383,3.6544687747955322,-0.2949259877204895
2.56891131401062,3.6507112979888916,-0.278666615486145
2.597525119781494,3.6412718296051025,-0.2619187831878662
2.6042633056640625,3.599261522293091,-0.24222993850708008
2.6173810958862305,3.566760301589966,-0.2228626161813736
2.6754584312438965,3.5977213382720947,-0.2073507308959961
2.637925624847412,3.7198851108551025,0.6709256172180176
2.610185384750366,3.7363996505737305,0.6874490976333618
2.590528726577759,3.7704648971557617,0.7067724466323853
1.0567156076431274,1.5630531311035156,0.298183411359787
1.0538400411605835,1.5823978185653687,0.30671101808547974
1.024490475654602,1.563657283782959,0.3076421916484833
1.0117285251617432,1.57076096534729,0.3136301338672638
1.0165635347366333,1.6031334400177002,0.32433775067329407
1.0169892311096191,1.6290448904037476,0.33376577496528625
1.008104681968689,1.6424885988235474,0.340481162071228
0.9951026439666748,1.6492812633514404,0.34585097432136536
0.9710909724235535,1.635719656944275,0.3466821312904358
0.9552971720695496,1.6350762844085693,0.3500949442386627
1.3306595087051392,2.3173465728759766,0.5008516311645508
1.8444520235061646,3.268693208694458,0.7130427956581116
1.7774709463119507,3.2031493186950684,0.704860508441925
1.7796584367752075,3.2613301277160645,0.7238436341285706
1.771278977394104,3.303239107131958,0.7388986349105835
2.4205925464630127,4.59614372253418,1.0358948707580566
2.385469675064087,4.611916542053223,1.0472081899642944
2.348883867263794,4.619654655456543,1.0562773942947388
2.315138339996338,4.634186744689941,1.0670663118362427
2.2900123596191406,4.669910907745361,1.081865668296814
2.251162528991699,4.677941799163818,1.090338945388794
2.2226293087005615,4.706161022186279,1.1034916639328003
2.188995838165283,4.7196736335754395,1.1129703521728516
2.1584396362304688,4.739880084991455,1.1240936517715454
2.12538480758667,4.7610063552856445,1.13480806350708
2.0865299701690674,4.7677154541015625,1.142015814781189
2.0387136936187744,4.753054141998291,1.144120216369629
1.7638702392578125,4.192583084106445,1.0139358043670654
1.7339833974838257,4.203251838684082,1.0212894678115845
1.705505132675171,4.221378803253174,1.0301169157028198
1.676830530166626,4.239389419555664,1.0386284589767456
1.6452289819717407,4.2500901222229,1.0454134941101074
1.611689567565918,4.253156661987305,1.0502610206604004
1.5789296627044678,4.2557220458984375,1.0549260377883911
1.5534563064575195,4.279656410217285,1.065008282661438
1.5168501138687134,4.2751851081848145,1.0672459602355957
1.4903517961502075,4.299142837524414,1.0766385793685913
1.4611430168151855,4.315726280212402,1.0842596292495728
1.4363163709640503,4.342644691467285,1.0944479703903198
1.4051095247268677,4.35140323638916,1.1001554727554321
1.3834013938903809,4.3888139724731445,1.1130222082138062
1.3513752222061157,4.397517681121826,1.118001937866211
1.3170686960220337,4.398724555969238,1.1211347579956055
1.2871111631393433,4.414220809936523,1.127964973449707
1.25984787940979,4.436610698699951,1.1365591287612915
1.2320845127105713,4.458880424499512,1.1452220678329468
1.2026258707046509,4.473526477813721,1.1519371271133423
1.1702052354812622,4.48105001449585,1.1560781002044678
1.1423931121826172,4.506700038909912,1.1649655103683472
1.1088430881500244,4.510096549987793,1.1681687831878662
1.07612943649292,4.516936779022217,1.1723270416259766
1.0504624843597412,4.549139976501465,1.183058261871338
1.015257716178894,4.540558338165283,1.1832503080368042
0.9893577694892883,4.576338768005371,1.194494605064392
0.9519387483596802,4.560210704803467,1.1920000314712524
0.7761120796203613,3.857677459716797,1.0098921060562134
0.7506955862045288,3.8735363483428955,1.0155949592590332
0.8596253395080566,4.606712341308594,1.2096832990646362
0.8340790271759033,4.6489787101745605,1.222716212272644
0.8047201037406921,4.672512054443359,1.230749487876892
0.7696670293807983,4.670077800750732,1.2313402891159058
0.7387691736221313,4.689709186553955,1.237794041633606
0.7088091969490051,4.716598987579346,1.2462345361709595
0.6755711436271667,4.720812797546387,1.2487404346466064
0.6436605453491211,4.732239246368408,1.2532039880752563
0.6139054894447327,4.765994548797607,1.2636818885803223
0.5804367661476135,4.769637107849121,1.2657508850097656
0.5549152493476868,4.844461441040039,1.2863893508911133
0.5138457417488098,4.783962249755859,1.2711588144302368
0.48194828629493713,4.805803298950195,1.2778631448745728
0.3743927478790283,4.015313625335693,1.0684683322906494
0.3540480434894562,4.1115241050720215,1.0949499607086182
0.3271538317203522,4.136088848114014,1.102416753768921
0.29545533657073975,4.100381851196289,1.0932949781417847
0.2681381106376648,4.124753952026367,1.1000791788101196
0.23787206411361694,4.103722095489502,1.0948073863983154
0.20934002101421356,4.120188236236572,1.0996005535125732
0.18094919621944427,4.128887176513672,1.102367877960205
0.15282464027404785,4.144929885864258,1.1071499586105347
0.12375912070274353,4.13814640045166,1.105890154838562
0.09523843973875046,4.1539716720581055,1.1100304126739502
0.06592614948749542,4.162073135375977,1.1121060848236084
0.036888375878334045,4.162416458129883,1.1121644973754883
0.007913069799542427,4.196521282196045,1.1212981939315796
-0.021351253613829613,4.204006671905518,1.1233737468719482
-0.05081034451723099,4.21883487701416,1.1274665594100952
-0.08155978471040726,4.263641834259033,1.1395854949951172
-0.11074373871088028,4.248058319091797,1.1348954439163208
-0.14076276123523712,4.262449741363525,1.1382675170898438
-0.1720426082611084,4.3030290603637695,1.148681879043579
-0.20159238576889038,4.294366359710693,1.1460034847259521
-0.23042051494121552,4.274193286895752,1.1403106451034546
-0.256041020154953,4.197281837463379,1.1195377111434937
-0.28717511892318726,4.225740432739258,1.1268079280853271
-0.31803348660469055,4.24660587310791,1.131474256515503
-0.3473459482192993,4.24467134475708,1.1301149129867554
-0.37197205424308777,4.189877510070801,1.1147459745407104
-0.40360796451568604,4.2100749015808105,1.1193740367889404
-0.21798311173915863,2.118790626525879,0.5630002617835999
-0.4612993597984314,4.197268486022949,1.1146610975265503
-0.48028722405433655,4.108097076416016,1.0901986360549927
-0.49972790479660034,4.03399658203125,1.0693005323410034
-0.5269321799278259,4.0234456062316895,1.0653042793273926
-0.5437292456626892,3.941643714904785,1.042538046836853
-0.5742498636245728,3.960742473602295,1.0465174913406372
-0.5938823223114014,3.9048523902893066,1.0307339429855347
-0.6169241070747375,3.8750007152557373,1.0218937397003174
-0.628677248954773,3.7779276371002197,0.9950502514839172
-0.6481010317802429,3.736926555633545,0.9827635884284973
-0.6696790456771851,3.710711717605591,0.9744349718093872
-0.6846529245376587,3.6509077548980713,0.9573613405227661
-0.7143124938011169,3.668989658355713,0.9607536196708679
-0.732401967048645,3.6274731159210205,0.9485844969749451
-0.7434278726577759,3.5524468421936035,0.9277144074440002
-0.7573517560958862,3.4999165534973145,0.912324845790863
-0.7729686498641968,3.4584755897521973,0.8997936248779297
-0.7982671856880188,3.4612486362457275,0.8988223075866699
-0.8131632208824158,3.4196105003356934,0.8863715529441833
-0.8330374956130981,3.3960981369018555,0.8786190152168274
-0.8512668609619141,3.3688857555389404,0.8700011968612671
-0.8708654642105103,3.3489925861358643,0.8631886839866638
-0.8917428851127625,3.3365252017974854,0.8578944206237793
-0.901447594165802,3.283698797225952,0.8422966003417969
-0.9118945598602295,3.234423875808716,0.8276703357696533
-0.9322096705436707,3.221590280532837,0.822443425655365
-0.9429172873497009,3.175819158554077,0.8088548183441162
-0.9685062766075134,3.1808691024780273,0.8082674145698547
-0.9823230504989624,3.1497578620910645,0.7980658411979675
-0.9994590878486633,3.1293985843658447,0.790540874004364
-1.0065521001815796,3.080155611038208,0.7758394479751587
-1.0240918397903442,3.0633015632629395,0.7693474292755127
-1.0382130146026611,3.0354161262512207,0.7600972056388855
-1.0495128631591797,3.000279188156128,0.7491023540496826
-1.0649375915527344,2.979701280593872,0.7414767742156982
-1.0815300941467285,2.9626314640045166,0.7345567941665649
-1.0936146974563599,2.934871196746826,0.725092887878418
-1.1028445959091187,2.899888277053833,0.7138985991477966
-1.1178100109100342,2.8788723945617676,0.7061308026313782
-1.1437580585479736,2.8861045837402344,0.7053270936012268
-1.1424710750579834,2.826184034347534,0.6878001689910889
-1.1339988708496094,2.752533197402954,0.6669889092445374
-1.1231036186218262,2.6755549907684326,0.6455456614494324
-1.1220506429672241,2.623217821121216,0.6301466226577759
-1.149783730506897,2.6372549533843994,0.6306732892990112
-1.1563825607299805,2.602086067199707,0.6194251179695129
-1.186525821685791,2.6231882572174072,0.6212136149406433
-1.231362223625183,2.6752538681030273,0.6302491426467896
-1.2364139556884766,2.6403722763061523,0.6187956929206848
-1.2550671100616455,2.6327643394470215,0.6136393547058105
-1.2591360807418823,2.593846321105957,0.6011677980422974
-1.2736910581588745,2.579428195953369,0.5942786335945129
-1.284205675125122,2.558340549468994,0.5857153534889221
-1.29098641872406,2.5303962230682373,0.5756632685661316
-1.3086285591125488,2.5225777626037598,0.5701161026954651
-1.3194934129714966,2.5008773803710938,0.5613892674446106
-1.3281641006469727,2.4758658409118652,0.5517688989639282
-1.3374533653259277,2.454711675643921,0.5429138541221619
-1.3427772521972656,2.426816701889038,0.532654345035553
-1.3522052764892578,2.4053001403808594,0.5237089991569519
-1.369429111480713,2.3968722820281982,0.5175571441650391
-1.3746390342712402,2.368652105331421,0.5069028735160828
-1.388493299484253,2.3574492931365967,0.4998706579208374
-1.396316409111023,2.336261034011841,0.49078139662742615
-1.4091302156448364,2.3209800720214844,0.4826311469078064
-1.4137158393859863,2.2925193309783936,0.471772700548172
-1.4211227893829346,2.2712326049804688,0.46207645535469055
-1.4362742900848389,2.263075828552246,0.4551989436149597
-1.439663052558899,2.234920024871826,0.4440859258174896
-1.4494578838348389,2.216233730316162,0.43480393290519714
-1.4641742706298828,2.208000659942627,0.4273199439048767
-1.494046688079834,2.2219953536987305,0.42396146059036255
-1.4727580547332764,2.1586992740631104,0.40564364194869995
-1.5256692171096802,2.2035231590270996,0.40743279457092285
-1.484681248664856,2.1159095764160156,0.38456061482429504
-1.5300548076629639,2.1516036987304688,0.38417723774909973
-1.509780764579773,2.0916757583618164,0.36595261096954346
-1.5238983631134033,2.0829951763153076,0.3568379580974579
-1.525896668434143,2.0590343475341797,0.3450935184955597
-1.4979737997055054,2.102362871170044,-0.1523721069097519
-1.4867430925369263,2.1190333366394043,-0.16380421817302704
-1.4704607725143433,2.1294946670532227,-0.17474502325057983
-1.4968494176864624,2.20029878616333,-0.19022221863269806
-1.475865125656128,2.204129457473755,-0.20016786456108093
-1.4678102731704712,2.2272164821624756,-0.21176749467849731
-1.4303641319274902,2.2042131423950195,-0.21860401332378387
-1.4137123823165894,2.213939905166626,-0.22841382026672363
-1.380545735359192,2.1970887184143066,-0.23529091477394104
-1.3504531383514404,2.182772636413574,-0.24188736081123352
-1.3301035165786743,2.1851117610931396,-0.25023359060287476
-1.3133524656295776,2.194148063659668,-0.25947248935699463
-1.3094744682312012,2.2225265502929688,-0.27054041624069214
-1.2931960821151733,2.2309646606445312,-0.27924931049346924
-1.2823257446289062,2.2495410442352295,-0.28926417231559753
-1.2773146629333496,2.2780075073242188,-0.30049341917037964
-1.268032193183899,2.29976487159729,-0.31099990010261536
-1.2582789659500122,2.321600914001465,-0.32145726680755615
-1.2520240545272827,2.3501648902893066,-0.33292093873023987
-1.3142811059951782,2.5088844299316406,-0.3631325364112854
-1.459101676940918,2.8338730335235596,-0.4188147187232971
-1.448293685913086,2.8639512062072754,-0.4320814311504364
-1.4360781908035278,2.890212297439575,-0.44462743401527405
-1.347450613975525,2.759871482849121,-0.4326392114162445
-1.2369495630264282,2.579932689666748,-0.41184312105178833
-1.2147148847579956,2.580552577972412,-0.41931405663490295
-1.1782938241958618,2.5492732524871826,-0.42135822772979736
-1.1740081310272217,2.588060140609741,-0.4350567162036896
-1.1535323858261108,2.5916335582733154,-0.44269242882728577
-1.1284260749816895,2.5844223499298096,-0.4484615623950958
-1.094762921333313,2.555570602416992,-0.45021936297416687
-1.0421030521392822,2.4802260398864746,-0.4434444010257721
-0.9930188655853271,2.4116549491882324,-0.43746891617774963
-0.942410409450531,2.3353240489959717,-0.4295956492424011
-0.8959748148918152,2.2655608654022217,-0.4224832355976105
-0.8588597774505615,2.216879367828369,-0.41893136501312256
-0.8319191932678223,2.1930582523345947,-0.41976380348205566
-0.7904016971588135,2.129420280456543,-0.4128430485725403
-0.7620913982391357,2.0977284908294678,-0.41173315048217773
-0.7200859189033508,2.026000738143921,-0.402434766292572
-0.6929507255554199,1.9937726259231567,-0.40059271454811096
-0.6699976325035095,1.9721872806549072,-0.4007733166217804
-0.6460235714912415,1.9467923641204834,-0.4001249074935913
-0.6191325783729553,1.910200595855713,-0.3968701660633087
-0.5985189080238342,1.8916634321212769,-0.3970942795276642
-0.5759536623954773,1.8656232357025146,-0.3956493139266968
-0.539524495601654,1.7917282581329346,-0.3838231861591339
-0.5289425849914551,1.801910400390625,-0.38979870080947876
-0.5001528859138489,1.7496174573898315,-0.38204848766326904
-0.4815617799758911,1.7301437854766846,-0.38127070665359497
-0.46329501271247864,1.7105045318603516,-0.3803797960281372
-0.43853482604026794,1.664879560470581,-0.3735189437866211
-0.42484012246131897,1.659742832183838,-0.3754355311393738
-0.41655224561691284,1.676741123199463,-0.3824458718299866
-0.39219117164611816,1.6269348859786987,-0.3741093873977661
-0.38763487339019775,1.6585543155670166,-0.38442203402519226
-0.36416706442832947,1.6084849834442139,-0.37551796436309814
-0.3373485505580902,1.5396168231964111,-0.3620373606681824
-0.33733615279197693,1.5933970212936401,-0.37743425369262695
-0.3070472478866577,1.501839518547058,-0.3582801818847656
-0.2920832931995392,1.4809516668319702,-0.3555172085762024
-0.274578332901001,1.4450087547302246,-0.34907010197639465
-0.2712574601173401,1.483666181564331,-0.3606617748737335
-0.26918062567710876,1.5335562229156494,-0.37516579031944275
-0.24269230663776398,1.4412460327148438,-0.35446348786354065
-0.23381048440933228,1.4498655796051025,-0.3584912121295929
-0.21183687448501587,1.440654993057251,-0.360053151845932
0.1423981487751007,1.4463200569152832,-0.37132349610328674
0.16642597317695618,1.4788117408752441,-0.3769918978214264
0.17338232696056366,1.4479535818099976,-0.3675633668899536
0.19019198417663574,1.4997631311416626,-0.37914666533470154
0.19967693090438843,1.4913320541381836,-0.3754737079143524
0.21120230853557587,1.4979121685028076,-0.37532275915145874
0.22284288704395294,1.5044306516647339,-0.37504372000694275
0.2510565519332886,1.6158164739608765,-0.4007437825202942
0.2660157382488251,1.6370683908462524,-0.4039785861968994
0.2787885367870331,1.6432833671569824,-0.40321969985961914
0.2956339716911316,1.671871304512024,-0.4077867865562439
0.3087683320045471,1.6779001951217651,-0.40681689977645874
0.3191453516483307,1.6688940525054932,-0.4022217392921448
0.3437102138996124,1.7307019233703613,-0.41435524821281433
0.3497854173183441,1.6991982460021973,-0.4040135145187378
0.36812567710876465,1.727223515510559,-0.40784627199172974
0.3901308476924896,1.769971251487732,-0.41506004333496094
0.4085557162761688,1.7939907312393188,-0.4175962805747986
0.4301805794239044,1.8289824724197388,-0.4223754405975342
0.45120006799697876,1.8601170778274536,-0.42621415853500366
0.47357702255249023,1.8947741985321045,-0.4307617247104645
0.49455440044403076,1.921876311302185,-0.43334051966667175
0.5247525572776794,1.9820492267608643,-0.4430316388607025
0.5450340509414673,2.0013482570648193,-0.44337496161460876
0.5705324411392212,2.0389206409454346,-0.4477301836013794
0.5997498035430908,2.0873124599456787,-0.4541783034801483
0.6285877823829651,2.131808042526245,-0.45939552783966064
0.6591898798942566,2.179698944091797,-0.4651602804660797
0.6896864771842957,2.2235684394836426,-0.46978896856307983
0.7274943590164185,2.2891485691070557,-0.47877222299575806
0.7662376165390015,2.3544116020202637,-0.48719966411590576
0.8023010492324829,2.4083824157714844,-0.4930320382118225
0.847879946231842,2.4874091148376465,-0.5036876201629639
0.8920811414718628,2.5587475299835205,-0.512378990650177
0.9491747617721558,2.6621811389923096,-0.5267673134803772
0.994286060333252,2.7290256023406982,-0.5336295366287231
1.0539116859436035,2.8314082622528076,-0.5470064878463745
1.1109167337417603,2.9224064350128174,-0.5576646327972412
1.1829984188079834,3.0487914085388184,-0.5743355751037598
1.2558741569519043,3.170717477798462,-0.5894228219985962
1.3333176374435425,3.299044132232666,-0.6051122546195984
1.4360716342926025,3.483566999435425,-0.630273699760437
1.5352606773376465,3.652897596359253,-0.6515814065933228
1.6399292945861816,3.8282456398010254,-0.6730685830116272
1.7526625394821167,4.012735366821289,-0.6948981285095215
1.8659166097640991,4.192693710327148,-0.7150855660438538
1.951124668121338,4.304782390594482,-0.722711980342865
1.9473613500595093,4.219537258148193,-0.6971007585525513
1.9857048988342285,4.225196838378906,-0.6865039467811584
1.5688364505767822,3.2783203125,-0.5234848260879517
1.588343620300293,3.2619926929473877,-0.5117821097373962
1.6077728271484375,3.2454817295074463,-0.5000792741775513
1.6344623565673828,3.242452621459961,-0.4902939200401306
1.6201907396316528,3.1601052284240723,-0.46868398785591125
1.5902531147003174,3.050672769546509,-0.4435277581214905
1.622955560684204,3.0612807273864746,-0.4358314275741577
1.6300768852233887,3.023806095123291,-0.42134928703308105
1.7218981981277466,3.1431117057800293,-0.4283737540245056
1.7077449560165405,3.0682027339935303,-0.4087398946285248
1.5938013792037964,2.8176002502441406,-0.36642685532569885
1.3102619647979736,2.278878688812256,-0.2889153063297272
1.0066874027252197,1.7241010665893555,-0.21299533545970917
0.9611483216285706,1.620939016342163,-0.19493374228477478
0.8884717226028442,1.474934697151184,-0.17235948145389557
0.8946000933647156,1.462772250175476,-0.16592971980571747
0.943712592124939,1.5199499130249023,-0.16708846390247345
0.9917952418327332,1.573133945465088,-0.16727443039417267
1.0027862787246704,1.5668206214904785,-0.16087906062602997
1.013371467590332,1.560639500617981,-0.15450499951839447
1.0199302434921265,1.5476800203323364,-0.14732252061367035
1.0310240983963013,1.540948748588562,-0.14050477743148804
1.047908067703247,1.5442602634429932,-0.13468721508979797
2.521460771560669,3.662607431411743,-0.3044155538082123
2.56499981880188,3.671736240386963,-0.2894827425479889
2.5847387313842773,3.64961838722229,-0.2720472812652588
2.628462314605713,3.6580495834350586,-0.255862295627594
2.6007444858551025,3.568598747253418,-0.23283016681671143
2.66337513923645,3.6060357093811035,-0.21819719672203064
2.6301443576812744,3.7339863777160645,0.6496537923812866
2.605247735977173,3.7579572200775146,0.6670436859130859
2.5789055824279785,3.782536268234253,0.6844236254692078
1.0438183546066284,1.554909586906433,0.2862648367881775
1.0448273420333862,1.5809662342071533,0.29578089714050293
1.0279418230056763,1.5816929340362549,0.30046600103378296
1.0198942422866821,1.5949726104736328,0.3073800504207611
1.0206007957458496,1.6208696365356445,0.31656596064567566
1.0118777751922607,1.6343326568603516,0.32328563928604126
0.9749356508255005,1.601738452911377,0.32069632411003113
0.9906006455421448,1.6542285680770874,0.3349764943122864
0.9747484922409058,1.6537060737609863,0.33848971128463745
1.3380687236785889,2.3088738918304443,0.47734227776527405
1.3197882175445557,2.317995548248291,0.4839823544025421
1.8183538913726807,3.2484354972839355,0.684590220451355
1.761633038520813,3.1990814208984375,0.6801406145095825
1.7835969924926758,3.294694423675537,0.7063480019569397
1.772681474685669,3.3336355686187744,0.7203384041786194
2.406933307647705,4.610340595245361,1.0041495561599731
2.3665950298309326,4.611629486083984,1.0117827653884888
2.336909532546997,4.633014678955078,1.02382230758667
2.30202054977417,4.648210048675537,1.0339369773864746
2.2666146755218506,4.6633501052856445,1.043939232826233
2.2372615337371826,4.692201137542725,1.0571726560592651
2.2005019187927246,4.6989827156066895,1.0650070905685425
2.166948080062866,4.712419509887695,1.0743950605392456
2.134942054748535,4.733368396759033,1.084876298904419
2.1023850440979004,4.754258632659912,1.0952907800674438
2.06359601020813,4.760865211486816,1.1024692058563232
2.003608465194702,4.7139811515808105,1.0970531702041626
1.738020896911621,4.169307231903076,0.9750222563743591
1.7191611528396606,4.208501815795898,0.9885857105255127
1.6850202083587646,4.212489128112793,0.993635356426239
1.6565170288085938,4.230391979217529,1.0020164251327515
1.6252368688583374,4.24092435836792,1.0086965560913086
1.600493311882019,4.265087604522705,1.0185179710388184
1.5728954076766968,4.281929016113281,1.0266532897949219
1.5439033508300781,4.299163818359375,1.0342170000076294
1.5096499919891357,4.301830291748047,1.038336992263794
1.477408528327942,4.3115763664245605,1.0442723035812378
1.4515291452407837,4.335050106048584,1.053422212600708
1.4244800806045532,4.3546624183654785,1.061676025390625
1.39238440990448,4.359696865081787,1.0662862062454224
1.3617162704467773,4.372142791748047,1.0721386671066284
1.3281104564666748,4.37725305557251,1.0763053894042969
1.2972294092178345,4.389246940612793,1.0821709632873535
1.2725064754486084,4.419024467468262,1.0924018621444702
1.2497198581695557,4.4559125900268555,1.104455590248108
1.2182984352111816,4.4634294509887695,1.1091997623443604
1.187975525856018,4.47842264175415,1.1151798963546753
1.155051589012146,4.485973834991455,1.1194088459014893
1.1207925081253052,4.485793113708496,1.1217238903045654
1.092562198638916,4.507355690002441,1.1294933557510376
1.0652538537979126,4.532365322113037,1.1381773948669434
1.0325937271118164,4.535006523132324,1.141308069229126
1.0068608522415161,4.574869155883789,1.1532068252563477
0.9724088311195374,4.5737128257751465,1.1547044515609741
0.9311668872833252,4.538869380950928,1.1477372646331787
0.7701051831245422,3.893733024597168,0.9862059354782104
0.7350508570671082,3.8573622703552246,0.9785985350608826
0.8503190279006958,4.640851974487305,1.179386854171753
0.818885862827301,4.653441429138184,1.1842563152313232
0.7869807481765747,4.66597318649292,1.1887316703796387
0.7579556703567505,4.6969804763793945,1.1979838609695435
0.7268530130386353,4.716564178466797,1.2043925523757935
0.6931988596916199,4.720963478088379,1.2069942951202393
0.6634337306022644,4.747528553009033,1.2152959108352661
0.6302889585494995,4.751387596130371,1.2178537845611572
0.5986698865890503,4.770254611968994,1.2235866785049438
0.5649752616882324,4.773906230926514,1.2253671884536743
0.5375335216522217,4.833743572235107,1.2416412830352783
0.501262366771698,4.8219499588012695,1.239601731300354
0.4684004783630371,4.832401752471924,1.2433110475540161
0.4354172945022583,4.842626571655273,1.2470258474349976
0.40226826071739197,4.852659702301025,1.2506225109100342
0.37046611309051514,4.885290622711182,1.2593896389007568
0.33628609776496887,4.898877143859863,1.2633212804794312
0.3011782765388489,4.8895344734191895,1.261394739151001
0.26695284247398376,4.8912672996521,1.2623844146728516
0.23528936505317688,4.941866874694824,1.2760498523712158
0.20087938010692596,4.9431281089782715,1.277044415473938
0.16506478190422058,4.921566486358643,1.2718859910964966
0.11115133762359619,4.185301303863525,1.081558346748352
0.08291717618703842,4.2350897789001465,1.094423770904541
0.05351412296295166,4.250650405883789,1.0984975099563599
0.023829367011785507,4.2357497215271,1.0947519540786743
-0.006138366647064686,4.213077545166016,1.0890530347824097
-0.035742029547691345,4.250709056854248,1.0989933013916016
-0.06538672745227814,4.257976055145264,1.1007347106933594
-0.09500210732221603,4.2575554847717285,1.1002051830291748
-0.12522774934768677,4.2796125411987305,1.1055364608764648
-0.15535368025302887,4.290116786956787,1.107933521270752
-0.18570508062839508,4.289050579071045,1.1073906421661377
-0.21629713475704193,4.302903652191162,1.1107577085494995
-0.24428054690361023,4.267444610595703,1.1014494895935059
-0.2769773602485657,4.314991474151611,1.1130872964859009
-0.3078687787055969,4.328390121459961,1.1157299280166626
-0.337164968252182,4.311356067657471,1.1105669736862183
-0.3656255304813385,4.294167518615723,1.1054385900497437
-0.3982853293418884,4.321985244750977,1.1119412183761597
-0.42126646637916565,4.2478814125061035,1.0922812223434448
-0.4460330903530121,4.200003147125244,1.0794334411621094
-0.4682334065437317,4.1333112716674805,1.0611672401428223
-0.48990869522094727,4.074094295501709,1.0448349714279175
-0.5132270455360413,4.033535003662109,1.0333613157272339
-0.5354585647583008,3.9890944957733154,1.0209643840789795
-0.5557444095611572,3.9332525730133057,1.0057131052017212
-0.5791187286376953,3.89972186088562,0.996218740940094
-0.6085264682769775,3.9110524654388428,0.998169481754303
-0.6170236468315125,3.7952382564544678,0.9671779274940491
-0.6417463421821594,3.7840468883514404,0.9629364013671875
-0.655755877494812,3.712991952896118,0.943535327911377
-0.6792629361152649,3.6977899074554443,0.9383909702301025
-0.6998441219329834,3.6636836528778076,0.928469181060791
-0.7180385589599609,3.622105360031128,0.9167447090148926
-0.7400278449058533,3.602836847305298,0.9104509353637695
-0.7481317520141602,3.520498275756836,0.8879592418670654
-0.7664952278137207,3.490065097808838,0.8786531686782837
-0.7907843589782715,3.4853484630584717,0.8758460879325867
-0.8080835342407227,3.4509105682373047,0.865628719329834
-0.8223848342895508,3.4052953720092773,0.8526734709739685
-0.8425433039665222,3.3854100704193115,0.8462247252464294
-0.8562496900558472,3.3435916900634766,0.8338330388069153
-0.8832759261131287,3.3530850410461426,0.8342044949531555
-0.8892605900764465,3.2854526042938232,0.8154861927032471
-0.9056993126869202,3.2580981254577637,0.8068399429321289
-0.9284911751747131,3.2524805068969727,0.803592324256897
-0.9352508783340454,3.19197154045105,0.7868500351905823
-0.9554437398910522,3.178908109664917,0.7815598845481873
-0.9747620820999146,3.165973663330078,0.7761394381523132
-0.9894061088562012,3.1383936405181885,0.7671813368797302
-1.0037189722061157,3.110746145248413,0.7582724690437317
-1.017167091369629,3.0792291164398193,0.7484220862388611
-1.0318326950073242,3.0511491298675537,0.7394384145736694
-1.0455249547958374,3.0232369899749756,0.7304237484931946
-1.0583763122558594,2.9955074787139893,0.7211905121803284
-1.0721917152404785,2.9713096618652344,0.7128739953041077
-1.0923141241073608,2.9649291038513184,0.7088799476623535
-1.0997039079666138,2.92248272895813,0.6962374448776245
-1.1124693155288696,2.8941407203674316,0.6869845390319824
-1.1409289836883545,2.9086437225341797,0.6878036260604858
-1.1633957624435425,2.9090120792388916,0.684988796710968
-1.1528027057647705,2.8278958797454834,0.6630805134773254
-1.1353576183319092,2.732875347137451,0.6380952596664429
-1.1267144680023193,2.6588518619537354,0.6180357336997986
-1.1303911209106445,2.6167261600494385,0.6055737733840942
-1.1391257047653198,2.588937282562256,0.5962468981742859
-1.1691014766693115,2.6101465225219727,0.5980725884437561
-1.2025853395462036,2.6380441188812256,0.6013846397399902
-1.2291967868804932,2.6479697227478027,0.600437581539154
-1.2480013370513916,2.6402831077575684,0.5954756736755371
-1.2632266283035278,2.6256659030914307,0.5889167785644531
-1.2724627256393433,2.6010727882385254,0.5798326730728149
-1.2796913385391235,2.573030948638916,0.570062518119812
-1.2905802726745605,2.5515940189361572,0.5617220997810364
-1.2982640266418457,2.523045778274536,0.5517817139625549
-1.3091446161270142,2.501295804977417,0.5434007048606873
-1.3205167055130005,2.4835050106048584,0.5355536341667175
-1.3408243656158447,2.4825429916381836,0.5313652753829956
-1.3428891897201538,2.4476592540740967,0.5199284553527832
-1.3532217741012573,2.4256646633148193,0.5110321640968323
-1.3628191947937012,2.403881549835205,0.5022721290588379
-1.3673512935638428,2.3759958744049072,0.4920254945755005
-1.3812832832336426,2.364722490310669,0.4852791130542755
-1.3858765363693237,2.3365116119384766,0.4749631881713867
-1.4108808040618896,2.340829849243164,0.47104892134666443
-1.4108079671859741,2.3061509132385254,0.45921823382377625
-1.422041416168213,2.2914862632751465,0.4513257145881653
-1.4292086362838745,2.2701308727264404,0.4421186149120331
-1.437337040901184,2.2480928897857666,0.4324646294116974
-1.449121356010437,2.2327165603637695,0.4239494800567627
-1.476671576499939,2.2437376976013184,0.4203372597694397
-1.5046004056930542,2.2543938159942627,0.4165075719356537
-1.4927101135253906,2.203348159790039,0.4009252190589905
-1.4771541357040405,2.149899482727051,0.3850117027759552
-1.4914535284042358,2.1414222717285156,0.3770447075366974
-1.4972922801971436,2.1198720932006836,0.3665931224822998
-1.5036464929580688,2.097842216491699,0.35576972365379333
-1.5173221826553345,2.089437484741211,0.34706154465675354
-1.5243271589279175,2.0713844299316406,0.3366485834121704
-1.5347508192062378,2.0555672645568848,0.3259700834751129
-1.490429162979126,2.107551336288452,-0.1546645313501358
-1.4788329601287842,2.124401330947876,-0.16586598753929138
-1.5010813474655151,2.188749074935913,-0.1804531365633011
-1.4796198606491089,2.193025827407837,-0.1904987394809723
-1.4719305038452148,2.2160282135009766,-0.20173458755016327
-1.4686954021453857,2.245237350463867,-0.2133304476737976
-1.4347888231277466,2.2291572093963623,-0.2206147462129593
-1.4099841117858887,2.2255699634552,-0.22875289618968964
-1.3668746948242188,2.1919562816619873,-0.23349563777446747
-1.338137149810791,2.181316614151001,-0.24031949043273926
-1.30991792678833,2.1702003479003906,-0.24681700766086578
-1.3023126125335693,2.191906452178955,-0.25677573680877686
-1.3114677667617798,2.2441301345825195,-0.270503968000412
-1.2866671085357666,2.2394728660583496,-0.2776106297969818
-1.2782697677612305,2.2611026763916016,-0.2875441610813141
-1.26553475856781,2.276078462600708,-0.2966845631599426
-1.2635091543197632,2.311544179916382,-0.30860137939453125
-1.2540171146392822,2.333226203918457,-0.3186769485473633
-1.236964225769043,2.341170072555542,-0.3269529342651367
-1.3017815351486206,2.507312774658203,-0.3576224148273468
-1.4381259679794312,2.8192858695983887,-0.410481721162796
-1.4353455305099487,2.862710952758789,-0.42496639490127563
-1.4147300720214844,2.8715462684631348,-0.43438521027565
-1.2433993816375732,2.57053279876709,-0.3961418569087982
-1.2064260244369507,2.5397844314575195,-0.39842721819877625
-1.1947625875473022,2.561091899871826,-0.40871983766555786
-1.1761705875396729,2.568392753601074,-0.41675302386283875
-1.1478595733642578,2.5544774532318115,-0.4212644696235657
-1.1527488231658936,2.6143953800201416,-0.4379728436470032
-1.1551785469055176,2.6709375381469727,-0.45444628596305847
-1.1117584705352783,2.6210310459136963,-0.4525454342365265
-1.0616451501846313,2.552907705307007,-0.44715484976768494
-1.0127111673355103,2.484210729598999,-0.44126585125923157
-0.9620566368103027,2.407816171646118,-0.4336090087890625
-0.9204855561256409,2.3526082038879395,-0.4293578267097473
-0.8745309710502625,2.2825143337249756,-0.4219588339328766
-0.836548388004303,2.229909658432007,-0.4174487292766571
-0.8140199780464172,2.21661376953125,-0.4201161861419678
-0.770813524723053,2.1453075408935547,-0.4113873243331909
-0.7398449182510376,2.1062753200531006,-0.4086640179157257
-0.7061132192611694,2.0559403896331787,-0.4034331142902374
-0.6817275881767273,2.0307414531707764,-0.4029572904109955
-0.6516742706298828,1.987154245376587,-0.3984719514846802
-0.6304513216018677,1.968859076499939,-0.39890316128730774
-0.6024763584136963,1.9284629821777344,-0.39479297399520874
-0.5865616798400879,1.9243919849395752,-0.3979499936103821
-0.5586909651756287,1.8798574209213257,-0.39242902398109436
-0.5250682830810547,1.813012719154358,-0.3819969594478607
-0.5163435339927673,1.8305550813674927,-0.3892501890659332
-0.49525341391563416,1.8037742376327515,-0.387065589427948
-0.47432562708854675,1.7769007682800293,-0.3846132457256317
-0.45499539375305176,1.753512978553772,-0.38269490003585815
-0.4388323724269867,1.7410688400268555,-0.3831080198287964
-0.40929150581359863,1.6728464365005493,-0.3711037337779999
-0.39923253655433655,1.6823885440826416,-0.37606266140937805
-0.38715338706970215,1.684478521347046,-0.37932151556015015
-0.37775641679763794,1.6976110935211182,-0.3850562870502472
-0.3521726429462433,1.6361355781555176,-0.3737960755825043
-0.34531843662261963,1.660286545753479,-0.3818705081939697
-0.33066466450691223,1.6470798254013062,-0.38122624158859253
-0.2993680238723755,1.5477975606918335,-0.36055099964141846
-0.3003225028514862,1.612868309020996,-0.3780876696109772
-0.2715578079223633,1.51694655418396,-0.3577045798301697
-0.26930683851242065,1.5670154094696045,-0.3715011477470398
-0.2632656991481781,1.5983290672302246,-0.38097184896469116
-0.24594531953334808,1.5620430707931519,-0.3743759095668793
-0.23614265024662018,1.5707170963287354,-0.3783663809299469
-0.2106279879808426,1.4703238010406494,-0.35575586557388306
-0.20445089042186737,1.5014195442199707,-0.36490297317504883
-0.19104349613189697,1.4797641038894653,-0.36125531792640686
-0.17978444695472717,1.4730976819992065,-0.3611641824245453
-0.156638041138649,1.4521139860153198,-0.3585573434829712
-0.11652185022830963,1.462233543395996,-0.3654989004135132
-0.044760845601558685,1.4534826278686523,-0.36794644594192505
0.06055138260126114,1.5516440868377686,-0.392092764377594
0.07692480832338333,1.4526348114013672,-0.3659707307815552
0.08726557344198227,1.4560610055923462,-0.3660670220851898
0.09960827976465225,1.4858719110488892,-0.37278372049331665
0.10884758830070496,1.4702425003051758,-0.3681226968765259
0.12738727033138275,1.5717486143112183,-0.39243271946907043
0.13072651624679565,1.4842866659164429,-0.3694702684879303
0.1454043984413147,1.5289535522460938,-0.3794488310813904
0.15392586588859558,1.505571722984314,-0.37252506613731384
0.1681481897830963,1.5387842655181885,-0.3793526291847229
0.18679912388324738,1.6058396100997925,-0.3943216800689697
0.20127072930335999,1.6312998533248901,-0.39900636672973633
0.21660999953746796,1.6604112386703491,-0.4045480191707611
0.23155845701694489,1.681910753250122,-0.4079217314720154
0.24661877751350403,1.7033497095108032,-0.41112029552459717
0.25514131784439087,1.6795810461044312,-0.4034275412559509
0.2716774344444275,1.7083269357681274,-0.40836402773857117
0.2811790704727173,1.6919621229171753,-0.402312695980072
0.3015165627002716,1.73930025100708,-0.41119179129600525
0.32207536697387695,1.7826921939849854,-0.4189886450767517
0.3303665816783905,1.7585896253585815,-0.41095829010009766
0.3521887958049774,1.8054969310760498,-0.4193471074104309
0.37092626094818115,1.8335882425308228,-0.4230504333972931
0.39165201783180237,1.8689820766448975,-0.4283533990383148
0.4050297737121582,1.8668986558914185,-0.4249843955039978
0.434031218290329,1.9354960918426514,-0.43754810094833374
0.4511313736438751,1.948110818862915,-0.43708401918411255
0.4693022668361664,1.964301347732544,-0.43739065527915955
0.488635390996933,1.9840492010116577,-0.438442200422287
0.5169616341590881,2.036936044692993,-0.4465717077255249
0.5332702398300171,2.0415844917297363,-0.4438125789165497
0.574472188949585,2.138435125350952,-0.46092137694358826
0.5997713208198547,2.1721856594085693,-0.4641963243484497
0.6245096325874329,2.2020370960235596,-0.46650251746177673
0.6553105115890503,2.2500534057617188,-0.47213852405548096
0.6942229866981506,2.323538064956665,-0.48296406865119934
0.729763388633728,2.3819732666015625,-0.49039554595947266
0.7661970853805542,2.4400582313537598,-0.49751901626586914
0.8069212436676025,2.508836507797241,-0.5062543749809265
0.8525704741477966,2.588068962097168,-0.5166991949081421
0.8917456865310669,2.6450870037078857,-0.5225087404251099
0.950571596622467,2.756187915802002,-0.5386467576026917
0.9993738532066345,2.8341643810272217,-0.5476136803627014
1.0519130229949951,2.9188930988311768,-0.5575067400932312
1.1111342906951904,3.017488956451416,-0.569601833820343
1.1831114292144775,3.1441402435302734,-0.5863404273986816
1.2549816370010376,3.2666730880737305,-0.6015937328338623
1.2976722717285156,3.309582233428955,-0.601759672164917
1.4442203044891357,3.609604597091675,-0.6478161811828613
1.5587409734725952,3.8187296390533447,-0.6763264536857605
1.6379554271697998,3.934016227722168,-0.687009334564209
1.7137691974639893,4.038022518157959,-0.6953120827674866
1.895635962486267,4.382007122039795,-0.7437088489532471
1.9268503189086914,4.370535850524902,-0.730883777141571
1.9400877952575684,4.320300579071045,-0.7114627957344055
1.5175305604934692,3.3174796104431152,-0.5376662015914917
1.531249761581421,3.2872226238250732,-0.5242095589637756
1.5513672828674316,3.2708168029785156,-0.51301109790802
1.5707992315292358,3.254525661468506,-0.5017465353012085
1.5968908071517944,3.2519874572753906,-0.4926268756389618
1.6238658428192139,3.248854398727417,-0.48307380080223083
1.6574866771697998,3.2594778537750244,-0.47560328245162964
1.5768953561782837,3.049757480621338,-0.4364264905452728
1.6233432292938232,3.0881576538085938,-0.4331965446472168
1.6508315801620483,3.0881950855255127,-0.42421793937683105
1.7095530033111572,3.146099805831909,-0.42295199632644653
1.7128509283065796,3.1014888286590576,-0.40762972831726074
1.7535090446472168,3.1246745586395264,-0.4012724757194519
1.7931535243988037,3.143806219100952,-0.39399582147598267
1.3222110271453857,2.2823007106781006,-0.27890658378601074
0.9556262493133545,1.6243832111358643,-0.19340769946575165
0.8795666694641113,1.4713600873947144,-0.17031274735927582
0.8898624777793884,1.4657820463180542,-0.1648399978876114
0.9079792499542236,1.4735428094863892,-0.1608322411775589
0.9821590185165405,1.5700559616088867,-0.16602225601673126
0.9974972605705261,1.5702301263809204,-0.16051702201366425
1.0188249349594116,1.580320954322815,-0.15584860742092133
1.0146591663360596,1.5511351823806763,-0.14738285541534424
1.029976725578308,1.550972580909729,-0.14149530231952667
1.0404337644577026,1.5445568561553955,-0.1350213885307312
1.0529848337173462,1.5413075685501099,-0.12878750264644623
2.5436155796051025,3.667417287826538,-0.29107412695884705
2.5860180854797363,3.6771140098571777,-0.276612251996994
2.6015546321868896,3.648221254348755,-0.25897225737571716
2.593106508255005,3.5834686756134033,-0.2380821853876114
2.6464333534240723,3.608482599258423,-0.22325831651687622
2.6849513053894043,3.610234022140503,-0.20595870912075043
2.6509406566619873,3.7349448204040527,0.6141742467880249
2.612041473388672,3.7360117435455322,0.6275620460510254
2.5729050636291504,3.7416324615478516,0.6412230730056763
1.0552576780319214,1.5592399835586548,0.2722388207912445
1.0567841529846191,1.5851149559020996,0.281515896320343
1.0484130382537842,1.5988670587539673,0.28851181268692017
1.0312443971633911,1.5997402667999268,0.2932574450969696
1.0237853527069092,1.6127004623413086,0.2997429072856903
1.0260125398635864,1.6422247886657715,0.30930882692337036
1.0029771327972412,1.6328240633010864,0.3114170730113983
0.998321533203125,1.6527342796325684,0.31905290484428406
0.9822230935096741,1.6524512767791748,0.322639524936676
0.9504208564758301,1.6255738735198975,0.3207901120185852
1.3347244262695312,2.3228650093078613,0.46304458379745483
1.835198163986206,3.2497687339782715,0.6542508006095886
1.78378427028656,3.2107608318328857,0.6523227691650391
1.7710331678390503,3.2424347400665283,0.6647335886955261
1.7733447551727295,3.305105447769165,0.6831424832344055
1.7658625841140747,3.3509278297424316,0.6982452869415283
2.3841402530670166,4.603336811065674,0.9665979146957397
2.3512027263641357,4.618073463439941,0.9769287109375
2.3197855949401855,4.640352249145508,0.9885979294776917
2.287987232208252,4.662565231323242,0.9998927712440491
2.2526068687438965,4.677647113800049,1.0097334384918213
2.222273111343384,4.698601245880127,1.0205566883087158
2.1887757778167725,4.712284564971924,1.0298144817352295
2.153960704803467,4.726358413696289,1.0386879444122314
2.1116130352020264,4.726717948913574,1.0444265604019165
2.085322618484497,4.761542797088623,1.057755947113037
2.0420563220977783,4.753432750701904,1.061360478401184
1.7661207914352417,4.1913886070251465,0.9406101107597351
1.7298556566238403,4.188381671905518,0.9443678855895996
1.6924195289611816,4.185637474060059,0.9479014873504639
1.6697311401367188,4.217913627624512,0.9593542218208313
1.6445287466049194,4.242717742919922,0.9691098928451538
1.6117278337478638,4.245665550231934,0.9738222360610962
1.5843278169631958,4.262660980224609,0.981799840927124
1.5575752258300781,4.2874016761779785,0.9909992218017578
1.5182749032974243,4.275848388671875,0.991782009601593
1.486729621887207,4.285583019256592,0.9975389242172241
1.463586449623108,4.316418647766113,1.0081528425216675
1.4379502534866333,4.3398051261901855,1.0170756578445435
1.4112420082092285,4.3633036613464355,1.0259782075881958
1.374770164489746,4.357787132263184,1.0274959802627563
1.3474596738815308,4.3810954093933105,1.0358610153198242
1.3209742307662964,4.407873153686523,1.0451229810714722
1.2898792028427124,4.41593599319458,1.049917221069336
1.2609612941741943,4.431062698364258,1.0564345121383667
1.233104944229126,4.45357608795166,1.0646404027938843
1.2008562088012695,4.461386203765869,1.0687930583953857
1.1705329418182373,4.476311206817627,1.0747061967849731
1.1418777704238892,4.498408317565918,1.0824129581451416
1.1083539724349976,4.497974395751953,1.0846939086914062
1.081562876701355,4.526961803436279,1.0941630601882935
1.0515379905700684,4.540866851806641,1.099961519241333
1.0198005437850952,4.551181316375732,1.104219675064087
0.9863080382347107,4.553852081298828,1.106682538986206
0.9505472779273987,4.545107841491699,1.1064178943634033
0.7780686020851135,3.8583130836486816,0.9408648014068604
0.7561479210853577,3.889084815979004,0.9500091671943665
0.8602814674377441,4.595421314239502,1.124541997909546
0.8344369530677795,4.638087272644043,1.1365009546279907
0.8064883351325989,4.673217296600342,1.1464498043060303
0.7713512778282166,4.670795917510986,1.147274374961853
0.7404354214668274,4.690526008605957,1.1535762548446655
0.7105495929718018,4.713707447052002,1.1607632637023926
0.678703248500824,4.725430488586426,1.1651960611343384
0.6466469764709473,4.736976146697998,1.1695122718811035
0.6144794821739197,4.756094455718994,1.1751106977462769
0.5817657113075256,4.767393112182617,1.178824782371521
0.5505982637405396,4.793543815612793,1.186278223991394
0.5169332027435303,4.796833038330078,1.1881290674209595
0.4846701920032501,4.81118106842041,1.1927708387374878
0.45329388976097107,4.836635589599609,1.2002320289611816
0.4208485782146454,4.86204195022583,1.2073203325271606
0.3872886300086975,4.8721699714660645,1.2102738618850708
0.35470280051231384,4.897192001342773,1.2169896364212036
0.3203003704547882,4.899293899536133,1.2180720567703247
0.2867802381515503,4.9124956130981445,1.2219712734222412
0.2527623474597931,4.929274559020996,1.2268341779708862
0.21944040060043335,4.953368663787842,1.2335715293884277
0.18538479506969452,4.969819068908691,1.237803339958191
0.15090879797935486,4.978492736816406,1.2400010824203491
0.11643827706575394,4.9945068359375,1.244087815284729
0.08134134113788605,5.021658897399902,1.2510144710540771
0.04660702496767044,5.044766902923584,1.256993055343628
0.011563003063201904,5.044890403747559,1.2573062181472778
-0.023645594716072083,5.0675177574157715,1.2632668018341064
-0.059140872210264206,5.090097427368164,1.268428087234497
-0.0952838733792305,5.101050853729248,1.2707449197769165
-0.13171948492527008,5.138284683227539,1.2796732187271118
-0.16768959164619446,5.144949913024902,1.2810472249984741
-0.20375873148441315,5.151362895965576,1.2824196815490723
-0.24186281859874725,5.199176788330078,1.294158935546875
-0.22841614484786987,4.270087718963623,1.062645673751831
-0.25936999917030334,4.283790111541748,1.065292477607727
-0.2923702299594879,4.33134126663208,1.0764092206954956
-0.32289355993270874,4.337054252624512,1.0771719217300415
-0.345868319272995,4.248063564300537,1.0544753074645996
-0.3797469437122345,4.29493522644043,1.065557599067688
-0.40682029724121094,4.258450508117676,1.0560016632080078
-0.430101603269577,4.195515155792236,1.0396298170089722
-0.46057942509651184,4.207973480224609,1.041622281074524
-0.48471799492836,4.163686752319336,1.0296223163604736
-0.4998586177825928,4.051489353179932,1.0009156465530396
-0.5264938473701477,4.033236503601074,0.9954702854156494
-0.544761061668396,3.9584639072418213,0.9761550426483154
-0.5669495463371277,3.9174182415008545,0.9652261137962341
-0.5927974581718445,3.9064297676086426,0.9612792134284973
-0.6082924604415894,3.831589698791504,0.9415196776390076
