X,Y,Z
0.4987104535102844,4.673281669616699,-0.17638801038265228
0.5287309885025024,4.650355815887451,-0.17516566812992096
0.5619429349899292,4.654342174530029,-0.17496399581432343
0.5913191437721252,4.627109050750732,-0.17359785735607147
0.6222940683364868,4.615188121795654,-0.17275579273700714
0.654656171798706,4.610732555389404,-0.17212700843811035
0.681807279586792,4.575247287750244,-0.17035934329032898
0.7134796977043152,4.570438385009766,-0.16974274814128876
0.742095947265625,4.546126842498779,-0.16841013729572296
0.7735617160797119,4.540903091430664,-0.16775114834308624
10.285584449768066,57.96996307373047,-2.1345484256744385
0.8293390274047852,4.4914116859436035,-0.16483625769615173
0.7221207618713379,3.764835834503174,-0.13772466778755188
0.7468046545982361,3.752080202102661,-0.13681557774543762
0.8335549235343933,4.041223526000977,-0.14686031639575958
0.9411237835884094,4.409582138061523,-0.15961015224456787
0.9743878245353699,4.414377212524414,-0.15914182364940643
1.003947377204895,4.4037766456604,-0.1581321358680725
1.0372130870819092,4.408123970031738,-0.15766100585460663
1.0649511814117432,4.389487266540527,-0.15635022521018982
1.0948970317840576,4.3821492195129395,-0.15535634756088257
1.1233705282211304,4.366910457611084,-0.15407826006412506
1.1493903398513794,4.34401798248291,-0.15254850685596466
1.1775306463241577,4.328418731689453,-0.15127788484096527
1.201179027557373,4.297634124755859,-0.14946119487285614
1.2325795888900757,4.296895980834961,-0.14862462878227234
1.2579138278961182,4.273309230804443,-0.14699232578277588
1.2850595712661743,4.257107257843018,-0.14563022553920746
1.3146339654922485,4.248105525970459,-0.1445150375366211
1.3415318727493286,4.231536865234375,-0.14310559630393982
1.3702276945114136,4.222373008728027,-0.14189238846302032
1.4018385410308838,4.2202534675598145,-0.14090470969676971
1.4284601211547852,4.203112602233887,-0.13942216336727142
1.4602450132369995,4.200484752655029,-0.13842135667800903
1.4771448373794556,4.1573405265808105,-0.13604381680488586
1.5078809261322021,4.154642581939697,-0.13497638702392578
1.533286452293396,4.137049198150635,-0.1334289312362671
1.5597660541534424,4.118833541870117,-0.13182789087295532
1.5827199220657349,4.093369960784912,-0.13001975417137146
1.6160242557525635,4.097175121307373,-0.12906382977962494
1.6407403945922852,4.078968524932861,-0.12741725146770477
1.662664532661438,4.053249359130859,-0.12553416192531586
1.6973341703414917,4.0558366775512695,-0.12449602782726288
1.9424781799316406,4.554233074188232,-0.13851554691791534
2.0149686336517334,4.637860298156738,-0.1397205889225006
2.0461103916168213,4.624258518218994,-0.13797035813331604
2.081500291824341,4.617058753967285,-0.1363665610551834
2.115534782409668,4.6059160232543945,-0.1346081793308258
2.1413333415985107,4.581105709075928,-0.1324191391468048
2.180344820022583,4.584351062774658,-0.1310431957244873
2.208533763885498,4.562218189239502,-0.1288990080356598
2.2436258792877197,4.553825855255127,-0.12713727355003357
2.2656283378601074,4.521146774291992,-0.12462596595287323
2.300952196121216,4.516478538513184,-0.12292241305112839
2.3319091796875,4.50062894821167,-0.12086466699838638
2.374066114425659,4.505093097686768,-0.11932914704084396
1.7364728450775146,3.243083953857422,-0.08467094600200653
1.7578624486923218,3.2315797805786133,-0.08313937485218048
1.7331981658935547,3.133795738220215,-0.07935263961553574
1.76239812374115,3.135439395904541,-0.07811922580003738
1.8081300258636475,3.1679234504699707,-0.07760939747095108
1.3453171253204346,2.3213517665863037,-0.0558936782181263
0.9492296576499939,1.6119873523712158,-0.038096144795417786
0.960223913192749,1.6054836511611938,-0.037204306572675705
0.9747287034988403,1.6058835983276367,-0.03647772595286369
0.9794228672981262,1.5892988443374634,-0.03534126281738281
0.9965724349021912,1.592461347579956,-0.03462359309196472
1.006870150566101,1.5859907865524292,-0.033684197813272476
1.017490029335022,1.5792189836502075,-0.03271133825182915
1.0220378637313843,1.5623172521591187,-0.031504932790994644
1.0385984182357788,1.5654582977294922,-0.030696114525198936
1.0422381162643433,1.5489542484283447,-0.029489826411008835
1.0639832019805908,1.5578265190124512,-0.02870572730898857
2.5551066398620605,3.689415216445923,-0.06567362695932388
2.5837149620056152,3.6790339946746826,-0.06313127279281616
2.599710702896118,3.6486287117004395,-0.06010131910443306
2.6180076599121094,3.625936985015869,-0.0572066605091095
2.642460346221924,3.608201742172241,-0.05420425906777382
2.700389862060547,3.638328790664673,-0.05181169509887695
2.632185220718384,3.687851905822754,0.05979769676923752
2.5980753898620605,3.697601079940796,0.06255616247653961
2.5868332386016846,3.738723039627075,0.06568866223096848
1.0658215284347534,1.566033124923706,0.02851729281246662
1.0591351985931396,1.5799567699432373,0.029686540365219116
1.0344706773757935,1.5681958198547363,0.030345840379595757
1.030890941619873,1.5891858339309692,0.03163757175207138
1.0198079347610474,1.5963016748428345,0.032578688114881516
0.9954831600189209,1.5839537382125854,0.033101558685302734
0.9835379719734192,1.5913790464401245,0.03402404487133026
0.9805424213409424,1.6115233898162842,0.03516990691423416
0.9585744738578796,1.6019526720046997,0.03566792607307434
0.9723045825958252,1.6528221368789673,0.03750402107834816
1.3576290607452393,2.3458666801452637,0.05417449399828911
1.808768391609192,3.176626443862915,0.07459823042154312
1.7565529346466064,3.13879656791687,0.07488787919282913
1.7423838376998901,3.168950319290161,0.07680374383926392
1.7630280256271362,3.259967565536499,0.08014670759439468
1.7397007942199707,3.2724411487579346,0.08155945688486099
2.3645195960998535,4.527879238128662,0.11432226747274399
2.3316075801849365,4.544867038726807,0.11620240658521652
2.302830219268799,4.568216800689697,0.11822091788053513
2.2596561908721924,4.5635480880737305,0.11945236474275589
2.2261080741882324,4.579960823059082,0.12120423465967178
2.192884683609009,4.5959153175354,0.12293301522731781
2.164094924926758,4.6181230545043945,0.12478897720575333
2.124680995941162,4.619156360626221,0.12604384124279022
2.0967507362365723,4.6489973068237305,0.12805688381195068
2.0658812522888184,4.67129373550415,0.1298556625843048
2.030259609222412,4.678330898284912,0.13117891550064087
1.780392050743103,4.182138919830322,0.11827031522989273
1.7019256353378296,4.0795722007751465,0.11627665162086487
1.6762486696243286,4.102810382843018,0.11786703765392303
1.6500073671340942,4.121811389923096,0.11931118369102478
1.6241846084594727,4.14040994644165,0.12073417007923126
1.5975929498672485,4.159075736999512,0.12212049961090088
1.5620496273040771,4.155839920043945,0.1228228434920311
1.5342292785644531,4.174478054046631,0.1241898238658905
1.5024148225784302,4.1777024269104,0.12506531178951263
1.4758833646774292,4.1953959465026855,0.1263781636953354
1.445918083190918,4.205786228179932,0.12740366160869598
1.4181697368621826,4.2234320640563965,0.12863756716251373
1.389763593673706,4.241051197052002,0.12989091873168945
1.3697208166122437,4.280345439910889,0.13178826868534088
1.3351911306381226,4.2748517990112305,0.13231629133224487
1.3046201467514038,4.284252643585205,0.13321448862552643
1.276128888130188,4.300943851470947,0.1343381106853485
1.2497098445892334,4.324925422668457,0.13569799065589905
1.2232850790023804,4.348672389984131,0.13705621659755707
1.1930084228515625,4.357048511505127,0.13792800903320312
1.1620230674743652,4.365389823913574,0.13870643079280853
1.1357755661010742,4.392434120178223,0.14007462561130524
1.1044492721557617,4.400391101837158,0.14084340631961823
1.0751160383224487,4.415663242340088,0.14185096323490143
1.0425598621368408,4.415415287017822,0.1423582285642624
1.0148311853408813,4.437870502471924,0.1435348391532898
0.983275294303894,4.444947242736816,0.14419366419315338
0.9484053254127502,4.436527252197266,0.14435552060604095
0.9128746390342712,4.424022674560547,0.14438894391059875
0.7532032132148743,3.7831368446350098,0.1238456517457962
0.7296267151832581,3.803640604019165,0.12485218048095703
0.8344622850418091,4.522821426391602,0.1487904042005539
0.8044519424438477,4.540132999420166,0.14969982206821442
0.7785107493400574,4.5842413902282715,0.15150737762451172
0.7440825700759888,4.5741167068481445,0.1515224277973175
0.714620053768158,4.594600200653076,0.1525549441576004
0.6833497881889343,4.607234954833984,0.15321829915046692
0.6541190147399902,4.635120391845703,0.154398113489151
0.6234278678894043,4.659029483795166,0.1554601639509201
0.5919457077980042,4.670990943908691,0.15612497925758362
0.5571249127388,4.655599594116211,0.15588198602199554
0.5276060104370117,4.686527729034424,0.1571343094110489
0.49548861384391785,4.697873592376709,0.15768933296203613
0.4647667109966278,4.724540710449219,0.15876756608486176
0.4304424226284027,4.719941139221191,0.1588059663772583
0.40087029337882996,4.761714458465576,0.16040946543216705
0.3683762550354004,4.772159576416016,0.1609644889831543
0.33686399459838867,4.801877498626709,0.16205181181430817
0.30377092957496643,4.8119025230407715,0.16248297691345215
0.270377516746521,4.829529285430908,0.1631811261177063
0.23669537901878357,4.831292152404785,0.16334950923919678
0.20473551750183105,4.87182092666626,0.16483718156814575
0.17117060720920563,4.884830951690674,0.1653461754322052
0.1370437890291214,4.885906219482422,0.1653851717710495
0.10282539576292038,4.9101738929748535,0.1662176102399826
0.06835336983203888,4.895155906677246,0.16572809219360352
0.034519873559474945,4.926743030548096,0.16682450473308563
0.00025101934443227947,4.973710536956787,0.16845031082630157
-0.034366536885499954,4.977498531341553,0.168509840965271
-0.06956711411476135,4.977134704589844,0.1684112250804901
-0.10466872900724411,4.99995231628418,0.1691063493490219
-0.14009106159210205,5.02252197265625,0.1698005497455597
-0.17474442720413208,5.013626575469971,0.16943895816802979
-0.21088677644729614,5.0435004234313965,0.170368954539299
-0.24582837522029877,5.041925430297852,0.17013610899448395
-0.28422778844833374,5.090746879577637,0.17160718142986298
-0.31631484627723694,5.038010597229004,0.1696661412715912
-0.2981020510196686,4.272356986999512,0.14374883472919464
-0.32778194546699524,4.27018928527832,0.14355072379112244
-0.357325941324234,4.26782751083374,0.14328841865062714
-0.3865989148616791,4.257445812225342,0.1427137404680252
-0.41254866123199463,4.219716548919678,0.14123547077178955
-0.43523019552230835,4.154645919799805,0.1388530433177948
-0.45931893587112427,4.108851909637451,0.13712579011917114
-0.482331782579422,4.059049129486084,0.13527555763721466
-0.5073007345199585,4.0284743309021,0.1339704841375351
-0.5288302302360535,3.9784610271453857,0.13203434646129608
-0.548035204410553,3.9167494773864746,0.1297236680984497
-0.5695158243179321,3.874239444732666,0.12805905938148499
-0.5916963219642639,3.839327573776245,0.12665562331676483
-0.6130353212356567,3.8004045486450195,0.12508727610111237
-0.6338829398155212,3.7653286457061768,0.12361494451761246
-0.6509062647819519,3.710919141769409,0.12152044475078583
-0.6736615896224976,3.6909966468811035,0.1205647736787796
-0.6920506358146667,3.647876262664795,0.11885862052440643
-0.7121357321739197,3.6161725521087646,0.11753550171852112
-0.7294831871986389,3.5728914737701416,0.1157483160495758
-0.7458208203315735,3.5296385288238525,0.11397899687290192
-0.7674343585968018,3.513031005859375,0.11308061331510544
-0.7849154472351074,3.477170467376709,0.11156680434942245
-0.8037726283073425,3.4488272666931152,0.11030410975217819
-0.8196329474449158,3.40898060798645,0.10863638669252396
-0.8353437781333923,3.373013734817505,0.10708095133304596
-0.8544294834136963,3.3521335124969482,0.10601548105478287
-0.8715322017669678,3.323533296585083,0.10471107810735703
-0.8904655575752258,3.302356243133545,0.10364743322134018
-0.9062800407409668,3.2697176933288574,0.10220371186733246
-0.9219834208488464,3.240995168685913,0.10084369033575058
-0.9394984245300293,3.2197155952453613,0.09972579777240753
-0.9547575116157532,3.190798044204712,0.09837648272514343
-0.9666239023208618,3.1505041122436523,0.09668086469173431
-0.9841593503952026,3.1287219524383545,0.09555008262395859
-0.9981183409690857,3.0997154712677,0.09415802359580994
-1.0080646276474,3.0595381259918213,0.09244002401828766
-1.0338566303253174,3.067427158355713,0.09217839688062668
-1.044981598854065,3.030653476715088,0.09057067334651947
-1.0582126379013062,3.0012497901916504,0.0891936644911766
-1.078749418258667,2.9939522743225098,0.08841904997825623
-1.0935169458389282,2.971975564956665,0.08722653985023499
-1.104041576385498,2.9389233589172363,0.08571697026491165
-1.116078495979309,2.909316062927246,0.0843067541718483
-1.1276246309280396,2.8797359466552734,0.08290214091539383
-1.1313128471374512,2.8321101665496826,0.0809379518032074
-1.1443990468978882,2.810012102127075,0.07972821593284607
-1.1545379161834717,2.780532121658325,0.07831113040447235
-1.1585944890975952,2.736510992050171,0.07648937404155731
-1.1741825342178345,2.7213780879974365,0.07546915113925934
-1.1517882347106934,2.6204142570495605,0.0720595046877861
-1.193186640739441,2.6661531925201416,0.07270726561546326
-1.2083003520965576,2.650779962539673,0.07166136056184769
-1.2086231708526611,2.6033713817596436,0.06975818425416946
-1.2443256378173828,2.634108304977417,0.06991295516490936
-1.265468716621399,2.632708787918091,0.0691879391670227
-1.2798067331314087,2.6171011924743652,0.06809191405773163
-1.2980308532714844,2.6081347465515137,0.06715191900730133
-1.2963314056396484,2.5609469413757324,0.06522330641746521
-1.2882641553878784,2.503706216812134,0.06304881721735
-1.2976633310317993,2.4812560081481934,0.06176811084151268
-1.3078255653381348,2.4582583904266357,0.060440968722105026
-1.318951964378357,2.439019203186035,0.059215959161520004
-1.3273777961730957,2.4166598320007324,0.05790243297815323
-1.3470627069473267,2.4147143363952637,0.0570787712931633
-1.3484303951263428,2.3781237602233887,0.05540106073021889
-1.360924243927002,2.3620102405548096,0.05419076234102249
-1.3842140436172485,2.366576910018921,0.053457263857126236
-1.4038991928100586,2.364065647125244,0.05254453048110008
-1.4162198305130005,2.347612142562866,0.051287367939949036
-1.4194549322128296,2.3182480335235596,0.04975069686770439
-1.4305388927459717,2.302257537841797,0.0484938807785511
-1.4420055150985718,2.285886287689209,0.0472041592001915
-1.4428726434707642,2.2529642581939697,0.045557014644145966
-1.4764623641967773,2.2731521129608154,0.04495773836970329
-1.4635206460952759,2.2209677696228027,0.04290580749511719
-1.4879131317138672,2.223548412322998,0.04185137525200844
-1.4933093786239624,2.2010974884033203,0.04034620150923729
-1.49881112575531,2.178440570831299,0.03882594034075737
-1.4847137928009033,2.126455783843994,0.03674811124801636
-1.5227839946746826,2.152235507965088,0.03600607439875603
-1.5029996633529663,2.0944159030914307,0.03379039093852043
-1.5078258514404297,2.0716745853424072,0.03212399408221245
-1.5067752599716187,2.04341459274292,0.030391063541173935
-1.5028570890426636,2.104231595993042,-0.026515088975429535
-1.482223629951477,2.1092562675476074,-0.027923129498958588
-1.4756603240966797,2.1328608989715576,-0.029504401609301567
-1.4931734800338745,2.1918864250183105,-0.031548064202070236
-1.4894733428955078,2.222649335861206,-0.033219076693058014
-1.4652920961380005,2.219949245452881,-0.03429483249783516
-1.4677491188049316,2.2603368759155273,-0.036045562475919724
-1.4487392902374268,2.267914056777954,-0.037252336740493774
-1.4329012632369995,2.2779343128204346,-0.038428016006946564
-1.4181251525878906,2.291736602783203,-0.03966084122657776
-1.4131580591201782,2.3222594261169434,-0.04118924215435982
-1.4127634763717651,2.358975648880005,-0.04279596358537674
-1.40362548828125,2.382554769515991,-0.04415076971054077
-1.3898768424987793,2.3996121883392334,-0.045384686440229416
-1.3573296070098877,2.3822550773620605,-0.045926284044981
-1.361464500427246,2.429245948791504,-0.04769359529018402
-1.3374985456466675,2.429135322570801,-0.04853725805878639
-1.3160386085510254,2.43192982673645,-0.04940953478217125
-1.3119622468948364,2.46512508392334,-0.05086883530020714
-1.2978898286819458,2.4813618659973145,-0.051976170390844345
-1.2833033800125122,2.497701644897461,-0.05308231711387634
-1.2721693515777588,2.520881414413452,-0.05433869734406471
-1.284090518951416,2.5891361236572266,-0.0565592385828495
-1.2858994007110596,2.640446424484253,-0.058408357203006744
-1.2430763244628906,2.6003801822662354,-0.0582277774810791
-1.2195789813995361,2.5985267162323,-0.0588737390935421
-1.2194275856018066,2.6459553241729736,-0.060632675886154175
-1.1967966556549072,2.647679090499878,-0.061337605118751526
-1.1648759841918945,2.627718448638916,-0.061514925211668015
-1.1741869449615479,2.7003836631774902,-0.06385909765958786
-1.1554144620895386,2.708449602127075,-0.06467857211828232
-1.1617757081985474,2.7778127193450928,-0.06695282459259033
-1.1413785219192505,2.78623628616333,-0.06776919215917587
-1.1301441192626953,2.816056251525879,-0.06909934431314468
-1.1162546873092651,2.8383636474609375,-0.07023927569389343
-1.1201645135879517,2.908061981201172,-0.07255770266056061
-1.1075228452682495,2.9379351139068604,-0.0738622397184372
-1.0954809188842773,2.971578598022461,-0.07528454065322876
-1.0772446393966675,2.986523151397705,-0.07622060924768448
-1.0641937255859375,3.0160372257232666,-0.07753390073776245
-1.0477590560913086,3.038295269012451,-0.07862874120473862
-1.0334140062332153,3.067920446395874,-0.07991211861371994
-1.0221275091171265,3.1086983680725098,-0.0815049335360527
-1.0004644393920898,3.1157193183898926,-0.08220139890909195
-0.981010377407074,3.1300666332244873,-0.08308596163988113
-0.9701036810874939,3.174302816390991,-0.08471386134624481
-0.9507862329483032,3.192350387573242,-0.08565466105937958
-0.9369722604751587,3.2289559841156006,-0.0870981514453888
-0.9183050394058228,3.2505311965942383,-0.08814976364374161
-0.8995946645736694,3.271944284439087,-0.0891726091504097
-0.8853623270988464,3.312199831008911,-0.09068140387535095
-0.8637314438819885,3.3259594440460205,-0.09147454798221588
-0.8480820059776306,3.3621950149536133,-0.09288801997900009
-0.44371500611305237,1.8130015134811401,-0.050316840410232544
-57.358463287353516,241.67982482910156,-6.734604358673096
-22.871606826782227,99.49202728271484,-2.782583475112915
-0.4146367907524109,1.863876461982727,-0.052320994436740875
-0.3859715759754181,1.7941954135894775,-0.05055035278201103
-0.3819921910762787,1.838930606842041,-0.05200488120317459
-0.3636917769908905,1.814761996269226,-0.051489584147930145
-0.3478827476501465,1.8019474744796753,-0.051276519894599915
-0.33655163645744324,1.8120355606079102,-0.051717109978199005
-0.32661333680152893,1.8297146558761597,-0.0523771196603775
-0.32749828696250916,1.9127955436706543,-0.054922040551900864
-0.3141160309314728,1.9150327444076538,-0.055129338055849075
-0.29577940702438354,1.8863322734832764,-0.054423004388809204
-0.28365686535835266,1.8960846662521362,-0.05482715740799904
-0.5545598268508911,3.892672061920166,-0.11281591653823853
-0.5338239073753357,3.9467875957489014,-0.11465144157409668
-0.5112299919128418,3.9891364574432373,-0.11611919105052948
-0.4883635342121124,4.03525972366333,-0.11764847487211227
-0.4662370979785919,4.09289026260376,-0.11952336877584457
-0.4421948790550232,4.13874626159668,-0.12106417119503021
-0.4180745482444763,4.1883344650268555,-0.12272334098815918
-0.3916686177253723,4.226171016693115,-0.12403407692909241
-0.364787757396698,4.259922504425049,-0.12514404952526093
-0.3337438702583313,4.246794700622559,-0.12488356232643127
-0.30572739243507385,4.272385120391846,-0.12576784193515778
-0.3275974690914154,5.073173522949219,-0.14950363337993622
-0.2911742031574249,5.067565441131592,-0.14951138198375702
-0.2528451085090637,5.010977268218994,-0.14789371192455292
-0.21746960282325745,5.004817485809326,-0.14776325225830078
-0.1821925938129425,4.998408794403076,-0.14763246476650238
-0.14696933329105377,4.983940124511719,-0.14727020263671875
-0.11140362918376923,4.973142623901367,-0.14702452719211578
-0.07666423916816711,4.965988636016846,-0.14680913090705872
-0.04194818437099457,4.950785160064697,-0.14632438123226166
-0.007447600830346346,4.93533992767334,-0.14583976566791534
0.026793234050273895,4.911845684051514,-0.14512456953525543
0.06124681979417801,4.888108730316162,-0.14440923929214478
0.09522408246994019,4.887567043304443,-0.14433744549751282
0.12861308455467224,4.867277145385742,-0.14361844956874847
0.16163954138755798,4.842856407165527,-0.14278535544872284
0.19527707993984222,4.841620445251465,-0.1426432579755783
0.22747386991977692,4.808948040008545,-0.14158238470554352
0.2605862021446228,4.791630744934082,-0.14096599817276
0.2930297255516052,4.7780280113220215,-0.14037096500396729
0.32507508993148804,4.760307312011719,-0.13966251909732819
0.35743147134780884,4.750163555145264,-0.13918422162532806
0.3879164457321167,4.716436862945557,-0.13802213966846466
0.421983540058136,4.721358776092529,-0.13799580931663513
0.45309919118881226,4.702794075012207,-0.13719433546066284
0.4827864170074463,4.672372817993164,-0.13603916764259338
0.5150293707847595,4.668939113616943,-0.13567817211151123
0.5465927124023438,4.657496929168701,-0.13508933782577515
0.576683759689331,4.630270004272461,-0.13404637575149536
0.6087038516998291,4.6261820793151855,-0.13362440466880798
0.6373661160469055,4.598682403564453,-0.13249658048152924
0.6679705381393433,4.586458206176758,-0.13181696832180023
0.6985604166984558,4.574012279510498,-0.13113711774349213
0.7277770638465881,4.549697399139404,-0.13011905550956726
0.7592138648033142,4.544571399688721,-0.129621684551239
0.7863771915435791,4.5161871910095215,-0.1284121870994568
0.8145791292190552,4.495328903198242,-0.1274261325597763
0.7126356363296509,3.783550262451172,-0.10692120343446732
0.7359673380851746,3.763180732727051,-0.10602046549320221
0.7671096324920654,3.780879259109497,-0.10616642236709595
0.9286393523216248,4.421368598937988,-0.12367019802331924
0.9597772359848022,4.418727397918701,-0.12311940640211105
0.9936041235923767,4.427272319793701,-0.12288220226764679
1.0261425971984863,4.427879333496094,-0.12242329120635986
1.0537245273590088,4.405357837677002,-0.1213061586022377
1.0810364484786987,4.386691570281982,-0.12024090439081192
1.1071444749832153,4.3640828132629395,-0.11907721310853958
1.1371264457702637,4.356387615203857,-0.11832450330257416
1.1633427143096924,4.333310127258301,-0.11715542525053024
1.1917644739151,4.31749963760376,-0.11616513133049011
1.2211666107177734,4.309298515319824,-0.1153278797864914
1.24611496925354,4.285908222198486,-0.1140924021601677
1.2755175828933716,4.277272701263428,-0.11325185745954514
1.3006889820098877,4.253376483917236,-0.11200659722089767
1.3328824043273926,4.2516069412231445,-0.11131621152162552
1.3545682430267334,4.220170497894287,-0.10981246829032898
1.3856035470962524,4.218328475952148,-0.10908707976341248
1.412116289138794,4.20131254196167,-0.10796454548835754
1.4438505172729492,4.198796272277832,-0.10721243917942047
1.4661452770233154,4.17039680480957,-0.1057777926325798
1.492174506187439,4.152881145477295,-0.10458686202764511
1.522916316986084,4.150052547454834,-0.10378371924161911
1.5488699674606323,4.132121562957764,-0.10259044915437698
1.5748131275177002,4.113966464996338,-0.10139492154121399
1.6083236932754517,4.1177825927734375,-0.10068925470113754
1.6336474418640137,4.099421977996826,-0.09941861033439636
1.6614501476287842,4.088259220123291,-0.09833696484565735
1.6838277578353882,4.0622148513793945,-0.09688643366098404
1.7238925695419312,4.079341411590576,-0.09644639492034912
1.9967244863510132,4.638068199157715,-0.10864072293043137
2.0392918586730957,4.649409294128418,-0.1078692227602005
2.074523448944092,4.6423845291137695,-0.10665697604417801
2.103559970855713,4.62075138092041,-0.10510510206222534
2.1295382976531982,4.595959186553955,-0.10344110429286957
2.160183906555176,4.581666469573975,-0.10201668739318848
2.191915512084961,4.566603660583496,-0.10053707659244537
2.223607301712036,4.551288604736328,-0.09905436635017395
2.2594151496887207,4.546739101409912,-0.09777464717626572
2.2895801067352295,4.531656742095947,-0.09625668823719025
2.3165712356567383,4.509171009063721,-0.09456788748502731
2.3551104068756104,4.506830215454102,-0.0932682529091835
1.7334986925125122,3.262803077697754,-0.06657617539167404
1.743897557258606,3.23067569732666,-0.06498175859451294
1.7262521982192993,3.146925926208496,-0.06235801428556442
1.748122215270996,3.1348536014556885,-0.06115088239312172
1.7785638570785522,3.140169858932495,-0.06026976928114891
1.3301860094070435,2.3123059272766113,-0.04363681748509407
1.3045810461044312,2.2323594093322754,-0.04139120131731033
0.9530473351478577,1.6053770780563354,-0.029222534969449043
0.9695349335670471,1.609181523323059,-0.02873355895280838
0.9739981293678284,1.5927773714065552,-0.027879025787115097
0.9852288365364075,1.5858676433563232,-0.027154406532645226
0.995678186416626,1.5793399810791016,-0.026444150134921074
1.0163930654525757,1.589332103729248,-0.02600383199751377
1.0166561603546143,1.5659422874450684,-0.02498074620962143
1.0228197574615479,1.5525894165039062,-0.024117516353726387
1.0394419431686401,1.55563485622406,-0.02349396049976349
1.054397463798523,1.5549969673156738,-0.022779392078518867
2.556628465652466,3.7170522212982178,-0.05271844193339348
2.5756912231445312,3.6943769454956055,-0.050659529864788055
2.6100401878356934,3.6893739700317383,-0.04869664087891579
2.620502471923828,3.653174877166748,-0.04626983031630516
2.625662088394165,3.6109297275543213,-0.0437660776078701
2.682454824447632,3.6371471881866455,-0.041930779814720154
2.597973108291626,3.669255018234253,0.04428541660308838
2.592517137527466,3.7160327434539795,0.04670245200395584
1.063250184059143,1.5489928722381592,0.02021794393658638
1.0516277551651,1.5568957328796387,0.021047022193670273
1.0404906272888184,1.5643503665924072,0.021819135174155235
1.0221196413040161,1.5624200105667114,0.022448398172855377
1.0214238166809082,1.586143970489502,0.02341321110725403
0.9995715618133545,1.5769197940826416,0.02386966161429882
0.9936093091964722,1.5944960117340088,0.024732254445552826
0.9780465960502625,1.5949221849441528,0.02529226988554001
0.9647764563560486,1.5984135866165161,0.02587886154651642
0.9528179168701172,1.6055604219436646,0.026515109464526176
1.3249602317810059,2.2702794075012207,0.038209136575460434
1.8455994129180908,3.2144689559936523,0.05507797747850418
1.7817143201828003,3.1564369201660156,0.054995741695165634
1.7411962747573853,3.1388094425201416,0.05558176338672638
1.7694692611694336,3.243595600128174,0.05831257626414299
1.7486107349395752,3.25930118560791,0.05945126339793205
2.3850722312927246,4.526591777801514,0.08370701968669891
2.337341547012329,4.51624059677124,0.08462946861982346
2.309305191040039,4.53938102722168,0.08612151443958282
2.2737903594970703,4.548517227172852,0.08733852207660675
2.247272253036499,4.579061031341553,0.08892914652824402
2.2096495628356934,4.588639736175537,0.09013712406158447
2.1742103099823,4.5968732833862305,0.09125486016273499
2.148529291152954,4.626137733459473,0.09278605878353119
2.1082589626312256,4.627442359924316,0.09370087087154388
2.0808298587799072,4.656932830810547,0.09519144147634506
2.041693687438965,4.65714693069458,0.09605832397937775
1.9947645664215088,4.639179229736328,0.09655105322599411
1.7140684127807617,4.0667724609375,0.08533484488725662
1.6785709857940674,4.064635276794434,0.08597630262374878
1.6655592918395996,4.1163458824157715,0.08775628358125687
1.632574439048767,4.116918087005615,0.08843601495027542
1.6045169830322266,4.13210391998291,0.08942194283008575
1.5774624347686768,4.150846004486084,0.0904342383146286
1.5474984645843506,4.162091255187988,0.0912889689207077
1.5235249996185303,4.187535285949707,0.09244705736637115
1.4891078472137451,4.183300971984863,0.09294808655977249
1.4613842964172363,4.201318740844727,0.09391138702630997
1.438693642616272,4.233881950378418,0.09517253190279007
1.4082306623458862,4.244094371795654,0.09593897312879562
1.378645896911621,4.253779888153076,0.09668156504631042
1.3466746807098389,4.255800724029541,0.09725307673215866
1.3227602243423462,4.287805557250977,0.09846509248018265
1.2943519353866577,4.30460786819458,0.09931245446205139
1.2679282426834106,4.328729152679443,0.10033676028251648
1.2356418371200562,4.32991886138916,0.1008225530385971
1.2054531574249268,4.338405132293701,0.10148293524980545
1.1746056079864502,4.34684419631958,0.10208398103713989
1.1469683647155762,4.370355606079102,0.10303747653961182
1.115790605545044,4.3784050941467285,0.10362561792135239
1.088085412979126,4.3974289894104,0.10447049140930176
1.061120867729187,4.420065879821777,0.10540814697742462
1.0316444635391235,4.4350457191467285,0.10610678046941757
0.9996036887168884,4.442364692687988,0.10660432279109955
0.9646838307380676,4.434082508087158,0.10672682523727417
0.9336780309677124,4.440702438354492,0.1072067841887474
0.7714200615882874,3.800309896469116,0.0920238122344017
0.7409948706626892,3.7864561080932617,0.09193480759859085
0.7079285979270935,3.760983943939209,0.09152962267398834
0.8188908696174622,4.5267653465271,0.11042370647192001
0.78841632604599,4.540090084075928,0.11100950837135315
0.7600615620613098,4.564708709716797,0.11187560856342316
0.7306930422782898,4.585310459136963,0.11263963580131531
0.7013009786605835,4.613591194152832,0.11352040618658066
0.6709962487220764,4.633872032165527,0.11420837789773941
0.6404846906661987,4.6539483070373535,0.11489798873662949
0.6070470809936523,4.650544166564941,0.11501172930002213
0.5756463408470154,4.6623969078063965,0.11550809442996979
0.5420246720314026,4.6585564613342285,0.11557058244943619
0.511660635471344,4.689481735229492,0.11648271977901459
0.4802383780479431,4.708498954772949,0.11710388213396072
0.4481084942817688,4.719505310058594,0.11753103137016296
0.4166235327720642,4.738063335418701,0.11815231293439865
0.38552942872047424,4.764196395874023,0.11894796043634415
0.3524528741836548,4.778501033782959,0.11938008666038513
0.3190157413482666,4.78084659576416,0.11951819807291031
0.28747156262397766,4.814139366149902,0.12043626606464386
0.25433796644210815,4.823821544647217,0.12076996266841888
0.2222011238336563,4.856678009033203,0.12169037014245987
0.18770906329154968,4.8581318855285645,0.12175600975751877
0.15452353656291962,4.882741928100586,0.12237367779016495
0.12052211165428162,4.887604713439941,0.12250243127346039
0.08690086752176285,4.9117512702941895,0.1231204941868782
0.05291331931948662,4.927855014801025,0.12354300916194916
0.018099365755915642,4.935915470123291,0.12375754863023758
-0.016307080164551735,4.959353446960449,0.1242818832397461
-0.05103016644716263,4.986456394195557,0.12490352988243103
-0.08597789704799652,5.00160026550293,0.12523110210895538
-0.12113874405622482,5.01649808883667,0.1255582869052887
-0.15607404708862305,5.015534400939941,0.1254943311214447
-0.19212162494659424,5.0299177169799805,0.12576639652252197
-0.2269895076751709,5.028468608856201,0.1256071925163269
-0.2622528076171875,5.034577369689941,0.12564264237880707
-0.301574170589447,5.106706142425537,0.1273297220468521
-0.2848377525806427,4.3134894371032715,0.10746137797832489
-0.3119036555290222,4.2646355628967285,0.10615859925746918
-0.34074679017066956,4.254598140716553,0.1057506576180458
-0.37217363715171814,4.275489330291748,0.1061151772737503
-0.39801615476608276,4.233944892883301,0.10493587702512741
-0.42385727167129517,4.1961188316345215,0.10385549068450928
-0.44635453820228577,4.127023220062256,0.10200714319944382
-0.47133490443229675,4.0928053855896,0.10099787265062332
-0.49240419268608093,4.031325817108154,0.09928219020366669
-0.5161122679710388,3.9968678951263428,0.09824131429195404
-0.5394836068153381,3.9622607231140137,0.09720359742641449
-0.559234619140625,3.9003612995147705,0.09550044685602188
-0.5805283188819885,3.85776948928833,0.09428267925977707
-0.600361168384552,3.811260938644409,0.09290459752082825
-0.6214615106582642,3.7762279510498047,0.09181005507707596
-0.6421090364456177,3.74108624458313,0.09072110801935196
-0.6604858040809631,3.6942639350891113,0.08935556560754776
-0.6837612986564636,3.674147605895996,0.08863930404186249
-0.7009819746017456,3.6271679401397705,0.08725252747535706
-0.7211844325065613,3.599320888519287,0.08630029112100601
-0.7394520044326782,3.563720941543579,0.08517036586999893
-0.7574300765991211,3.528005838394165,0.08404458314180374
-0.7763807773590088,3.495896339416504,0.08300666511058807
-0.7953144311904907,3.46761155128479,0.08206555247306824
-0.8089931011199951,3.4203286170959473,0.08063765615224838
-0.8266585469245911,3.3919999599456787,0.07966656237840652
-0.8440684676170349,3.3635666370391846,0.07869958132505417
-0.8639025092124939,3.3424057960510254,0.07789921015501022
-0.8790733218193054,3.306140661239624,0.07675980031490326
-0.8984894156455994,3.2887842655181885,0.07601504027843475
-0.9144335985183716,3.260068893432617,0.0750054270029068
-0.9257376790046692,3.216269016265869,0.07365813106298447
-0.9406552910804749,3.1834535598754883,0.07255946099758148
-0.9627490639686584,3.1768529415130615,0.07206995040178299
-0.9751417636871338,3.140383243560791,0.07088141143321991
-0.9892907738685608,3.111387252807617,0.06985688954591751
-1.0030653476715088,3.082353115081787,0.06884048134088516
-1.023484468460083,3.0715291500091553,0.06822272390127182
-1.0372610092163086,3.0421690940856934,0.06720388680696487
-1.0605300664901733,3.0424208641052246,0.06681714951992035
-1.062677264213562,2.983705997467041,0.06512826681137085
-1.085418462753296,2.9838335514068604,0.06473318487405777
-1.0856568813323975,2.921342372894287,0.06297777593135834
-1.1118794679641724,2.9281914234161377,0.06271660327911377
-1.123247504234314,2.8987457752227783,0.061657536774873734
-1.1369649171829224,2.8766143321990967,0.0607515424489975
-1.140238881111145,2.829063892364502,0.05931917950510979
-1.145018458366394,2.784963607788086,0.05795971676707268
-1.164669394493103,2.776815891265869,0.05734892562031746
-1.1571083068847656,2.707930564880371,0.055472131818532944
-1.1455626487731934,2.632110357284546,0.05347743630409241
-1.1681381464004517,2.6350035667419434,0.05308733507990837
-1.196079969406128,2.6481852531433105,0.052890125662088394
-1.2340251207351685,2.682407855987549,0.05307969078421593
-1.210443377494812,2.5857224464416504,0.050678398460149765
-1.246069312095642,2.6164233684539795,0.05078599601984024
-1.2709985971450806,2.621790647506714,0.050372444093227386
-1.2632567882537842,2.5603737831115723,0.048682406544685364
-1.2927398681640625,2.576253890991211,0.04844034090638161
-1.28672194480896,2.522409200668335,0.04690227657556534
-1.2931277751922607,2.4927737712860107,0.04581466317176819
-1.3067585229873657,2.476839542388916,0.04497811570763588
-1.3101991415023804,2.444056749343872,0.043821047991514206
-1.3224921226501465,2.428548812866211,0.04297946020960808
-1.3316805362701416,2.4056942462921143,0.041985347867012024
-1.3484057188034058,2.3963727951049805,0.04122821241617203
-1.360278844833374,2.380673408508301,0.04034984111785889
-1.3915128707885742,2.398759126663208,0.040039028972387314
-1.3761528730392456,2.335361957550049,0.038350049406290054
-1.4004662036895752,2.3391051292419434,0.037754300981760025
-1.4196701049804688,2.336658000946045,0.03706102818250656
-1.4185256958007812,2.3007357120513916,0.03583869710564613
-1.4345051050186157,2.2908198833465576,0.034988775849342346
-1.439192533493042,2.264785051345825,0.03388743847608566
-1.454003930091858,2.2553176879882812,0.03302175924181938
-1.4693783521652222,2.2453441619873047,0.03211928531527519
-1.475867509841919,2.2223658561706543,0.03101671114563942
-1.4769622087478638,2.193453311920166,0.029836028814315796
-1.500475525856018,2.196397066116333,0.029052915051579475
-1.477582335472107,2.131558418273926,0.027349300682544708
-1.4864624738693237,2.115847110748291,0.026313800364732742
-1.4962255954742432,2.0993812084198,0.025210486724972725
-1.5007455348968506,2.076918840408325,0.024020548909902573
-1.50920832157135,2.06111478805542,0.022904839366674423
-1.5093578100204468,2.031895875930786,0.021559584885835648
-1.4946407079696655,2.1101529598236084,-0.01940295100212097
-1.5039916038513184,2.156090497970581,-0.02076563611626625
-1.4703025817871094,2.1413934230804443,-0.021508149802684784
-1.4625991582870483,2.165532350540161,-0.022627079859375954
-1.482104778289795,2.227687120437622,-0.02408904768526554
-1.4737712144851685,2.2518951892852783,-0.0251611415296793
-1.4572538137435913,2.2626090049743652,-0.02606147527694702
-1.4413610696792603,2.272756338119507,-0.02691723220050335
-1.4302045106887817,2.2936043739318848,-0.02790392003953457
-1.4257168769836426,2.3239264488220215,-0.028984295204281807
-1.4135342836380005,2.340477466583252,-0.02987145073711872
-1.3921115398406982,2.344191551208496,-0.030576149001717567
-1.3865984678268433,2.3746249675750732,-0.031628381460905075
-1.3580790758132935,2.3640503883361816,-0.03210992366075516
-1.3448082208633423,2.3805909156799316,-0.032933592796325684
-1.3309972286224365,2.3972690105438232,-0.03375637158751488
-1.3289116621017456,2.434077739715576,-0.03485039249062538
-1.315569519996643,2.4501750469207764,-0.03564593940973282
-1.3026952743530273,2.4702887535095215,-0.036500316113233566
-1.1749210357666016,2.2682220935821533,-0.034019868820905685
-1.2778667211532593,2.509530544281006,-0.0381661131978035
-1.2863831520080566,2.5708506107330322,-0.03962680324912071
-1.277956485748291,2.6011765003204346,-0.0406024195253849
-1.2485554218292236,2.5894129276275635,-0.04092961549758911
-1.233818531036377,2.6051034927368164,-0.04166197031736374
-1.215408205986023,2.6137335300445557,-0.04227230325341225
-1.206121802330017,2.6438024044036865,-0.04320812597870827
-1.1836997270584106,2.6453518867492676,-0.0436825305223465
-1.151151180267334,2.6213202476501465,-0.04371102154254913
-1.168015718460083,2.7119367122650146,-0.045666035264730453
-1.1590242385864258,2.745483636856079,-0.046655312180519104
-1.1540874242782593,2.789867877960205,-0.04784064367413521
-1.1403539180755615,2.812365770339966,-0.048648402094841
-1.1265798807144165,2.8347201347351074,-0.04945572465658188
-1.124362587928772,2.890141010284424,-0.0508294478058815
-1.1174917221069336,2.934626579284668,-0.05201049894094467
-1.103386640548706,2.960798978805542,-0.05287395045161247
-1.0853557586669922,2.9757626056671143,-0.05353568494319916
-1.0695905685424805,2.9980485439300537,-0.054321639239788055
-1.0553280115127563,3.02791690826416,-0.055230919271707535
-1.0435799360275269,3.06500244140625,-0.05627475678920746
-1.0257748365402222,3.0833487510681152,-0.05697255581617355
-1.0091233253479004,3.1052603721618652,-0.05773948132991791
-0.9847573637962341,3.1048710346221924,-0.05806393176317215
-0.9690847396850586,3.134326696395874,-0.05894359201192856
-0.960252046585083,3.18601655960083,-0.06024492532014847
-0.9435705542564392,3.2113471031188965,-0.06104949861764908
-0.9297803044319153,3.247870683670044,-0.062075186520814896
-0.9087814688682556,3.2619102001190186,-0.06262747198343277
-0.8916512727737427,3.2909111976623535,-0.06346940994262695
-0.8788379430770874,3.338791847229004,-0.0646878331899643
-0.8575460314750671,3.352379322052002,-0.06523875147104263
-0.8417357206344604,3.3885788917541504,-0.0662335678935051
-0.4381181597709656,1.818727970123291,-0.035677727311849594
-0.4358534514904022,1.867427110671997,-0.03676670044660568
-0.42932578921318054,1.9009791612625122,-0.037566304206848145
-0.40110042691230774,1.8352336883544922,-0.03639836609363556
-0.38833168148994446,1.8379740715026855,-0.0365840345621109
-0.36674749851226807,1.798575520515442,-0.035902488976716995
-0.3525353968143463,1.793452262878418,-0.03590395301580429
-0.34404462575912476,1.81895112991333,-0.03652265667915344
-0.32438400387763977,1.7828747034072876,-0.035902924835681915
-0.32879143953323364,1.8812626600265503,-0.03799605742096901
-0.31682223081588745,1.8912328481674194,-0.03828363120555878
-0.30841413140296936,1.9242687225341797,-0.03904097154736519
-0.28871479630470276,1.8878206014633179,-0.03839150443673134
-0.2840464115142822,1.9477468729019165,-0.03970199450850487
-0.544773280620575,3.926419496536255,-0.08022291213274002
-0.5249000787734985,3.988215684890747,-0.08162771910429001
-0.5017194151878357,4.030552864074707,-0.08262895792722702
-0.47569409012794495,4.0533647537231445,-0.0832359567284584
-0.45459648966789246,4.126511096954346,-0.08488555252552032
-0.4286540746688843,4.156766414642334,-0.08565762639045715
-0.404835045337677,4.214080810546875,-0.08694574981927872
-0.3776792287826538,4.244045734405518,-0.08764143288135529
-0.34725287556648254,4.238803863525391,-0.08761473745107651
-0.31656697392463684,4.233370304107666,-0.08758912980556488
-0.2924114763736725,4.3133955001831055,-0.08933564275503159
-0.30816036462783813,5.0676774978637695,-0.10504470765590668
-0.26918143033981323,5.003409385681152,-0.10375117510557175
-0.23494943976402283,5.02077054977417,-0.1041550263762474
-0.19806869328022003,4.991091251373291,-0.10358874499797821
-0.16337954998016357,4.992345333099365,-0.1036682054400444
-0.12823331356048584,4.977743148803711,-0.10342231392860413
-0.09353795647621155,4.978516578674316,-0.10340877622365952
-0.05860729143023491,4.959522247314453,-0.10298977047204971
-0.023367594927549362,4.9441914558410645,-0.10265173763036728
0.010930000804364681,4.912991523742676,-0.10198974609375
0.04505332186818123,4.904986381530762,-0.10181427747011185
0.07886242866516113,4.885031223297119,-0.10134201496839523
0.11243470758199692,4.868749618530273,-0.10092733055353165
0.1458296775817871,4.852237224578857,-0.10051310062408447
0.18011890351772308,4.8510870933532715,-0.10042116791009903
0.21273672580718994,4.826313495635986,-0.09984662383794785
0.24497637152671814,4.801323890686035,-0.09924466907978058
0.2782038152217865,4.799516677856445,-0.0990765318274498
0.3096030056476593,4.770201683044434,-0.09834617376327515
0.3426704406738281,4.760112762451172,-0.0980154424905777
0.3751714527606964,4.74983024597168,-0.0976874977350235
0.4055303931236267,4.715980052947998,-0.09687726944684982
0.438137412071228,4.713067531585693,-0.09663021564483643
0.46839332580566406,4.686613082885742,-0.09590600430965424
0.502187192440033,4.690972805023193,-0.095814548432827
0.5330206751823425,4.671852111816406,-0.09525053948163986
0.5631429553031921,4.64865255355835,-0.09460926055908203
0.5952290892601013,4.644659042358398,-0.09430086612701416
0.6251204013824463,4.624973773956299,-0.09365804493427277
0.6542137861251831,4.597287654876709,-0.09285563230514526
0.6849668025970459,4.5849151611328125,-0.09237083047628403
0.7168291211128235,4.580048561096191,-0.09204180538654327
0.7440958619117737,4.5480055809021,-0.09114454686641693
0.7727377414703369,4.5273871421813965,-0.0904553234577179
0.8038654327392578,4.521971225738525,-0.0900750532746315
0.7141715884208679,3.859513282775879,-0.07664478570222855
0.7269752025604248,3.7815916538238525,-0.07487361133098602
0.7531253695487976,3.776477098464966,-0.07453402876853943
0.9140601754188538,4.4252777099609375,-0.08701518923044205
0.9451553225517273,4.422743320465088,-0.08664487302303314
0.9794930219650269,4.431275367736816,-0.08648668229579926
1.0085828304290771,4.416742324829102,-0.08588402718305588
1.0373820066452026,4.402050971984863,-0.08527285605669022
1.067456603050232,4.394864559173584,-0.08475928008556366
1.0946000814437866,4.3761162757873535,-0.08402810990810394
1.1251811981201172,4.368363380432129,-0.08350411057472229
1.1515156030654907,4.345345973968506,-0.08269599080085754
1.1775000095367432,4.322197437286377,-0.08188392966985703
1.2089837789535522,4.321619033813477,-0.08145172148942947
1.2362396717071533,4.3057861328125,-0.08073524385690689
1.2662020921707153,4.297081470489502,-0.08014759421348572
1.2960669994354248,4.288179397583008,-0.07956065982580185
1.3211102485656738,4.264188766479492,-0.07868844270706177
1.3452982902526855,4.240244388580322,-0.07777734845876694
1.3716349601745605,4.223597526550293,-0.07700616866350174
1.4035415649414062,4.221346855163574,-0.07648797333240509
1.4328621625900269,4.211496829986572,-0.0758366733789444
1.4567240476608276,4.186776161193848,-0.07490584999322891
1.4849876165390015,4.176847457885742,-0.07421533763408661
1.5118504762649536,4.16305685043335,-0.07346004992723465
1.5323389768600464,4.130585670471191,-0.0723719671368599
1.5670908689498901,4.134251594543457,-0.07190696895122528
1.5896037817001343,4.108912944793701,-0.07092414051294327
1.6201279163360596,4.105385780334473,-0.07030783593654633
1.6506764888763428,4.101632118225098,-0.06968892365694046
1.6761807203292847,4.082846164703369,-0.06880047917366028
1.7019312381744385,4.063724994659424,-0.06789854913949966
1.96672523021698,4.609066486358643,-0.07632507383823395
2.020956039428711,4.649514198303223,-0.07630231976509094
2.052696943283081,4.635603904724121,-0.07536972314119339
2.09128999710083,4.635482311248779,-0.07465102523565292
2.1150381565093994,4.603227138519287,-0.07338003814220428
2.1473546028137207,4.592568874359131,-0.07245924323797226
2.184922456741333,4.592138290405273,-0.07169362902641296
2.208256483078003,4.559289455413818,-0.0704013854265213
2.2444915771484375,4.554643154144287,-0.0695362538099289
2.2786972522735596,4.546382427215576,-0.06858200579881668
2.3017826080322266,4.517226219177246,-0.06732960045337677
2.3475170135498047,4.52886962890625,-0.0666484534740448
2.3711278438568115,4.498915672302246,-0.06534731388092041
1.7406527996063232,3.2504794597625732,-0.04657594859600067
1.7547107934951782,3.2251479625701904,-0.045574650168418884
1.7377727031707764,3.1408936977386475,-0.04371831938624382
1.7628471851348877,3.1358656883239746,-0.04297826066613197
1.8163126707077026,3.181905508041382,-0.042908329516649246
1.341909646987915,2.3147659301757812,-0.030693240463733673
0.9496033787727356,1.6120808124542236,-0.020995352417230606
0.9604538679122925,1.605646014213562,-0.020524682477116585
0.964824378490448,1.58933687210083,-0.01993808150291443
0.9797850251197815,1.5893484354019165,-0.01953887939453125
0.9968022108078003,1.592578649520874,-0.01916688121855259
1.0070914030075073,1.586098074913025,-0.018669493496418
1.0178264379501343,1.5792367458343506,-0.018148360773921013
1.0180065631866455,1.5558388233184814,-0.017432870343327522
1.034417748451233,1.559064507484436,-0.017018884420394897
1.048988699913025,1.5587295293807983,-0.016550326719880104
1.0531491041183472,1.5417567491531372,-0.01587899588048458
2.55544114112854,3.689584970474243,-0.03677985072135925
2.5797715187072754,3.672628164291382,-0.035359881818294525
2.6180880069732666,3.6742429733276367,-0.03405275195837021
2.627316474914551,3.6387946605682373,-0.032412417232990265
2.638235330581665,3.60188889503479,-0.0306562390178442
2.6959481239318848,3.632146120071411,-0.02943631075322628
2.612133502960205,3.659353494644165,0.02744084969162941
2.6008708477020264,3.7008261680603027,0.029070736840367317
2.5583255290985107,3.6971495151519775,0.030266286805272102
1.061610460281372,1.5596520900726318,0.013273744843900204
1.0463851690292358,1.560505747795105,0.013735291548073292
1.034705638885498,1.5682697296142578,0.014248422347009182
1.0185199975967407,1.5695198774337769,0.014698673039674759
1.024402141571045,1.6028956174850464,0.015419060364365578
