X,Y,Z
1.6147440671920776,4.753296375274658,0.33504486083984375
1.5865873098373413,4.783130168914795,0.3388136923313141
1.5580658912658691,4.808717250823975,0.34225308895111084
1.5339226722717285,4.849013328552246,0.346773236989975
1.5057742595672607,4.882137298583984,0.35068589448928833
1.4740363359451294,4.903864860534668,0.35368040204048157
1.4541547298431396,4.966511249542236,0.3596610724925995
1.3990294933319092,4.905218601226807,0.3566446304321289
1.3742108345031738,4.94848108291626,0.3612291216850281
1.302797555923462,4.822451591491699,0.3533618152141571
1.271640658378601,4.846739768981934,0.3563249111175537
1.2417709827423096,4.874450206756592,0.35954588651657104
1.2091889381408691,4.890528678894043,0.36191901564598083
1.186002492904663,4.944162368774414,0.367085725069046
1.1515858173370361,4.952157974243164,0.3688910901546478
1.1226121187210083,4.99063777923584,0.3727729320526123
1.0854531526565552,4.9907612800598145,0.3737582862377167
1.0555075407028198,5.024931907653809,0.37731754779815674
1.0220060348510742,5.0396881103515625,0.3794235289096832
0.9869042038917542,5.046564102172852,0.380954772233963
2.174135208129883,11.553814888000488,0.8743593096733093
2.0735132694244385,11.465214729309082,0.8693468570709229
1.9589368104934692,11.287503242492676,0.8575769662857056
1.8512630462646484,11.131743431091309,0.8474528789520264
1.7505455017089844,10.997965812683105,0.8389730453491211
1.6486090421676636,10.851996421813965,0.8295887112617493
1.5567141771316528,10.75520133972168,0.8235485553741455
1.4622586965560913,10.630705833435059,0.8151663541793823
1.3619781732559204,10.447502136230469,0.8022884726524353
1.2716549634933472,10.31747055053711,0.793485701084137
1.1998172998428345,10.325927734375,0.7953493595123291
1.1031270027160645,10.117182731628418,0.7805153727531433
1.0329102277755737,10.13232135772705,0.7824365496635437
0.4100525677204132,4.3232293128967285,0.3341445028781891
0.37387815117836,4.260006904602051,0.32956627011299133
0.34415629506111145,4.262471675872803,0.3300788700580597
0.3153667151927948,4.284183979034424,0.3321051597595215
0.28474560379981995,4.274578094482422,0.3317146301269531
0.2626652419567108,4.408629417419434,0.34223583340644836
0.23033954203128815,4.383116722106934,0.34038859605789185
0.19679014384746552,4.322353839874268,0.33581769466400146
0.16773004829883575,4.362533092498779,0.33910661935806274
0.13595975935459137,4.316861152648926,0.33573538064956665
0.10654576122760773,4.341043472290039,0.3377872705459595
0.07516862452030182,4.275483131408691,0.3326411843299866
0.04591194912791252,4.31873893737793,0.3359777629375458
0.015747617930173874,4.439683437347412,0.34537366032600403
-0.014547583647072315,4.276118278503418,0.3326534032821655
-0.04273240268230438,4.1240363121032715,0.3208417594432831
-0.07050657272338867,4.073022365570068,0.3168661594390869
-0.0983927920460701,4.056880474090576,0.31541383266448975
-0.1284083127975464,4.114506721496582,0.3197099268436432
-0.15493613481521606,4.047357559204102,0.3143235146999359
-0.18341416120529175,4.053982734680176,0.314687043428421
-0.18600039184093475,3.56257963180542,0.2764228582382202
-0.20980535447597504,3.545671224594116,0.27495837211608887
-0.2322583943605423,3.513078451156616,0.27214351296424866
-0.2854004204273224,3.8998167514801025,0.3017924129962921
-0.30986711382865906,3.866726875305176,0.29894375801086426
-0.3330724239349365,3.821829319000244,0.2951999008655548
-0.3454430401325226,3.6682236194610596,0.28308698534965515
-0.36851534247398376,3.642528772354126,0.28079867362976074
-0.38779452443122864,3.581817626953125,0.27567875385284424
-0.42360997200012207,3.675842046737671,0.2824855446815491
-0.44899982213974,3.6728765964508057,0.28183963894844055
-0.4735192656517029,3.6619911193847656,0.2805979251861572
-0.4989990293979645,3.658655881881714,0.27994856238365173
-0.5186159014701843,3.612704277038574,0.27595028281211853
-0.539910614490509,3.586014747619629,0.27334651350975037
-0.5542293190956116,3.516871929168701,0.2675325274467468
-0.5879451036453247,3.570685386657715,0.2710844576358795
-0.6001858711242676,3.493638277053833,0.26471269130706787
-0.603151798248291,3.3705790042877197,0.2548956871032715
-1.187045931816101,6.3765435218811035,0.48105210065841675
-1.2394109964370728,6.414330959320068,0.48265305161476135
-1.2908161878585815,6.444060325622559,0.48365381360054016
-1.3408217430114746,6.461838245391846,0.4837537407875061
-0.759941577911377,3.538591146469116,0.26424020528793335
-0.7883312702178955,3.5484204292297363,0.2643020749092102
-1.2949477434158325,5.646864891052246,0.41926679015159607
-1.338754415512085,5.660811901092529,0.41896459460258484
-0.6798742413520813,2.789893388748169,0.20583213865756989
-0.6992363929748535,2.785177707672119,0.20482824742794037
-0.720893383026123,2.787775993347168,0.2043578326702118
-0.729085385799408,2.7413933277130127,0.20027746260166168
-0.7486992478370667,2.7402234077453613,0.19942831993103027
-0.7756980061531067,2.76517653465271,0.20048017799854279
-0.8075665831565857,2.804816246032715,0.20257803797721863
-0.973219633102417,3.2924182415008545,0.2368619590997696
-1.00514554977417,3.3155040740966797,0.23760731518268585
-1.0206717252731323,3.286390781402588,0.23446939885616302
-1.0381247997283936,3.2646753787994385,0.23185904324054718
-1.072216272354126,3.2947587966918945,0.23293092846870422
-1.09060537815094,3.272404432296753,0.2302478402853012
-1.1234407424926758,3.2943527698516846,0.2307070791721344
-1.1472707986831665,3.290377140045166,0.22926419973373413
-1.3329170942306519,3.741687059402466,0.2593096196651459
-1.3834482431411743,3.8023502826690674,0.26209378242492676
-1.406920313835144,3.7855560779571533,0.25949615240097046
-1.4392307996749878,3.790221929550171,0.2583405673503876
-1.4680190086364746,3.7876760959625244,0.2566588521003723
-1.4990792274475098,3.7924182415008545,0.2553640604019165
-1.5215237140655518,3.775216817855835,0.2526000142097473
-1.5563033819198608,3.786473274230957,0.25170445442199707
-2.3520405292510986,5.609324932098389,0.37036076188087463
-2.3843138217926025,5.5789642333984375,0.36580193042755127
-2.4121627807617188,5.541717052459717,0.36067044734954834
-2.4980368614196777,5.636268138885498,0.36409300565719604
-2.564168930053711,5.679561614990234,0.3640400767326355
-2.5326292514801025,5.5056281089782715,0.3500571548938751
-2.576418876647949,5.502756118774414,0.34695565700531006
-2.5961179733276367,5.450578212738037,0.3406796455383301
-2.627309560775757,5.4228668212890625,0.3359590470790863
-2.6685075759887695,5.4116740226745605,0.3321431279182434
-2.671790599822998,5.323175430297852,0.32357344031333923
-2.3949294090270996,4.694134712219238,0.2824319899082184
-1.8225765228271484,3.5148816108703613,0.20929965376853943
-1.8302022218704224,3.471453905105591,0.2044801414012909
-1.843278169631958,3.4381697177886963,0.20026051998138428
-1.8587870597839355,3.412226915359497,0.19641989469528198
-1.1995607614517212,2.167623281478882,0.12324199825525284
-1.9082205295562744,3.3941428661346436,0.19054056704044342
-1.9124784469604492,3.347062349319458,0.18540367484092712
-1.9133574962615967,3.2972075939178467,0.18011438846588135
-1.9506616592407227,3.3117337226867676,0.17831604182720184
-1.9733072519302368,3.2984747886657715,0.17487676441669464
-1.2686927318572998,2.087608575820923,0.10891479253768921
-2.6611526012420654,4.3147382736206055,0.22135205566883087
-2.6020522117614746,4.158724784851074,0.20967836678028107
-2.5782110691070557,4.058652400970459,0.20080940425395966
-2.570582389831543,3.9849932193756104,0.19324074685573578
-2.587515115737915,3.955604076385498,0.18787749111652374
-2.6135435104370117,3.9386839866638184,0.18301181495189667
-2.64093017578125,3.9206104278564453,0.1778690218925476
-2.6836917400360107,3.9295716285705566,0.17386698722839355
-2.738342523574829,3.953812599182129,0.17029808461666107
-2.8264286518096924,4.021124362945557,0.16815362870693207
-2.870086669921875,4.0287346839904785,0.16330906748771667
-2.877826452255249,3.9849891662597656,0.15619148313999176
-2.891437530517578,3.9463720321655273,0.14891068637371063
-2.920442819595337,3.9349255561828613,0.14264315366744995
-2.475517988204956,3.491448402404785,-0.1034349575638771
-2.4323954582214355,3.483419179916382,-0.10836523026227951
-2.9231221675872803,4.254843711853027,-0.13858364522457123
-2.905949115753174,4.294693946838379,-0.14566956460475922
-2.87386155128479,4.316012382507324,-0.152025043964386
-2.841925621032715,4.336886405944824,-0.15821605920791626
-2.847574234008789,4.412169456481934,-0.1661706566810608
-2.113456964492798,3.32897686958313,-0.12924472987651825
-2.080411434173584,3.3311574459075928,-0.1331285834312439
-1.2841551303863525,2.088402509689331,-0.08568647503852844
-1.2565091848373413,2.077721357345581,-0.08740918338298798
-1.999537467956543,3.3616597652435303,-0.1448407769203186
-1.9800159931182861,3.382077693939209,-0.1489635854959488
-1.9628279209136963,3.40993595123291,-0.15345966815948486
-1.2033064365386963,2.1265146732330322,-0.09768198430538177
-1.1769405603408813,2.114353656768799,-0.09898780286312103
-1.8929177522659302,3.457624912261963,-0.1648750901222229
-1.8877859115600586,3.5090813636779785,-0.170294851064682
-1.8764793872833252,3.550313949584961,-0.1752880960702896
-1.8678598403930664,3.5943119525909424,-0.18031741678714752
-2.5270934104919434,4.9489030838012695,-0.2521200478076935
-2.4978675842285156,4.9809441566467285,-0.25754567980766296
-2.470893621444702,5.015897750854492,-0.26306968927383423
-2.442020893096924,5.047119140625,-0.2684166133403778
-2.412381649017334,5.07839822769165,-0.27363333106040955
-2.391918182373047,5.130906581878662,-0.27999556064605713
-1.558436393737793,3.4056396484375,-0.18812862038612366
-1.5218758583068848,3.3877921104431152,-0.1893705129623413
-1.4819060564041138,3.362724781036377,-0.19009742140769958
-1.4633632898330688,3.387683868408203,-0.19364692270755768
-1.4453694820404053,3.4121992588043213,-0.19712750613689423
-1.430501937866211,3.4436633586883545,-0.20100614428520203
-1.4060389995574951,3.453573226928711,-0.20357640087604523
-1.3609089851379395,3.4127390384674072,-0.2030695676803589
-1.3332537412643433,3.415116786956787,-0.2051285207271576
-1.31220281124115,3.4314682483673096,-0.2079601287841797
-1.2880841493606567,3.440450429916382,-0.21033106744289398
-1.284851312637329,3.508044958114624,-0.2162095606327057
-1.2793993949890137,3.5720889568328857,-0.2219369113445282
-1.2616957426071167,3.603034496307373,-0.22564370930194855
-1.2441601753234863,3.633721351623535,-0.22932954132556915
-1.2183555364608765,3.6423165798187256,-0.231515035033226
-1.1959764957427979,3.661896228790283,-0.23437641561031342
-0.9959761500358582,3.1240601539611816,-0.20132337510585785
-0.9691891074180603,3.116028070449829,-0.20217999815940857
-0.9473485350608826,3.1226232051849365,-0.20393681526184082
-0.8079509139060974,2.732888698577881,-0.1795450896024704
-0.7852525115013123,2.727234363555908,-0.18023769557476044
-0.7661245465278625,2.7325761318206787,-0.18164554238319397
-0.7409380674362183,2.7151830196380615,-0.1815348118543625
-0.7234871983528137,2.7278618812561035,-0.18337923288345337
-0.7129009962081909,2.7668051719665527,-0.1869240403175354
-0.6809679865837097,2.722548007965088,-0.18485310673713684
-1.4729254245758057,6.067890644073486,-0.41401728987693787
-1.4716547727584839,6.252347469329834,-0.4287059009075165
-1.4431474208831787,6.334783554077148,-0.43626391887664795
-1.3965636491775513,6.337062835693359,-0.4382225275039673
-1.34612238407135,6.3199076652526855,-0.4388427436351776
-1.298994779586792,6.313679218292236,-0.440204918384552
-1.2460018396377563,6.2765116691589355,-0.4394114911556244
-0.9303788542747498,4.868868827819824,-0.34203681349754333
-0.8897727131843567,4.840686321258545,-0.34118977189064026
-0.8462632298469543,4.792981147766113,-0.3389613926410675
-0.805707573890686,4.756387710571289,-0.3375028371810913
-0.7638306021690369,4.707924842834473,-0.33519551157951355
-0.7247359752655029,4.678528308868408,-0.3339742422103882
-0.6883763670921326,4.660297393798828,-0.333539754152298
-0.6557256579399109,4.664916515350342,-0.3347484767436981
-0.6243196725845337,4.676999568939209,-0.3365038335323334
-0.5918359756469727,4.6811347007751465,-0.337698370218277
-0.5618035793304443,4.708312034606934,-0.3402833938598633
-0.530443549156189,4.731484889984131,-0.34261196851730347
-0.49818849563598633,4.7427592277526855,-0.34408751130104065
-0.45790526270866394,4.672377109527588,-0.33964458107948303
-0.4370243549346924,4.803425312042236,-0.3498677611351013
-0.40693244338035583,4.8490309715271,-0.35359734296798706
-0.3780438303947449,4.925567150115967,-0.3596158027648926
-0.24442245066165924,3.5055954456329346,-0.2562614381313324
-0.21957670152187347,3.4994001388549805,-0.25613582134246826
-0.3184953033924103,5.710207462310791,-0.4185079038143158
-0.27755072712898254,5.688912868499756,-0.4171772301197052
-0.23653025925159454,5.675143241882324,-0.41639989614486694
-0.19601769745349884,5.649373531341553,-0.41475677490234375
-0.1558677703142166,5.619419574737549,-0.4128231406211853
-0.11609430611133575,5.589183807373047,-0.41088610887527466
-0.07692771404981613,5.570376873016357,-0.409492552280426
-0.03709656000137329,5.516243934631348,-0.405470609664917
0.0010303411399945617,4.382708549499512,-0.3221328854560852
0.028919029980897903,4.024197578430176,-0.2957802712917328
0.07731623947620392,5.465179443359375,-0.40171030163764954
0.11478476226329803,5.441162586212158,-0.39970654249191284
0.15191584825515747,5.416895389556885,-0.397622674703598
0.18651431798934937,5.310592174530029,-0.38953810930252075
0.22126339375972748,5.258594512939453,-0.38546890020370483
0.20870468020439148,4.256930828094482,-0.31185296177864075
0.2399447113275528,4.286534309387207,-0.3136661946773529
0.2661913335323334,4.230375289916992,-0.30913376808166504
0.2954167127609253,4.220664978027344,-0.3080098628997803
0.32354772090911865,4.203011989593506,-0.30632877349853516
0.354055792093277,4.216230869293213,-0.3069126009941101
0.4556526243686676,5.0091328620910645,-0.36400893330574036
0.4917924404144287,5.0214433670043945,-0.364162415266037
0.5100210309028625,4.855186939239502,-0.3513921797275543
0.5072956681251526,4.526347637176514,-0.32695114612579346
0.5465725064277649,4.588548183441162,-0.3308088779449463
0.5822249054908752,4.615655422210693,-0.3319946229457855
0.6284476518630981,4.719759464263916,-0.33857277035713196
0.6865113973617554,4.892813205718994,-0.35004109144210815
0.7187538743019104,4.876455307006836,-0.3479551374912262
0.7526724338531494,4.871425151824951,-0.34669414162635803
0.7851059436798096,4.858508110046387,-0.3447504937648773
0.34868261218070984,2.0672714710235596,-0.1461954116821289
0.36762166023254395,2.091736078262329,-0.1474318951368332
0.3788966238498688,2.0699658393859863,-0.1454014927148819
0.3932933807373047,2.0673255920410156,-0.1447344273328781
0.4083380699157715,2.068429708480835,-0.14427752792835236
0.4240911900997162,2.073268175125122,-0.14402712881565094
0.4278389513492584,2.020792007446289,-0.13981297612190247
0.4562983512878418,2.082491397857666,-0.14348435401916504
0.4776485562324524,2.1097347736358643,-0.1447717249393463
0.4850859045982361,2.0760889053344727,-0.14182168245315552
1.126416802406311,4.676061630249023,-0.3178815245628357
1.1546627283096313,4.6532440185546875,-0.3148003816604614
1.1837409734725952,4.629982948303223,-0.31166210770606995
1.2119654417037964,4.606693267822266,-0.3085751533508301
1.238504409790039,4.579590320587158,-0.30509695410728455
1.2698144912719727,4.571159362792969,-0.3028135895729065
1.2946902513504028,4.540009498596191,-0.29904571175575256
1.3268544673919678,4.530868053436279,-0.29669106006622314
1.351662516593933,4.499261379241943,-0.29291900992393494
1.3823878765106201,4.490077018737793,-0.2904359996318817
1.4106556177139282,4.473261833190918,-0.2874598801136017
1.4329841136932373,4.437648296356201,-0.28328990936279297
1.461903691291809,4.420156002044678,-0.2802494466304779
1.4899767637252808,4.4027018547058105,-0.2772185802459717
1.5147303342819214,4.3779144287109375,-0.2736061215400696
1.2675126791000366,3.5846002101898193,-0.22234907746315002
1.2949506044387817,3.5832130908966064,-0.22055551409721375
1.5846877098083496,4.291280269622803,-0.26208245754241943
1.6145515441894531,4.280308246612549,-0.2592169940471649
1.6449458599090576,4.273072719573975,-0.25656118988990784
1.6769055128097534,4.2691874504089355,-0.25410014390945435
1.7065765857696533,4.257589340209961,-0.25114303827285767
1.736024022102356,4.245841979980469,-0.24816492199897766
1.7545924186706543,4.208817958831787,-0.24356494843959808
1.785994052886963,4.204244136810303,-0.24090445041656494
1.8119959831237793,4.184782981872559,-0.23733599483966827
1.834818720817566,4.157955646514893,-0.2333606332540512
1.862929344177246,4.145618438720703,-0.23011836409568787
1.881535530090332,4.111660957336426,-0.2256307452917099
1.9130040407180786,4.105905532836914,-0.22270484268665314
1.934889793395996,4.078551769256592,-0.2185816466808319
1.9524065256118774,4.044397354125977,-0.21405649185180664
1.9828916788101196,4.038414478302002,-0.2109985500574112
2.0212795734405518,4.045712471008301,-0.20853114128112793
2.045883893966675,4.024755954742432,-0.2045905590057373
2.060616970062256,3.9866902828216553,-0.19976305961608887
2.0834646224975586,3.966163158416748,-0.19581367075443268
2.1104063987731934,3.9520742893218994,-0.1921292245388031
2.1342034339904785,3.930577039718628,-0.1880233883857727
2.1497645378112793,3.895545721054077,-0.18319310247898102
2.139263153076172,3.816707134246826,-0.1764122098684311
2.1615188121795654,3.7953429222106934,-0.17224568128585815
2.191803455352783,3.7871334552764893,-0.1686345785856247
2.2206218242645264,3.779539108276367,-0.16498950123786926
2.2420153617858887,3.757974863052368,-0.1606641709804535
2.2681288719177246,3.7424488067626953,-0.1564939171075821
2.2892303466796875,3.7205870151519775,-0.15204769372940063
2.30107045173645,3.685858726501465,-0.14708364009857178
2.3345916271209717,3.6833930015563965,-0.14324961602687836
2.3602921962738037,3.6671509742736816,-0.13872748613357544
2.37975811958313,3.645392894744873,-0.13405746221542358
2.399956703186035,3.6229302883148193,-0.1292305588722229
2.4249062538146973,3.6064453125,-0.124488964676857
2.452401876449585,3.5974206924438477,-0.11998706310987473
2.4636282920837402,3.5614545345306396,-0.11433052271604538
2.4788012504577637,3.5320050716400146,-0.10884076356887817
2.5056686401367188,3.522737503051758,-0.10398721694946289
2.548036575317383,3.530972957611084,-0.09923772513866425
2.605461835861206,3.5618114471435547,-0.09494481235742569
2.1842029094696045,2.945805072784424,-0.07405605167150497
2.6993885040283203,3.781992197036743,0.13344883918762207
2.6636710166931152,3.7879512310028076,0.1386789083480835
2.65185284614563,3.834061861038208,0.14533935487270355
2.6197147369384766,3.846445322036743,0.15039139986038208
2.5917224884033203,3.865159273147583,0.1555088460445404
2.5619232654571533,3.8847672939300537,0.16061018407344818
2.593416929244995,3.99458646774292,0.16926944255828857
2.581246852874756,4.039369106292725,0.17513421177864075
2.558767557144165,4.0718913078308105,0.18045929074287415
2.525552272796631,4.083199977874756,0.18461917340755463
2.4925661087036133,4.094085216522217,0.18866227567195892
2.4571239948272705,4.106156826019287,0.19271378219127655
2.426923990249634,4.123880863189697,0.19688956439495087
2.4059083461761475,4.154036045074463,0.201515793800354
2.391014337539673,4.198402404785156,0.20678716897964478
2.3519363403320312,4.202343463897705,0.21004226803779602
2.259302854537964,4.106278896331787,0.20813101530075073
2.2306108474731445,4.121753692626953,0.2116926610469818
2.207622528076172,4.151618003845215,0.21589748561382294
2.1876790523529053,4.188410758972168,0.22047269344329834
2.150787353515625,4.189761161804199,0.2230883240699768
2.1280128955841064,4.218682289123535,0.2271859049797058
2.1041245460510254,4.247897148132324,0.23115116357803345
2.072772741317749,4.2631096839904785,0.2343427687883377
2.045661687850952,4.284662246704102,0.23782488703727722
2.015798568725586,4.298624038696289,0.24084414541721344
1.985056757926941,4.312741279602051,0.24379922449588776
1.9673881530761719,4.359211444854736,0.24856017529964447
1.9909725189208984,4.498051166534424,0.2586255371570587
1.9626752138137817,4.518812656402588,0.261893630027771
1.9387342929840088,4.55017614364624,0.26580286026000977
1.9010593891143799,4.553208827972412,0.2678753435611725
1.8716676235198975,4.577851295471191,0.2712668776512146
1.837613821029663,4.587268829345703,0.27369388937950134
1.8098814487457275,4.610698223114014,0.27693554759025574
1.7676225900650024,4.597674369812012,0.27794143557548523
1.7397834062576294,4.624804973602295,0.2812420427799225
1.3354700803756714,3.6308131217956543,0.22212614119052887
1.3045402765274048,3.6253535747528076,0.22306963801383972
1.2766300439834595,3.626896858215332,0.22443291544914246
1.6430964469909668,4.775075912475586,0.29707953333854675
1.6110894680023193,4.79406213760376,0.29972341656684875
1.5782814025878906,4.813031196594238,0.30241256952285767
1.5348412990570068,4.794182300567627,0.30267298221588135
1.515351414680481,4.849288463592529,0.3076067268848419
1.4836056232452393,4.867116451263428,0.3101513683795929
1.4375417232513428,4.840138912200928,0.3096763491630554
1.4136521816253662,4.887648582458496,0.31398144364356995
1.37840735912323,4.897580623626709,0.3159051537513733
1.3484065532684326,4.921976089477539,0.31873786449432373
1.2870116233825684,4.829409599304199,0.3139893412590027
1.2564131021499634,4.853465557098389,0.31657958030700684
1.226499080657959,4.881107330322266,0.3194156587123871
1.198503851890564,4.9200544357299805,0.3230339586734772
1.1678028106689453,4.943351745605469,0.32560959458351135
1.1368350982666016,4.966457843780518,0.32819482684135437
1.1035202741622925,4.981855392456055,0.3301565945148468
1.0712897777557373,5.004742622375488,0.3325214385986328
1.0358827114105225,5.016079425811768,0.3341522514820099
1.0082550048828125,5.061367511749268,0.33804377913475037
0.9730427265167236,5.068165302276611,0.33937907218933105
2.12406849861145,11.494793891906738,0.7717583775520325
2.018894910812378,11.375041007995605,0.7651710510253906
1.9042531251907349,11.19699478149414,0.7546815276145935
1.8036186695098877,11.079242706298828,0.7482262849807739
1.7031704187393188,10.941163063049316,0.740369975566864
1.5978574752807617,10.755970001220703,0.7293145060539246
1.5095129013061523,10.674123764038086,0.7250780463218689
1.4075205326080322,10.495282173156738,0.7139077186584473
1.320324182510376,10.400431632995605,0.7084408402442932
1.2375240325927734,10.328073501586914,0.7045204043388367
1.1520591974258423,10.216275215148926,0.697915256023407
1.068211317062378,10.103793144226074,0.691273033618927
0.9901896119117737,10.037248611450195,0.687475323677063
0.3921341896057129,4.288492679595947,0.2939789295196533
0.3603969216346741,4.271691799163818,0.29308557510375977
0.3299461603164673,4.2663044929504395,0.2929868698120117
0.3013593256473541,4.284016132354736,0.2944880723953247
0.276775598526001,4.367650508880615,0.30054137110710144
0.24768973886966705,4.404507160186768,0.30322086811065674
0.2161557525396347,4.390545845031738,0.3023655116558075
0.1817045360803604,4.30238151550293,0.29641202092170715
0.11846289783716202,4.1876020431518555,0.28877532482147217
0.08924097567796707,4.207801818847656,0.29032814502716064
0.060996849089860916,4.286254405975342,0.2956950068473816
0.031619228422641754,4.352823734283447,0.3002415597438812
0.0012358848471194506,4.294485092163086,0.2961866855621338
-0.028063161298632622,4.208659648895264,0.290251225233078
-0.0557115338742733,4.052492141723633,0.27947917580604553
-0.08389372378587723,4.052009105682373,0.2794432044029236
-0.13730692863464355,3.9686977863311768,0.273343950510025
-0.17104126513004303,4.1156229972839355,0.2833001911640167
-0.19398076832294464,3.9975767135620117,0.2750290036201477
-0.1960706114768982,3.525301933288574,0.24241849780082703
-0.2220059335231781,3.547208547592163,0.24378368258476257
-0.25570759177207947,3.6777992248535156,0.2524668872356415
-0.30162540078163147,3.9440925121307373,0.2704467475414276
-0.32077786326408386,3.844851493835449,0.26336145401000977
-0.34199514985084534,3.7765326499938965,0.25841251015663147
-0.35571667551994324,3.646094799041748,0.249243825674057
-0.3764842450618744,3.600940227508545,0.24586613476276398
-0.4138036072254181,3.710627555847168,0.2529372572898865
-0.4434411823749542,3.742567539215088,0.2547048032283783
-0.46241286396980286,3.6813998222351074,0.25014227628707886
-0.4838806092739105,3.647230386734009,0.2474399209022522
-0.5032778382301331,3.601361036300659,0.24396327137947083
-0.5280861258506775,3.597853183746338,0.2432805746793747
-0.5503774881362915,3.5787899494171143,0.24147140979766846
-0.569141685962677,3.536433696746826,0.2381010502576828
-0.5915845036506653,3.5209436416625977,0.23656395077705383
-0.5898042917251587,3.3670670986175537,0.2257591336965561
-1.1565123796463013,6.342403411865234,0.4243921935558319
-1.2094305753707886,6.384213924407959,0.426107794046402
-1.2636150121688843,6.429447650909424,0.4279783368110657
-1.3152803182601929,6.455000400543213,0.4285253882408142
-1.3760865926742554,6.522126197814941,0.43183672428131104
-0.7879989743232727,3.6104495525360107,0.23842571675777435
-0.8053429126739502,3.5707294940948486,0.23517556488513947
-1.2395808696746826,5.326977729797363,0.34969115257263184
-1.272831916809082,5.303208827972412,0.34697332978248596
-0.6970723271369934,2.819448947906494,0.1838688999414444
-0.7090089917182922,2.784358501434326,0.18098285794258118
-0.7264207005500793,2.7718663215637207,0.17958258092403412
-0.7393780946731567,2.7442822456359863,0.1771480143070221
-0.760404109954834,2.746689558029175,0.1765894740819931
-0.7897161245346069,2.779026746749878,0.1779635101556778
-0.9682177901268005,3.320068359375,0.21176375448703766
-0.9800865054130554,3.2759878635406494,0.2081162929534912
-1.0050371885299683,3.276657819747925,0.2073131799697876
-1.0228360891342163,3.254890203475952,0.20495839416980743
-1.0591061115264893,3.2925448417663574,0.20636306703090668
-1.1046768426895142,3.3557162284851074,0.209333598613739
-1.1018518209457397,3.2704379558563232,0.20303498208522797
-1.1144136190414429,3.233288288116455,0.1997661590576172
-1.1570055484771729,3.284616231918335,0.20184533298015594
-1.3537991046905518,3.761073350906372,0.2298276722431183
-1.3912529945373535,3.784909248352051,0.2300020456314087
-1.4230377674102783,3.7898576259613037,0.22898316383361816
-1.4549580812454224,3.794546127319336,0.22794954478740692
-1.4806369543075562,3.7847201824188232,0.22594326734542847
-1.5092921257019043,3.7819085121154785,0.22429175674915314
-1.5375620126724243,3.779048442840576,0.22266589105129242
-1.5698410272598267,3.782778024673462,0.22137323021888733
-2.3623242378234863,5.582368850708008,0.3244589567184448
-2.399928569793701,5.566498279571533,0.32114848494529724
-2.4313855171203613,5.5359883308410645,0.3169194161891937
-2.5083675384521484,5.60873556137085,0.3186066448688507
-2.573259115219116,5.648126125335693,0.31825897097587585
-2.5648982524871826,5.527650356292725,0.3089365065097809
-2.5848820209503174,5.475426197052002,0.30330944061279297
-2.5964248180389404,5.40531587600708,0.296705037355423
-2.626396894454956,5.373653411865234,0.29222750663757324
-1.7705928087234497,3.5598273277282715,0.19173601269721985
-1.7911914587020874,3.5409011840820312,0.18881197273731232
-1.8020260334014893,3.504852294921875,0.18493999540805817
-1.8180365562438965,3.4791085720062256,0.18162822723388672
-1.8316614627838135,3.4456043243408203,0.17780868709087372
-1.8553918600082397,3.43302321434021,0.17510686814785004
-1.1680246591567993,2.127817153930664,0.1072063148021698
-1.1895616054534912,2.1338284015655518,0.10617274045944214
-1.9200438261032104,3.388742208480835,0.1663573980331421
-1.9204869270324707,3.334697723388672,0.16141827404499054
-1.9461086988449097,3.328996181488037,0.15880697965621948
-1.9578163623809814,3.2995920181274414,0.1550765037536621
-1.2452595233917236,2.065889596939087,0.09553105384111404
-1.267459511756897,2.070762872695923,0.09417106211185455
-2.529097318649292,4.071926116943359,0.18192531168460846
-2.5372555255889893,4.025557518005371,0.17659424245357513
-2.565251588821411,4.00795841217041,0.17238348722457886
-2.5830142498016357,3.978109359741211,0.16760338842868805
-2.5826711654663086,3.922537326812744,0.16177187860012054
-2.623239278793335,3.923919200897217,0.15796402096748352
-2.6670143604278564,3.932279348373413,0.15440243482589722
-2.72510027885437,3.9637088775634766,0.15164005756378174
-2.7900516986846924,3.999655246734619,0.1486489474773407
-2.8572630882263184,4.038518905639648,0.1455259621143341
-2.8829352855682373,4.02042293548584,0.14017318189144135
-2.887615442276001,3.9690728187561035,0.13331885635852814
-2.9036521911621094,3.9381561279296875,0.12714527547359467
-3.0008254051208496,4.201286792755127,-0.10851513594388962
-2.4544715881347656,3.4874284267425537,-0.09469877928495407
-2.432300329208374,3.512291669845581,-0.0999520793557167
-2.9038875102996826,4.258916854858398,-0.12640202045440674
-2.8949406147003174,4.311949253082275,-0.13299144804477692
-2.866361379623413,4.340184688568115,-0.13885273039340973
-2.8096923828125,4.3211259841918945,-0.14287836849689484
-2.8646295070648193,4.4760236740112305,-0.15260425209999084
-2.0967419147491455,3.330751419067383,-0.11693741381168365
-1.2752693891525269,2.057586908340454,-0.07417837530374527
-1.2685238122940063,2.0799851417541504,-0.07691331952810287
-2.0035011768341064,3.3418185710906982,-0.12667712569236755
-1.9878026247024536,3.3691937923431396,-0.13060398399829865
-1.9816290140151978,3.4133858680725098,-0.13517539203166962
-1.1920199394226074,2.0885403156280518,-0.08442117273807526
-1.207484245300293,2.151474952697754,-0.08867984265089035
-1.893886923789978,3.431257486343384,-0.14410799741744995
-1.8651862144470215,3.4379312992095947,-0.1469520777463913
-1.8894139528274536,3.544431686401367,-0.15411388874053955
-1.880761981010437,3.5886054039001465,-0.15854689478874207
-1.8699032068252563,3.6293013095855713,-0.16285045444965363
-2.5194714069366455,4.980311393737793,-0.22684305906295776
-2.4831624031066895,4.998325347900391,-0.23096872866153717
-2.4533846378326416,5.0258564949035645,-0.23541472852230072
-2.4348349571228027,5.078000068664551,-0.24102504551410675
-2.4078433513641357,5.116559028625488,-0.24593234062194824
-2.380566120147705,5.154921054840088,-0.25085631012916565
-1.5497642755508423,3.419214963912964,-0.16838650405406952
-1.509889006614685,3.3942229747772217,-0.16907742619514465
-1.472826600074768,3.3763198852539062,-0.17000560462474823
-1.454539179801941,3.401101589202881,-0.1730824112892151
-1.4338210821151733,3.4182355403900146,-0.17572587728500366
-1.4214001893997192,3.4570727348327637,-0.17954497039318085
-1.3906432390213013,3.4526255130767822,-0.18098829686641693
-1.3442761898040771,3.407991886138916,-0.18030104041099548
-1.3202598094940186,3.417255401611328,-0.1824108511209488
-1.296417236328125,3.426259756088257,-0.1844998002052307
-1.2838224172592163,3.4683523178100586,-0.18832887709140778
-1.2669007778167725,3.4993646144866943,-0.19151343405246735
-1.2537295818328857,3.5412628650665283,-0.1953137069940567
-1.2417576313018799,3.5866763591766357,-0.19932006299495697
-1.2266258001327515,3.6247305870056152,-0.20292846858501434
-1.2087836265563965,3.6593799591064453,-0.20628851652145386
-1.1802095174789429,3.660393476486206,-0.20774489641189575
-0.9754049181938171,3.0992164611816406,-0.17705930769443512
-0.9630016684532166,3.135660409927368,-0.18031437695026398
-0.9017221331596375,3.0115113258361816,-0.17423023283481598
-0.8005759716033936,2.744440793991089,-0.15969285368919373
-0.7765018939971924,2.735062599182129,-0.16007621586322784
-0.7522233724594116,2.7215423583984375,-0.16018277406692505
-0.737285852432251,2.741712808609009,-0.16227886080741882
-0.7119277715682983,2.72416353225708,-0.16203294694423676
-0.7050358057022095,2.7782247066497803,-0.16604530811309814
-1.4950549602508545,6.073697566986084,-0.3647777736186981
-1.4699227809906006,6.155888080596924,-0.37147006392478943
-1.45773446559906,6.298812389373779,-0.3818812370300293
-1.4190993309020996,6.335475444793701,-0.3856227397918701
-1.3684628009796143,6.318550109863281,-0.3861217200756073
-1.320151925086975,6.312756538391113,-0.387323260307312
-1.2715898752212524,6.29872465133667,-0.38798967003822327
-1.217963695526123,6.2575578689575195,-0.38692647218704224
-0.9132199287414551,4.8747382164001465,-0.30237719416618347
-0.869860053062439,4.831085205078125,-0.3006284534931183
-0.8255001306533813,4.779439449310303,-0.2983854413032532
-0.785887598991394,4.746516227722168,-0.2972838878631592
-0.7442585229873657,4.697888374328613,-0.2951381802558899
-0.7060000896453857,4.668240547180176,-0.29398396611213684
-0.6720452904701233,4.66530704498291,-0.2945210337638855
-0.6399105787277222,4.677628040313721,-0.29604408144950867
-0.6103431582450867,4.70510196685791,-0.29852989315986633
-0.5789470672607422,4.720790386199951,-0.30023714900016785
-0.5453571081161499,4.720815181732178,-0.3007597327232361
-0.5151567459106445,4.751606464385986,-0.303259938955307
-0.48354148864746094,4.770552635192871,-0.3050209879875183
-0.4399664103984833,4.669007778167725,-0.2990887761116028
-0.4200325310230255,4.815598487854004,-0.30902743339538574
-0.3923381567001343,4.892210006713867,-0.3142760396003723
-0.25545236468315125,3.491286277770996,-0.2245287001132965
-0.23111414909362793,3.4929583072662354,-0.22489449381828308
-0.20868869125843048,3.5333962440490723,-0.2277744561433792
-0.2980799376964569,5.722538471221924,-0.3693457543849945
-0.25669345259666443,5.693309783935547,-0.36761385202407837
-0.21607756614685059,5.671572208404541,-0.36638185381889343
-0.1754138171672821,5.637857437133789,-0.3643920421600342
-0.1347719430923462,5.607763767242432,-0.3626546859741211
-0.09534797817468643,5.585163116455078,-0.3614141643047333
-0.05628452077507973,5.573998928070068,-0.36064717173576355
-0.013995866291224957,4.467203140258789,-0.2889854311943054
0.016876358538866043,4.404825210571289,-0.2849145233631134
0.059423528611660004,5.445330619812012,-0.3521895110607147
0.09757465124130249,5.460378170013428,-0.35315316915512085
0.10140866041183472,4.083971977233887,-0.2639614939689636
0.17089110612869263,5.376715183258057,-0.34722909331321716
0.2050711065530777,5.29362154006958,-0.341596782207489
0.19503965973854065,4.267941474914551,-0.27520838379859924
0.22641529142856598,4.28983211517334,-0.2764277458190918
0.25684654712677,4.299860000610352,-0.27675512433052063
0.28168031573295593,4.224109649658203,-0.2714880704879761
0.310879647731781,4.2220940589904785,-0.2709803283214569
0.33896225690841675,4.20432186126709,-0.2694737911224365
0.3714255392551422,4.2329182624816895,-0.270944744348526
0.476859450340271,5.0336480140686035,-0.32166218757629395
0.5093023180961609,5.007014274597168,-0.31929683685302734
0.49164339900016785,4.522854328155518,-0.2878364324569702
0.5288670659065247,4.569726467132568,-0.29023781418800354
0.566863477230072,4.612359046936035,-0.29236161708831787
0.6093762516975403,4.689563274383545,-0.2965933382511139
0.672916829586029,4.913209438323975,-0.30989035964012146
0.7040081024169922,4.889228343963623,-0.3075474798679352
0.7355116009712219,4.868887901306152,-0.30545100569725037
0.76871258020401,4.855933666229248,-0.3038192391395569
0.793429434299469,4.7967143058776855,-0.2992609143257141
0.8396430015563965,4.868074417114258,-0.3026830852031708
0.8806726932525635,4.904485702514648,-0.3039214313030243
0.3850313425064087,2.0620615482330322,-0.1273524910211563
0.4075268507003784,2.1014766693115234,-0.1293526291847229
0.42233526706695557,2.098590135574341,-0.12871034443378448
0.42956581711769104,2.061330795288086,-0.12590299546718597
1.0295488834381104,4.77619743347168,-0.2905234694480896
1.0574567317962646,4.746227264404297,-0.2875097692012787
1.0825790166854858,4.704653263092041,-0.28381386399269104
1.1102454662322998,4.674258708953857,-0.28073978424072266
1.1422253847122192,4.666656017303467,-0.27892813086509705
1.1722075939178467,4.651279926300049,-0.27666884660720825
1.2004276514053345,4.6280717849731445,-0.27394840121269226
1.2255616188049316,4.593338489532471,-0.2705628275871277
1.2577910423278809,4.584731578826904,-0.2686309516429901
1.289063811302185,4.576155185699463,-0.2666146755218506
1.3159457445144653,4.552377223968506,-0.26373007893562317
1.3408335447311401,4.520823001861572,-0.26039624214172363
1.3677666187286377,4.496560096740723,-0.25750023126602173
1.3991870880126953,4.487006664276123,-0.255323201417923
1.4273443222045898,4.470066070556641,-0.25269123911857605
1.45298433303833,4.445510387420654,-0.24964483082294464
1.4802039861679077,4.424309253692627,-0.24677495658397675
1.5084261894226074,4.406646251678467,-0.24412333965301514
1.266542911529541,3.6194825172424316,-0.19903600215911865
1.2836358547210693,3.5887160301208496,-0.19583851099014282
1.3109074831008911,3.587259531021118,-0.19426633417606354
1.6074315309524536,4.305464267730713,-0.23134201765060425
1.639947533607483,4.3016676902771,-0.22927820682525635
1.666252613067627,4.283310890197754,-0.22633498907089233
1.6899641752243042,4.257360935211182,-0.22298000752925873
1.72238028049469,4.252906799316406,-0.2207515686750412
1.748921513557434,4.2337541580200195,-0.2177664190530777
1.7760494947433472,4.218350410461426,-0.21488551795482635
1.7920726537704468,4.177760601043701,-0.21072661876678467
1.8211215734481812,4.165319919586182,-0.20793771743774414
1.8532593250274658,4.159804821014404,-0.20550096035003662
1.8816821575164795,4.147164821624756,-0.2026607096195221
1.9029220342636108,4.120415210723877,-0.19908437132835388
1.9240925312042236,4.093469142913818,-0.1955062597990036
1.9496684074401855,4.072841167449951,-0.19214244186878204
1.977638840675354,4.059473991394043,-0.1891508251428604
2.0046873092651367,4.04632568359375,-0.18611624836921692
2.031730890274048,4.032954216003418,-0.18307220935821533
2.0526418685913086,4.004958152770996,-0.17928412556648254
2.0765631198883057,3.983947515487671,-0.17581017315387726
2.097977876663208,3.9596071243286133,-0.17209918797016144
2.129976987838745,3.955930471420288,-0.1693224161863327
2.1293435096740723,3.8897905349731445,-0.1638031005859375
2.1387202739715576,3.8446271419525146,-0.1592094898223877
2.144829511642456,3.7965848445892334,-0.1545107662677765
2.17863392829895,3.7954423427581787,-0.15162916481494904
2.197187662124634,3.7668025493621826,-0.14761260151863098
2.234269142150879,3.772313117980957,-0.14489760994911194
2.2429215908050537,3.7309117317199707,-0.1403815746307373
2.2767539024353027,3.7288100719451904,-0.13721397519111633
2.298539400100708,3.7063722610473633,-0.1332097053527832
2.3184876441955566,3.684835195541382,-0.12928417325019836
2.3474009037017822,3.675884962081909,-0.12570731341838837
2.3771984577178955,3.6661298274993896,-0.1219765692949295
2.3879406452178955,3.631263017654419,-0.11739891022443771
2.416675567626953,3.6217265129089355,-0.11350872367620468
2.4461774826049805,3.6114342212677,-0.10947028547525406
2.464792251586914,3.5894107818603516,-0.10506986081600189
2.475121021270752,3.5539045333862305,-0.100161112844944
2.5265016555786133,3.575230360031128,-0.09663089364767075
2.5448801517486572,3.5526914596557617,-0.09180102497339249
2.578174591064453,3.548058032989502,-0.08718109875917435
2.1703619956970215,2.94645094871521,-0.06854790449142456
2.6814591884613037,3.7856953144073486,0.11699643731117249
2.668339490890503,3.823406934738159,0.12249123305082321
2.629884719848633,3.83086895942688,0.12696655094623566
2.59692120552063,3.84371280670166,0.13142700493335724
2.569481134414673,3.8619587421417236,0.1358014941215515
2.5484018325805664,3.894423723220825,0.14063692092895508
2.5245301723480225,3.919081926345825,0.144997701048851
2.488293409347534,3.9235589504241943,0.1484944224357605
2.4723961353302,3.965683937072754,0.15342546999454498
2.488447666168213,4.05659294128418,0.16013239324092865
2.443960666656494,4.046960830688477,0.1627892255783081
2.4396893978118896,4.108523368835449,0.1682344526052475
2.428618907928467,4.160190582275391,0.17331866919994354
2.395163059234619,4.170392990112305,0.1765550971031189
2.3730452060699463,4.200814247131348,0.18057259917259216
2.298140525817871,4.139718055725098,0.18054842948913574
2.249260902404785,4.121923446655273,0.1822945922613144
2.2241885662078857,4.144230365753174,0.1856989860534668
2.1975040435791016,4.167128562927246,0.18911899626255035
2.166656970977783,4.183113098144531,0.19213509559631348
2.1434812545776367,4.212424278259277,0.19572873413562775
2.1175601482391357,4.234108924865723,0.1989113837480545
2.080413579940796,4.234965801239014,0.20106081664562225
2.055464029312134,4.264334201812744,0.2045326828956604
2.0344583988189697,4.3001813888549805,0.2082831710577011
2.0011253356933594,4.307062149047852,0.2105679214000702
1.9675911664962769,4.313779354095459,0.21282599866390228
2.009289026260376,4.491786003112793,0.22347144782543182
1.9732894897460938,4.499067306518555,0.22569780051708221
1.9317444562911987,4.491459369659424,0.22714217007160187
1.9003822803497314,4.504693984985352,0.2295936644077301
1.8890055418014526,4.56852388381958,0.23455195128917694
1.8689634799957275,4.6145477294921875,0.23857666552066803
1.822615623474121,4.59517240524292,0.2392248958349228
1.8026944398880005,4.64059591293335,0.2432277798652649
1.7730623483657837,4.660228252410889,0.24587765336036682
1.3637733459472656,3.6636319160461426,0.1944461464881897
1.3212093114852905,3.6293256282806396,0.1937529593706131
1.289995551109314,3.6238908767700195,0.19457925856113434
1.2629958391189575,3.6291725635528564,0.19597557187080383
1.6058542728424072,4.719902515411377,0.25630268454551697
1.571890950202942,4.73121976852417,0.2581721842288971
1.5354094505310059,4.734881401062012,0.2596298158168793
1.5063612461090088,4.760470390319824,0.26229238510131836
1.4990581274032593,4.856648921966553,0.26887771487236023
1.4652310609817505,4.866859436035156,0.27071645855903625
1.4447115659713745,4.925764083862305,0.27510467171669006
1.4094200134277344,4.935884952545166,0.2767643332481384
1.386679768562317,4.990825653076172,0.2809584438800812
1.3010036945343018,4.812002658843994,0.27194780111312866
1.2728838920593262,4.843628406524658,0.2748247981071472
1.2425363063812256,4.867522239685059,0.2771380543708801
1.2124825716018677,4.8951096534729,0.279601514339447
1.18123459815979,4.918710708618164,0.281856507062912
1.1485095024108887,4.934384822845459,0.2836609184741974
1.1169589757919312,4.957535743713379,0.2859233319759369
1.0889302492141724,4.995628833770752,0.28900599479675293
1.055846095085144,5.014616012573242,0.2908264398574829
1.0201687812805176,5.021928310394287,0.2919870913028717
0.9921795725822449,5.067211151123047,0.2953706681728363
2.182685375213623,11.581382751464844,0.6768352389335632
2.0706911087036133,11.423471450805664,0.669331967830658
1.953534483909607,11.226310729980469,0.6591487526893616
1.8541494607925415,11.120491981506348,0.6541674733161926
1.7575889825820923,11.021538734436035,0.6495969295501709
1.6569181680679321,10.88713550567627,0.6429452300071716
1.556484580039978,10.728484153747559,0.6348296403884888
1.4620091915130615,10.596024513244629,0.6282254457473755
1.3701319694519043,10.47451400756836,0.621833860874176
1.2796653509140015,10.348361015319824,0.6151752471923828
1.1922935247421265,10.23309326171875,0.6091742515563965
1.1084251403808594,10.136530876159668,0.6043014526367188
1.0318522453308105,10.085737228393555,0.6021590828895569
0.4152791500091553,4.359236240386963,0.2605833113193512
0.37916240096092224,4.2998762130737305,0.25723201036453247
0.3442586660385132,4.244110584259033,0.254102498292923
0.3168792426586151,4.285321235656738,0.25679436326026917
0.2855053246021271,4.26405668258667,0.2557503879070282
0.2626569867134094,4.378790378570557,0.2628805339336395
0.22922010719776154,4.325989246368408,0.2598525881767273
0.19826412200927734,4.31189489364624,0.2590804994106293
0.16219010949134827,4.17291784286499,0.25081580877304077
0.13310691714286804,4.1739373207092285,0.25097355246543884
0.10668312013149261,4.279998779296875,0.2574620544910431
0.07619830965995789,4.241641998291016,0.25527721643447876
0.04763147607445717,4.331745624542236,0.2606807351112366
0.016727492213249207,4.273488998413086,0.257124662399292
-0.013187041506171227,4.316395282745361,0.2596690058708191
-0.041819244623184204,4.175836563110352,0.2511894106864929
-0.06905003637075424,4.070183753967285,0.24482280015945435
-0.09807764738798141,4.100792407989502,0.24666443467140198
-0.12831208109855652,4.158487796783447,0.24995724856853485
-0.15276968479156494,4.028911113739014,0.24199596047401428
-0.26527953147888184,5.913107872009277,0.35493791103363037
-0.18286380171775818,3.5279929637908936,0.21164123713970184
-0.20788371562957764,3.534430742263794,0.21190853416919708
-0.23397232592105865,3.5562593936920166,0.21308796107769012
-0.2780013978481293,3.81510853767395,0.2283109575510025
-0.3108811378479004,3.894745349884033,0.23280015587806702
-0.3351372480392456,3.8614461421966553,0.23054589331150055
-0.34595340490341187,3.688223361968994,0.21996089816093445
-0.3641199767589569,3.6120400428771973,0.2151900976896286
-0.38539642095565796,3.5706393718719482,0.21245071291923523
-0.43134111166000366,3.753883123397827,0.22296804189682007
-0.45199015736579895,3.708277463912964,0.21988822519779205
-0.4725669026374817,3.6664295196533203,0.21704916656017303
-0.4932946264743805,3.628314733505249,0.2144460529088974
-0.5189563632011414,3.6247658729553223,0.21389338374137878
-0.5404938459396362,3.5979959964752197,0.2118946760892868
-0.5627235174179077,3.5788378715515137,0.21028923988342285
-0.5702114701271057,3.471031427383423,0.20349977910518646
-0.5737442970275879,3.347895383834839,0.19584770500659943
-1.1309021711349487,6.334539890289307,0.3697548806667328
-1.1785258054733276,6.341794013977051,0.3693709969520569
-1.2300723791122437,6.375779628753662,0.3703382909297943
-1.2858049869537354,6.4285101890563965,0.3723629415035248
-1.3367772102355957,6.454042434692383,0.3728141486644745
-1.3897290229797363,6.482831001281738,0.3734421730041504
-0.7878822684288025,3.55249285697937,0.20407088100910187
-1.2216936349868774,5.333822727203369,0.30551254749298096
-1.2543991804122925,5.310283660888672,0.30312907695770264
-1.2813562154769897,5.263796806335449,0.2994585931301117
-0.702787458896637,2.803415060043335,0.15894879400730133
-0.7148044109344482,2.76820707321167,0.1564093381166458
-0.7340063452720642,2.763223171234131,0.155601367354393
-0.7507938742637634,2.750673532485962,0.15429076552391052
-0.7736440896987915,2.760592460632324,0.15421779453754425
-0.805261492729187,2.8003249168395996,0.15580466389656067
-0.9332199692726135,3.1612625122070312,0.17514856159687042
-0.9608491659164429,3.1734182834625244,0.17509660124778748
-0.9942366480827332,3.2040464878082275,0.1760106384754181
-1.0253159999847412,3.2270641326904297,0.17641369998455048
-1.0772589445114136,3.3128745555877686,0.18022489547729492
-1.1114859580993652,3.3386456966400146,0.18071423470973969
-1.1296508312225342,3.3161332607269287,0.17859843373298645
-1.1384751796722412,3.267775535583496,0.17509981989860535
-1.3135484457015991,3.690126895904541,0.19661587476730347
