X,Y,Z
0.09857296198606491,7.657107353210449,0.1923086792230606
0.04430748149752617,7.626373291015625,0.19150365889072418
-0.008712590672075748,7.595258712768555,0.19066204130649567
-0.06138153001666069,7.583301067352295,0.19031095504760742
-0.1137826144695282,7.55926513671875,0.18966606259346008
-0.1656804084777832,7.527059078216553,0.18882562220096588
-0.21712230145931244,7.494499683380127,0.18797002732753754
-0.26985543966293335,7.4888834953308105,0.18765121698379517
-0.3218834698200226,7.4868340492248535,0.1874336451292038
-0.3755761384963989,7.519527435302734,0.18809443712234497
-0.31043189764022827,5.454316139221191,0.13632692396640778
-0.34583255648612976,5.413060188293457,0.13519498705863953
-0.3746125102043152,5.278052806854248,0.1316787600517273
-0.39225390553474426,5.03396463394165,0.12541133165359497
-0.4240938723087311,4.996117115020752,0.12429746985435486
-0.43118515610694885,4.693637371063232,0.11661669611930847
-0.4572472870349884,4.624470233917236,0.114749975502491
-0.48825255036354065,4.605598449707031,0.11413703113794327
-0.5173416137695312,4.578850269317627,0.11325573921203613
-0.5460599660873413,4.551924228668213,0.11236957460641861
-0.5773831009864807,4.548064708709717,0.11205928027629852
-0.6063479781150818,4.524601936340332,0.1112704649567604
-0.6388546824455261,4.524078845977783,0.11104819923639297
-0.6684308648109436,4.507968902587891,0.1104215681552887
-0.6993206739425659,4.503290176391602,0.11002550274133682
-0.7252147793769836,4.467555522918701,0.10887735337018967
-0.7547337412834167,4.454751491546631,0.10829407721757889
-0.782963752746582,4.434025287628174,0.10752293467521667
-0.8114876747131348,4.413021564483643,0.10674751549959183
-0.8395242691040039,4.3958587646484375,0.10601291060447693
-0.7291989922523499,3.681337594985962,0.08850884437561035
-0.7520443201065063,3.6647891998291016,0.08784294128417969
-0.7758502960205078,3.651848554611206,0.08726544678211212
-0.9383125305175781,4.267984867095947,0.10167501121759415
-0.9789152145385742,4.310942649841309,0.10235798358917236
-1.0029170513153076,4.281373023986816,0.10128170251846313
-1.033894419670105,4.282045364379883,0.10092689096927643
-1.0615885257720947,4.267228126525879,0.10020629316568375
-1.0810649394989014,4.218017101287842,0.09867887943983078
-1.1191903352737427,4.244433403015137,0.09892213344573975
-1.1499850749969482,4.2443013191223145,0.09847404062747955
-1.1756327152252197,4.225123405456543,0.09758839011192322
-1.1981568336486816,4.194441795349121,0.09644047915935516
-1.2344022989273071,4.208357810974121,0.0963088721036911
-1.2524080276489258,4.162283420562744,0.09481802582740784
-1.285205602645874,4.168638229370117,0.09446924924850464
-1.3063664436340332,4.137505054473877,0.09327057749032974
-1.3297463655471802,4.113652229309082,0.09224158525466919
-1.3611904382705688,4.111599445343018,0.09168978780508041
-1.3896270990371704,4.102091312408447,0.09098469465970993
-1.4173108339309692,4.092625141143799,0.0902329534292221
-1.4421539306640625,4.075669765472412,0.08931217342615128
-1.4591761827468872,4.036416530609131,0.0879056453704834
-1.497992753982544,4.05551290512085,0.08776167780160904
-1.5155963897705078,4.01560640335083,0.08633501827716827
-1.5425910949707031,4.005331516265869,0.08551732450723648
-1.5723105669021606,4.002169609069824,0.08484837412834167
-1.5966379642486572,3.984130382537842,0.08385912328958511
-1.6198338270187378,3.9621188640594482,0.0827813670039177
-1.6416823863983154,3.936213254928589,0.08161318302154541
-1.6648766994476318,3.9179916381835938,0.0805845707654953
-1.6879316568374634,3.8996224403381348,0.07955814152956009
-1.7242177724838257,3.9093589782714844,0.07908645272254944
-1.7385822534561157,3.8687808513641357,0.0775950476527214
-1.7555651664733887,3.8353662490844727,0.07622146606445312
-1.787672758102417,3.837766170501709,0.07555145770311356
-1.8001035451889038,3.7974209785461426,0.07403790950775146
-1.8332619667053223,3.7988979816436768,0.07332252711057663
-1.5427061319351196,3.1410915851593018,0.060006849467754364
-1.5603420734405518,3.123655319213867,0.05902034789323807
-1.9276100397109985,3.795820713043213,0.07093814015388489
-1.9395575523376465,3.754615306854248,0.06935489922761917
-1.9692732095718384,3.7479612827301025,0.06841524690389633
-1.659242033958435,3.107794761657715,0.05602172762155533
-1.683395266532898,3.103684663772583,0.055233899503946304
-1.7013452053070068,3.0849804878234863,0.05414262041449547
-1.6903003454208374,3.0151662826538086,0.05217873305082321
-0.8193126320838928,1.4391971826553345,0.024541106075048447
-0.7544431686401367,1.3053096532821655,0.021924598142504692
-0.7753185629844666,1.3202770948410034,0.021817894652485847
-0.7945518493652344,1.3315937519073486,0.021633490920066833
-0.8780233860015869,1.450042486190796,0.023153528571128845
-0.8957678079605103,1.4575269222259521,0.02285649999976158
-0.90175461769104,1.4446381330490112,0.022217009216547012
-0.8904564380645752,1.4056111574172974,0.02118050307035446
-0.8236228823661804,1.2814640998840332,0.01889714226126671
-1.4883413314819336,2.152611494064331,0.02784239687025547
-1.389784574508667,1.9832696914672852,0.02487954869866371
-1.4811217784881592,2.119655132293701,-0.020295942202210426
-1.525804042816162,2.2170023918151855,-0.022139154374599457
-1.3114323616027832,1.9376810789108276,-0.020151404663920403
-1.1894843578338623,1.7843128442764282,-0.019214551895856857
-1.4486329555511475,2.2076592445373535,-0.024563582614064217
-0.9029677510261536,1.443945288658142,-0.017491599544882774
-0.8962271213531494,1.4573113918304443,-0.018103132024407387
-0.8779962658882141,1.4501266479492188,-0.01842609792947769
-0.8056716918945312,1.3523125648498535,-0.017562543973326683
-0.7995584607124329,1.364991307258606,-0.018103571608662605
-0.7974896430969238,1.3842560052871704,-0.018727777525782585
-0.8552617430686951,1.5086919069290161,-0.020796559751033783
-1.6559760570526123,2.9718592166900635,-0.041696153581142426
-1.6604799032211304,3.0318310260772705,-0.043272215873003006
-1.613379716873169,2.9951729774475098,-0.04343775287270546
-1.5990118980407715,3.0205447673797607,-0.04449956864118576
-1.6398582458496094,3.1534812450408936,-0.04714363440871239
-1.602983832359314,3.137322425842285,-0.047565583139657974
-1.5811376571655273,3.148376703262329,-0.04837626591324806
-1.5656489133834839,3.1735260486602783,-0.04939219728112221
-1.538690447807312,3.177994966506958,-0.05008343607187271
-1.5160247087478638,3.188857316970825,-0.05085250362753868
-1.4971187114715576,3.206388235092163,-0.05171779543161392
-1.4711166620254517,3.2097978591918945,-0.05234435945749283
-1.4510005712509155,3.2274961471557617,-0.05318877473473549
-1.4310226440429688,3.244931221008301,-0.05402655526995659
-1.4049123525619507,3.2477996349334717,-0.05461875721812248
-1.385172724723816,3.264742851257324,-0.05543118715286255
-1.3645473718643188,3.281867265701294,-0.05621655285358429
-1.3378788232803345,3.2843844890594482,-0.05675409361720085
-1.3178859949111938,3.3008594512939453,-0.057517968118190765
-1.2973393201828003,3.317366123199463,-0.058295439928770065
-1.2735930681228638,3.3265442848205566,-0.05890464037656784
-1.2510064840316772,3.339264154434204,-0.059571921825408936
-1.2300806045532227,3.355339765548706,-0.06029557064175606
-1.2040685415267944,3.3564536571502686,-0.06074683368206024
-1.1878783702850342,3.3870506286621094,-0.061732616275548935
-1.1585047245025635,3.3806896209716797,-0.06201036274433136
-1.1417080163955688,3.411109447479248,-0.06296636909246445
-1.1154834032058716,3.411547899246216,-0.06336316466331482
-1.0917692184448242,3.419201135635376,-0.06389477849006653
-1.0765520334243774,3.456751823425293,-0.06496850401163101
-1.049633264541626,3.4568490982055664,-0.06531357020139694
-1.0272594690322876,3.4717013835906982,-0.06593992561101913
-1.0073678493499756,3.4937779903411865,-0.06670229882001877
-0.9808833003044128,3.4931838512420654,-0.06703583151102066
-0.9623048305511475,3.522637128829956,-0.06790722906589508
-0.9347466826438904,3.521960735321045,-0.06818955391645432
-0.911733865737915,3.5360469818115234,-0.0687544122338295
-0.8871354460716248,3.542290210723877,-0.06916535645723343
-0.8671066761016846,3.567337989807129,-0.06994836777448654
-0.8419266939163208,3.573357105255127,-0.07032459229230881
-0.8196491003036499,3.594550132751465,-0.07099603116512299
-0.7925764918327332,3.5926105976104736,-0.07120966166257858
-0.7741039991378784,3.628582239151001,-0.0721760019659996
-0.7441336512565613,3.610917806625366,-0.07207946479320526
-0.717249870300293,3.608383893966675,-0.07224217802286148
-0.6986408829689026,3.6517977714538574,-0.07331561297178268
-0.6714969873428345,3.6489384174346924,-0.07346132397651672
-0.6488051414489746,3.668900966644287,-0.07406815141439438
-0.6258678436279297,3.68872332572937,-0.0746774822473526
-0.5987351536750793,3.6853058338165283,-0.07479172945022583
-0.5764822363853455,3.7165145874023438,-0.07559391111135483
-0.5462589859962463,3.693438768386841,-0.0752929076552391
-0.5276845693588257,3.7474114894866943,-0.0765647143125534
-0.4985504150390625,3.7277536392211914,-0.07633703202009201
-0.47450071573257446,3.746633768081665,-0.07687690854072571
-0.5390748977661133,4.509920120239258,-0.09266971051692963
-0.5108267664909363,4.548573970794678,-0.09360284358263016
-0.47987204790115356,4.559793472290039,-0.09397445619106293
-0.4584124684333801,4.667962074279785,-0.09635187685489655
-0.4538921117782593,4.978291988372803,-0.10291408747434616
-0.41826513409614563,4.973570346832275,-0.10289577394723892
-0.4034366011619568,5.245105266571045,-0.10860376805067062
-0.3792625069618225,5.427007675170898,-0.11246728897094727
-0.3410550355911255,5.421713352203369,-0.11245927959680557
-0.30381181836128235,5.4317474365234375,-0.11277464032173157
-0.30102261900901794,6.151470184326172,-0.12777076661586761
-0.25392889976501465,6.071507930755615,-0.1261448711156845
-0.21238505840301514,6.096548557281494,-0.1267058253288269
-0.16844239830970764,6.043222427368164,-0.12564384937286377
-0.1267217993736267,6.0598649978637695,-0.12604238092899323
-0.08410052210092545,6.029359340667725,-0.12542405724525452
-0.04127906262874603,6.0180888175964355,-0.12514862418174744
0.0006467860075645149,6.0026092529296875,-0.1247926577925682
0.042298879474401474,5.986838340759277,-0.12443690001964569
0.08378511667251587,5.978590965270996,-0.12424364686012268
0.12548376619815826,5.985674858093262,-0.12437120825052261
0.16591231524944305,5.945623874664307,-0.12342569231987
0.2009129524230957,5.745253562927246,-0.11916059255599976
0.2524304986000061,6.020762920379639,-0.12477198988199234
0.2059525102376938,4.212817192077637,-0.08723700046539307
0.23437821865081787,4.195687294006348,-0.08681882172822952
0.26175564527511597,4.166679859161377,-0.08610792458057404
0.29301345348358154,4.192007064819336,-0.08649604022502899
0.32263433933258057,4.19766902923584,-0.08648378401994705
0.4839330315589905,5.771498203277588,-0.11873667687177658
0.5070879459381104,5.581307888031006,-0.1146622821688652
0.5153205394744873,5.2667155265808105,-0.10802596062421799
0.5286214351654053,5.037697792053223,-0.10311048477888107
0.5516676306724548,4.929140090942383,-0.10068308562040329
0.7002267241477966,5.886974811553955,-0.12000689655542374
0.7298508882522583,5.792857646942139,-0.11785615980625153
0.7680423855781555,5.772165775299072,-0.1172088235616684
0.8133185505867004,5.801463603973389,-0.11749012768268585
0.8651729226112366,5.876877784729004,-0.11870986223220825
0.9230307340621948,5.982702255249023,-0.12053826451301575
0.5563692450523376,3.4468867778778076,-0.06927081197500229
0.5719236135482788,3.3928682804107666,-0.06801432371139526
1.0088707208633423,5.742960453033447,-0.11477533727884293
0.613384485244751,3.353872776031494,-0.06680882722139359
0.6422620415687561,3.380276918411255,-0.06711980700492859
0.6718084216117859,3.406386613845825,-0.06742171943187714
0.6829729676246643,3.340414524078369,-0.06590624153614044
0.7173295021057129,3.3891210556030273,-0.0666278526186943
0.7321929335594177,3.237959146499634,-0.06314859539270401
0.7599906325340271,3.255622625350952,-0.06323986500501633
0.775326669216156,3.2198824882507324,-0.06229675933718681
0.7994203567504883,3.222041130065918,-0.062075890600681305
0.8130746483802795,3.182363271713257,-0.06102271378040314
0.8268530368804932,3.1465237140655518,-0.06005650758743286
0.8466185331344604,3.1331803798675537,-0.05952160805463791
0.8600502610206604,3.0971121788024902,-0.058560196310281754
0.8739336133003235,3.0648117065429688,-0.05766487494111061
0.8929427266120911,3.0511975288391113,-0.05709552764892578
0.9069529175758362,3.0226125717163086,-0.05625714734196663
0.9232696294784546,3.0013349056243896,-0.05555589869618416
0.9312171339988708,2.9538707733154297,-0.05437677726149559
0.9515459537506104,2.9473929405212402,-0.053943704813718796
0.9644994139671326,2.918517589569092,-0.05307628586888313
0.9792654514312744,2.897118091583252,-0.05235729739069939
0.9840292930603027,2.8459665775299072,-0.05110223963856697
1.0024988651275635,2.835378885269165,-0.05058281868696213
1.0191878080368042,2.821126937866211,-0.04998712241649628
1.0246847867965698,2.777549982070923,-0.04886765033006668
1.0355678796768188,2.748490810394287,-0.048005394637584686
1.051862359046936,2.733936309814453,-0.04739966616034508
1.0665767192840576,2.7156529426574707,-0.04673392325639725
1.0790901184082031,2.6938910484313965,-0.04598739743232727
1.0942343473434448,2.679347515106201,-0.045365430414676666
1.1038477420806885,2.6500415802001953,-0.044486772269010544
1.1130658388137817,2.6207494735717773,-0.043617598712444305
1.1341015100479126,2.6202380657196045,-0.04322119429707527
1.1547263860702515,2.6197621822357178,-0.04280300810933113
1.1578624248504639,2.5799036026000977,-0.04174582287669182
1.1728408336639404,2.5645506381988525,-0.041070643812417984
1.1840556859970093,2.5421762466430664,-0.0402957983314991
1.1842914819717407,2.49891996383667,-0.03918478265404701
1.194137692451477,2.476905345916748,-0.03841607645153999
1.2146127223968506,2.475642204284668,-0.03795798122882843
1.2164101600646973,2.435537338256836,-0.03689831122756004
1.2327320575714111,2.4273252487182617,-0.036328352987766266
1.2380532026290894,2.398280620574951,-0.03544829785823822
1.254422903060913,2.38976788520813,-0.03486338257789612
1.2562963962554932,2.353429079055786,-0.033871762454509735
1.2757648229599,2.351832628250122,-0.0333726741373539
1.2801984548568726,2.322706460952759,-0.032473012804985046
1.2903382778167725,2.303675651550293,-0.03171258047223091
1.2985531091690063,2.2811028957366943,-0.03090347908437252
1.3096332550048828,2.265749216079712,-0.030191799625754356
1.3204480409622192,2.2504189014434814,-0.02948380634188652
1.3323074579238892,2.2343363761901855,-0.028729330748319626
1.3354016542434692,2.2051432132720947,-0.02782011404633522
1.3496952056884766,2.196432113647461,-0.027166614308953285
1.3643943071365356,2.1873395442962646,-0.02649182640016079
1.379542589187622,2.177825927734375,-0.025793449953198433
1.3855053186416626,2.1554951667785645,-0.024936413392424583
1.4123648405075073,2.1660330295562744,-0.024460185319185257
1.4036544561386108,2.120353937149048,-0.023317890241742134
1.4240583181381226,2.120842456817627,-0.022684846073389053
1.4267308712005615,2.0954670906066895,-0.0217670239508152
2.1700098514556885,3.139270544052124,-0.031542520970106125
1.466109275817871,2.092017650604248,-0.020317375659942627
3.1766819953918457,4.470493316650391,-0.041849493980407715
3.19592547416687,4.432718276977539,-0.039828214794397354
3.214235782623291,4.400140762329102,-0.037858836352825165
1.4813522100448608,1.9992177486419678,-0.016361486166715622
3.1905174255371094,4.4607014656066895,0.03331318870186806
2.1927335262298584,3.1139540672302246,0.024372801184654236
2.1647603511810303,3.123955726623535,0.02552141807973385
2.074702262878418,3.038921594619751,0.025779621675610542
2.0471224784851074,3.0481531620025635,0.026776567101478577
2.025062084197998,3.062844753265381,0.027768297120928764
1.9924547672271729,3.0608694553375244,0.02858418971300125
1.7734344005584717,2.7698657512664795,0.026592254638671875
1.630660891532898,2.587526321411133,0.02548123337328434
1.6248230934143066,2.6188106536865234,0.026413362473249435
1.5928947925567627,2.6109299659729004,0.02693720906972885
1.5896732807159424,2.649394989013672,0.02793106809258461
1.5712096691131592,2.66037917137146,0.02860870584845543
1.5320817232131958,2.638021230697632,0.028903359547257423
1.5008392333984375,2.628960132598877,0.02932840771973133
1.4863313436508179,2.646146774291992,0.030012421309947968
1.4748854637145996,2.6703991889953613,0.03078576736152172
1.4588422775268555,2.688081979751587,0.03146439045667648
1.4466822147369385,2.7123594284057617,0.032216284424066544
1.4060032367706299,2.6808435916900635,0.03228418156504631
2.455223321914673,4.763548851013184,0.05813514068722725
2.4195351600646973,4.781762599945068,0.05912063270807266
1.1943199634552002,2.402992010116577,0.030076922848820686
1.187852382659912,2.4322986602783203,0.030802881345152855
1.1773414611816406,2.454737424850464,0.03143778815865517
1.1976491212844849,2.5445446968078613,0.03293471783399582
1.185863971710205,2.567272901535034,0.033573076128959656
1.1724940538406372,2.5862720012664795,0.034162264317274094
1.163871169090271,2.6158299446105957,0.03488577902317047
1.1448297500610352,2.624213695526123,0.035309091210365295
1.122676968574524,2.625267505645752,0.035634443163871765
1.0953128337860107,2.611400842666626,0.03574293851852417
1.0753155946731567,2.6154701709747314,0.03610086441040039
1.9934786558151245,4.949093818664551,0.0688338354229927
1.9633828401565552,4.977899074554443,0.06974834203720093
2.0419492721557617,5.286846160888672,0.07461441308259964
2.2980194091796875,6.075432777404785,0.08635009080171585
2.2505881786346436,6.080657482147217,0.0870324969291687
2.190706729888916,6.0526533126831055,0.08717469125986099
1.9867862462997437,5.615360736846924,0.08138125389814377
1.8567004203796387,5.3670654296875,0.07825371623039246
1.8994704484939575,5.61661958694458,0.0823819637298584
1.8653223514556885,5.648613452911377,0.08333034068346024
1.8919224739074707,5.869999408721924,0.08704742789268494
1.8862082958221436,5.998877048492432,0.08942148089408875
1.8569039106369019,6.052958011627197,0.09068571776151657
1.8326400518417358,6.125597953796387,0.09223891794681549
1.8014817237854004,6.179589748382568,0.0934886634349823
1.7607905864715576,6.207539081573486,0.09431769698858261
1.7361540794372559,6.291483402252197,0.0960010215640068
1.7044594287872314,6.348677158355713,0.0972781628370285
1.6750112771987915,6.417070388793945,0.0987381562590599
1.6337987184524536,6.4437971115112305,0.09953421354293823
1.5777965784072876,6.417515277862549,0.09947196394205093
1.5321345329284668,6.428561210632324,0.09998525679111481
1.4651877880096436,6.343966007232666,0.09900519251823425
1.4133676290512085,6.319688320159912,0.09896264970302582
0.32701376080513,1.5117275714874268,0.023750178515911102
0.323284387588501,1.5484557151794434,0.024392476305365562
1.2623428106307983,6.267911434173584,0.09900067746639252
1.2079049348831177,6.222931385040283,0.09855370223522186
1.1588116884231567,6.200469017028809,0.09846246987581253
1.1094568967819214,6.173771858215332,0.0983055904507637
1.0558158159255981,6.127686500549316,0.0977763682603836
1.0150357484817505,6.1504034996032715,0.09833882749080658
0.9625940918922424,6.0995192527771,0.09772711992263794
0.915450930595398,6.075170516967773,0.0975402444601059
0.8681386709213257,6.046597003936768,0.09728802740573883
0.8176791667938232,5.998440742492676,0.09668609499931335
0.770911693572998,5.969184875488281,0.09635568410158157
0.7251269817352295,5.94343900680542,0.09608493000268936
0.4611564874649048,4.012124538421631,0.06496207416057587
0.4365869164466858,4.046298503875732,0.06561895459890366
0.4076637625694275,4.04146146774292,0.06564197689294815
0.3842976987361908,4.102594375610352,0.06668652594089508
0.3582035303115845,4.136317253112793,0.06728912889957428
0.32403111457824707,4.072528839111328,0.06630799174308777
0.2911664843559265,4.012355327606201,0.06538686156272888
0.26532793045043945,4.045458793640137,0.0659884512424469
0.23662608861923218,4.047238349914551,0.06605199724435806
0.2087252289056778,4.056594371795654,0.06621886789798737
0.18105190992355347,4.07356071472168,0.0665133073925972
0.29045355319976807,7.751339435577393,0.12660351395606995
0.23560045659542084,7.7219390869140625,0.1261684149503708
0.18037942051887512,7.699984550476074,0.12585754692554474
0.12616276741027832,7.66590690612793,0.12525756657123566
0.07254062592983246,7.650979042053223,0.12497676908969879
0.019148115068674088,7.612242221832275,0.12431341409683228
-0.033657919615507126,7.596568584442139,0.12403301894664764
-0.08699435740709305,7.5688042640686035,0.12356101721525192
-0.1391768753528595,7.5445876121521,0.1231084018945694
-0.1907229870557785,7.512206554412842,0.12247950583696365
-0.24170032143592834,7.475571155548096,0.12178800255060196
-0.2933240532875061,7.465908050537109,0.12154219299554825
-0.3455469608306885,7.471494674682617,0.12155052274465561
-0.2902100384235382,5.440766334533691,0.08845656365156174
-0.3278878331184387,5.438628196716309,0.08830436319112778
-0.3644317090511322,5.4206461906433105,0.08789265900850296
-0.3892361521720886,5.246614456176758,0.08495873957872391
-0.4064233601093292,5.006314754486084,0.08096395432949066
-0.4384099841117859,4.964409351348877,0.08018551021814346
-0.4402090907096863,4.61909818649292,0.07449802756309509
-0.46971985697746277,4.592637062072754,0.07392590492963791
-0.5013874769210815,4.589291572570801,0.07373031228780746
-0.5304129719734192,4.56243896484375,0.07316090911626816
-0.5616565942764282,4.550830364227295,0.07283762097358704
-0.5906814336776733,4.527463912963867,0.07233289629220963
-0.6207284927368164,4.515561580657959,0.07197487354278564
-0.6494668126106262,4.495736598968506,0.07148659974336624
-0.6779623627662659,4.475731372833252,0.07099999487400055
-0.7071430683135986,4.455399513244629,0.07050774991512299
-0.7431921362876892,4.481207847595215,0.07075154781341553
-0.7674903273582458,4.43748140335083,0.0698816254734993
-0.7916284799575806,4.397531509399414,0.06904255598783493
-0.8174105882644653,4.3689775466918945,0.06838838756084442
-0.8461021780967712,4.355559349060059,0.06797387450933456
-0.7379723191261292,3.660288095474243,0.05694964900612831
-0.7650243639945984,3.6627144813537598,0.05681890621781349
-0.790058970451355,3.657400608062744,0.056528303772211075
-0.9647746086120605,4.322835922241211,0.06656751781702042
-0.9891560673713684,4.2932820320129395,0.06586980819702148
-1.0212289094924927,4.293801307678223,0.06563076376914978
-1.0509860515594482,4.286620616912842,0.06528094410896301
-1.0717254877090454,4.245241641998291,0.06438490003347397
-1.1005316972732544,4.2378716468811035,0.06399380415678024
-1.1323094367980957,4.241626262664795,0.06377291679382324
-1.1611969470977783,4.22976541519165,0.06330883502960205
-1.184141993522644,4.199061393737793,0.06257263571023941
-1.2085824012756348,4.175836086273193,0.061936236917972565
-1.23457932472229,4.160082817077637,0.061392560601234436
-1.2650011777877808,4.1591057777404785,0.06106935814023018
-1.2895822525024414,4.135193347930908,0.06040095537900925
-1.318284273147583,4.126139163970947,0.059957608580589294
-1.3442579507827759,4.109539031982422,0.05939488485455513
-1.3744572401046753,4.107782363891602,0.05902478098869324
-1.404728889465332,4.1057939529418945,0.05865234509110451
-1.4278911352157593,4.081254005432129,0.05795380473136902
-1.4566667079925537,4.071079254150391,0.05745561793446541
-1.4738479852676392,4.031644344329834,0.05653953552246094
-1.5036652088165283,4.028965473175049,0.05611782148480415
-1.5279185771942139,4.011479377746582,0.05549287423491478
-1.551445484161377,3.9898765087127686,0.05480317398905754
-1.5868327617645264,3.996962785720825,0.05450158193707466
-1.6095925569534302,3.975220203399658,0.05379614233970642
-1.6272646188735962,3.9426848888397217,0.05293548107147217
-1.6507865190505981,3.924428701400757,0.052269525825977325
-1.6811004877090454,3.9200479984283447,0.0517779216170311
-1.6962825059890747,3.879429817199707,0.050804730504751205
-1.715825080871582,3.8537375926971436,0.05001380667090416
-1.7414796352386475,3.8422205448150635,0.049408797174692154
-1.7710018157958984,3.8373160362243652,0.048878222703933716
-1.8042404651641846,3.839078903198242,0.04842551425099373
-1.8172321319580078,3.7983436584472656,0.047422975301742554
-1.5449894666671753,3.1750898361206055,0.03922918811440468
-1.5662516355514526,3.1646618843078613,0.03868342936038971
-1.5776596069335938,3.132779359817505,0.03786513954401016
-1.592047929763794,3.1079540252685547,0.03713708743453026
-1.6305651664733887,3.132030725479126,0.036981891840696335
-1.6516562700271606,3.120966672897339,0.036398746073246
-1.6696150302886963,3.102534770965576,0.03571848198771477
-1.7022793292999268,3.1114816665649414,0.0353507474064827
-1.7037009000778198,3.0661003589630127,0.03435506671667099
-0.8062952160835266,1.4287370443344116,0.01578250341117382
-0.8105701208114624,1.412825345993042,0.015365829691290855
-0.7710579633712769,1.3228739500045776,0.014162538573145866
-0.7757115960121155,1.311084508895874,0.013806749135255814
-0.8649235963821411,1.4398038387298584,0.014902901835739613
-0.8789479732513428,1.4404487609863281,0.014639346860349178
-0.8845264911651611,1.4278515577316284,0.014235730282962322
-0.8978796601295471,1.4287312030792236,0.013971281237900257
-0.880397617816925,1.3797005414962769,0.01320808008313179
-1.2418899536132812,1.8102134466171265,0.015282686799764633
-1.6578574180603027,2.3821685314178467,0.019505104050040245
-1.7335374355316162,2.5008604526519775,-0.014296295121312141
-1.2970061302185059,1.9003264904022217,-0.01132260076701641
-1.34658944606781,2.003556966781616,-0.012396613135933876
-0.9161703586578369,1.454176664352417,-0.01019805297255516
-0.9060080647468567,1.4605275392532349,-0.010504181496798992
-0.8833851218223572,1.4469282627105713,-0.0106612304225564
-0.8643596172332764,1.440178632736206,-0.010865380987524986
-0.7667160630226135,1.2982853651046753,-0.010008006356656551
-0.769426703453064,1.3238581418991089,-0.010416786186397076
-0.777030348777771,1.3600490093231201,-0.010907680727541447
-1.289341688156128,2.2954189777374268,-0.018749412149190903
-1.6319291591644287,2.954120635986328,-0.024552885442972183
-1.6667242050170898,3.068669319152832,-0.025924941524863243
-1.6551281213760376,3.1015255451202393,-0.026614658534526825
-1.6366653442382812,3.1201281547546387,-0.027173077687621117
-1.6149506568908691,3.131418466567993,-0.02766094170510769
-1.5919873714447021,3.143150568008423,-0.0281525868922472
-1.5689811706542969,3.154693365097046,-0.02863360196352005
-1.5501325130462646,3.1726903915405273,-0.02916225977241993
-1.528022289276123,3.183393955230713,-0.029621317982673645
-1.5051093101501465,3.194286823272705,-0.030061859637498856
-1.481842279434204,3.2051424980163574,-0.03049391321837902
-1.4651908874511719,3.229949474334717,-0.03105836547911167
-1.4362989664077759,3.2258005142211914,-0.03133546561002731
-1.4227006435394287,3.2574079036712646,-0.03194858133792877
-1.3990398645401,3.2676355838775635,-0.032344575971364975
-1.3757121562957764,3.2775216102600098,-0.03273380175232887
-1.3555161952972412,3.2943711280822754,-0.03319200873374939
-1.3324856758117676,3.3037495613098145,-0.03356671333312988
-1.3087066411972046,3.313237428665161,-0.033920127898454666
-1.2848598957061768,3.322554111480713,-0.03427354246377945
-1.265792727470398,3.3423945903778076,-0.03473055735230446
-1.242087483406067,3.3512725830078125,-0.03507998213171959
-1.2208948135375977,3.367358684539795,-0.03548603877425194
-1.199280023574829,3.3834033012390137,-0.03588585555553436
-1.1751936674118042,3.391841411590576,-0.036204930394887924
-1.151555061340332,3.3999361991882324,-0.03651731088757515
-1.1299189329147339,3.4154138565063477,-0.03691506385803223
-1.1078630685806274,3.4308388233184814,-0.0372786745429039
-1.0809425115585327,3.431222677230835,-0.03748041018843651
-1.0590720176696777,3.446206569671631,-0.037840209901332855
-1.0395817756652832,3.468446969985962,-0.0382804274559021
-1.0153576135635376,3.4756126403808594,-0.038553398102521896
-0.9901565909385681,3.482872724533081,-0.038813408464193344
-0.9653300046920776,3.489832639694214,-0.039069030433893204
-0.9469716548919678,3.519131660461426,-0.039574772119522095
-0.9255005121231079,3.53695011138916,-0.03995348513126373
-0.9008007049560547,3.543318748474121,-0.040197838097810745
-0.8752086758613586,3.5497241020202637,-0.04041823372244835
-0.8536471128463745,3.5710344314575195,-0.04080847278237343
-0.8304160237312317,3.5845251083374023,-0.04111025854945183
-0.8071340918540955,3.5978431701660156,-0.04141214117407799
-0.783669650554657,3.6110188961029053,-0.0417100265622139
-0.7608266472816467,3.6318631172180176,-0.04207569733262062
-0.7366065979003906,3.6448209285736084,-0.042350884526968
-0.7110787034034729,3.6498847007751465,-0.042535100132226944
-0.6842411756515503,3.6470611095428467,-0.04262838140130043
-0.6644104719161987,3.682480573654175,-0.043171271681785583
-0.6379521489143372,3.687154531478882,-0.043317653238773346
-0.6138522624969482,3.7031197547912598,-0.043597511947155
-0.5890840291976929,3.7150485515594482,-0.043832000344991684
-0.5632485747337341,3.7190515995025635,-0.043974436819553375
-0.5406997203826904,3.746075391769409,-0.044391930103302
-0.5160525441169739,3.765319347381592,-0.04469497501850128
-0.48953482508659363,3.768857479095459,-0.04480523243546486
-0.4640148878097534,3.7799534797668457,-0.04500751942396164
-0.4368493854999542,3.7753243446350098,-0.045023996382951736
-0.41314664483070374,3.801565170288086,-0.04541110619902611
-0.3874196410179138,3.812124252319336,-0.0455913208425045
-0.36135369539260864,3.8264527320861816,-0.045794494450092316
-0.33591118454933167,3.8444530963897705,-0.04604357108473778
-0.3072144091129303,3.823341131210327,-0.04582623392343521
-0.2851864993572235,3.8877127170562744,-0.04663602635264397
-0.25705134868621826,3.8740150928497314,-0.046508826315402985
-0.23086757957935333,3.8991403579711914,-0.04682595282793045
-0.20441272854804993,3.916261672973633,-0.04704916104674339
-0.17759041488170624,3.9292991161346436,-0.0472257100045681
-0.15208782255649567,3.9772746562957764,-0.047824677079916
-0.12372878193855286,3.95481014251709,-0.04757906123995781
-0.09681855142116547,4.002446174621582,-0.0481489934027195
-0.06867891550064087,3.9874014854431152,-0.04795633256435394
-0.04107407480478287,4.003406047821045,-0.048139430582523346
-0.013198167085647583,4.003594875335693,-0.04813465103507042
0.014611986465752125,3.9957783222198486,-0.048035960644483566
0.043257541954517365,4.030726909637451,-0.048439811915159225
0.07154136896133423,4.0459513664245605,-0.04858126491308212
0.10007720440626144,4.060974597930908,-0.04872230440378189
0.12928050756454468,4.091413974761963,-0.049050260335206985
0.15748387575149536,4.082608699798584,-0.048909783363342285
0.188198059797287,4.132139205932617,-0.049470268189907074
0.21776776015758514,4.138510227203369,-0.04948297142982483
0.24157753586769104,4.0550217628479,-0.048422664403915405
0.2741330564022064,4.119502544403076,-0.049131840467453
0.3007601499557495,4.090230464935303,-0.04872455447912216
0.3241340219974518,4.025750637054443,-0.04790152981877327
0.35114797949790955,4.0078020095825195,-0.047610167413949966
0.376248300075531,3.978062152862549,-0.047160498797893524
0.39977073669433594,3.936509847640991,-0.04657461866736412
0.42326802015304565,3.898695707321167,-0.04603656008839607
0.4458477795124054,3.8568623065948486,-0.045454829931259155
0.468331903219223,3.814847946166992,-0.04486887902021408
0.4900466799736023,3.7766754627227783,-0.04430680349469185
0.5086466073989868,3.719031572341919,-0.043520886451005936
0.5293237566947937,3.6806347370147705,-0.04296458885073662
0.5525779724121094,3.661417007446289,-0.0426349863409996
0.572334349155426,3.618842363357544,-0.042035382241010666
0.5915161371231079,3.5801327228546143,-0.041456978768110275
0.6107969880104065,3.545191526412964,-0.04091934487223625
0.628936231136322,3.5063111782073975,-0.040340617299079895
0.6476038694381714,3.4711310863494873,-0.03980709984898567
0.6658124327659607,3.4358627796173096,-0.03927675634622574
0.6814616322517395,3.3889801502227783,-0.038601331412792206
0.6998676061630249,3.3612937927246094,-0.03813816234469414
0.32649344205856323,1.5159257650375366,-0.01713397353887558
0.32767510414123535,1.4716837406158447,-0.016569476574659348
0.7563667297363281,3.288947343826294,-0.036886733025312424
0.7759153842926025,3.268336296081543,-0.036504607647657394
0.7908092737197876,3.2326064109802246,-0.03594449535012245
0.8023890256881714,3.1854639053344727,-0.035262737423181534
0.8185408115386963,3.157149076461792,-0.0347922258079052
0.83442223072052,3.128742218017578,-0.034324031323194504
0.8522703647613525,3.107731819152832,-0.03393305465579033
0.8691383600234985,3.0868306159973145,-0.03353077173233032
0.8846774697303772,3.0620920658111572,-0.0330902561545372
0.896932065486908,3.025949239730835,-0.03252797573804855
0.9111571311950684,2.9972119331359863,-0.03204856067895889
0.9217925071716309,2.957158088684082,-0.031445808708667755
0.9394583702087402,2.943396806716919,-0.03111298754811287
0.9545543789863586,2.9221062660217285,-0.03070342354476452
0.9697225689888,2.9006407260894775,-0.030292369425296783
0.987338662147522,2.886439085006714,-0.029958471655845642
0.9930300712585449,2.8390088081359863,-0.029279550537467003
1.0125024318695068,2.832125186920166,-0.029008176177740097
1.020862340927124,2.795881986618042,-0.02844303660094738
1.0374902486801147,2.7814207077026367,-0.02809797413647175
1.0512311458587646,2.7595460414886475,-0.027680473402142525
1.061578392982483,2.730454444885254,-0.027187619358301163
1.0773674249649048,2.7158632278442383,-0.026833003386855125
1.0883768796920776,2.690416097640991,-0.02637697383761406
1.1011302471160889,2.668329954147339,-0.025951415300369263
1.1196684837341309,2.660606861114502,-0.025668183341622353
1.1344428062438965,2.645845651626587,-0.025303082540631294
1.1430788040161133,2.6165735721588135,-0.02479732409119606
1.149878978729248,2.58369517326355,-0.024261314421892166
1.169419765472412,2.5792019367218018,-0.023991871625185013
1.1820592880249023,2.560535430908203,-0.023586604744195938
1.1858043670654297,2.5243234634399414,-0.023017799481749535
1.1895925998687744,2.487950086593628,-0.022447215393185616
1.1982817649841309,2.4620769023895264,-0.021973807364702225
1.211742877960205,2.446767807006836,-0.02159619703888893
1.2243949174880981,2.431720495223999,-0.02121615968644619
1.2405112981796265,2.423541307449341,-0.020896906033158302
1.2501142024993896,2.401002883911133,-0.02044457383453846
1.2560261487960815,2.371428966522217,-0.019931359216570854
1.2679319381713867,2.356220006942749,-0.01953696832060814
1.283501148223877,2.347777843475342,-0.019199253991246223
1.2959917783737183,2.331975221633911,-0.018789665773510933
1.315833568572998,2.3298165798187256,-0.018491722643375397
1.3177129030227661,2.297287702560425,-0.017954429611563683
1.3388786315917969,2.298591375350952,-0.017684005200862885
1.3707249164581299,2.3161332607269287,-0.017522551119327545
1.3661361932754517,2.27339243888855,-0.016898978501558304
1.3890103101730347,2.2778127193450928,-0.01662219874560833
1.5631248950958252,2.5238444805145264,-0.018049603328108788
1.5763460397720337,2.5063869953155518,-0.017557110637426376
1.4516756534576416,2.2755606174468994,-0.01560591533780098
1.9761292934417725,3.052902936935425,-0.020472360774874687
1.9973318576812744,3.0390775203704834,-0.019890010356903076
2.0173943042755127,3.0258007049560547,-0.019299663603305817
2.0371479988098145,3.012540817260742,-0.018707042559981346
2.0867598056793213,3.0401899814605713,-0.018330350518226624
2.170907497406006,3.1197381019592285,-0.018244145438075066
3.159785509109497,4.477795600891113,-0.0253344364464283
3.190953493118286,4.455644130706787,-0.024292470887303352
3.2094802856445312,4.423031806945801,-0.023230282589793205
3.220937728881836,4.375959396362305,-0.022020844742655754
3.1747097969055176,4.472064018249512,0.01526184193789959
2.1856493949890137,3.128540515899658,0.011239907704293728
2.112802267074585,3.069723606109619,0.011535804718732834
2.066892623901367,3.0537631511688232,0.011967341415584087
2.02756667137146,3.042529344558716,0.012368797324597836
2.0059640407562256,3.0568132400512695,0.012850433588027954
1.9912875890731812,3.085005760192871,0.013377305120229721
1.6320582628250122,2.568251132965088,0.011453168466687202
1.6176518201828003,2.586566925048828,0.011849709786474705
1.5940998792648315,2.5919792652130127,0.01217950601130724
1.6038357019424438,2.6500988006591797,0.012747742235660553
1.5893253087997437,2.667922258377075,0.013121179305016994
1.5536144971847534,2.6527206897735596,0.013318421319127083
1.5143481492996216,2.63034987449646,0.013473311439156532
1.4883030652999878,2.6272294521331787,0.013705633580684662
1.4656286239624023,2.63100528717041,0.013966218568384647
1.4536582231521606,2.6554627418518066,0.01433161087334156
1.4347546100616455,2.665722370147705,0.014613390900194645
1.423157811164856,2.68962025642395,0.01497097872197628
2.468416452407837,4.748201847076416,0.02679966762661934
2.4334685802459717,4.766204833984375,0.027264976873993874
1.2174904346466064,2.4264988899230957,0.014057101681828499
1.2230534553527832,2.480445384979248,0.014547544531524181
1.1945382356643677,2.468290328979492,0.014650916680693626
1.1714744567871094,2.46635103225708,0.014809303916990757
1.1953725814819336,2.5630319118499756,0.01555971521884203
1.1791306734085083,2.5748403072357178,0.015799934044480324
1.1606385707855225,2.5832271575927734,0.016011158004403114
1.1575742959976196,2.627342700958252,0.01644247956573963
1.1416606903076172,2.642807960510254,0.01669691689312458
1.1110639572143555,2.62190842628479,0.016715308651328087
1.0955883264541626,2.636873245239258,0.01695661060512066
1.0971251726150513,2.6953701972961426,0.017471440136432648
1.0805808305740356,2.710456371307373,0.017708294093608856
1.0684455633163452,2.736239194869995,0.018015049397945404
1.0688914060592651,2.7946937084198,0.01853889971971512
1.0461264848709106,2.7949535846710205,0.01866466924548149
1.0313137769699097,2.817096710205078,0.018934380263090134
1.0139572620391846,2.831688404083252,0.019153134897351265
0.9913298487663269,2.8314120769500732,0.01927199400961399
0.9804299473762512,2.8641200065612793,0.019613314419984818
0.9958195686340332,2.9784975051879883,0.02050677314400673
0.949018657207489,2.9075684547424316,0.020126525312662125
0.9356703758239746,2.936497926712036,0.02043449878692627
0.9345377087593079,3.006469249725342,0.021033190190792084
0.9225071668624878,3.0428497791290283,0.02139427326619625
0.9029505252838135,3.056856393814087,0.021586010232567787
0.8767353892326355,3.048222064971924,0.021618856117129326
0.8648403286933899,3.0881412029266357,0.021995730698108673
0.8515393137931824,3.1242353916168213,0.02234778180718422
0.8232434988021851,3.107570171356201,0.022320199757814407
0.8127750754356384,3.158747673034668,0.02276604436337948
0.7987796068191528,3.1985623836517334,0.02313312143087387
0.7735995650291443,3.192688226699829,0.02317015826702118
0.7594059705734253,3.2322163581848145,0.023537877947092056
0.7416145205497742,3.2603840827941895,0.023823624476790428
0.33321821689605713,1.514518141746521,0.01109602302312851
0.3240944445133209,1.5244841575622559,0.011199140921235085
0.6935380101203918,3.3786823749542236,0.024887481704354286
0.6730633974075317,3.398749589920044,0.025103149935603142
0.6570244431495667,3.4456374645233154,0.025520598515868187
0.6411463618278503,3.4962923526763916,0.02594611421227455
0.6177576780319214,3.5084328651428223,0.026086702942848206
0.600213348865509,3.5550591945648193,0.026485472917556763
0.581722617149353,3.597705602645874,0.026856444776058197
0.5628216862678528,3.644193410873413,0.027259577065706253
0.5395523309707642,3.6635046005249023,0.027444344013929367
0.5180889368057251,3.698157787322998,0.02773630991578102
0.49873772263526917,3.752049446105957,0.028174670413136482
0.4799167215824127,3.8135643005371094,0.02867228165268898
0.4510484039783478,3.7974183559417725,0.028587745502591133
0.4332050681114197,3.8820440769195557,0.02925836481153965
0.4112357199192047,3.935492515563965,0.02967643551528454
0.389635294675827,4.000487804412842,0.030183522030711174
0.36097025871276855,3.9953322410583496,0.030162936076521873
0.33186179399490356,3.9821765422821045,0.030083227902650833
0.30572640895843506,4.011690616607666,0.03032778762280941
0.27982380986213684,4.044904708862305,0.030586928129196167
0.25295180082321167,4.070156574249268,0.030783679336309433
0.22681479156017303,4.114729881286621,0.031128183007240295
0.2000778317451477,4.155223369598389,0.03144344314932823
0.16861854493618011,4.105796813964844,0.031079920008778572
0.1387125849723816,4.067831516265869,0.030796675011515617
0.11077600717544556,4.0843186378479,0.03091004490852356
0.08139626681804657,4.0381269454956055,0.030550645664334297
0.05328342318534851,4.038595676422119,0.030545856803655624
0.02461475320160389,4.031059265136719,0.030481906607747078
-0.0033987904898822308,4.019414901733398,0.030388537794351578
-0.031189776957035065,3.9958577156066895,0.030185436829924583
-0.059074174612760544,4.003356456756592,0.030213026329874992
-0.08642439544200897,3.979417085647583,0.030004888772964478
-0.11314434558153152,3.9474854469299316,0.029738375917077065
-0.14047320187091827,3.9309732913970947,0.02958933264017105
-0.16722668707370758,3.9181973934173584,0.029465412721037865
-0.19436204433441162,3.916945457458496,0.029415998607873917
-0.2192448377609253,3.8765084743499756,0.029074156656861305
-0.24662260711193085,3.8826916217803955,0.02908356674015522
-0.27406859397888184,3.8808512687683105,0.02903352677822113
-0.298636257648468,3.84769606590271,0.028751496225595474
-0.3252182602882385,3.84554123878479,0.028679680079221725
-0.3496411442756653,3.819863796234131,0.028426608070731163
-0.3756031095981598,3.81347393989563,0.028318947181105614
-0.3992740511894226,3.7796473503112793,0.0280079934746027
-0.42643094062805176,3.7845420837402344,0.027986684814095497
-0.45171311497688293,3.773740530014038,0.027845557779073715
-0.4756993353366852,3.7550437450408936,0.027633987367153168
-0.5015553832054138,3.751678466796875,0.027536753565073013
-0.5279182195663452,3.748060464859009,0.027437524870038033
-0.5516502261161804,3.7288479804992676,0.027226636186242104
-0.5751060843467712,3.7094926834106445,0.027016690000891685
-0.6005845665931702,3.705453634262085,0.026902059093117714
-0.6239891052246094,3.6897006034851074,0.02670031227171421
-0.6540178060531616,3.7122645378112793,0.026776622980833054
-0.675316333770752,3.6806540489196777,0.02646077610552311
-0.7015773057937622,3.679716110229492,0.02636890672147274
-0.7216470837593079,3.6479649543762207,0.02605016529560089
-0.7481114864349365,3.6506059169769287,0.02596903406083584
-0.773058295249939,3.6454057693481445,0.025832992047071457
-0.8003774881362915,3.6475045680999756,0.025746801868081093
-0.827430009841919,3.64947509765625,0.025661857798695564
-0.8402398228645325,3.590406894683838,0.025148697197437286
-0.8628544211387634,3.5770044326782227,0.02494904398918152
-0.88532555103302,3.5634608268737793,0.024750009179115295
-0.9121636152267456,3.564750909805298,0.024652432650327682
-0.9389027953147888,3.5658819675445557,0.024555185809731483
-0.9657018184661865,3.5668134689331055,0.024457303807139397
-1.1688423156738281,4.203713893890381,0.028673361986875534
-1.193068265914917,4.180657386779785,0.028364088386297226
-1.2309054136276245,4.202247619628906,0.028354765847325325
-1.237589716911316,4.118777275085449,0.027639755979180336
-1.2604248523712158,4.091416358947754,0.027306055650115013
-1.2917245626449585,4.09393310546875,0.027159128338098526
-1.3241868019104004,4.099973201751709,0.02703278511762619
-1.3476463556289673,4.075870037078857,0.026704981923103333
-1.3784170150756836,4.073816776275635,0.02652282640337944
-1.397690773010254,4.0383219718933105,0.026125192642211914
-1.431465744972229,4.0471978187561035,0.02601020596921444
-1.4520251750946045,4.019108772277832,0.025657786056399345
-1.4793639183044434,4.009127616882324,0.025420814752578735
-1.4993610382080078,3.9766554832458496,0.025037109851837158
-1.5381534099578857,3.995317220687866,0.024978991597890854
-1.5534944534301758,3.955825090408325,0.024539466947317123
-1.5828973054885864,3.9525701999664307,0.024326907470822334
-1.6069878339767456,3.934401273727417,0.024019543081521988
-1.6287775039672852,3.908510446548462,0.023660901933908463
-1.6616928577423096,3.911614418029785,0.023480935022234917
-1.6785272359848022,3.8788974285125732,0.02308453992009163
-1.707571029663086,3.8747401237487793,0.022860119119286537
-1.7312780618667603,3.855645179748535,0.022540582343935966
-1.761746883392334,3.8504133224487305,0.02229975163936615
-1.7809488773345947,3.8243417739868164,0.02193915843963623
-1.8096920251846313,3.8194730281829834,0.021700963377952576
-1.5439382791519165,3.2018327713012695,0.01801026426255703
-1.555863857269287,3.169968843460083,0.017647704109549522
-1.574271559715271,3.1521387100219727,0.01735966093838215
-1.5774720907211304,3.106793165206909,0.01692373864352703
-1.6127396821975708,3.123844861984253,0.016825707629323006
-1.6380531787872314,3.119474172592163,0.01660516858100891
-1.6629689931869507,3.1151230335235596,0.016382673755288124
-1.672271728515625,3.0835044384002686,0.01601492613554001
-1.7045894861221313,3.0925474166870117,0.015851695090532303
-1.2238727807998657,2.184390068054199,0.011044993996620178
-0.8193152546882629,1.4393870830535889,0.0071749258786439896
-0.7622498273849487,1.3190128803253174,0.006477028597146273
-0.7632225751876831,1.3003654479980469,0.006285351701080799
-0.802407443523407,1.345262050628662,0.006393326912075281
-0.886148989200592,1.463557481765747,0.0068365135230124
-0.8915395140647888,1.4511195421218872,0.006659290287643671
-0.8891242742538452,1.4250497817993164,0.006414561066776514
-0.8716453313827515,1.3760570287704468,0.006072687450796366
-0.8468514084815979,1.3177400827407837,0.005699113477021456
-1.5994948148727417,2.31337308883667,0.008868257515132427
-1.3764654397964478,1.9641261100769043,0.007319644559174776
-1.3489195108413696,1.9309688806533813,-0.0028340467251837254
-1.2667707204818726,1.8405747413635254,-0.0028561335057020187
-0.9364591240882874,1.4737298488616943,-0.002795575885102153
-0.8739909529685974,1.3976689577102661,-0.002731914399191737
-0.8839465975761414,1.4374581575393677,-0.0028904019854962826
-0.8818327784538269,1.4570506811141968,-0.0030065341852605343
-0.7797162532806396,1.30877685546875,-0.0027675700839608908
-0.7739577293395996,1.321252465248108,-0.0028607274871319532
-0.7524864077568054,1.30661940574646,-0.0028944993391633034
-0.8069143295288086,1.423982858657837,-0.0032214331440627575
-1.2586199045181274,2.258964776992798,-0.005213247612118721
-1.6996009349822998,3.104233503341675,-0.00730174733325839
-1.6776227951049805,3.1161656379699707,-0.007461244240403175
-1.6591737270355225,3.134869337081909,-0.007637866772711277
-1.6290769577026367,3.1330137252807617,-0.007753030862659216
-1.6060434579849243,3.144882917404175,-0.00790096540004015
-1.5875340700149536,3.1630101203918457,-0.008059626445174217
