X,Y,Z
0.25661012530326843,4.926033973693848,1.0487492084503174
0.22317318618297577,4.950512886047363,1.0540823936462402
0.18867947161197662,4.955672740936279,1.0553544759750366
0.15448038280010223,4.972049236297607,1.0590674877166748
0.12067065387964249,5.01110315322876,1.0676652193069458
0.08533848822116852,5.019371509552002,1.06976318359375
0.05047379434108734,5.027385711669922,1.071854829788208
0.01553049311041832,5.046682834625244,1.076088547706604
-0.019643960520625114,5.054362773895264,1.0774643421173096
-0.05511482059955597,5.084720134735107,1.083725094795227
-0.0917152389883995,5.114815711975098,1.089977741241455
-0.12765435874462128,5.129386901855469,1.0929770469665527
-0.16258443892002106,5.105517864227295,1.0878382921218872
-0.19926297664642334,5.134860038757324,1.094090223312378
-0.23641912639141083,5.167885780334473,1.1005640029907227
-0.2742193341255188,5.2044878005981445,1.1077109575271606
-0.30994826555252075,5.187383651733398,1.1034679412841797
-0.2886524498462677,4.327454566955566,0.9200922846794128
-0.31872254610061646,4.3255181312561035,0.9192730188369751
-0.3530817925930023,4.3767008781433105,0.9297825694084167
-0.37876203656196594,4.321052074432373,0.9174976944923401
-0.4036571979522705,4.26152229309082,0.9039421677589417
-0.42798373103141785,4.209504127502441,0.892061710357666
-0.4511999487876892,4.153547286987305,0.8794091939926147
-0.4751225709915161,4.108842849731445,0.8691949248313904
-0.49816712737083435,4.060186386108398,0.8581973314285278
-0.5215051770210266,4.015141010284424,0.8480091094970703
-0.542998194694519,3.966348648071289,0.8366907238960266
-0.5642280578613281,3.9212875366210938,0.8260442018508911
-0.5831962823867798,3.8647634983062744,0.8130471110343933
-0.6067404747009277,3.842162847518921,0.8072469830513
-0.6264527440071106,3.7928764820098877,0.7958648800849915
-0.6476338505744934,3.7586488723754883,0.7877192497253418
-0.6662436723709106,3.7130470275878906,0.7771333456039429
-0.6888460516929626,3.6938297748565674,0.7717052698135376
-0.706812858581543,3.6519367694854736,0.7615978121757507
-0.7219804525375366,3.5987043380737305,0.7491927146911621
-0.7378972172737122,3.5490450859069824,0.7375662922859192
-0.7569853067398071,3.518080472946167,0.7298965454101562
-0.7673636078834534,3.4496407508850098,0.7145183086395264
-0.7969011068344116,3.470973253250122,0.7173700332641602
-0.8108272552490234,3.425014019012451,0.7062686681747437
-0.8291054368019104,3.397531032562256,0.6990127563476562
-0.8523884415626526,3.392302989959717,0.6963962316513062
-0.8597999811172485,3.323739528656006,0.6808087229728699
-0.8771343231201172,3.2959556579589844,0.6736462116241455
-0.8998134732246399,3.290418863296509,0.6707950234413147
-0.9184290170669556,3.2699732780456543,0.6647193431854248
-0.9268732666969299,3.2163593769073486,0.651999831199646
-0.9423041343688965,3.1884894371032715,0.6445632576942444
-0.9556692838668823,3.1530706882476807,0.635619580745697
-0.9731704592704773,3.1322529315948486,0.6296725273132324
-0.9927366375923157,3.118704080581665,0.6249724626541138
-1.0054948329925537,3.087043523788452,0.6165231466293335
-1.0191134214401245,3.0589728355407715,0.6088480353355408
-1.0349653959274292,3.0380866527557373,0.6026464700698853
-1.0486655235290527,3.009671211242676,0.5949440598487854
-1.0697805881500244,3.002899408340454,0.5915613770484924
-1.0814778804779053,2.9708242416381836,0.5829482674598694
-1.1042112112045288,2.9713737964630127,0.5806613564491272
-1.1242740154266357,2.964564323425293,0.5769570469856262
-1.1251598596572876,2.907325506210327,0.563471257686615
-1.1272268295288086,2.853583335876465,0.5507091879844666
-1.1418918371200562,2.8318991661071777,0.544169545173645
-1.1434260606765747,2.782205820083618,0.5319991707801819
-1.1146126985549927,2.661623239517212,0.506428062915802
-1.126481533050537,2.640615463256836,0.49995043873786926
-1.147986888885498,2.6404755115509033,0.49736088514328003
-1.1668932437896729,2.6329336166381836,0.4933299720287323
-1.1912841796875,2.639666795730591,0.4918404221534729
-1.199305534362793,2.6114110946655273,0.4836921989917755
-1.2298341989517212,2.6320199966430664,0.4846089780330658
-1.2479456663131714,2.6242880821228027,0.4802183210849762
-1.2600786685943604,2.602198600769043,0.4731101095676422
-1.2712929248809814,2.5803818702697754,0.4660505950450897
-1.2781620025634766,2.551973342895508,0.4576539099216461
-1.2952276468276978,2.5441877841949463,0.452998548746109
-1.3002746105194092,2.512080430984497,0.443978875875473
-1.3144097328186035,2.4968504905700684,0.4379112720489502
-1.324571967124939,2.474849224090576,0.43051570653915405
-1.3335943222045898,2.4533019065856934,0.42314034700393677
-1.342384934425354,2.4317269325256348,0.41581907868385315
-1.3480404615402222,2.402940034866333,0.40713784098625183
-1.3593987226486206,2.3840885162353516,0.40014007687568665
-1.3718392848968506,2.368942975997925,0.39350563287734985
-1.375788688659668,2.3406729698181152,0.38477107882499695
-1.3916703462600708,2.3321707248687744,0.37924376130104065
-1.4082485437393188,2.323136329650879,0.37345069646835327
-1.4281988143920898,2.320960760116577,0.36863142251968384
-1.419105887413025,2.272883415222168,0.3564039468765259
-1.4550102949142456,2.2969841957092285,0.3555287718772888
-1.471376657485962,2.2875261306762695,0.3490959107875824
-1.4700146913528442,2.252448797225952,0.33869221806526184
-1.493249535560608,2.256701946258545,0.3341335356235504
-1.4633854627609253,2.1797478199005127,0.3174079656600952
-1.474634051322937,2.163775682449341,0.3095382750034332
-1.502088189125061,2.1741652488708496,0.30523332953453064
-1.4894570112228394,2.127194404602051,0.29291799664497375
-1.4888156652450562,2.09542179107666,0.28232458233833313
-1.509966254234314,2.095649242401123,0.2758181393146515
-1.5164486169815063,2.077547073364258,0.26693543791770935
-1.5217995643615723,2.055387020111084,0.2569390833377838
-1.4903132915496826,2.0896785259246826,-0.1368120163679123
-1.5041389465332031,2.141376256942749,-0.14901679754257202
-1.4920254945755005,2.1586365699768066,-0.15904520452022552
-1.4678065776824951,2.155672311782837,-0.16691289842128754
-1.4777323007583618,2.2047104835510254,-0.17886079847812653
-1.443930983543396,2.1890158653259277,-0.18553286790847778
-1.4577085971832275,2.24444842338562,-0.19802160561084747
-1.4407671689987183,2.254595994949341,-0.20655041933059692
-1.430105209350586,2.274400472640991,-0.21589641273021698
-1.4139240980148315,2.2837228775024414,-0.2239159643650055
-1.4090583324432373,2.313309669494629,-0.23399564623832703
-1.3615022897720337,2.2730090618133545,-0.23700886964797974
-1.341360092163086,2.2751307487487793,-0.24384409189224243
-1.3168630599975586,2.270618438720703,-0.24989880621433258
-1.2845585346221924,2.2524852752685547,-0.254334419965744
-1.2721246480941772,2.267630100250244,-0.2622808516025543
-1.2704404592514038,2.3032875061035156,-0.2727511525154114
-1.2607320547103882,2.3254432678222656,-0.2816012501716614
-1.2473732233047485,2.340569257736206,-0.28957319259643555
-1.241572618484497,2.3691139221191406,-0.29910770058631897
-1.2296478748321533,2.3875420093536377,-0.30739831924438477
-1.2083113193511963,2.3887972831726074,-0.3135928809642792
-1.1980704069137573,2.410386085510254,-0.3222544193267822
-1.2046703100204468,2.4667341709136963,-0.33566737174987793
-1.1899560689926147,2.4815268516540527,-0.3434898555278778
-1.1767665147781372,2.499706506729126,-0.35182952880859375
-1.1882294416427612,2.5703485012054443,-0.36758720874786377
-1.203048825263977,2.6520042419433594,-0.3852958679199219
-1.1475220918655396,2.5783228874206543,-0.3802507519721985
-1.1427819728851318,2.617481231689453,-0.39172616600990295
-1.3146218061447144,3.069044351577759,-0.465842068195343
-1.3121068477630615,3.123553514480591,-0.48064252734184265
-1.2891192436218262,3.131901264190674,-0.48846182227134705
-1.2564643621444702,3.114793539047241,-0.4921405613422394
-1.2230032682418823,3.093684434890747,-0.4950157105922699
-1.1687873601913452,3.0183324813842773,-0.48887506127357483
-1.1237726211547852,2.9641499519348145,-0.48579758405685425
-1.0578417778015137,2.851696252822876,-0.47291937470436096
-1.0152676105499268,2.7963719367980957,-0.469026654958725
-0.975959300994873,2.7479686737060547,-0.4659597873687744
-0.924649715423584,2.662803888320923,-0.4562890827655792
-0.8833157420158386,2.602647542953491,-0.45063698291778564
-0.8536686897277832,2.5750341415405273,-0.4504992663860321
-0.8104445934295654,2.503131151199341,-0.44223377108573914
-0.7809617519378662,2.4712393283843994,-0.4407086670398712
-0.7418002486228943,2.405954122543335,-0.4330652058124542
-0.7137351632118225,2.3734118938446045,-0.43112313747406006
-0.687207818031311,2.3443329334259033,-0.42962077260017395
-0.6533610224723816,2.2892563343048096,-0.42308172583580017
-0.6257718205451965,2.252307415008545,-0.4196985960006714
-0.6018955707550049,2.226202964782715,-0.4182175099849701
-0.5754746198654175,2.1887521743774414,-0.4144732356071472
-0.5543029308319092,2.16973614692688,-0.4138701558113098
-0.5294594168663025,2.135686159133911,-0.41039079427719116
-0.511713445186615,2.1274807453155518,-0.41177091002464294
-0.48975083231925964,2.1004464626312256,-0.4094699025154114
-0.4698394536972046,2.080777883529663,-0.40823477506637573
-0.4444964826107025,2.0347166061401367,-0.4017336964607239
-0.4315105974674225,2.0447378158569336,-0.4063096344470978
-0.41411614418029785,2.0320818424224854,-0.4063362181186676
-0.39543506503105164,2.0118179321289062,-0.4045565724372864
-0.3756093382835388,1.9838954210281372,-0.4011046886444092
-0.3596406877040863,1.9746476411819458,-0.40140068531036377
-0.33896884322166443,1.938903570175171,-0.3963128924369812
-0.3241100013256073,1.9331973791122437,-0.39711567759513855
-0.31178221106529236,1.9425327777862549,-0.40083569288253784
-0.2958585023880005,1.9290889501571655,-0.3998677134513855
-0.2790307104587555,1.907951831817627,-0.397288978099823
-0.2617611885070801,1.882936954498291,-0.3938118517398834
-0.24858345091342926,1.8843599557876587,-0.395540714263916
-0.23539838194847107,1.8856890201568604,-0.39726927876472473
-0.2195519059896469,1.8641421794891357,-0.3941769301891327
-0.20655526220798492,1.8652665615081787,-0.39587852358818054
-0.1896030753850937,1.8283679485321045,-0.3891141414642334
-0.17882414162158966,1.8522074222564697,-0.39529910683631897
-0.16319750249385834,1.8226872682571411,-0.39008986949920654
-0.15113267302513123,1.8311177492141724,-0.39300817251205444
-0.13838638365268707,1.8319092988967896,-0.3940129280090332
-0.12433148175477982,1.8135840892791748,-0.3908064365386963
-0.1114959716796875,1.814223289489746,-0.3917108178138733
-0.09928885102272034,1.8223880529403687,-0.39424946904182434
-0.08590048551559448,1.8076269626617432,-0.39164987206459045
-0.07332799583673477,1.8080737590789795,-0.3921429216861725
-0.060254085808992386,1.7931716442108154,-0.3893220126628876
-0.047152962535619736,1.778181791305542,-0.38650208711624146
-0.03590821847319603,1.8356236219406128,-0.39935559034347534
-0.0229870043694973,1.8243592977523804,-0.39695560932159424
-0.010367120616137981,1.835905909538269,-0.3995382487773895
0.0024509942159056664,1.8664487600326538,-0.40627628564834595
0.015420335344970226,1.8358302116394043,-0.3997226655483246
0.028313228860497475,1.843377709388733,-0.4010787010192871
0.04148225858807564,1.8584706783294678,-0.40407612919807434
0.053982533514499664,1.842944622039795,-0.4004353880882263
0.06653153896331787,1.8349642753601074,-0.3984571397304535
0.07996275275945663,1.8498437404632568,-0.401163786649704
0.09229180961847305,1.8341398239135742,-0.39711710810661316
0.10637049376964569,1.8564821481704712,-0.40133586525917053
0.12075076252222061,1.8787208795547485,-0.40553727746009827
0.13272005319595337,1.8627971410751343,-0.40133440494537354
0.14508721232414246,1.8544572591781616,-0.39856016635894775
0.16146284341812134,1.891693115234375,-0.4055681824684143
0.17462961375713348,1.8907705545425415,-0.40441185235977173
0.19194845855236053,1.931597113609314,-0.4121066927909851
0.20701803267002106,1.9457519054412842,-0.41375482082366943
0.22574037313461304,1.990178108215332,-0.4218176603317261
0.24306036531925201,2.0154476165771484,-0.42576590180397034
0.2571323812007904,2.0140507221221924,-0.4241054058074951
0.2691446840763092,1.9974746704101562,-0.4188840091228485
0.2863098978996277,2.0187015533447266,-0.42157429456710815
0.3026570975780487,2.032223701477051,-0.4226432144641876
0.31710395216941833,2.0304625034332275,-0.4205099046230316
0.3349921405315399,2.0513503551483154,-0.4228247404098511
0.35638466477394104,2.090994358062744,-0.4288347065448761
0.3763531744480133,2.119140863418579,-0.4324313998222351
0.4016365706920624,2.1734843254089355,-0.44130170345306396
0.42409682273864746,2.208817481994629,-0.4460636079311371
0.44431638717651367,2.228930711746216,-0.4474247992038727
0.4637991487979889,2.2451653480529785,-0.44802531599998474
0.4939371943473816,2.30999493598938,-0.458246111869812
0.5100914835929871,2.307140827178955,-0.45491427183151245
0.5304674506187439,2.322939157485962,-0.4549415111541748
0.5707610249519348,2.420698642730713,-0.4708266258239746
0.6022493243217468,2.4770665168762207,-0.4785138964653015
0.6243457794189453,2.4921512603759766,-0.47813573479652405
0.6475575566291809,2.5108590126037598,-0.4780590832233429
0.6937207579612732,2.614802360534668,-0.4940245449542999
0.7316338419914246,2.681110143661499,-0.5025648474693298
0.7660496234893799,2.7323122024536133,-0.5081791281700134
0.8181783556938171,2.8423986434936523,-0.5242194533348083
0.8489464521408081,2.8744966983795166,-0.5255646705627441
0.9025781154632568,2.979971408843994,-0.5401024222373962
0.9502345323562622,3.059027910232544,-0.5494557023048401
1.000887393951416,3.14511775970459,-0.5596973299980164
1.057482361793518,3.245404005050659,-0.5719895362854004
1.1106963157653809,3.330474376678467,-0.5812778472900391
1.1678147315979004,3.4222524166107178,-0.5913971662521362
1.2503193616867065,3.5826785564422607,-0.6128042340278625
1.221299409866333,3.4224610328674316,-0.5790412425994873
1.432935357093811,3.92989182472229,-0.6577054858207703
1.4862996339797974,3.989838123321533,-0.6603663563728333
1.5541988611221313,4.08540153503418,-0.6685343384742737
1.5896313190460205,4.09400749206543,-0.662013828754425
1.6215085983276367,4.0913543701171875,-0.6535097360610962
1.644637942314148,4.066971778869629,-0.6416060328483582
1.6688941717147827,4.046053409576416,-0.6302547454833984
1.6820200681686401,4.000218391418457,-0.6149048209190369
1.4355403184890747,3.3498098850250244,-0.5080331563949585
1.4503456354141235,3.319383144378662,-0.4963424503803253
1.4768973588943481,3.317375898361206,-0.4890236258506775
1.4998769760131836,3.308295965194702,-0.48052114248275757
1.5163220167160034,3.2849607467651367,-0.4699947237968445
1.5395718812942505,3.275359630584717,-0.46133819222450256
1.5629804134368896,3.2654922008514404,-0.4524923264980316
1.5991097688674927,3.2836999893188477,-0.4475063681602478
1.6080527305603027,3.2459397315979004,-0.43489977717399597
1.6449971199035645,3.2633700370788574,-0.42953407764434814
1.6465553045272827,3.2115299701690674,-0.4150371849536896
1.6273466348648071,3.1221160888671875,-0.3959321975708008
1.6912208795547485,3.190575122833252,-0.3966473340988159
1.7322386503219604,3.213841199874878,-0.3914583623409271
1.739487648010254,3.1756739616394043,-0.3787188231945038
1.7290515899658203,3.1070828437805176,-0.3625725507736206
1.7910330295562744,3.167003870010376,-0.36118054389953613
1.8215138912200928,3.168654203414917,-0.3526797294616699
1.3117177486419678,2.2470223903656006,-0.24398019909858704
0.9660611748695374,1.6296916007995605,-0.17246080935001373
0.8852512836456299,1.4700230360031128,-0.15135100483894348
0.9379631876945496,1.534130573272705,-0.15350979566574097
0.9772194623947144,1.5744667053222656,-0.15287841856479645
0.9923914074897766,1.5746793746948242,-0.14809894561767578
1.013796329498291,1.584661841392517,-0.1441221535205841
1.0010557174682617,1.5423853397369385,-0.1354587823152542
1.0116969347000122,1.5359067916870117,-0.12989813089370728
1.0377744436264038,1.5518239736557007,-0.12593260407447815
1.045886754989624,1.5421185493469238,-0.11991821974515915
1.0476242303848267,1.5224961042404175,-0.11301470547914505
2.551652431488037,3.6547765731811523,-0.2578927278518677
2.593583106994629,3.6644420623779297,-0.2450542449951172
2.6147186756134033,3.640810489654541,-0.2289409190416336
2.6048479080200195,3.576678514480591,-0.21040409803390503
2.653514862060547,3.5951077938079834,-0.196759432554245
2.633582830429077,3.7349071502685547,0.5376684069633484
2.604677438735962,3.7529895305633545,0.5523598790168762
2.5613110065460205,3.7524263858795166,0.5641012191772461
1.0570645332336426,1.5726592540740967,0.24094457924365997
1.045174479484558,1.5797542333602905,0.24634046852588654
1.045314908027649,1.6066069602966309,0.2547859251499176
1.0040594339370728,1.5679190158843994,0.2525533139705658
1.021680235862732,1.620131492614746,0.26481735706329346
0.9965441226959229,1.607669472694397,0.26644960045814514
0.9879912734031677,1.6212105751037598,0.2723117768764496
0.9842426776885986,1.6408008337020874,0.2789685130119324
0.9722756743431091,1.6471710205078125,0.28335970640182495
1.3491491079330444,2.325469970703125,0.404460072517395
1.357611060142517,2.3818910121917725,0.41885906457901
1.8068515062332153,3.222194194793701,0.5722749829292297
1.7687668800354004,3.2066848278045654,0.5750808715820312
1.7864996194839478,3.2967898845672607,0.5965363383293152
1.7612462043762207,3.3089852333068848,0.6040597558021545
2.3923146724700928,4.57442045211792,0.8422054648399353
2.3667240142822266,4.603271961212158,0.8544023633003235
2.322249174118042,4.59823751449585,0.8599466681480408
2.2874808311462402,4.613908767700195,0.8691462874412537
2.255929470062256,4.636245250701904,0.8796678185462952
2.2323951721191406,4.671560287475586,0.8924503922462463
2.2008216381073,4.689104080200195,0.9018191695213318
2.165945529937744,4.7037224769592285,0.9100931286811829
2.133887767791748,4.725203514099121,0.9196650385856628
2.0955278873443604,4.732335090637207,0.9264750480651855
2.0651419162750244,4.752539157867432,0.9356096982955933
1.996287226676941,4.684385299682617,0.9274091720581055
1.7412292957305908,4.1692423820495605,0.8295027017593384
1.7161747217178345,4.194971084594727,0.8386300802230835
1.6851186752319336,4.206280708312988,0.8449344038963318
1.655168890953064,4.2169365882873535,0.8509977459907532
1.6248226165771484,4.227484703063965,0.8571256399154663
1.5956263542175293,4.241517543792725,0.8636369705200195
1.5643823146820068,4.252015590667725,0.8691579103469849
1.5356639623641968,4.269495487213135,0.8761587738990784
1.5047446489334106,4.279373645782471,0.8815956115722656
1.481582760810852,4.3106689453125,0.8914691805839539
1.4536464214324951,4.3271565437316895,0.8982949256896973
1.4197887182235718,4.329318046569824,0.901594877243042
1.3858448266983032,4.331264495849609,0.9048433899879456
1.3611196279525757,4.362184524536133,0.9141984581947327
1.3340156078338623,4.3855671882629395,0.922025740146637
1.3032077550888062,4.393848419189453,0.9266493320465088
1.2743576765060425,4.409310817718506,0.9327595233917236
1.2476589679718018,4.435964107513428,0.9407203793525696
1.214534878730774,4.4403157234191895,0.9440122246742249
1.185343623161316,4.4592084884643555,0.9504489302635193
1.153313398361206,4.46673583984375,0.9545004367828369
1.1257250308990479,4.488697052001953,0.9616331458091736
1.0960369110107422,4.503074645996094,0.9671227931976318
1.0654191970825195,4.517553329467773,0.9720779657363892
1.0364010334014893,4.539262294769287,0.9786456227302551
0.999933660030365,4.531041145324707,0.9788466691970825
0.9711151123046875,4.552223205566406,0.9853838086128235
0.9362296462059021,4.543212413787842,0.9854124188423157
0.775559663772583,3.9006946086883545,0.8477904796600342
0.7441677451133728,3.886859178543091,0.8460118770599365
0.849316418170929,4.616650581359863,1.006330132484436
0.8190751075744629,4.637044906616211,1.012275218963623
0.7887952327728271,4.657204627990723,1.0182204246520996
0.7574683427810669,4.6695637702941895,1.0224981307983398
0.7272295355796814,4.689246654510498,1.0284345149993896
0.6958665251731873,4.70893669128418,1.0340410470962524
0.6645750403404236,4.728437900543213,1.0393434762954712
0.6315824389457703,4.736371994018555,1.0421581268310547
0.597978949546814,4.740294933319092,1.044144868850708
0.5676538348197937,4.7666497230529785,1.0511095523834229
0.5352910757064819,4.777638912200928,1.0547444820404053
0.5045453310012817,4.81125020980835,1.063367486000061
0.472150593996048,4.829587459564209,1.0680066347122192
0.438833624124527,4.840105056762695,1.0709725618362427
0.40640103816986084,4.861791133880615,1.0764652490615845
0.37350669503211975,4.879446029663086,1.0811209678649902
0.33787667751312256,4.866461277008057,1.0790504217147827
0.3059166669845581,4.898861885070801,1.0870842933654785
0.2717165946960449,4.90068244934082,1.0879653692245483
0.2388901710510254,4.932811737060547,1.0952950716018677
0.20483824610710144,4.945667266845703,1.0984007120132446
0.16965147852897644,4.946871280670166,1.0989784002304077
0.13624480366706848,4.985925674438477,1.1080148220062256
0.1022053137421608,5.017125129699707,1.1153639554977417
0.06722704321146011,5.0099616050720215,1.114240288734436
0.03253144770860672,5.037023544311523,1.1200670003890991
-0.003184464992955327,5.060041904449463,1.1249940395355225
-0.038518574088811874,5.075184345245361,1.1282273530960083
-0.07417457550764084,5.097704887390137,1.1331547498703003
-0.11008653789758682,5.119976043701172,1.1380810737609863
-0.14587770402431488,5.126745700836182,1.13961660861969
-0.1826789677143097,5.159989833831787,1.1468713283538818
-0.2190670222043991,5.158778667449951,1.1459475755691528
-0.2555438280105591,5.172574996948242,1.1484230756759644
-0.29421356320381165,5.220380783081055,1.158496618270874
-0.2774032652378082,4.381034851074219,0.9718238115310669
-0.3035648465156555,4.318297863006592,0.9575514793395996
-0.3382406234741211,4.369452953338623,0.9685760736465454
-0.365286648273468,4.329257965087891,0.9589780569076538
-0.39200732111930847,4.292751312255859,0.950032114982605
-0.4156789481639862,4.229498386383057,0.9352289438247681
-0.4396457076072693,4.17750358581543,0.9229815602302551
-0.4675082564353943,4.159421920776367,0.9182642102241516
-0.48782604932785034,4.084377765655518,0.901043176651001
-0.5105050206184387,4.035748481750488,0.889682948589325
-0.5306695103645325,3.9758145809173584,0.8753059506416321
-0.5537058711051941,3.942248582839966,0.8668023943901062
-0.5773507356643677,3.9122588634490967,0.8591229319572449
-0.5950450897216797,3.848215103149414,0.8440420031547546
-0.6175832152366638,3.8179922103881836,0.8364344239234924
-0.6390930414199829,3.783872127532959,0.8280278444290161
-0.6586000919342041,3.74220871925354,0.8177422285079956
-0.6766511797904968,3.6967873573303223,0.8064247965812683
-0.6952721476554871,3.6549599170684814,0.795934796333313
-0.7232532501220703,3.6655941009521484,0.7969397306442261
-0.7265173196792603,3.5524203777313232,0.7710794806480408
-0.7512384653091431,3.5477592945098877,0.7688465714454651
-0.7636287808418274,3.4869401454925537,0.7544643878936768
-0.7861279249191284,3.4746875762939453,0.7501332759857178
-0.801958441734314,3.4363200664520264,0.7402504682540894
-0.8218108415603638,3.4164669513702393,0.734410285949707
-0.8416884541511536,3.3964388370513916,0.7285631895065308
-0.8493274450302124,3.328045606613159,0.7123925089836121
-0.8749129772186279,3.3298962116241455,0.7112929821014404
-0.8936839699745178,3.3096933364868164,0.7051657438278198
-0.9079862236976624,3.274691581726074,0.6958330273628235
-0.9218875765800476,3.239626169204712,0.6865497827529907
-0.9387074708938599,3.2154998779296875,0.6796323657035828
-0.9550207257270813,3.1873795986175537,0.6718549728393555
-0.970577597618103,3.1592915058135986,0.6641753911972046
-0.9853421449661255,3.1313235759735107,0.6562899351119995
-1.0065913200378418,3.1252732276916504,0.6528730988502502
-1.0145787000656128,3.079050064086914,0.6411244869232178
-1.0335355997085571,3.065369129180908,0.6361609101295471
-1.0450068712234497,3.029773235321045,0.6266897320747375
-1.0573042631149292,2.997767925262451,0.6180291771888733
-1.0699717998504639,2.969573974609375,0.6099274754524231
-1.0952658653259277,2.9774608612060547,0.6091355681419373
-1.1153478622436523,2.970766067504883,0.605372965335846
-1.1113359928131104,2.8991920948028564,0.5883910059928894
-1.124760627746582,2.874187707901001,0.5809337496757507
-1.139310359954834,2.8526909351348877,0.574241042137146
-1.1469956636428833,2.81728458404541,0.5644439458847046
-1.1321414709091187,2.7286765575408936,0.5440890789031982
-1.110455870628357,2.626077890396118,0.5210962891578674
-1.1439870595932007,2.6543376445770264,0.5241109132766724
-1.1441279649734497,2.6047613620758057,0.5117647051811218
-1.1683661937713623,2.6116464138031006,0.5104033946990967
-1.1922388076782227,2.618588447570801,0.5088366866111755
-1.2311218976974487,2.656620740890503,0.513216495513916
-1.2444301843643188,2.638518810272217,0.5067166686058044
-1.2564228773117065,2.6166415214538574,0.4994538724422455
-1.2646145820617676,2.5878846645355225,0.49087247252464294
-1.2750765085220337,2.5664613246917725,0.4834728240966797
-1.2891055345535278,2.551727533340454,0.4773188531398773
-1.2959460020065308,2.5231971740722656,0.4686427116394043
-1.3280619382858276,2.54221773147583,0.4686897099018097
-1.3222661018371582,2.489546775817871,0.4554904103279114
-1.3241173028945923,2.454496145248413,0.4453906714916229
-1.3404080867767334,2.4465651512145996,0.44026800990104675
-1.350056529045105,2.4245691299438477,0.4324471950531006
-1.359727144241333,2.4024014472961426,0.42459890246391296
-1.370424747467041,2.3839356899261475,0.4172983467578888
-1.3707066774368286,2.3490335941314697,0.40706875920295715
-1.382394552230835,2.3341526985168457,0.4003855586051941
-1.3992966413497925,2.3250882625579834,0.3943663239479065
-1.41154146194458,2.3096201419830322,0.3873123526573181
-1.4185657501220703,2.2881369590759277,0.3790813088417053
-1.4191815853118896,2.25681209564209,0.36930957436561584
-1.4351277351379395,2.2477502822875977,0.362897664308548
-1.4702221155166626,2.267670154571533,0.3609180450439453
-1.4489272832870483,2.2039976119995117,0.3455938398838043
-1.4805586338043213,2.221245765686035,0.34304726123809814
-1.4660322666168213,2.166746139526367,0.3290092945098877
-1.4764423370361328,2.1513376235961914,0.3209555745124817
-1.4817312955856323,2.1298983097076416,0.31184136867523193
-1.5007402896881104,2.1271398067474365,0.3052666485309601
-1.5113991498947144,2.1111702919006348,0.2964306175708771
-1.515870213508606,2.089914560317993,0.286726176738739
-1.5275342464447021,2.077705144882202,0.2780647277832031
-1.528385043144226,2.0492396354675293,0.2667646110057831
-1.4918607473373413,2.107170820236206,-0.14579220116138458
-1.4755991697311401,2.1178951263427734,-0.1555662304162979
-1.4665464162826538,2.1376657485961914,-0.16566461324691772
-1.4854966402053833,2.199465036392212,-0.17912307381629944
-1.4729554653167725,2.2164673805236816,-0.1890280544757843
-1.4569554328918457,2.226250410079956,-0.19785651564598083
-1.4553507566452026,2.259004831314087,-0.20871247351169586
-1.4278441667556763,2.252645969390869,-0.2159932553768158
-1.4216448068618774,2.2787046432495117,-0.22614285349845886
-1.3988221883773804,2.2782557010650635,-0.233501136302948
-1.3615775108337402,2.2545173168182373,-0.23833636939525604
-1.3452578783035278,2.2634451389312744,-0.24625776708126068
-1.3092832565307617,2.2386581897735596,-0.25030723214149475
-1.292306900024414,2.247615098953247,-0.25814011693000793
-1.2796822786331177,2.2628815174102783,-0.26649296283721924
-1.2710636854171753,2.2846508026123047,-0.2755279541015625
-1.2541420459747314,2.2930781841278076,-0.28296327590942383
-1.2518292665481567,2.3287363052368164,-0.2938408851623535
-1.2349176406860352,2.336812734603882,-0.3011900782585144
-1.2323193550109863,2.3722777366638184,-0.3120190501213074
-1.22013258934021,2.3906753063201904,-0.3206760585308075
-1.2131702899932861,2.4192938804626465,-0.33072301745414734
-1.2062366008758545,2.44773268699646,-0.3407320976257324
-1.2269773483276367,2.53576922416687,-0.35932427644729614
-1.2184200286865234,2.564601182937622,-0.3696664571762085
-1.1999586820602417,2.5722365379333496,-0.3769305348396301
-1.1751296520233154,2.565592050552368,-0.3820396065711975
-1.1532131433486938,2.565978527069092,-0.3880302906036377
-1.1578742265701294,2.6263439655303955,-0.4032179117202759
-1.1771866083145142,2.7222940921783447,-0.4241747260093689
-1.3117836713790894,3.0924458503723145,-0.48871779441833496
-1.2686375379562378,3.0506205558776855,-0.48870107531547546
-1.227615475654602,3.011937141418457,-0.48900502920150757
-1.1703801155090332,2.9296915531158447,-0.48186299204826355
-1.1195861101150513,2.861374616622925,-0.4767337143421173
-1.0672106742858887,2.7853190898895264,-0.46971118450164795
-1.0159833431243896,2.7087154388427734,-0.4622844457626343
-0.9688326120376587,2.63873553276062,-0.45561492443084717
-0.9318000674247742,2.5936925411224365,-0.4529689848423004
-0.883478045463562,2.515753746032715,-0.44422292709350586
-0.8416616320610046,2.451789379119873,-0.4375874698162079
-0.8169350624084473,2.434799909591675,-0.4391290545463562
-0.7685065865516663,2.344449996948242,-0.4271974563598633
-0.7471024990081787,2.3342981338500977,-0.42945629358291626
-0.7095251679420471,2.27264142036438,-0.422193318605423
-0.6810929179191589,2.236262798309326,-0.4193636178970337
-0.6565039753913879,2.2106728553771973,-0.41844063997268677
-0.6332836747169495,2.1886308193206787,-0.4178338944911957
-0.6072830557823181,2.155292510986328,-0.41498929262161255
-0.5839274525642395,2.129098653793335,-0.41340717673301697
-0.5538305044174194,2.07678484916687,-0.4066848158836365
-0.53528892993927,2.0650599002838135,-0.40747272968292236
-0.512265682220459,2.0345890522003174,-0.40447333455085754
-0.4924437403678894,2.0150861740112305,-0.40358880162239075
-0.47295036911964417,1.9954107999801636,-0.4026169180870056
-0.45004457235336304,1.9607311487197876,-0.39836832880973816
-0.433724045753479,1.9519987106323242,-0.39919957518577576
-0.4135395288467407,1.9244145154953003,-0.39613741636276245
-0.4000178873538971,1.926641583442688,-0.3991859555244446
-0.3819645941257477,1.9062918424606323,-0.39736440777778625
-0.36324629187583923,1.8821083307266235,-0.39457768201828003
-0.34304410219192505,1.846450686454773,-0.38928720355033875
-0.33414363861083984,1.8708477020263672,-0.39665496349334717
-0.3120003342628479,1.819860816001892,-0.3879050314426422
-0.2961665391921997,1.8026750087738037,-0.3860531449317932
-0.28096991777420044,1.7891651391983032,-0.38500386476516724
-0.267309308052063,1.783069372177124,-0.38551706075668335
-0.25158798694610596,1.7617586851119995,-0.3826845586299896
-0.24028606712818146,1.7706605195999146,-0.386089563369751
-0.22789771854877472,1.771912693977356,-0.3878517746925354
-0.20955528318881989,1.7238210439682007,-0.3787855803966522
-0.19733470678329468,1.724880576133728,-0.3805215656757355
-0.18980255722999573,1.7676347494125366,-0.3911266028881073
-0.1736866682767868,1.7306562662124634,-0.38407495617866516
-0.16056331992149353,1.7201341390609741,-0.38288211822509766
-0.1521478146314621,1.7627041339874268,-0.39354997873306274
-0.1357089877128601,1.7140824794769287,-0.38361072540283203
-0.1251331865787506,1.7337852716445923,-0.3888213336467743
-0.112789086997509,1.7305972576141357,-0.38892513513565063
-0.09941384941339493,1.708297610282898,-0.3847382366657257
-0.08791647106409073,1.716389536857605,-0.3872086703777313
-0.07475453615188599,1.69400155544281,-0.3826126456260681
-0.06411651521921158,1.7248170375823975,-0.39004576206207275
-0.05144272744655609,1.7022465467453003,-0.3854268789291382
-0.039453230798244476,1.6948460340499878,-0.3841384947299957
-0.027682222425937653,1.6950457096099854,-0.3842853605747223
-0.01564062386751175,1.6875463724136353,-0.3827069401741028
-0.003949345089495182,1.7104377746582031,-0.3880387842655182
0.008037025108933449,1.7256333827972412,-0.3916189670562744
0.02005857601761818,1.725594401359558,-0.39136019349098206
0.03192572668194771,1.7178535461425781,-0.3893749415874481
0.044087957590818405,1.7252650260925293,-0.39084282517433167
0.057167187333106995,1.7516244649887085,-0.3966153860092163
0.06831876188516617,1.7246721982955933,-0.3899730145931244
0.08032691478729248,1.724303960800171,-0.38931241631507874
0.09233324229717255,1.7238517999649048,-0.3886518180370331
0.10501538217067719,1.7347291707992554,-0.3905613124370575
0.11833278089761734,1.7493644952774048,-0.39304080605506897
0.13277967274188995,1.7791509628295898,-0.3987889289855957
0.14919789135456085,1.8278274536132812,-0.40874868631362915
0.15955422818660736,1.800406575202942,-0.4016997516155243
0.16991841793060303,1.7767561674118042,-0.39535555243492126
0.18836510181427002,1.832758903503418,-0.4064743220806122
0.20114505290985107,1.8317385911941528,-0.4049469530582428
0.21832121908664703,1.868531584739685,-0.41177505254745483
0.23228202760219574,1.8749024868011475,-0.4117894768714905
0.24734348058700562,1.888807773590088,-0.41313445568084717
0.26074448227882385,1.8874449729919434,-0.411117821931839
0.2810658812522888,1.9351427555084229,-0.41979092359542847
0.2980532646179199,1.9562309980392456,-0.4226386249065399
0.31413838267326355,1.969720721244812,-0.42343059182167053
0.33232545852661133,1.9943935871124268,-0.4266006648540497
0.3449667692184448,1.9850207567214966,-0.4224911630153656
0.3618440628051758,1.9981015920639038,-0.42313385009765625
0.38290491700172424,2.0337064266204834,-0.42822784185409546
0.40156036615371704,2.0541226863861084,-0.42999598383903503
0.4182232618331909,2.0631346702575684,-0.42935910820961
0.44686272740364075,2.1282131671905518,-0.44031018018722534
0.47586914896965027,2.1892881393432617,-0.45000559091567993
0.4912029206752777,2.186631679534912,-0.4464312791824341
0.5100010633468628,2.19879150390625,-0.44588014483451843
0.5334858894348145,2.229433298110962,-0.44902560114860535
0.570282518863678,2.3120205402374268,-0.4623352587223053
0.6000188589096069,2.3607823848724365,-0.46841150522232056
0.6292052865028381,2.405616521835327,-0.47364166378974915
0.6521229147911072,2.424222707748413,-0.47361212968826294
0.6947370171546936,2.512974262237549,-0.4870606064796448
0.730172336101532,2.5718111991882324,-0.49420374631881714
0.7689236998558044,2.6376142501831055,-0.5024168491363525
0.8128535747528076,2.7178149223327637,-0.5131849050521851
0.8545609712600708,2.786553382873535,-0.5215334892272949
0.8959970474243164,2.8513107299804688,-0.5285716652870178
0.9430944323539734,2.9303157329559326,-0.5380024909973145
0.9966442584991455,3.0233402252197266,-0.5495850443840027
1.0524612665176392,3.11955189704895,-0.5614965558052063
1.1182875633239746,3.2407963275909424,-0.57719886302948
1.1678916215896606,3.310490369796753,-0.5833293795585632
1.2081825733184814,3.3506429195404053,-0.5840157270431519
1.2372149229049683,3.3578085899353027,-0.578830897808075
1.4283113479614258,3.7943360805511475,-0.646386981010437
1.5185106992721558,3.9514808654785156,-0.6651989817619324
1.5787259340286255,4.024940490722656,-0.6694049835205078
1.6316077709197998,4.07621955871582,-0.6696131825447083
1.663061499595642,4.073497772216797,-0.6606003046035767
1.6860045194625854,4.049001216888428,-0.647864580154419
1.7069071531295776,4.02088737487793,-0.6347299814224243
1.9765690565109253,4.56746244430542,-0.7110875248908997
1.4669740200042725,3.3271520137786865,-0.5106008648872375
1.4869437217712402,3.3111376762390137,-0.5007181763648987
1.5041708946228027,3.287686347961426,-0.489577054977417
1.5307831764221191,3.2852509021759033,-0.4816584289073944
1.5503586530685425,3.268808603286743,-0.47156623005867004
1.576377511024475,3.2662503719329834,-0.46347129344940186
1.5959216356277466,3.249413251876831,-0.45325979590415955
1.6262894868850708,3.252981662750244,-0.44569680094718933
1.6522566080093384,3.249857187271118,-0.43719592690467834
1.6461498737335205,3.184492826461792,-0.4204571843147278
1.6072368621826172,3.057223081588745,-0.39580604434013367
1.7130111455917358,3.2044479846954346,-0.4065353274345398
1.707207202911377,3.1426336765289307,-0.3904207944869995
1.7217459678649902,3.118161916732788,-0.3789522051811218
1.7324644327163696,3.0867016315460205,-0.36664658784866333
1.7981725931167603,3.153385877609253,-0.36582648754119873
1.3345645666122437,2.3044891357421875,-0.2609065771102905
0.9760027527809143,1.6591222286224365,-0.18307548761367798
0.9540061354637146,1.5959035158157349,-0.17132768034934998
0.8820555806159973,1.453585147857666,-0.15173619985580444
0.9429789781570435,1.530881404876709,-0.15520818531513214
0.986874520778656,1.5774835348129272,-0.15496264398097992
0.9997422695159912,1.5745171308517456,-0.14967560768127441
1.0147314071655273,1.5747088193893433,-0.1445709466934204
1.0193928480148315,1.5582791566848755,-0.13781797885894775
1.0300856828689575,1.551742672920227,-0.13193747401237488
1.0404027700424194,1.5453336238861084,-0.1260734647512436
1.053378939628601,1.5417343378067017,-0.12016690522432327
2.548119068145752,3.6752443313598633,-0.27251872420310974
2.5813136100769043,3.6721723079681396,-0.25851279497146606
2.5934159755706787,3.6360137462615967,-0.2413511574268341
2.6177279949188232,3.619575262069702,-0.22545211017131805
2.6161301136016846,3.5686111450195312,-0.2073853462934494
2.6853864192962646,3.61059832572937,-0.19352364540100098
2.645867347717285,3.723280429840088,0.557625412940979
2.5980615615844727,3.7166831493377686,0.5692952871322632
2.577655792236328,3.7473771572113037,0.5862414240837097
1.049306035041809,1.5484553575515747,0.24688202142715454
1.0542491674423218,1.5815403461456299,0.25669679045677185
1.0501357316970825,1.6018811464309692,0.26453059911727905
1.0173813104629517,1.576162576675415,0.26437750458717346
1.0179471969604492,1.6024945974349976,0.27276113629341125
1.0053255558013916,1.6095777750015259,0.2778204679489136
0.9890851378440857,1.609703779220581,0.281534343957901
0.985505223274231,1.6291704177856445,0.2884728014469147
0.9571095705032349,1.6093614101409912,0.2883496880531311
0.9640973210334778,1.6492434740066528,0.29882654547691345
1.3420920372009277,2.3345558643341064,0.4275289475917816
1.8418124914169312,3.2560579776763916,0.6023356318473816
1.7817898988723755,3.2042455673217773,0.5984137058258057
1.7752113342285156,3.2503933906555176,0.6126825213432312
1.7743167877197266,3.306368350982666,0.6287879347801208
2.4175267219543457,4.581193447113037,0.8784990906715393
2.3843445777893066,4.596608638763428,0.8886060118675232
2.3459198474884033,4.60581111907959,0.8970295786857605
2.3068795204162598,4.614954948425293,0.9055890440940857
2.2799787521362305,4.643611431121826,0.9176613688468933
2.2468678951263428,4.657910346984863,0.926815927028656
2.2143890857696533,4.675914287567139,0.9364266991615295
2.1856601238250732,4.704625606536865,0.9479085206985474
2.147061586380005,4.712170600891113,0.9551876187324524
2.115604877471924,4.733071804046631,0.9650852084159851
2.0850906372070312,4.753304481506348,0.9747275710105896
2.036954879760742,4.734923839569092,0.9761224389076233
1.7497906684875488,4.150852203369141,0.8599311113357544
1.7276562452316284,4.183647155761719,0.8709997534751892
1.6968250274658203,4.194870471954346,0.877602219581604
1.6713764667510986,4.216121196746826,0.8861899971961975
1.641370415687561,4.22657585144043,0.8924503326416016
1.6156184673309326,4.251652240753174,0.9013276100158691
1.58695650100708,4.26936674118042,0.9087061882019043
1.552454948425293,4.272619724273682,0.9131064414978027
1.5248435735702515,4.289480209350586,0.9202612638473511
1.4970688819885254,4.306153297424316,0.9274334907531738
1.4659746885299683,4.315699100494385,0.93271803855896
1.4319536685943604,4.317951202392578,0.9362050294876099
1.4092074632644653,4.3564863204956055,0.947677493095398
1.373253345489502,4.350827217102051,0.9494917392730713
1.3494328260421753,4.381221771240234,0.9591556787490845
1.3230518102645874,4.4041571617126465,0.9672593474388123
1.2913168668746948,4.412593841552734,0.9716872572898865
1.2624701261520386,4.431903839111328,0.9784311056137085
1.2298234701156616,4.440104961395264,0.9828215837478638
1.2001163959503174,4.455195903778076,0.9887132048606873
1.1688497066497803,4.462570667266846,0.9929032325744629
1.14130437374115,4.484522819519043,1.0003942251205444
1.1092265844345093,4.491736888885498,1.004104733467102
1.0798718929290771,4.513769626617432,1.0110708475112915
1.0490820407867432,4.528054237365723,1.016330599784851
1.0218325853347778,4.556946754455566,1.0249121189117432
0.9899290204048157,4.563193321228027,1.028425693511963
0.9517260193824768,4.539349555969238,1.0251938104629517
0.7784260511398315,3.850111722946167,0.8710572123527527
0.7618797421455383,3.911165714263916,0.8861729502677917
0.8596366047859192,4.586728096008301,1.0408179759979248
0.8356888294219971,4.640867710113525,1.054748773574829
0.804557740688324,4.6534624099731445,1.0592752695083618
0.7727121710777283,4.665927886962891,1.0638608932495117
0.7435735464096069,4.693201065063477,1.0716874599456787
0.7113373875617981,4.705410480499268,1.0755635499954224
0.6790191531181335,4.71738862991333,1.0794429779052734
0.647082507610321,4.732916355133057,1.0841935873031616
0.6162090301513672,4.759582042694092,1.0915673971176147
0.5830338001251221,4.763270378112793,1.0937007665634155
0.5507097840309143,4.774292469024658,1.0975732803344727
0.5188466906547546,4.792811870574951,1.102663516998291
0.487354576587677,4.818753242492676,1.1093159914016724
0.4540967345237732,4.829320907592773,1.1124887466430664
0.4204823970794678,4.843493461608887,1.1165639162063599
0.38739868998527527,4.8535637855529785,1.1197278499603271
0.3547481298446655,4.871000289916992,1.1246492862701416
0.3233434557914734,4.911026477813721,1.134751319885254
0.2889544665813446,4.913006782531738,1.135457158088684
0.2549622654914856,4.933777809143066,1.1405682563781738
0.2207576185464859,4.942882537841797,1.1430351734161377
0.1870686560869217,4.9669599533081055,1.1490223407745361
0.15322858095169067,4.990800857543945,1.1550124883651733
0.119066022336483,5.014408111572266,1.1610090732574463
0.08352035284042358,5.015042781829834,1.1613706350326538
0.048848945647478104,5.049763202667236,1.1692520380020142
0.01366372685879469,5.049992084503174,1.1692031621932983
-0.0215871911495924,5.0651984214782715,1.1726784706115723
-0.05704934522509575,5.08015775680542,1.1761534214019775
-0.09325704723596573,5.094858646392822,1.1796274185180664
-0.12994323670864105,5.143555641174316,1.1910303831100464
-0.16564196348190308,5.142678260803223,1.1903867721557617
-0.20161181688308716,5.14919900894165,1.1913386583328247
-0.23838120698928833,5.170675277709961,1.1958050727844238
-0.27767640352249146,5.23369836807251,1.2099297046661377
-0.2598612308502197,4.319936275482178,0.9983555674552917
-0.29145845770835876,4.340967178344727,1.0029383897781372
-0.3210897147655487,4.331413745880127,1.0004422664642334
-0.3534203767776489,4.359759330749512,1.006110668182373
-0.3795320987701416,4.312015056610107,0.9942686557769775
-0.40513408184051514,4.260281085968018,0.9815593361854553
-0.4292028546333313,4.204647541046143,0.9680285453796387
-0.45390406250953674,4.160221099853516,0.9571367502212524
-0.476250559091568,4.10051965713501,0.9427919983863831
-0.4999672770500183,4.059678077697754,0.9325729012489319
-0.5219680666923523,4.007416248321533,0.9194043278694153
-0.5432824492454529,3.9588701725006104,0.9071798920631409
-0.5683049559593201,3.940378427505493,0.9019015431404114
-0.5916132926940918,3.9103939533233643,0.8940379619598389
-0.6081083416938782,3.8388519287109375,0.8767347931861877
-0.6284264326095581,3.793510913848877,0.8654701709747314
-0.647982656955719,3.75205659866333,0.8546792268753052
-0.6675606369972229,3.714293956756592,0.8447027206420898
-0.6873936653137207,3.6801705360412598,0.8356144428253174
-0.7068313360214233,3.6459343433380127,0.8265590667724609
-0.7239418625831604,3.6003143787384033,0.8149685859680176
-0.737000048160553,3.535870313644409,0.7991703152656555
-0.755813479423523,3.5051236152648926,0.790899395942688
-0.7780712842941284,3.4930405616760254,0.7865284085273743
-0.7967409491539001,3.465945243835449,0.7788301110267639
-0.8168374300003052,3.446176767349243,0.7728313207626343
-0.829373836517334,3.392735481262207,0.7592925429344177
-0.8493661880493164,3.3726413249969482,0.7532974481582642
-0.8633680939674377,3.3302500247955322,0.7423816323280334
-0.8752425312995911,3.284377098083496,0.730277419090271
-0.8976001739501953,3.279017210006714,0.727217972278595
-0.9161747694015503,3.2586939334869385,0.7208505272865295
-0.9322869181632996,3.2309465408325195,0.7129045128822327
-0.9473521113395691,3.199355363845825,0.7041410207748413
-0.9608743190765381,3.1640512943267822,0.6946282386779785
-0.9757146835327148,3.136230230331421,0.6864473223686218
-0.9950449466705322,3.1228952407836914,0.6813323497772217
-1.0102910995483398,3.098637580871582,0.6739233732223511
-1.0218759775161743,3.063340902328491,0.6641514897346497
-1.0384398698806763,3.0423576831817627,0.6574975252151489
-1.0522035360336304,3.0140650272369385,0.649324357509613
-1.0637853145599365,2.982365608215332,0.640143096446991
-1.0790388584136963,2.961416244506836,0.6331734657287598
-1.1043822765350342,2.969226121902466,0.6324256658554077
-1.1030058860778809,2.905078887939453,0.6163768768310547
-1.11784827709198,2.8837904930114746,0.6094583868980408
-1.1310335397720337,2.8588600158691406,0.601827085018158
-1.147772192955017,2.84480357170105,0.5961011052131653
-1.1406446695327759,2.774033546447754,0.5786045789718628
-1.1118600368499756,2.653907537460327,0.5510095357894897
-1.1273058652877808,2.6398801803588867,0.5454975962638855
-1.136732578277588,2.6115803718566895,0.5370553731918335
-1.1551508903503418,2.6043572425842285,0.5328124165534973
-1.1852619647979736,2.6254305839538574,0.53416907787323
-1.212520956993103,2.6392369270324707,0.5340120792388916
-1.2386797666549683,2.6491994857788086,0.5330101847648621
-1.254167079925537,2.634336471557617,0.5269106030464172
-1.2613567113876343,2.601977825164795,0.5172972679138184
-1.272010087966919,2.5806221961975098,0.509640634059906
-1.2789604663848877,2.5523533821105957,0.5006917119026184
-1.2927474975585938,2.537724018096924,0.49444282054901123
-1.303700566291809,2.515782117843628,0.48665308952331543
-1.3161358833312988,2.497234344482422,0.4795694053173065
-1.3258270025253296,2.4756717681884766,0.47157004475593567
-1.3312981128692627,2.4474480152130127,0.46244484186172485
-1.3442389965057373,2.432568311691284,0.4558262228965759
-1.3539655208587646,2.4105324745178223,0.4477577209472656
-1.3630791902542114,2.388678550720215,0.43968895077705383
-1.3772356510162354,2.377150297164917,0.43327781558036804
-1.3851714134216309,2.3556764125823975,0.4251706600189209
-1.385860562324524,2.3204407691955566,0.4144286513328552
-1.4064643383026123,2.3181300163269043,0.4095401465892792
-1.4137964248657227,2.2966268062591553,0.40103402733802795
-1.4415403604507446,2.307804822921753,0.3981192409992218
-1.4326164722442627,2.2597193717956543,0.384921133518219
-1.465535283088684,2.2765324115753174,0.3826388716697693
-1.4722404479980469,2.2548811435699463,0.37365850806236267
-1.4998396635055542,2.2656502723693848,0.3700035512447357
-1.5115280151367188,2.249748706817627,0.3615535795688629
