X,Y,Z
-0.784289538860321,6.336982250213623,0.9329331517219543
-0.8239119648933411,6.301065444946289,0.9264055490493774
-0.493416965007782,3.580469846725464,0.5257288813591003
-0.5153608918190002,3.5541136264801025,0.5211909413337708
-0.5389010906219482,3.5429680347442627,0.5189248323440552
-0.5583276748657227,3.5088531970977783,0.5130265355110168
-0.5728071928024292,3.4479587078094482,0.5031895637512207
-1.0998002290725708,6.351136684417725,0.9251923561096191
-1.1531569957733154,6.397078037261963,0.930219829082489
-1.204869270324707,6.423364639282227,0.9323662519454956
-1.2599526643753052,6.468360900878906,0.9372795224189758
-1.3143682479858398,6.509292125701904,0.9411807060241699
-1.371393084526062,6.561254978179932,0.9464496374130249
-1.4251701831817627,6.5938286781311035,0.9489277601242065
-1.4620715379714966,6.542670249938965,0.9393441081047058
-1.5041440725326538,6.517758369445801,0.9336068034172058
-1.5342895984649658,6.443645477294922,0.9208930134773254
-0.6924405694007874,2.8221774101257324,0.4022589325904846
-0.702146589756012,2.7801411151885986,0.3951166272163391
-0.7194361686706543,2.7679789066314697,0.3922368288040161
-0.742445707321167,2.7781789302825928,0.392549991607666
-0.763806164264679,2.780669927597046,0.3917701542377472
-0.7810600996017456,2.7680883407592773,0.3888840675354004
-1.0658793449401855,3.6814815998077393,0.515494167804718
-1.0890058279037476,3.6670241355895996,0.511640191078186
-1.118276596069336,3.6747817993164062,0.5109401941299438
-1.1389895677566528,3.65258526802063,0.5060628056526184
-1.1609513759613037,3.633863687515259,0.5016809701919556
-1.1766849756240845,3.5966036319732666,0.49478402733802795
-1.203881859779358,3.5961978435516357,0.49262356758117676
-1.2281521558761597,3.588411569595337,0.489483505487442
-1.2498124837875366,3.5731444358825684,0.48534947633743286
-1.274681806564331,3.5647871494293213,0.48211735486984253
-1.2995622158050537,3.556230068206787,0.47887593507766724
-1.3213233947753906,3.540379762649536,0.47455552220344543
-1.3510267734527588,3.5462286472320557,0.47290274500846863
-1.374827265739441,3.537540912628174,0.4693657159805298
-1.404710054397583,3.542947292327881,0.46766820549964905
-1.4396477937698364,3.558680772781372,0.46727368235588074
-1.4793107509613037,3.584855318069458,0.4682306945323944
-1.4886595010757446,3.539475917816162,0.4595012664794922
-1.5016366243362427,3.504983901977539,0.45230022072792053
-1.5190867185592651,3.4810450077056885,0.4464869797229767
-1.546532154083252,3.477959394454956,0.4432826042175293
-1.577240228652954,3.4817142486572266,0.4409511089324951
-1.605846643447876,3.481997013092041,0.4378688931465149
-1.6207482814788818,3.454209327697754,0.4312918484210968
-2.6055545806884766,5.458199977874756,0.6765906810760498
-2.637061357498169,5.426688194274902,0.6675748229026794
-2.6682045459747314,5.395012855529785,0.6586041450500488
-2.7082364559173584,5.384661674499512,0.6517552733421326
-2.7103641033172607,5.301752090454102,0.6362884044647217
-2.7356247901916504,5.263424873352051,0.6261601448059082
-2.7798030376434326,5.258748531341553,0.6198911666870117
-2.7847330570220947,5.182204246520996,0.6051065921783447
-1.1729769706726074,2.1490976810455322,0.24843144416809082
-1.1798495054244995,2.1279661655426025,0.2434512972831726
-2.4943742752075195,4.4263997077941895,0.5008947849273682
-2.542860269546509,4.439935684204102,0.4968469738960266
-5.988454341888428,10.30010986328125,1.1389186382293701
-6.059831619262695,10.269283294677734,1.1217445135116577
-1.243933081626892,2.075084924697876,0.22368274629116058
-1.2544734477996826,2.060044527053833,0.2190704345703125
-2.687382936477661,4.349238872528076,0.45591607689857483
-2.761101484298706,4.405069351196289,0.455014705657959
-2.994101047515869,4.705348014831543,0.47834447026252747
-3.027526378631592,4.684929847717285,0.46826839447021484
-3.0511999130249023,4.656580924987793,0.4573061764240265
-3.05989408493042,4.605177879333496,0.44407692551612854
-3.0835378170013428,4.571640491485596,0.4319998323917389
-3.0941505432128906,4.523069858551025,0.4184706509113312
-3.114548444747925,4.49110746383667,0.40630218386650085
-3.1499974727630615,4.476895332336426,0.39516422152519226
-2.8452048301696777,3.987092971801758,0.34283292293548584
-5.050947666168213,6.98618221282959,0.5844482779502869
-2.9367918968200684,4.004496097564697,0.32471489906311035
-2.914389133453369,3.920240879058838,0.30738022923469543
-2.460012674331665,3.4707510471343994,-0.17661389708518982
-2.4481728076934814,3.50714111328125,-0.1884467601776123
-2.3902175426483154,3.4802234172821045,-0.1968136578798294
-2.323726177215576,3.4352529048919678,-0.20320425927639008
-2.2613747119903564,3.3966410160064697,-0.20951779186725616
-2.1868834495544434,3.3377339839935303,-0.21409878134727478
-2.1591246128082275,3.345912218093872,-0.2223486602306366
-2.134087324142456,3.3613498210906982,-0.23105372488498688
-2.1171014308929443,3.3898708820343018,-0.2406686544418335
-1.278376817703247,2.0789921283721924,-0.15197885036468506
-2.063931941986084,3.4122049808502197,-0.25652703642845154
-2.0466270446777344,3.440150022506714,-0.2656558156013489
-2.030219316482544,3.467329978942871,-0.27446308732032776
-1.1937826871871948,2.073429584503174,-0.16815175116062164
-1.212942361831665,2.1428658962249756,-0.1778285950422287
-2.5811636447906494,4.63560676574707,-0.3930242359638214
-2.5557332038879395,4.6666178703308105,-0.40389949083328247
-2.5361549854278564,4.711854457855225,-0.41598430275917053
-2.501354455947876,4.72955322265625,-0.42573657631874084
-2.4823920726776123,4.773822784423828,-0.43757450580596924
-2.460352897644043,4.814981937408447,-0.449123352766037
-2.432096004486084,4.845871448516846,-0.4597172141075134
-2.3974814414978027,4.8622236251831055,-0.4687933623790741
-2.3830387592315674,4.9203691482543945,-0.48200201988220215
-2.3524234294891357,4.947132587432861,-0.4919188618659973
-1.559644103050232,3.3416998386383057,-0.3371736407279968
-1.5295310020446777,3.3378963470458984,-0.34152644872665405
-1.4996854066848755,3.3337717056274414,-0.3457954525947571
-1.4787174463272095,3.351045846939087,-0.35211873054504395
-1.4632819890975952,3.3826446533203125,-0.3600776195526123
-1.477385401725769,3.481738805770874,-0.3751875162124634
-1.4559184312820435,3.4985854625701904,-0.38156065344810486
-1.4307790994644165,3.5083484649658203,-0.38697516918182373
-1.4199256896972656,3.554030179977417,-0.3964080214500427
-1.3533039093017578,3.4586122035980225,-0.39003393054008484
-1.338741421699524,3.492823600769043,-0.39809897541999817
-1.7516791820526123,4.6689629554748535,-0.5374912619590759
-2.0433199405670166,5.566458702087402,-0.6471044421195984
-1.9513680934906006,5.43371057510376,-0.6377404928207397
-1.6193490028381348,4.6114583015441895,-0.5464202165603638
-1.5892043113708496,4.629411697387695,-0.553444504737854
-0.9613199234008789,2.8663687705993652,-0.34561920166015625
-0.9506163597106934,2.902172803878784,-0.35290732979774475
-0.9397210478782654,2.937873363494873,-0.3602220416069031
-0.9024924635887146,2.892220973968506,-0.35753482580184937
-0.7779874205589294,2.5567567348480225,-0.31843024492263794
-0.7752170562744141,2.613905906677246,-0.32797011733055115
-0.7547357678413391,2.6114413738250732,-0.33005067706108093
-0.7480244636535645,2.657325029373169,-0.3382834196090698
-0.7435407638549805,2.7145352363586426,-0.3478321135044098
-0.7179559469223022,2.6969797611236572,-0.34784677624702454
-0.7115933299064636,2.7503762245178223,-0.35699453949928284
-0.6857552528381348,2.728599786758423,-0.35640570521354675
-0.6684556603431702,2.7405130863189697,-0.36009716987609863
-0.6642452478408813,2.8089263439178467,-0.371106892824173
-1.4428675174713135,6.302486896514893,-0.8373035788536072
-1.397164225578308,6.304074764251709,-0.8420526385307312
-1.3442524671554565,6.271236419677734,-0.842203676700592
-0.5982342958450317,2.8896420001983643,-0.38988420367240906
-0.5778928995132446,2.8934669494628906,-0.3921912908554077
-0.5572473406791687,2.8971965312957764,-0.39452970027923584
-0.5412492156028748,2.923541784286499,-0.3999423384666443
-0.5221510529518127,2.9345755577087402,-0.4031875431537628
-0.506076991558075,2.9646105766296387,-0.40883171558380127
-0.4914797842502594,3.0060157775878906,-0.4160975217819214
-0.4689348340034485,3.0015008449554443,-0.41705968976020813
-0.45143231749534607,3.027383804321289,-0.42224517464637756
-0.43622690439224243,3.0723650455474854,-0.4298759698867798
-0.4188005030155182,3.1057932376861572,-0.4358271658420563
-0.3999970555305481,3.1314404010772705,-0.44072699546813965
-0.38144680857658386,3.160797119140625,-0.44618359208106995
-0.3216468393802643,3.2368156909942627,-0.46023890376091003
-0.30157601833343506,3.2657532691955566,-0.4653645157814026
-0.28018468618392944,3.282999277114868,-0.4688574969768524
-0.26172712445259094,3.346423625946045,-0.4788375496864319
-0.238664910197258,3.3518974781036377,-0.4802747070789337
-0.2177409678697586,3.3919434547424316,-0.486698180437088
-0.19547037780284882,3.416409492492676,-0.49091994762420654
-0.17289815843105316,3.440725803375244,-0.4951528012752533
-0.15034733712673187,3.4842703342437744,-0.501863420009613
-0.12777750194072723,3.5315349102020264,-0.5089859962463379
-0.10399256646633148,3.559326648712158,-0.5133334398269653
-0.07991306483745575,3.5908210277557373,-0.5182456970214844
-0.05557767674326897,3.6337473392486572,-0.5248406529426575
-0.030091436579823494,3.6649835109710693,-0.5292699337005615
-0.004630067385733128,3.7037715911865234,-0.534809947013855
0.021303566172719002,3.730782985687256,-0.5386744141578674
0.04769805818796158,3.769209861755371,-0.5442127585411072
0.07518655061721802,3.8345277309417725,-0.5535067319869995
0.10224496573209763,3.849454402923584,-0.5551654100418091
0.13051004707813263,3.8796324729919434,-0.5590365529060364
0.16041871905326843,3.952117919921875,-0.5690279006958008
0.188585564494133,3.966442584991455,-0.5706624388694763
0.21843530237674713,4.007637977600098,-0.5758604407310486
0.25118327140808105,4.087242603302002,-0.5863437652587891
0.28056663274765015,4.093253135681152,-0.5862597823143005
0.3058243691921234,4.048953056335449,-0.5790203809738159
0.3362383246421814,4.073870658874512,-0.5817101001739502
0.36211249232292175,4.044706344604492,-0.5762273073196411
0.39164242148399353,4.057738304138184,-0.5767231583595276
0.4211382269859314,4.062806606292725,-0.5760806798934937
0.4476402997970581,4.044646263122559,-0.5722002387046814
0.4766348898410797,4.049377918243408,-0.5714852809906006
0.499878466129303,4.0079026222229,-0.5638630390167236
0.5235812664031982,3.973966598510742,-0.5573588013648987
0.5570003390312195,4.0088019371032715,-0.5604873895645142
0.5781754851341248,3.9591894149780273,-0.5518675446510315
0.6056381464004517,3.9554216861724854,-0.5494241714477539
0.6287182569503784,3.924755096435547,-0.5430446863174438
0.6597368121147156,3.9435768127441406,-0.5435384511947632
0.6818926930427551,3.908745050430298,-0.536655068397522
0.7096037864685059,3.9041824340820312,-0.5339342951774597
0.7380713820457458,3.9072000980377197,-0.5319077372550964
0.7591701745986938,3.8720180988311768,-0.524660587310791
0.7744477987289429,3.810153007507324,-0.513875424861908
0.8082021474838257,3.8391788005828857,-0.5153742432594299
0.8246585130691528,3.7845959663391113,-0.5055299997329712
0.8525221943855286,3.786823272705078,-0.5030517578125
0.8751935958862305,3.766202211380005,-0.4975677728652954
0.897799015045166,3.7454023361206055,-0.49208733439445496
0.9350577592849731,3.784651279449463,-0.4944952726364136
0.9635972380638123,3.785987615585327,-0.4916141927242279
1.1948963403701782,4.56345796585083,-0.5888106822967529
1.228475570678711,4.563175201416016,-0.5850182771682739
1.2562270164489746,4.540139198303223,-0.5783049464225769
1.2793781757354736,4.502044677734375,-0.5696812868118286
1.3131235837936401,4.501060485839844,-0.5653658509254456
1.341943621635437,4.485104084014893,-0.5592665672302246
1.3708826303482056,4.468876838684082,-0.5531371831893921
1.402090072631836,4.459828853607178,-0.5479163527488708
1.4281387329101562,4.435922622680664,-0.5406526327133179
1.45430326461792,4.411759376525879,-0.5332124829292297
1.4786205291748047,4.383864402770996,-0.5254300236701965
1.5042191743850708,4.359395503997803,-0.5180681943893433
1.259443998336792,3.569643974304199,-0.4205116033554077
1.2865755558013916,3.5687801837921143,-0.4165186583995819
1.3137794733047485,3.5676989555358887,-0.4124998152256012
1.6113560199737549,4.2822346687316895,-0.49028053879737854
1.6385074853897095,4.264277935028076,-0.4834924042224884
1.6676931381225586,4.253650188446045,-0.47728145122528076
1.6967815160751343,4.242825984954834,-0.4710593521595001
1.7189239263534546,4.213624477386475,-0.46276023983955383
1.7429711818695068,4.187604904174805,-0.4547445476055145
1.7717363834381104,4.176216125488281,-0.4482690393924713
1.7971351146697998,4.1575775146484375,-0.4409789741039276
1.8164747953414917,4.1243815422058105,-0.4321301579475403
1.8390026092529297,4.098036766052246,-0.42399469017982483
1.8774056434631348,4.106966018676758,-0.41930654644966125
1.9020776748657227,4.087713718414307,-0.41175034642219543
1.9235504865646362,4.061131954193115,-0.4034416079521179
1.945247769355774,4.034204006195068,-0.3950549066066742
1.9797933101654053,4.035396099090576,-0.3893589377403259
2.0006113052368164,4.008417129516602,-0.380793035030365
2.026432752609253,3.99174165725708,-0.37324997782707214
2.0508086681365967,3.971193790435791,-0.3652738630771637
2.0778989791870117,3.957761764526367,-0.35787880420684814
2.1008942127227783,3.937443971633911,-0.3498448133468628
2.1169590950012207,3.9029347896575928,-0.3404499888420105
2.1485161781311035,3.8952274322509766,-0.33323654532432556
2.134655237197876,3.8099822998046875,-0.31953492760658264
2.1601438522338867,3.7962193489074707,-0.3119580149650574
2.182826042175293,3.7748682498931885,-0.3034818470478058
2.200934886932373,3.746900796890259,-0.2944965660572052
2.234301805496216,3.7458927631378174,-0.2874813973903656
2.2558505535125732,3.724461078643799,-0.2788398265838623
2.273789405822754,3.6958560943603516,-0.2695266604423523
2.2983264923095703,3.6812455654144287,-0.26122692227363586
2.3395729064941406,3.692744731903076,-0.25466880202293396
2.332150459289551,3.6240596771240234,-0.24213336408138275
2.3692095279693604,3.628499984741211,-0.23468618094921112
2.4102694988250732,3.639407157897949,-0.22755186259746552
2.409630298614502,3.5841288566589355,-0.21579906344413757
2.442307710647583,3.5813984870910645,-0.20727306604385376
2.4838719367980957,3.5912630558013916,-0.19917362928390503
2.491093158721924,3.548727035522461,-0.18770648539066315
2.5096685886383057,3.5265533924102783,-0.1774212121963501
2.546760320663452,3.5292892456054688,-0.16804222762584686
2.5755393505096436,3.5185275077819824,-0.15743042528629303
2.183779239654541,2.944472312927246,-0.1232379823923111
2.7781591415405273,3.897944211959839,0.31284424662590027
2.772482395172119,3.9488019943237305,0.3264918327331543
2.7324459552764893,3.9567575454711914,0.33648139238357544
2.6859757900238037,3.9499361515045166,0.3444640338420868
2.674461603164673,3.994433641433716,0.35660210251808167
2.6389589309692383,4.007768630981445,0.3658434748649597
2.6303601264953613,4.0590410232543945,0.37822237610816956
2.601334571838379,4.076864719390869,0.38715845346450806
2.5574846267700195,4.076120853424072,0.3940863013267517
2.5269792079925537,4.094271659851074,0.40262484550476074
2.5021309852600098,4.117818832397461,0.4113397002220154
2.485008478164673,4.159122943878174,0.4218226969242096
2.4434566497802734,4.160313129425049,0.428049772977829
2.4172730445861816,4.1837921142578125,0.4362657964229584
2.401217460632324,4.223608493804932,0.446108877658844
2.3563079833984375,4.216901779174805,0.4507892429828644
2.273338556289673,4.142045974731445,0.44809988141059875
2.247363805770874,4.164316177368164,0.45546674728393555
2.214423894882202,4.172410488128662,0.4612181782722473
2.190833330154419,4.201686859130859,0.46908634901046753
2.1611969470977783,4.220670223236084,0.4757654666900635
2.133512258529663,4.242729663848877,0.48277533054351807
2.1071064472198486,4.263899326324463,0.4895089268684387
2.07978892326355,4.2852559089660645,0.49616387486457825
2.0512733459472656,4.3069257736206055,0.5026735663414001
2.019258499145508,4.321361064910889,0.5083732008934021
1.9953649044036865,4.348907947540283,0.5154361128807068
1.9674781560897827,4.3694610595703125,0.5217786431312561
1.9920457601547241,4.510933876037598,0.5423372387886047
1.954159140586853,4.514153480529785,0.5463024377822876
1.93185293674469,4.552648067474365,0.5545385479927063
1.8864809274673462,4.533209323883057,0.5556070804595947
1.9010528326034546,4.660902500152588,0.5748570561408997
1.8584226369857788,4.652408123016357,0.5769738554954529
1.8200854063034058,4.654455184936523,0.5803565382957458
1.7988018989562988,4.699544906616211,0.5891198515892029
1.7508642673492432,4.671499252319336,0.5886368751525879
1.3328986167907715,3.634453535079956,0.46037358045578003
1.3145136833190918,3.6654574871063232,0.46645450592041016
1.2852840423583984,3.667177677154541,0.46876195073127747
1.621577262878418,4.736263275146484,0.6081389784812927
1.6215749979019165,4.846269130706787,0.6249628663063049
1.5967084169387817,4.886620998382568,0.632948100566864
1.5596420764923096,4.889928817749023,0.6359273195266724
1.5288994312286377,4.915389060974121,0.6415383219718933
1.4865758419036865,4.903576374053955,0.642317533493042
1.442934274673462,4.883800983428955,0.6420208811759949
1.4152833223342896,4.915622234344482,0.6484935283660889
1.397079586982727,4.984768390655518,0.6600039005279541
1.3359335660934448,4.900750637054443,0.6507891416549683
1.2927643060684204,4.879848003387451,0.6498881578445435
1.259665846824646,4.896088123321533,0.6539561152458191
1.2234431505203247,4.896879196166992,0.6559498906135559
1.200556993484497,4.953960418701172,0.6655550599098206
1.1746885776519775,4.999557018280029,0.6735715866088867
1.140660047531128,5.015028476715088,0.6771560907363892
1.1081862449645996,5.037819862365723,0.6817680597305298
1.0754448175430298,5.060398101806641,0.6863952875137329
1.0394837856292725,5.067559242248535,0.6889637112617493
1.0041077136993408,5.074343681335449,0.6914868950843811
2.05949068069458,10.804598808288574,1.475510597229004
1.965295433998108,10.723155975341797,1.4668166637420654
1.8802974224090576,10.6867036819458,1.4643217325210571
1.8070117235183716,10.722298622131348,1.4718055725097656
1.7248307466506958,10.688200950622559,1.4697020053863525
1.6492263078689575,10.691720008850098,1.4728257656097412
1.5692805051803589,10.66800594329834,1.471947431564331
1.4960490465164185,10.693723678588867,1.4771778583526611
1.4140287637710571,10.665400505065918,1.4750456809997559
1.3117141723632812,10.459661483764648,1.4483758211135864
1.2206453084945679,10.314410209655762,1.4300645589828491
1.136481761932373,10.210709571838379,1.4175336360931396
1.0552966594696045,10.121782302856445,1.4069074392318726
0.9934160113334656,10.224967956542969,1.4222304821014404
0.39101773500442505,4.346954822540283,0.6050879955291748
0.35499587655067444,4.283931732177734,0.5967844128608704
0.32517683506011963,4.2861857414245605,0.5975912809371948
0.29693853855133057,4.3113908767700195,0.6016296744346619
0.27051588892936707,4.371161460876465,0.6105309724807739
0.3087511956691742,5.639987468719482,0.7879406213760376
0.26963281631469727,5.649670600891113,0.7895118594169617
0.23165291547775269,5.690005779266357,0.795407235622406
0.19317875802516937,5.726210594177246,0.8007664084434509
0.15375657379627228,5.742815017700195,0.8034256100654602
0.1137886568903923,5.774630069732666,0.8082607984542847
0.07396069914102554,5.806220531463623,0.8126493096351624
0.03381258249282837,5.849159240722656,0.8185227513313293
-0.007003023289144039,5.899555683135986,0.8254774212837219
-0.0124128432944417,1.5241665840148926,0.21324948966503143
-0.09344449639320374,6.138723850250244,0.8588641285896301
-0.13529013097286224,6.099261283874512,0.8533666133880615
-0.24910905957221985,8.553762435913086,1.1964491605758667
-0.3055270314216614,8.470773696899414,1.1841295957565308
-0.25838324427604675,6.006472110748291,0.8391802310943604
-0.1768668293952942,3.5394086837768555,0.49425017833709717
-0.20475122332572937,3.5883405208587646,0.5008494853973389
-0.22919109463691711,3.579165458679199,0.4993639588356018
-0.5569074749946594,7.8420610427856445,1.0935461521148682
-0.6035023927688599,7.741827964782715,1.0784435272216797
-0.5603652000427246,6.600376605987549,0.9185215830802917
-0.6078311204910278,6.608030796051025,0.918695867061615
-0.3701210021972656,3.7389707565307617,0.519345223903656
-0.3952676057815552,3.7287251949310303,0.5174745321273804
-0.42119938135147095,3.725996255874634,0.5166722536087036
-0.44083863496780396,3.673219919204712,0.5085994601249695
-0.46263429522514343,3.639492988586426,0.503186821937561
-0.4845443367958069,3.613369941711426,0.4988739490509033
-0.5047252178192139,3.5755884647369385,0.49297967553138733
-0.5238758325576782,3.533864736557007,0.4865783154964447
-0.5508275628089905,3.5455875396728516,0.48756271600723267
-0.5693768262863159,3.503640651702881,0.4808959662914276
-1.0689542293548584,6.305087089538574,0.8637340068817139
-1.1249059438705444,6.370409965515137,0.8710249066352844
-1.174446940422058,6.393319606781006,0.8725186586380005
-1.2283939123153687,6.434791564941406,0.876552402973175
-1.285232424736023,6.487218379974365,0.8820932507514954
-1.340704321861267,6.527818202972412,0.8855575919151306
-1.3965240716934204,6.571996688842773,0.8893656730651855
-1.445532202720642,6.581676959991455,0.8885228037834167
-1.479723572731018,6.522919654846191,0.878473162651062
-1.5126919746398926,6.460136413574219,0.867937445640564
-0.6777585744857788,2.8050498962402344,0.3759627044200897
-0.6950412392616272,2.7930572032928467,0.3732953369617462
-0.7082196474075317,2.765986919403076,0.36856991052627563
-0.7250081896781921,2.753849506378174,0.36586323380470276
-0.743965744972229,2.749018430709839,0.36413127183914185
-0.7779872417449951,2.796173334121704,0.36925026774406433
-0.7846869826316833,2.7462027072906494,0.36157700419425964
-1.0812933444976807,3.689462423324585,0.4840433895587921
-1.1062533855438232,3.6824066638946533,0.4813618063926697
-1.135728120803833,3.68999981880188,0.4806101322174072
-1.154744267463684,3.6600754261016846,0.4749257564544678
-1.1743009090423584,3.633838415145874,0.4697827100753784
-1.1921916007995605,3.603872299194336,0.4641464352607727
-1.2115126848220825,3.581439971923828,0.4592505097389221
-1.2407233715057373,3.5882275104522705,0.45812252163887024
-1.267632007598877,3.5874247550964355,0.45602285861968994
-1.2904367446899414,3.5714404582977295,0.451923668384552
-1.3153598308563232,3.5627307891845703,0.44880470633506775
-1.3395792245864868,3.554108142852783,0.44552284479141235
-1.3662216663360596,3.5526907444000244,0.44304683804512024
-1.397122859954834,3.5619237422943115,0.44190579652786255
-1.4308570623397827,3.5740439891815186,0.4410025179386139
-1.4675686359405518,3.593129873275757,0.4409654438495636
-1.4923231601715088,3.583369493484497,0.4372926354408264
-1.5162805318832397,3.573765277862549,0.4334547519683838
-1.517072319984436,3.510538101196289,0.4231722056865692
-1.5384548902511597,3.493210554122925,0.4183720052242279
-1.5596983432769775,3.4757378101348877,0.4135825037956238
-1.5950307846069336,3.4900548458099365,0.41251736879348755
-1.6149636507034302,3.4728035926818848,0.40750592947006226
-4.261277198791504,9.00731086730957,1.0492281913757324
-2.6399710178375244,5.481701850891113,0.6336237192153931
-2.664698362350464,5.43593168258667,0.6234309077262878
-2.6829001903533936,5.380051136016846,0.6120190024375916
-2.711512327194214,5.349081039428711,0.6032459139823914
-2.743346691131592,5.324888229370117,0.5952903032302856
-2.773075819015503,5.292755603790283,0.5862411856651306
-2.796081304550171,5.246265888214111,0.5755382180213928
-2.8144097328186035,5.197532653808594,0.5644972324371338
-1.1769020557403564,2.140047788619995,0.23004195094108582
-1.1761460304260254,2.1052396297454834,0.2238859385251999
-2.5027875900268555,4.4076924324035645,0.4634748697280884
-2.5411016941070557,4.404451847076416,0.4576248228549957
-2.5875566005706787,4.418703556060791,0.45347318053245544
-2.612823963165283,4.395514011383057,0.4453916549682617
-1.259475827217102,2.085622787475586,0.20845003426074982
-2.6817314624786377,4.37367057800293,0.4309680163860321
-2.6797449588775635,4.307056903839111,0.41801974177360535
-2.9826955795288086,4.724510192871094,0.4514564275741577
-3.007436752319336,4.691201210021973,0.4408006966114044
-3.0366387367248535,4.668589115142822,0.4310460686683655
-3.049506664276123,4.623777866363525,0.419216126203537
-3.0512614250183105,4.558043956756592,0.40501904487609863
-3.080657482147217,4.5344157218933105,0.3945489823818207
-3.1050407886505127,4.5091776847839355,0.38376009464263916
-3.121427059173584,4.470254421234131,0.3715302348136902
-2.936619520187378,4.1436967849731445,0.335485577583313
-2.863255023956299,3.9861927032470703,0.3137750029563904
-2.9032623767852783,3.9869537353515625,0.3045699894428253
-2.907531976699829,3.936321973800659,0.2908664643764496
-2.4905409812927246,3.4879956245422363,-0.164772629737854
-2.4479827880859375,3.4793903827667236,-0.17374791204929352
-2.4303910732269287,3.510180711746216,-0.18465843796730042
-2.3715765476226807,3.4790427684783936,-0.19181668758392334
-2.292142391204834,3.4144866466522217,-0.19646640121936798
-2.2231149673461914,3.36617112159729,-0.20169180631637573
-2.179471731185913,3.3522727489471436,-0.20841126143932343
-2.1467530727386475,3.35429310798645,-0.2157704085111618
-2.129833221435547,3.382976531982422,-0.22482486069202423
-1.2737497091293335,2.0550544261932373,-0.14068135619163513
-2.081331491470337,3.4119787216186523,-0.24025942385196686
-2.0473999977111816,3.4137191772460938,-0.24710828065872192
-2.030911922454834,3.4411354064941406,-0.25543728470802307
-2.006516695022583,3.4548745155334473,-0.2626742124557495
-1.1982274055480957,2.098351240158081,-0.1632530391216278
-1.1677026748657227,2.079472780227661,-0.16538089513778687
-1.9420729875564575,3.5165700912475586,-0.2856302559375763
-2.554109573364258,4.704390048980713,-0.3897984027862549
-2.5231313705444336,4.7291460037231445,-0.3995121121406555
-2.5004210472106934,4.766847610473633,-0.4101068079471588
-2.4791314601898193,4.80788516998291,-0.4210081696510315
-2.4467949867248535,4.832371711730957,-0.430486798286438
-2.428945779800415,4.884112358093262,-0.4423060715198517
-2.3979601860046387,4.907297611236572,-0.4513893723487854
-2.371381998062134,4.941017150878906,-0.46140626072883606
-2.3453006744384766,4.978494644165039,-0.47171828150749207
-1.5353009700775146,3.3201982975006104,-0.31906208395957947
-1.5115785598754883,3.330540180206299,-0.3244970142841339
-1.487853765487671,3.3406906127929688,-0.3297646939754486
-1.4668059349060059,3.357961654663086,-0.33567070960998535
-1.4581032991409302,3.4035866260528564,-0.34443536400794983
-1.459837794303894,3.4741480350494385,-0.3557780385017395
-1.4347145557403564,3.484063148498535,-0.3609809875488281
-1.412506103515625,3.500990390777588,-0.3667495548725128
-1.4074804782867432,3.5610756874084473,-0.37709084153175354
-1.3474342823028564,3.4796950817108154,-0.3723476827144623
-1.3228802680969238,3.4885921478271484,-0.3771117925643921
-1.747460126876831,4.710872173309326,-0.5142520070075989
-2.0172784328460693,5.558957576751709,-0.6126326322555542
-1.918481707572937,5.403756141662598,-0.601063072681427
-1.6091890335083008,4.634674072265625,-0.5202440023422241
-1.5785754919052124,4.652763843536377,-0.5266706943511963
-1.8866456747055054,5.6956915855407715,-0.6502137780189514
-1.866899013519287,5.7708420753479,-0.664180338382721
-0.9763875603675842,3.09141206741333,-0.3586767017841339
-0.9281644225120544,3.012521982192993,-0.3521556556224823
-0.7693650722503662,2.5614025592803955,-0.30159908533096313
-0.7697833776473999,2.6297712326049805,-0.3118773102760315
-0.7479101419448853,2.6236326694488525,-0.3133889436721802
-0.7492468953132629,2.699516773223877,-0.3246542811393738
-0.7341662645339966,2.719418525695801,-0.32909542322158813
-0.7178561091423035,2.735483169555664,-0.33310848474502563
-0.7025314569473267,2.7551538944244385,-0.33757370710372925
-0.6707970499992371,2.710808515548706,-0.3342212736606598
-0.6570935249328613,2.737804889678955,-0.3394024670124054
-0.643871009349823,2.7685303688049316,-0.34503433108329773
-1.3730615377426147,6.097679615020752,-0.7639634609222412
-1.31643545627594,6.042074203491211,-0.7609755396842957
-1.2670232057571411,6.0203070640563965,-0.7621450424194336
-1.2454018592834473,6.131091117858887,-0.7796018719673157
-1.188762903213501,6.070676326751709,-0.7753471732139587
-1.1463556289672852,6.078264236450195,-0.7797456979751587
-1.0963895320892334,6.043593883514404,-0.7787291407585144
-1.0007907152175903,5.749152183532715,-0.7437382340431213
-0.9578701257705688,5.740293502807617,-0.7452561855316162
-0.9493331909179688,5.945363521575928,-0.7746713757514954
-0.917282223701477,6.012633323669434,-0.7862685918807983
-0.8764846324920654,6.026070594787598,-0.7908999919891357
-0.8393693566322327,6.073973178863525,-0.7994651198387146
-0.4162527322769165,3.1759932041168213,-0.419199675321579
-0.7371314167976379,5.945981025695801,-0.7870295643806458
-0.3800202012062073,3.250321865081787,-0.431450754404068
-0.35226309299468994,3.206507682800293,-0.42676228284835815
-0.3322184085845947,3.2318506240844727,-0.43099144101142883
-0.2720227539539337,3.3341338634490967,-0.4474150836467743
-0.24990946054458618,3.351264715194702,-0.4504532814025879
-0.22886838018894196,3.3875863552093506,-0.4559119641780853
-0.2052445262670517,3.3967483043670654,-0.4577564597129822
-0.1837189644575119,3.436643123626709,-0.4637591242790222
-0.16021066904067993,3.445462703704834,-0.4655991792678833
-0.13942967355251312,3.5276644229888916,-0.47702261805534363
-0.11513947695493698,3.5362377166748047,-0.47843310236930847
-0.09078878909349442,3.5640017986297607,-0.4824710786342621
-0.06642567366361618,3.5877187252044678,-0.48598381876945496
-0.042228300124406815,3.65384840965271,-0.4952435791492462
-0.0169413723051548,3.685032606124878,-0.49934807419776917
0.008777560666203499,3.716040849685669,-0.5034511089324951
0.035325851291418076,3.7429938316345215,-0.5070266127586365
0.062484726309776306,3.812337636947632,-0.5163690447807312
0.0894290879368782,3.831193685531616,-0.5187448263168335
0.11768075823783875,3.884727954864502,-0.5254930853843689
0.1456717997789383,3.910975456237793,-0.5285652875900269
0.17522983253002167,3.964092493057251,-0.5352849364280701
0.205867201089859,4.013095378875732,-0.5414549112319946
0.23550920188426971,4.042608737945557,-0.5447322726249695
0.2673414647579193,4.098978042602539,-0.551403284072876
0.29439178109169006,4.077869415283203,-0.547669529914856
0.3221123218536377,4.06815767288208,-0.545497715473175
0.3532457947731018,4.09293270111084,-0.5479568243026733
0.3859536945819855,4.136855602264404,-0.5525866746902466
0.41073372960090637,4.0957746505737305,-0.5457891821861267
0.43544331192970276,4.058390140533447,-0.5395306348800659
0.46496543288230896,4.067025661468506,-0.5394220948219299
0.48951759934425354,4.029259204864502,-0.5331339836120605
0.5183751583099365,4.0337371826171875,-0.5320390462875366
0.5442294478416443,4.014974117279053,-0.527905285358429
0.5676935315132141,3.980699300765991,-0.5217742323875427
0.5988359451293945,3.9999136924743652,-0.5226771235466003
0.6258958578109741,3.988227128982544,-0.5193676948547363
0.649705171585083,3.961193561553955,-0.5138345956802368
0.6757523417472839,3.9493000507354736,-0.5103079080581665
0.8603603839874268,4.826117038726807,-0.6211860775947571
0.8897258043289185,4.797543525695801,-0.6151273846626282
0.9141566157341003,4.746032238006592,-0.6058462858200073
0.9475510716438293,4.739943981170654,-0.6021872162818909
0.9787576794624329,4.726137638092041,-0.5976308584213257
1.0108593702316284,4.715867042541504,-0.5935376286506653
1.0419844388961792,4.70159912109375,-0.5889750123023987
1.0674824714660645,4.6645660400390625,-0.5811318159103394
1.0966410636901855,4.64237117767334,-0.5751410126686096
1.1288408041000366,4.6351494789123535,-0.5710803866386414
1.1573644876480103,4.612615585327148,-0.5651566386222839
1.1874115467071533,4.597477912902832,-0.5600025057792664
1.21711003780365,4.5822224617004395,-0.5546039938926697
1.2420843839645386,4.547915935516357,-0.5468919277191162
1.2779901027679443,4.554622650146484,-0.5441675782203674
1.3033398389816284,4.523745059967041,-0.5369809865951538
1.3301259279251099,4.500326156616211,-0.5303923487663269
1.3566181659698486,4.4767608642578125,-0.5237748026847839
1.3881504535675049,4.46766471862793,-0.5188012719154358
1.414699912071228,4.443603515625,-0.5121544599533081
1.4407408237457275,4.419473171234131,-0.5054242610931396
1.4674005508422852,4.399008274078369,-0.4989408254623413
1.4875737428665161,4.359996318817139,-0.49041542410850525
1.5180153846740723,4.3500823974609375,-0.4851456582546234
1.2733819484710693,3.5676767826080322,-0.3944202661514282
1.2951505184173584,3.552063226699829,-0.3890645205974579
1.5920575857162476,4.27562141418457,-0.46393290162086487
1.6244299411773682,4.2723469734191895,-0.459149032831192
1.6542742252349854,4.261482238769531,-0.4535258114337921
1.681247353553772,4.2431721687316895,-0.44690147042274475
1.702872395515442,4.214190483093262,-0.43918830156326294
1.739269495010376,4.220946311950684,-0.4351748824119568
1.7612674236297607,4.191344261169434,-0.4273538291454315
1.7872587442398071,4.172480583190918,-0.42058074474334717
1.8099699020385742,4.146336078643799,-0.412880539894104
1.8383409976959229,4.1344475746154785,-0.4067048728466034
1.860826849937439,4.107913494110107,-0.3990160822868347
1.8893183469772339,4.095499038696289,-0.3926894962787628
1.9137791395187378,4.076142311096191,-0.38558563590049744
1.9386221170425415,4.056375980377197,-0.3783724308013916
1.9670202732086182,4.043295860290527,-0.3717464506626129
1.9916110038757324,4.023160934448242,-0.3644612431526184
2.0135130882263184,3.999774694442749,-0.35681238770484924
2.042443037033081,3.9900529384613037,-0.3503757119178772
2.0685815811157227,3.972781181335449,-0.34311774373054504
2.089136838912964,3.9449965953826904,-0.33484554290771484
2.111940860748291,3.9245798587799072,-0.3272663354873657
2.1311957836151123,3.8969902992248535,-0.3190514147281647
2.11869740486145,3.811025857925415,-0.3060440719127655
2.152219772338867,3.8106794357299805,-0.29995715618133545
2.1703338623046875,3.782999277114868,-0.2915954291820526
2.19647479057312,3.7684485912323,-0.2841702997684479
2.2227163314819336,3.7535929679870605,-0.2766466438770294
2.247612476348877,3.7392873764038086,-0.26912662386894226
2.2686920166015625,3.7179460525512695,-0.26103371381759644
2.30753493309021,3.722083568572998,-0.2543158233165741
2.311723232269287,3.6740214824676514,-0.2441648691892624
2.3443264961242676,3.6723456382751465,-0.2371366322040558
2.3572189807891846,3.6367557048797607,-0.2275327444076538
2.381753444671631,3.621248722076416,-0.21920205652713776
2.4014341831207275,3.5993545055389404,-0.21036745607852936
2.44826078414917,3.615401268005371,-0.20335794985294342
2.454782724380493,3.5736570358276367,-0.19302953779697418
2.4777867794036865,3.5582144260406494,-0.18418970704078674
2.520705461502075,3.5667335987091064,-0.17583155632019043
2.5171303749084473,3.512255907058716,-0.16426245868206024
2.544870615005493,3.502311944961548,-0.15472856163978577
2.182004690170288,2.9603939056396484,-0.12257853150367737
2.769498348236084,3.9151039123535156,0.2947218120098114
2.7551262378692627,3.952996253967285,0.3064174950122833
2.710794448852539,3.95440673828125,0.31509411334991455
2.685145854949951,3.9804847240448,0.32540494203567505
2.6524722576141357,3.9922261238098145,0.3339773118495941
2.651317834854126,4.0575480461120605,0.3469085991382599
2.5957999229431152,4.0370659828186035,0.3522399067878723
2.5881567001342773,4.087427139282227,0.3633815348148346
2.5401601791381836,4.0800251960754395,0.3693152070045471
2.525301456451416,4.12507438659668,0.37983280420303345
2.5062263011932373,4.1587419509887695,0.3889105021953583
2.4701740741729736,4.165979862213135,0.3954460024833679
2.440446138381958,4.187267780303955,0.40313589572906494
2.412821054458618,4.211514949798584,0.41108453273773193
2.3698132038116455,4.203950881958008,0.41556793451309204
2.3278653621673584,4.199985027313232,0.42021867632865906
2.257183790206909,4.144928455352783,0.41952481865882874
2.226776123046875,4.160703659057617,0.42582014203071594
2.213275671005249,4.206868648529053,0.4351714253425598
2.1775834560394287,4.211701393127441,0.4400804042816162
2.146087884902954,4.2272233963012695,0.4459327757358551
2.126892328262329,4.266735553741455,0.45432862639427185
2.0969340801239014,4.280948638916016,0.4598552882671356
2.0696637630462646,4.302223205566406,0.46623560786247253
2.037787437438965,4.316838264465332,0.4715273082256317
2.0090365409851074,4.338282585144043,0.47760099172592163
1.9682748317718506,4.330760478973389,0.4803767800331116
1.9964923858642578,4.475187301635742,0.5000399351119995
1.9520647525787354,4.460268497467041,0.5018800497055054
1.9661450386047363,4.584873199462891,0.5193288922309875
1.9264146089553833,4.584296226501465,0.5226381421089172
1.896926999092102,4.604438304901123,0.528205394744873
1.8646659851074219,4.6170573234558105,0.5329082012176514
1.8445236682891846,4.662224769592285,0.5412283539772034
1.785971999168396,4.6137261390686035,0.5385257601737976
1.771510362625122,4.676965713500977,0.5488331913948059
1.3578640222549438,3.662245273590088,0.43198099732398987
1.3242733478546143,3.6493678092956543,0.4326704144477844
1.30621337890625,3.6802189350128174,0.4384521543979645
1.2637615203857422,3.6453847885131836,0.43624573945999146
1.6318645477294922,4.819444179534912,0.5792909860610962
1.5878446102142334,4.800974369049072,0.5795704126358032
1.5638014078140259,4.841039657592773,0.5869044661521912
1.5323083400726318,4.858781337738037,0.5915720462799072
1.497724175453186,4.873190879821777,0.5954773426055908
1.4625225067138672,4.883456230163574,0.5988715887069702
1.4469481706619263,4.9604573249816895,0.6105016469955444
1.4102253913879395,4.96254825592041,0.6129028797149658
1.391076683998108,5.027930736541748,0.6231750845909119
1.315226674079895,4.8874311447143555,0.6076981425285339
1.2795504331588745,4.8965325355529785,0.6105921864509583
1.2444058656692505,4.905226707458496,0.613437831401825
1.2198959589004517,4.9549665451049805,0.6214375495910645
1.1852922439575195,4.96300745010376,0.624229907989502
1.1558812856674194,4.993468761444092,0.6298809051513672
1.119757890701294,5.001376628875732,0.6323898434638977
1.0905852317810059,5.0392537117004395,0.6386049389839172
1.0561708211898804,5.054196834564209,0.6419569253921509
1.0145646333694458,5.0307841300964355,0.6404371857643127
0.9883416295051575,5.083096504211426,0.6485847234725952
2.0785229206085205,11.108885765075684,1.4208204746246338
1.9996764659881592,11.122819900512695,1.4249610900878906
1.9181536436080933,11.1209135055542,1.4270880222320557
1.8347464799880981,11.106961250305176,1.4277352094650269
1.7382861375808716,11.000348091125488,1.4164735078811646
1.643530249595642,10.900757789611816,1.4061678647994995
1.5487697124481201,10.78104305267334,1.3932379484176636
1.4553585052490234,10.664648056030273,1.379726529121399
1.3550937175750732,10.482179641723633,1.357674479484558
1.2651057243347168,10.360370635986328,1.343495488166809
1.182541012763977,10.280077934265137,1.3347153663635254
1.0986264944076538,10.183831214904785,1.3239185810089111
1.0196492671966553,10.109936714172363,1.3160326480865479
0.40618202090263367,4.331280708312988,0.5642018914222717
0.3751004934310913,4.326212406158447,0.5639201402664185
0.34169623255729675,4.290027141571045,0.5596051216125488
0.3128868043422699,4.315432071685791,0.5633565187454224
0.28611430525779724,4.367660999298096,0.5706362724304199
0.32883429527282715,5.618417263031006,0.7346758246421814
0.290137380361557,5.632113933563232,0.7367287874221802
0.252480685710907,5.6726460456848145,0.7421990633010864
0.21237100660800934,5.681986331939697,0.7436299324035645
0.17423705756664276,5.73360538482666,0.7506290078163147
0.13433901965618134,5.73462438583374,0.7510414123535156
0.09545549005270004,5.797328948974609,0.7595721483230591
0.05527394264936447,5.817203998565674,0.7622155547142029
0.014074179343879223,5.825214385986328,0.7630897760391235
-0.049767136573791504,10.937721252441406,1.4325631856918335
-0.1011534035205841,8.791543960571289,1.1513208150863647
-0.16036783158779144,8.68609619140625,1.137420654296875
-0.2193063646554947,8.630593299865723,1.1301170587539673
-0.2770480811595917,8.563115119934082,1.1210287809371948
-0.2376788854598999,6.029910564422607,0.7888761162757874
-0.2774556279182434,5.985650062561035,0.7826151847839355
-0.18985483050346375,3.5623562335968018,0.4655151665210724
-0.21459631621837616,3.5610053539276123,0.46510231494903564
-0.24248550832271576,3.6058578491210938,0.47074341773986816
-0.286065936088562,3.847479820251465,0.5020244717597961
-0.31196293234825134,3.8378002643585205,0.5002012848854065
-0.3353976011276245,3.800930976867676,0.494863361120224
-0.35939890146255493,3.77549409866333,0.49104610085487366
-0.383266806602478,3.7498867511749268,0.487232506275177
-0.40559157729148865,3.708674192428589,0.4814143180847168
-0.42826274037361145,3.678926706314087,0.47712358832359314
-0.4488019645214081,3.6375858783721924,0.4710403382778168
-0.46831679344177246,3.5922927856445312,0.46446624398231506
-0.4908828139305115,3.5737764835357666,0.4613887369632721
-0.5116412043571472,3.539689779281616,0.45631447434425354
-0.5327328443527222,3.5132038593292236,0.45226234197616577
-0.5632398724555969,3.5478243827819824,0.4560949206352234
-0.5780491232872009,3.486706018447876,0.44737857580184937
-1.0928874015808105,6.324121475219727,0.8098185062408447
-1.1450979709625244,6.366400241851807,0.8136252164840698
-1.2012161016464233,6.4194865226745605,0.8187830448150635
-1.2539657354354858,6.453165054321289,0.8214964866638184
-1.308074951171875,6.490208148956299,0.8246545195579529
-1.3643813133239746,6.538407802581787,0.8287914991378784
-1.4155502319335938,6.559662342071533,0.8293886780738831
-1.4559983015060425,6.527389049530029,0.8232203722000122
-1.4923189878463745,6.479813098907471,0.8151928782463074
-1.5293444395065308,6.435723781585693,0.807647705078125
-0.6855690479278564,2.7983686923980713,0.3503250777721405
-0.693259596824646,2.7487077713012695,0.34307292103767395
-0.7200396060943604,2.774087429046631,0.3451482653617859
-0.7348689436912537,2.754347324371338,0.3416388928890228
-0.758025050163269,2.7643632888793945,0.341816246509552
-0.7773135900497437,2.759211540222168,0.34011968970298767
-1.0692477226257324,3.696751117706299,0.45427289605140686
-1.0947391986846924,3.689603328704834,0.4516615867614746
-1.1242320537567139,3.6972620487213135,0.4509088099002838
-1.1562219858169556,3.7120890617370605,0.4510316848754883
-1.1678820848464966,3.659909963607788,0.4430014193058014
-1.1872743368148804,3.6335740089416504,0.43815213441848755
-1.207701563835144,3.6108033657073975,0.43361330032348633
-1.2269500494003296,3.5882482528686523,0.42897829413414
-1.2510374784469604,3.580263614654541,0.42611512541770935
-1.2780863046646118,3.5792887210845947,0.42406997084617615
-1.3030890226364136,3.570615530014038,0.42108404636383057
-1.3252856731414795,3.5545010566711426,0.4172477126121521
-1.3551948070526123,3.560213327407837,0.41568347811698914
-1.3889261484146118,3.5767455101013184,0.41539323329925537
-1.4244672060012817,3.596560478210449,0.4154604375362396
-1.44663405418396,3.5797178745269775,0.41122156381607056
-1.4804450273513794,3.5914816856384277,0.410282701253891
-1.5217888355255127,3.620976209640503,0.4111195504665375
-1.526044487953186,3.5647222995758057,0.40219441056251526
-1.5265406370162964,3.5014240741729736,0.3925604224205017
-1.5414105653762817,3.4698221683502197,0.3864489793777466
-1.565677285194397,3.4593560695648193,0.38271018862724304
-1.6025668382644653,3.4771249294281006,0.38189196586608887
-1.622375726699829,3.459775924682617,0.3771577477455139
-2.6078202724456787,5.4669952392578125,0.5914987325668335
-2.6205670833587646,5.396846294403076,0.5792654156684875
-2.6617445945739746,5.386033535003662,0.5734686851501465
-2.710726499557495,5.39276647567749,0.5691550970077515
-2.7198848724365234,5.323440074920654,0.556867241859436
-2.734192132949829,5.264281272888184,0.5456740856170654
-2.74375057220459,5.19413423538208,0.5332614779472351
-2.801750421524048,5.216864109039307,0.5303417444229126
-1.1440964937210083,2.097386121749878,0.210989847779274
-1.184524416923523,2.1376328468322754,0.21272024512290955
-2.5133087635040283,4.462793827056885,0.4390611946582794
-2.5484085083007812,4.452479362487793,0.43295809626579285
-2.5855331420898438,4.44971227645874,0.42734217643737793
-2.6106274127960205,4.426661491394043,0.4197686016559601
-1.2326914072036743,2.057541608810425,0.19243967533111572
-1.267332911491394,2.0824363231658936,0.19204120337963104
-2.6866774559020996,4.350997447967529,0.39530178904533386
-2.694153070449829,4.301157474517822,0.38483068346977234
-2.9893620014190674,4.700569152832031,0.4135923981666565
-3.0182883739471436,4.67356538772583,0.4039810299873352
-3.0440759658813477,4.6482648849487305,0.39447930455207825
-3.052995443344116,4.596467971801758,0.38266339898109436
-3.07212233543396,4.556326866149902,0.37141090631484985
-3.077756404876709,4.501456260681152,0.3589246869087219
-3.1112606525421143,4.488626956939697,0.3496418595314026
-3.1381351947784424,4.4611663818359375,0.3385515511035919
-2.8551807403564453,4.002987861633301,0.2955529987812042
-6.761115074157715,9.3556489944458,0.6712393760681152
-2.9243037700653076,3.9881415367126465,0.27680981159210205
-2.9195797443389893,3.929335355758667,0.2633506953716278
-2.4650418758392334,3.477548360824585,-0.16056576371192932
-2.4352502822875977,3.488506317138672,-0.16984257102012634
-2.404118537902832,3.500092029571533,-0.17908072471618652
-2.324394941329956,3.435899496078491,-0.18368776142597198
-2.2532451152801514,3.384493350982666,-0.18850727379322052
-2.204645872116089,3.364690065383911,-0.19466443359851837
-2.1598682403564453,3.3468177318573,-0.2004203200340271
-2.134763479232788,3.362419843673706,-0.20809820294380188
-2.1096744537353516,3.3777401447296143,-0.2157142609357834
-1.2666330337524414,2.059804916381836,-0.13536176085472107
-2.0606048107147217,3.406956434249878,-0.2300931066274643
-2.0354981422424316,3.421532392501831,-0.23717282712459564
-2.0153536796569824,3.442002058029175,-0.24441279470920563
-1.9858880043029785,3.449599504470825,-0.25079673528671265
-1.2134264707565308,2.144040584564209,-0.15941210091114044
-1.9283106327056885,3.4633078575134277,-0.2628929913043976
-1.9467408657073975,3.555039644241333,-0.27531638741493225
-1.9169341325759888,3.56184983253479,-0.28121045231819153
-2.506455183029175,4.739506244659424,-0.3812941908836365
-2.4839375019073486,4.7770490646362305,-0.3911365270614624
-2.4530138969421387,4.801084995269775,-0.3998071849346161
-2.433603048324585,4.849530220031738,-0.4105324149131775
-2.4025793075561523,4.872987747192383,-0.41902461647987366
-2.3813254833221436,4.917359352111816,-0.42942020297050476
-2.3523499965667725,4.947861194610596,-0.4383707344532013
