X,Y,Z
-1.7116260528564453,3.0913963317871094,0.45278245210647583
-1.7344753742218018,3.0839598178863525,0.44725894927978516
-0.8309938311576843,1.4538110494613647,0.20865967869758606
-0.8449957370758057,1.4551194906234741,0.2066248059272766
-0.866364061832428,1.4700090885162354,0.206369087100029
-0.8722308874130249,1.4579464197158813,0.202268585562706
-0.8785371780395508,1.4455442428588867,0.19801276922225952
-0.8887233138084412,1.4397588968276978,0.19467921555042267
-0.8898948431015015,1.421203851699829,0.18953336775302887
-0.9033840298652649,1.4223238229751587,0.18702121078968048
-0.9136363863945007,1.416247010231018,0.18329578638076782
-0.9064522981643677,1.384328007698059,0.17630672454833984
-0.9025126099586487,1.35946524143219,0.17022185027599335
-2.3702306747436523,3.519970417022705,0.43286436796188354
-2.41507625579834,3.533078193664551,0.42600908875465393
-1.3047473430633545,1.8819819688796997,0.2222001701593399
-1.4711660146713257,2.093715190887451,0.24193540215492249
-1.2131974697113037,1.7361866235733032,-0.11334297060966492
-1.4415751695632935,2.341539144515991,-0.21115116775035858
-1.4490668773651123,2.391063690185547,-0.22201892733573914
-1.3315199613571167,2.233914852142334,-0.21334750950336456
-1.2817798852920532,2.1858136653900146,-0.21435867249965668
-0.7506637573242188,1.3011043071746826,-0.1308809518814087
-0.83323073387146,1.468641996383667,-0.15133407711982727
-1.159703254699707,2.0789666175842285,-0.21925754845142365
-1.116874098777771,2.0353946685791016,-0.2193857580423355
-1.0837186574935913,2.0085740089416504,-0.22111083567142487
-1.0413256883621216,1.9645155668258667,-0.2207966446876526
-0.9966697692871094,1.9127711057662964,-0.21919073164463043
-0.9547834396362305,1.8638758659362793,-0.21760985255241394
-0.9289776086807251,1.845929503440857,-0.21942679584026337
-0.8913677334785461,1.8033771514892578,-0.21816031634807587
-0.8664974570274353,1.7847557067871094,-0.21958859264850616
-0.80203777551651,1.681706428527832,-0.21029454469680786
-0.8144730925559998,1.7397105693817139,-0.22096386551856995
-0.7775669097900391,1.6921565532684326,-0.2182215452194214
-0.752838671207428,1.6688196659088135,-0.2183782458305359
-0.733119547367096,1.655898094177246,-0.2197982370853424
-0.6869487762451172,1.582515001296997,-0.2130012810230255
-0.6876963973045349,1.6154729127883911,-0.2203674167394638
-0.6628450751304626,1.5876275300979614,-0.21939007937908173
-0.6486155986785889,1.584656834602356,-0.22176219522953033
-0.6314090490341187,1.5744506120681763,-0.22301426529884338
-0.614256739616394,1.5641255378723145,-0.22424164414405823
-0.5893401503562927,1.5318259000778198,-0.2221519947052002
-0.5689465403556824,1.5101587772369385,-0.22148637473583221
-0.5527640581130981,1.4992445707321167,-0.22224754095077515
-0.5289235711097717,1.4663385152816772,-0.21967272460460663
-0.5261192917823792,1.4915485382080078,-0.22580260038375854
-0.5080246925354004,1.4728682041168213,-0.22524355351924896
-0.48391297459602356,1.4357653856277466,-0.22165893018245697
-0.47605326771736145,1.4461313486099243,-0.2253684550523758
-0.4564075767993927,1.4196257591247559,-0.22327852249145508
-0.44855183362960815,1.4298259019851685,-0.22697612643241882
-0.4361203610897064,1.425216794013977,-0.22815409302711487
0.4651198089122772,1.4171193838119507,-0.22121165692806244
0.472502201795578,1.4069108963012695,-0.21758440136909485
0.49242985248565674,1.4331902265548706,-0.21955683827400208
0.5025040507316589,1.430080533027649,-0.21699292957782745
0.5241757035255432,1.4597282409667969,-0.21922965347766876
0.5396109223365784,1.4709999561309814,-0.21863624453544617
0.5501300096511841,1.4675235748291016,-0.2157639116048813
0.5632312297821045,1.4712523221969604,-0.2139866203069687
0.5847378373146057,1.4965665340423584,-0.21520884335041046
0.6008412837982178,1.507294774055481,-0.21424387395381927
0.624524712562561,1.5357749462127686,-0.21570803225040436
0.6474091410636902,1.5603327751159668,-0.2164669930934906
0.6718409061431885,1.5883660316467285,-0.21758846938610077
0.6858552098274231,1.5912721157073975,-0.2151724100112915
0.7032036781311035,1.6010998487472534,-0.21362701058387756
0.7240025997161865,1.6177979707717896,-0.2129155546426773
0.7482972741127014,1.6413553953170776,-0.21292035281658173
0.7742860913276672,1.6683162450790405,-0.21327337622642517
0.7991833090782166,1.691427230834961,-0.21298661828041077
0.826249897480011,1.71772038936615,-0.21296069025993347
0.8654537200927734,1.7682503461837769,-0.21572506427764893
0.8846924304962158,1.7765940427780151,-0.21312712132930756
0.919908881187439,1.8159329891204834,-0.21413034200668335
0.9504848718643188,1.8444666862487793,-0.21367378532886505
0.990161657333374,1.8900748491287231,-0.21496820449829102
1.024920105934143,1.9250036478042603,-0.21485117077827454
1.0625134706497192,1.9627434015274048,-0.21472787857055664
1.115921974182129,2.02720046043396,-0.21718481183052063
1.1372597217559814,2.033721446990967,-0.21327435970306396
1.187685251235962,2.0907211303710938,-0.2144465297460556
1.2588474750518799,2.180605173110962,-0.218472421169281
1.295532464981079,2.209395170211792,-0.21604551374912262
1.3106651306152344,2.201056480407715,-0.20979468524456024
1.3340833187103271,2.2057671546936035,-0.20466022193431854
1.337358832359314,2.1769962310791016,-0.19637790322303772
1.3684284687042236,2.1949880123138428,-0.1922735869884491
1.3667534589767456,2.159804344177246,-0.18340574204921722
1.4391534328460693,2.238999605178833,-0.18377909064292908
1.7735207080841064,2.7195682525634766,-0.21559038758277893
1.8498585224151611,2.796029567718506,-0.21364013850688934
1.8847665786743164,2.8062634468078613,-0.20592094957828522
1.8113209009170532,2.658884286880493,-0.1869877278804779
1.842660665512085,2.6663970947265625,-0.17902900278568268
1.4178600311279297,2.02164626121521,-0.1290264129638672
1.4356052875518799,2.0191218852996826,-0.12210539728403091
1.4628679752349854,2.028843879699707,-0.11556737124919891
1.4584765434265137,1.9938910007476807,-0.10617736726999283
1.466566801071167,1.9786453247070312,-0.09797578305006027
2.328732490539551,3.267073631286621,0.39269769191741943
2.282182216644287,3.2556164264678955,0.40170806646347046
2.3184375762939453,3.356816530227661,0.42360958456993103
2.297602415084839,3.379080057144165,0.43566688895225525
2.2945566177368164,3.4311928749084473,0.451537162065506
2.265475273132324,3.4398043155670166,0.46098557114601135
2.271605968475342,3.503941535949707,0.47797396779060364
1.6289050579071045,2.5550715923309326,0.3543209731578827
1.6303879022598267,2.59903883934021,0.36601415276527405
1.5751560926437378,2.5502352714538574,0.36435192823410034
3.0132851600646973,4.959753513336182,0.7183586359024048
2.9881339073181152,5.004695892333984,0.7346426844596863
2.959627389907837,5.037830829620361,0.7485504746437073
2.9469916820526123,5.097243309020996,0.7663246393203735
2.9335684776306152,5.161219596862793,0.7845382690429688
2.8978402614593506,5.188467502593994,0.7971633076667786
2.876232624053955,5.238521575927734,0.813112199306488
2.850036859512329,5.277533531188965,0.8271470069885254
2.8293163776397705,5.330832004547119,0.8432020545005798
2.8031680583953857,5.377871990203857,0.8581176996231079
2.7826905250549316,5.43466854095459,0.8745559453964233
2.769604444503784,5.504704475402832,0.8930842876434326
2.7340095043182373,5.529462814331055,0.9042468070983887
1.2366279363632202,2.548133134841919,0.41969969868659973
1.2175374031066895,2.5565834045410156,0.42410212755203247
1.1859742403030396,2.5366053581237793,0.42367371916770935
1.1680017709732056,2.5442419052124023,0.42779141664505005
1.152626633644104,2.5590178966522217,0.433118611574173
1.142906904220581,2.5880496501922607,0.4406155049800873
2.564603567123413,5.924665927886963,1.0146006345748901
2.5311994552612305,5.962693214416504,1.0268747806549072
2.5054540634155273,6.018074989318848,1.0421582460403442
2.4824116230010986,6.084473133087158,1.0594749450683594
2.450415849685669,6.133416175842285,1.073117971420288
2.41929292678833,6.18576192855835,1.0874645709991455
2.3857340812683105,6.230416774749756,1.1004613637924194
2.362151622772217,6.299790382385254,1.1178301572799683
2.331601142883301,6.354904651641846,1.1328933238983154
2.298422336578369,6.406611442565918,1.146707534790039
2.2667999267578125,6.4655656814575195,1.1617720127105713
2.2408039569854736,6.54254674911499,1.1801989078521729
2.2021496295928955,6.578749179840088,1.1912174224853516
2.1730635166168213,6.647880554199219,1.2083888053894043
2.1190364360809326,6.639799118041992,1.2113300561904907
2.0537030696868896,6.5987114906311035,1.207602620124817
1.9990592002868652,6.590196132659912,1.2098606824874878
1.935444712638855,6.547872066497803,1.2058809995651245
1.88100004196167,6.5305962562561035,1.2064430713653564
1.820892095565796,6.494578838348389,1.2036248445510864
1.7646485567092896,6.469199180603027,1.2023433446884155
1.706199288368225,6.436191082000732,1.1991692781448364
0.8346651792526245,3.242300033569336,0.605614185333252
1.5924100875854492,6.372317314147949,1.1932533979415894
0.7975462675094604,3.2902369499206543,0.6176875233650208
1.487620234489441,6.32866907119751,1.1911205053329468
1.4369430541992188,6.311946392059326,1.1906572580337524
1.3819271326065063,6.276267051696777,1.1861783266067505
1.317036509513855,6.191308498382568,1.1723992824554443
1.2738778591156006,6.207419395446777,1.1778088808059692
1.2260127067565918,6.192831516265869,1.177371859550476
1.1748162508010864,6.159024715423584,1.1733137369155884
1.1218293905258179,6.113574028015137,1.166813850402832
1.0796177387237549,6.128389835357666,1.1712745428085327
1.029476284980774,6.10139274597168,1.1678251028060913
0.980047345161438,6.070079326629639,1.1635545492172241
0.9354311227798462,6.061023235321045,1.1635596752166748
0.8909210562705994,6.0516510009765625,1.1635549068450928
0.8397290706634521,5.992547512054443,1.1540136337280273
0.7925593852996826,5.967595100402832,1.1502825021743774
0.7504211068153381,5.9726386070251465,1.1523656845092773
0.5957951545715332,5.028780937194824,0.9712405800819397
0.5696090459823608,5.112543106079102,0.9884524345397949
0.542340874671936,5.196164131164551,1.0057164430618286
0.3965066075325012,4.073300361633301,0.7892832159996033
0.3681863844394684,4.083449363708496,0.7918500900268555
0.34613245725631714,4.166033744812012,0.8082817792892456
0.31745967268943787,4.175839900970459,0.8106410503387451
0.2860746681690216,4.147185802459717,0.8055707812309265
0.2600870132446289,4.194835186004639,0.815359354019165
0.4264084994792938,7.764864444732666,1.510349988937378
0.3712877333164215,7.744375705718994,1.5073506832122803
0.3158382773399353,7.7160162925720215,1.5019910335540771
0.261281818151474,7.698756217956543,1.498863697052002
0.20667210221290588,7.669613361358643,1.4934942722320557
0.1516323685646057,7.632430553436279,1.486634612083435
0.09831808507442474,7.60634708404541,1.4819979667663574
0.045446980744600296,7.606731414794922,1.4825891256332397
-0.007391895167529583,7.568525791168213,1.475099802017212
-0.05960977077484131,7.518529891967773,1.4649728536605835
-0.11227284371852875,7.487332820892334,1.4585789442062378
-0.16398349404335022,7.471117973327637,1.45518159866333
-0.2152526080608368,7.4468817710876465,1.4502930641174316
-0.26633012294769287,7.426126003265381,1.4461532831192017
-0.3190867602825165,7.451000213623047,1.4509179592132568
-0.26870197057724,5.399960994720459,1.050819993019104
-0.30631619691848755,5.390474319458008,1.0483105182647705
-0.34313729405403137,5.380765438079834,1.0458219051361084
-0.3798997104167938,5.370800971984863,1.0433344841003418
-0.4151155948638916,5.341461658477783,1.037136197090149
-0.4509134590625763,5.323357105255127,1.0331729650497437
-0.4210568964481354,4.587009429931641,0.8895780444145203
-0.4541322588920593,4.599553108215332,0.8910765647888184
-0.484174907207489,4.581343173980713,0.8866591453552246
-0.51575767993927,4.5781779289245605,0.8851972222328186
-0.543929934501648,4.54429292678833,0.8778366446495056
-0.5755953788757324,4.536811828613281,0.8756116628646851
-0.606148362159729,4.525374889373779,0.8726609945297241
-0.6371766328811646,4.5215020179748535,0.8706316351890564
-0.6625651717185974,4.4794535636901855,0.8613028526306152
-0.6932820677757263,4.475189208984375,0.8592901825904846
-0.7248664498329163,4.470580101013184,0.8572185635566711
-0.7495173215866089,4.427978038787842,0.8479321002960205
-0.7816632390022278,4.430600643157959,0.8473528623580933
-0.8107193112373352,4.418022632598877,0.8435446619987488
-0.8344407677650452,4.378923416137695,0.8344928622245789
-0.7169545888900757,3.6277177333831787,0.6900500655174255
-0.7469668388366699,3.6455953121185303,0.6921586394309998
-0.7819265127182007,3.685800075531006,0.6985224485397339
-0.9475077986717224,4.318521022796631,0.8169844746589661
-0.9841854572296143,4.342347621917725,0.819900393486023
-1.008501648902893,4.313683986663818,0.8125418424606323
-1.0383797883987427,4.307186603546143,0.8093738555908203
-1.0622453689575195,4.278193950653076,0.8020537495613098
-1.0873050689697266,4.252654552459717,0.7953994274139404
-1.1189515590667725,4.252979278564453,0.7936236262321472
-1.1465431451797485,4.2382612228393555,0.7890150547027588
-1.1737418174743652,4.223519802093506,0.7839201092720032
-1.196047067642212,4.193944454193115,0.7761667966842651
-1.2267298698425293,4.193761348724365,0.7738901972770691
-1.253826379776001,4.178398609161377,0.7687880992889404
-1.2830299139022827,4.1702117919921875,0.7650477886199951
-1.3079121112823486,4.147045612335205,0.7585048079490662
-1.3359421491622925,4.138869285583496,0.7543002367019653
-1.3615058660507202,4.1231889724731445,0.7487673163414001
-1.3870413303375244,4.1073079109191895,0.7432299256324768
-1.4119880199432373,4.087362289428711,0.736926257610321
-1.4405704736709595,4.078155517578125,0.7326020002365112
-1.466657042503357,4.061468124389648,0.7267836332321167
-1.4860405921936035,4.030635356903076,0.7181720733642578
-1.4996062517166138,3.9852993488311768,0.7070577144622803
-1.53511643409729,3.9973795413970947,0.706129789352417
-1.5715198516845703,4.00892448425293,0.7050341367721558
-1.5914356708526611,3.977030038833618,0.6962822079658508
-1.6242891550064087,3.9812915325164795,0.6936215758323669
-1.6539061069488525,3.978358030319214,0.6895544528961182
-1.677536129951477,3.960993528366089,0.6830168962478638
-1.7082558870315552,3.957202672958374,0.6787007451057434
-1.7210419178009033,3.910499095916748,0.6669933199882507
-1.76395583152771,3.934633493423462,0.6673387289047241
-1.7806693315505981,3.9026520252227783,0.6578498482704163
-1.8035695552825928,3.8846030235290527,0.6507628560066223
-1.830390453338623,3.8730547428131104,0.6446802020072937
-1.864824891090393,3.874800682067871,0.6406735181808472
-1.8714622259140015,3.8210625648498535,0.6275587677955627
-1.8917078971862793,3.79919171333313,0.6193879842758179
-1.9187241792678833,3.7910046577453613,0.6134840250015259
-1.9591095447540283,3.806208848953247,0.6111719012260437
-1.9716613292694092,3.7659363746643066,0.5998785495758057
-1.9982231855392456,3.753034830093384,0.5928006768226624
-2.0176186561584473,3.7305779457092285,0.5840418934822083
-1.7050962448120117,3.1041460037231445,0.48162707686424255
-1.7231215238571167,3.0862865447998047,0.4742793142795563
-1.7353612184524536,3.0581464767456055,0.4653851389884949
-0.8510300517082214,1.4766218662261963,0.22234468162059784
-0.8529104590415955,1.458080530166626,0.21720939874649048
-0.870802640914917,1.4660077095031738,0.21592977643013
-0.8731949329376221,1.4470009803771973,0.2106023132801056
-0.8911969661712646,1.454698085784912,0.20910076797008514
-0.8845198154449463,1.422865867614746,0.20182575285434723
-0.8900226950645447,1.4107627868652344,0.1973775029182434
-0.891646146774292,1.3918496370315552,0.19190016388893127
-0.8968431949615479,1.3797606229782104,0.18734093010425568
-0.9015271067619324,1.3679120540618896,0.18278910219669342
-0.9046177864074707,1.352400302886963,0.17756293714046478
-2.3913843631744385,3.5219662189483643,0.45402365922927856
-1.4582397937774658,2.1186916828155518,0.2678714990615845
-1.4622433185577393,2.355931043624878,-0.21630017459392548
-1.3904259204864502,2.2759859561920166,-0.2154260277748108
-1.369104266166687,2.2790825366973877,-0.2222457379102707
-1.2774388790130615,2.160856246948242,-0.2165348082780838
-0.8344444036483765,1.4586623907089233,-0.15382708609104156
-1.1308081150054932,2.0099470615386963,-0.2170812487602234
-1.1087490320205688,2.003804922103882,-0.22144055366516113
-1.0699632167816162,1.9668078422546387,-0.22213764488697052
-1.0206053256988525,1.9088999032974243,-0.2202043980360031
-0.9690656065940857,1.8432739973068237,-0.2168920338153839
-0.9577246904373169,1.8529754877090454,-0.22227728366851807
-0.9034634232521057,1.7798101902008057,-0.2175792008638382
-0.8506845831871033,1.705830693244934,-0.21232447028160095
-0.8488134741783142,1.7321830987930298,-0.21935363113880157
-0.8262589573860168,1.7166922092437744,-0.22106127440929413
-0.7855464220046997,1.6624865531921387,-0.21757572889328003
-0.7637836933135986,1.6464409828186035,-0.21887783706188202
-0.7470863461494446,1.6407699584960938,-0.2215116024017334
-0.709977924823761,1.588942050933838,-0.217673197388649
-0.6984242796897888,1.5935367345809937,-0.22143009305000305
-0.6763406991958618,1.5730453729629517,-0.2216070294380188
-0.6592065095901489,1.5629949569702148,-0.2231612503528595
-0.6418777108192444,1.552935242652893,-0.2246544361114502
-0.6248640418052673,1.5426678657531738,-0.22598797082901
-0.5924686193466187,1.4926258325576782,-0.22134648263454437
-0.5819096565246582,1.4962940216064453,-0.2245676964521408
-0.5739744901657104,1.5071619749069214,-0.22880461812019348
-0.5413511395454407,1.4528610706329346,-0.22307425737380981
-0.5217443704605103,1.4307936429977417,-0.22209393978118896
-0.5116286277770996,1.433990716934204,-0.2249888777732849
-0.49377527832984924,1.4152653217315674,-0.2243419587612152
-0.4886177182197571,1.4329520463943481,-0.229407399892807
0.4866720736026764,1.4012874364852905,-0.2225843220949173
0.5017927885055542,1.4127964973449707,-0.22210180759429932
0.539640486240387,1.4249341487884521,-0.21694238483905792
0.5592967867851257,1.4468514919281006,-0.2177993506193161
0.5753501653671265,1.45766019821167,-0.21684572100639343
0.6029821038246155,1.4970982074737549,-0.2201032042503357
0.6177645921707153,1.50409996509552,-0.21840369701385498
0.6371521949768066,1.5216892957687378,-0.21818095445632935
0.6569747924804688,1.5390253067016602,-0.21781085431575775
0.677291989326477,1.5560767650604248,-0.21727333962917328
0.6990450024604797,1.5766479969024658,-0.2171158492565155
0.7194920182228088,1.593479871749878,-0.2163470834493637
0.7371630668640137,1.6029800176620483,-0.21446816623210907
0.7649257183074951,1.6333630084991455,-0.21528024971485138
0.7947580218315125,1.666994333267212,-0.2162516713142395
0.8197627067565918,1.6899406909942627,-0.21575890481472015
0.8574471473693848,1.7368590831756592,-0.21808016300201416
0.873195469379425,1.7382359504699707,-0.21456168591976166
0.9027732014656067,1.767331838607788,-0.21431028842926025
0.9345812201499939,1.7995597124099731,-0.21428550779819489
0.9783618450164795,1.851768136024475,-0.21624413132667542
1.0097181797027588,1.8796707391738892,-0.21522389352321625
1.0578951835632324,1.9381511211395264,-0.21743999421596527
1.1070857048034668,1.9959967136383057,-0.21923422813415527
1.1440986394882202,2.029381513595581,-0.2179846614599228
1.17959463596344,2.059046983718872,-0.21604858338832855
1.220901608467102,2.098705530166626,-0.21503615379333496
1.293012022972107,2.187884569168091,-0.21855562925338745
1.3144259452819824,2.189366102218628,-0.2129928469657898
1.3413169384002686,2.201033115386963,-0.20831425487995148
1.3525323867797852,2.18564510345459,-0.20085015892982483
1.3720800876617432,2.183262348175049,-0.19451092183589935
1.3700836896896362,2.148244619369507,-0.18531815707683563
1.418333888053894,2.1919353008270264,-0.18280959129333496
1.7954552173614502,2.732963800430298,-0.2196200042963028
1.8640978336334229,2.7957923412323,-0.21595489978790283
1.8519957065582275,2.7388904094696045,-0.20309564471244812
1.8293777704238892,2.6653714179992676,-0.1887807995080948
1.8763384819030762,2.6952202320098877,-0.1818639189004898
1.441960096359253,2.0428333282470703,-0.1308765411376953
1.4520435333251953,2.026599168777466,-0.12226419895887375
1.4699126482009888,2.023800849914551,-0.11460395902395248
1.4696208238601685,1.9954614639282227,-0.10522831976413727
2.323387861251831,3.286302089691162,0.4234189987182617
2.30767822265625,3.31471586227417,0.4372478127479553
2.3139846324920654,3.3795084953308105,0.45586296916007996
2.282360315322876,3.3853657245635986,0.46593165397644043
2.2596142292022705,3.4037296772003174,0.4773377478122711
2.2136447429656982,3.390662431716919,0.4840322732925415
1.6621830463409424,2.5868308544158936,0.37540391087532043
1.622925043106079,2.5648059844970703,0.3779940605163574
1.594746470451355,2.563096523284912,0.38337793946266174
3.0443809032440186,4.976865768432617,0.7550068497657776
2.990784168243408,4.966683864593506,0.7631144523620605
2.9731500148773193,5.015867710113525,0.7803440690040588
2.9618728160858154,5.0834221839904785,0.8000224232673645
2.931687116622925,5.121196746826172,0.8153355717658997
2.914226531982422,5.17375373840332,0.8322851061820984
2.8736605644226074,5.18568229675293,0.842785656452179
2.8732800483703613,5.276691436767578,0.865729033946991
2.8404083251953125,5.31013298034668,0.8793213367462158
2.8209450244903564,5.366730690002441,0.896639347076416
2.789790153503418,5.398596286773682,0.9096665382385254
2.764207124710083,5.4446330070495605,0.9248789548873901
2.7660772800445557,5.549983024597168,0.950010359287262
1.260477900505066,2.5763099193573,0.44432225823402405
1.21180260181427,2.5219082832336426,0.43808141350746155
1.1972304582595825,2.536620616912842,0.4437429904937744
1.1736549139022827,2.5341196060180664,0.4461652338504791
1.1547104120254517,2.5420689582824707,0.45035621523857117
1.1501339673995972,2.5814437866210938,0.4601292014122009
2.5834615230560303,5.908618927001953,1.0593466758728027
2.550156354904175,5.946566104888916,1.072478175163269
2.5261011123657227,6.009615421295166,1.0895740985870361
2.496356248855591,6.062146186828613,1.1046760082244873
2.4603819847106934,6.100183486938477,1.1172274351119995
2.4384748935699463,6.169590473175049,1.135429859161377
2.402484655380249,6.20689582824707,1.1479384899139404
2.37276029586792,6.262110710144043,1.1633979082107544
2.346730947494507,6.332056045532227,1.1812602281570435
2.313180446624756,6.383857250213623,1.1958776712417603
2.2831625938415527,6.442214012145996,1.2116785049438477
2.250910520553589,6.496885299682617,1.2269383668899536
2.2225377559661865,6.562060832977295,1.2442221641540527
2.1880898475646973,6.616852760314941,1.2588424682617188
2.1517248153686523,6.667839050292969,1.2727831602096558
2.084803342819214,6.6233038902282715,1.2685370445251465
2.025092363357544,6.596304893493652,1.2675788402557373
1.9633780717849731,6.557542324066162,1.2642918825149536
1.9073703289031982,6.536805629730225,1.2643389701843262
1.8516780138015747,6.519754886627197,1.2643736600875854
1.787129282951355,6.4689412117004395,1.2578787803649902
1.7306547164916992,6.443439483642578,1.2562992572784424
1.6683292388916016,6.391361236572266,1.249514102935791
0.8198239207267761,3.232523202896118,0.6336610317230225
1.5730741024017334,6.389679908752441,1.2557706832885742
0.7827832698822021,3.2801742553710938,0.6459669470787048
1.4597430229187012,6.316336631774902,1.2464642524719238
1.397965908050537,6.254745960235596,1.2369564771652222
1.3526240587234497,6.256002902984619,1.2398066520690918
1.3017746210098267,6.23067045211792,1.2374346256256104
1.2551411390304565,6.223743438720703,1.2386951446533203
1.2004989385604858,6.179153919219971,1.231688380241394
1.1345449686050415,6.07395601272583,1.2126450538635254
1.0973107814788818,6.115161418914795,1.222835659980774
1.0506775379180908,6.099344730377197,1.2216476202011108
0.9999491572380066,6.0567145347595215,1.2151248455047607
0.9487386345863342,6.006105899810791,1.2070215940475464
0.9055106043815613,6.012232303619385,1.2097229957580566
0.8596444725990295,5.995244026184082,1.207615613937378
0.8139970302581787,5.977920055389404,1.2054933309555054
0.7700901031494141,5.967796325683594,1.204858422279358
0.6167349219322205,5.05631160736084,1.022067666053772
0.5824231505393982,5.067676544189453,1.02564537525177
0.5541139245033264,5.1436662673950195,1.0421173572540283
0.40746620297431946,4.049915790557861,0.8210432529449463
0.37963777780532837,4.060091972351074,0.8236697912216187
0.3593144416809082,4.157804489135742,0.8441099524497986
0.33039724826812744,4.159980773925781,0.845202624797821
0.2998400926589966,4.14671516418457,0.8432092070579529
0.2709571421146393,4.1484808921813965,0.8442994952201843
0.24373288452625275,4.180725574493408,0.8511135578155518
0.39632582664489746,7.729850769042969,1.5740519762039185
0.3419027626514435,7.7245893478393555,1.573462724685669
0.28606411814689636,7.699846267700195,1.568988561630249
0.23162458837032318,7.670846462249756,1.5637073516845703
0.17742407321929932,7.633810997009277,1.5568574666976929
0.12397193908691406,7.6117706298828125,1.5528026819229126
0.07079289108514786,7.600986480712891,1.5503695011138916
0.016890142112970352,7.547732353210449,1.5393487215042114
-0.03569690138101578,7.540029525756836,1.537697196006775
-0.08751369267702103,7.497519493103027,1.5290216207504272
-0.13895608484745026,7.4661359786987305,1.522688388824463
-0.19044403731822968,7.449703216552734,1.5194776058197021
-0.2414066046476364,7.429242134094238,1.5147721767425537
-0.2937479615211487,7.427585124969482,1.5136520862579346
-0.2482808530330658,5.341689586639404,1.088071584701538
-0.28877413272857666,5.4049835205078125,1.1005098819732666
-0.3254353106021881,5.38772439956665,1.0965938568115234
-0.3623234033584595,5.377858638763428,1.094238042831421
-0.39831244945526123,5.3486247062683105,1.0878993272781372
-0.4345472753047943,5.338428497314453,1.0848345756530762
-0.4581948518753052,5.186872482299805,1.0531227588653564
-0.43982335925102234,4.61594820022583,0.9364349842071533
-0.4703378677368164,4.597810745239258,0.9320266246795654
-0.5020811557769775,4.587019920349121,0.9291432499885559
-0.5322350859642029,4.5684638023376465,0.9247477650642395
-0.5609961152076721,4.542202472686768,0.9184824228286743
-0.5907359719276428,4.5272297859191895,0.9142694473266602
-0.6187312602996826,4.500675678253174,0.9077695608139038
-0.6514307260513306,4.5041913986206055,0.9073588252067566
-0.6793076395988464,4.477209568023682,0.9008628726005554
-0.7104470729827881,4.472759246826172,0.8989494442939758
-0.7415207624435425,4.468105316162109,0.8969947099685669
-0.7655932307243347,4.425660610198975,0.8869192600250244
-0.7945027351379395,4.413270950317383,0.8829270601272583
-0.8245196342468262,4.404366493225098,0.8796514868736267
-0.71756911277771,3.6915781497955322,0.7360759377479553
-0.7386849522590637,3.6643686294555664,0.7294743061065674
-0.7594971656799316,3.637031078338623,0.7228949069976807
-0.9301274418830872,4.3069281578063965,0.8543405532836914
-0.9683385491371155,4.338414669036865,0.8586744666099548
-0.996130645275116,4.324847221374512,0.8541541695594788
-1.0206092596054077,4.296088218688965,0.8466629385948181
-1.0524107217788696,4.2969207763671875,0.8450280427932739
-1.0785939693450928,4.275204658508301,0.8390055298805237
-1.1057161092758179,4.257036209106445,0.8334542512893677
-1.134594440460205,4.250137805938721,0.829841136932373
-1.1634740829467773,4.2430291175842285,0.8262217044830322
-1.1862444877624512,4.213499069213867,0.818272590637207
-1.2135484218597412,4.198441028594971,0.8131412863731384
-1.2455556392669678,4.197797775268555,0.8108060359954834
-1.2633872032165527,4.153069972991943,0.7998815178871155
-1.2960658073425293,4.1598896980285645,0.7985358238220215
-1.321844220161438,4.144504547119141,0.7929632663726807
-1.350111722946167,4.136186122894287,0.7887605428695679
-1.372239112854004,4.105420112609863,0.7802168726921082
-1.400959849357605,4.096522808074951,0.7759283185005188
-1.4291990995407104,4.0875983238220215,0.771478533744812
-1.4528847932815552,4.067883014678955,0.7646914124488831
-1.472413420677185,4.037182331085205,0.7558983564376831
-1.4919873476028442,4.00625467300415,0.7470866441726685
-1.5260298252105713,4.010810852050781,0.7448075413703918
-1.5596956014633179,4.015268802642822,0.7425816059112549
-1.5842286348342896,3.998325824737549,0.7360922694206238
-1.61110520362854,3.988551139831543,0.7307701110839844
-1.6349490880966187,3.9714789390563965,0.7241553664207458
-1.6660977602005005,3.967893123626709,0.7198377847671509
-1.6910204887390137,3.949964761734009,0.7129786610603333
-1.7093628644943237,3.917855739593506,0.703548014163971
-1.7450220584869385,3.9284908771514893,0.7014027237892151
-1.7586561441421509,3.8896353244781494,0.6904598474502563
-1.7793737649917603,3.8643133640289307,0.6818292140960693
-1.8131308555603027,3.8667314052581787,0.678094744682312
-1.843716025352478,3.861884355545044,0.6730920076370239
-1.879684329032898,3.871405839920044,0.6701578497886658
-1.8952749967575073,3.8391222953796387,0.6599756479263306
-1.9114900827407837,3.80633544921875,0.6496120095252991
-1.9418796300888062,3.8007781505584717,0.6438571214675903
-1.9687492847442627,3.7881035804748535,0.6369143724441528
-1.9975688457489014,3.7829411029815674,0.6308282613754272
-2.0081050395965576,3.743508815765381,0.6190622448921204
-2.0319876670837402,3.7274248600006104,0.611052930355072
-1.7119472026824951,3.088183879852295,0.5016080141067505
-1.7314882278442383,3.0738754272460938,0.49461618065834045
-0.8336338400840759,1.4578081369400024,0.23223839700222015
-0.8432808518409729,1.4527486562728882,0.2290922850370407
-0.8693240284919739,1.4739233255386353,0.22987791895866394
-0.8680142760276794,1.4482125043869019,0.22330859303474426
-0.8856279850006104,1.4562093019485474,0.2218540757894516
-0.878914475440979,1.424503207206726,0.21437418460845947
-0.8806489109992981,1.40571928024292,0.20875048637390137
-0.9072647094726562,1.426137924194336,0.20889310538768768
-0.9000058770179749,1.3945099115371704,0.20124104619026184
-0.9048299193382263,1.3826611042022705,0.19655878841876984
-0.9145951271057129,1.3767955303192139,0.19249388575553894
-0.9329375624656677,1.383768916130066,0.19016055762767792
-2.4072437286376953,3.522618055343628,0.47531047463417053
-1.291947603225708,1.8639146089553833,0.24656625092029572
-1.3566845655441284,1.928505778312683,0.24971669912338257
-1.2950043678283691,1.8545907735824585,-0.12850433588027954
-1.4477699995040894,2.3142120838165283,-0.21579784154891968
-1.3594111204147339,2.2079310417175293,-0.2125309854745865
-1.257288932800293,2.109107732772827,-0.2152751237154007
-0.8470874428749084,1.4690303802490234,-0.15820029377937317
-0.8134307265281677,1.4340314865112305,-0.1582658290863037
-1.0873841047286987,1.9484714269638062,-0.22013583779335022
-1.044921636581421,1.904671549797058,-0.22010596096515656
-1.0051084756851196,1.8637454509735107,-0.22011792659759521
-0.9716151356697083,1.8325549364089966,-0.2210014909505844
-0.9368785619735718,1.7975358963012695,-0.22113126516342163
-0.8758873343467712,1.7104356288909912,-0.21451367437839508
-0.8740297555923462,1.7368955612182617,-0.2218940556049347
-0.8444763422012329,1.7076711654663086,-0.22208796441555023
-0.8098276257514954,1.6678849458694458,-0.22074370086193085
-0.784276008605957,1.6451603174209595,-0.22141721844673157
-0.7511875033378601,1.6044785976409912,-0.21942754089832306
-0.7300885915756226,1.5880664587020874,-0.220610111951828
-0.7010258436203003,1.5539134740829468,-0.21912840008735657
-0.6928613185882568,1.565493106842041,-0.22403720021247864
-0.6723248958587646,1.5485700368881226,-0.22482100129127502
-0.6491991281509399,1.524256944656372,-0.22438165545463562
-0.6351913213729858,1.521230936050415,-0.22691915929317474
-0.6080923080444336,1.4858492612838745,-0.2245451956987381
-0.5889308452606201,1.4680566787719727,-0.22466805577278137
-0.5698486566543579,1.4501476287841797,-0.22474254667758942
-0.5497048497200012,1.4284523725509644,-0.2239879071712494
-0.5394250750541687,1.4318697452545166,-0.22713921964168549
-0.523963451385498,1.4206503629684448,-0.22790662944316864
-0.5034305453300476,1.394763708114624,-0.22625693678855896
0.5359253883361816,1.40049409866333,-0.2202713042497635
0.5584428310394287,1.4295674562454224,-0.22226281464099884
0.5612277388572693,1.4081789255142212,-0.21629244089126587
0.5812196731567383,1.4298045635223389,-0.21692612767219543
0.5944480895996094,1.4332408905029297,-0.21466390788555145
0.6286510229110718,1.4865472316741943,-0.21979747712612152
0.6419922113418579,1.4897871017456055,-0.21732197701931
0.6631995439529419,1.5106374025344849,-0.21735937893390656
0.6896950602531433,1.541792392730713,-0.2187044471502304
0.7152256369590759,1.5690693855285645,-0.21930678188800812
0.7325819134712219,1.5786948204040527,-0.21733258664608002
0.7567467093467712,1.602170467376709,-0.21717995405197144
0.7714400291442871,1.6043140888214111,-0.2139943689107895
0.8014910221099854,1.6377136707305908,-0.21487729251384735
0.8406241536140442,1.6882038116455078,-0.21767756342887878
0.8716016411781311,1.7209967374801636,-0.21803471446037292
0.8980032801628113,1.742975115776062,-0.21679683029651642
0.9209906458854675,1.7578767538070679,-0.2145598977804184
0.9640565514564514,1.810398817062378,-0.21669672429561615
0.9969848990440369,1.8418344259262085,-0.21602267026901245
1.0533537864685059,1.91353178024292,-0.21963337063789368
1.08932363986969,1.9475512504577637,-0.21868343651294708
1.1217845678329468,1.9745179414749146,-0.21674959361553192
1.176481008529663,2.0379624366760254,-0.21840211749076843
1.212479829788208,2.0671825408935547,-0.21607418358325958
1.27646005153656,2.143033981323242,-0.21817846596240997
1.3113019466400146,2.1681857109069824,-0.21481752395629883
1.3368059396743774,2.1761178970336914,-0.20944315195083618
1.3599002361297607,2.180807113647461,-0.2036682516336441
1.3703445196151733,2.165694236755371,-0.19603583216667175
1.381700873374939,2.1498818397521973,-0.18792852759361267
1.390128254890442,2.1311323642730713,-0.1797306090593338
1.7913923263549805,2.707479476928711,-0.21994054317474365
1.860292673110962,2.7700815200805664,-0.21592585742473602
1.8113250732421875,2.6580617427825928,-0.1983005404472351
1.8645846843719482,2.6979072093963623,-0.19201894104480743
1.894600749015808,2.701505184173584,-0.18252964317798615
1.4312931299209595,2.0121874809265137,-0.1285683661699295
1.4444129467010498,2.0032894611358643,-0.1205495148897171
1.4539533853530884,1.9872198104858398,-0.11149785667657852
1.4809077978134155,1.9969147443771362,-0.10386332869529724
2.3209104537963867,3.25723934173584,0.43796679377555847
2.30793833732605,3.2931370735168457,0.4537225663661957
2.2923614978790283,3.3211934566497803,0.4676116108894348
2.280942916870117,3.3555471897125244,0.48216789960861206
2.286473274230957,3.4202563762664795,0.5010241270065308
1.4809507131576538,2.250462532043457,0.3355291783809662
1.5213788747787476,2.3479416370391846,0.3560038208961487
1.5946996212005615,2.5023245811462402,0.3853446841239929
1.618410587310791,2.582366466522217,0.4036719501018524
3.0575027465820312,4.954888820648193,0.7850986123085022
3.0092833042144775,4.955013751983643,0.7955142259597778
2.9899892807006836,5.009604454040527,0.8144282102584839
2.9774250984191895,5.0733256340026855,0.8346328735351562
2.9566810131073,5.119143009185791,0.8514887094497681
2.931036949157715,5.158490180969238,0.8672606945037842
2.8990488052368164,5.192198276519775,0.8816758990287781
2.875614881515503,5.242807865142822,0.8991696834564209
2.8565704822540283,5.295168399810791,0.9164261817932129
2.836914539337158,5.347477436065674,0.9338263869285583
2.8090767860412598,5.390687465667725,0.9491618871688843
2.7821571826934814,5.437360763549805,0.9651631116867065
2.767833948135376,5.507554531097412,0.9853125214576721
2.735541820526123,5.538982391357422,0.9983498454093933
1.2401020526885986,2.556337833404541,0.4640960693359375
1.2109558582305908,2.5438480377197266,0.4648926854133606
1.1771726608276367,2.520599603652954,0.4636862576007843
1.1671574115753174,2.5456621646881104,0.471231609582901
1.1709237098693848,2.6023566722869873,0.4847562313079834
1.1397497653961182,2.581728935241699,0.4837619662284851
2.563603401184082,5.924109935760498,1.1160619258880615
2.5330212116241455,5.973135948181152,1.1313825845718384
2.5020790100097656,6.017806529998779,1.1457654237747192
2.4806103706359863,6.087307453155518,1.165039300918579
2.4488351345062256,6.131591796875,1.179431676864624
2.417581796646118,6.1836771965026855,1.19466233253479
2.3897478580474854,6.246395587921143,1.212088942527771
2.3606410026550293,6.305108070373535,1.2287790775299072
2.335273265838623,6.374349117279053,1.2476078271865845
2.3006584644317627,6.417973041534424,1.2614736557006836
2.2708334922790527,6.479989528656006,1.278493881225586
2.238325834274292,6.53852653503418,1.2946230173110962
2.2014288902282715,6.585982322692871,1.3086808919906616
2.1740925312042236,6.662230968475342,1.3285369873046875
2.11672306060791,6.642975807189941,1.329315423965454
2.052894115447998,6.601272106170654,1.325606107711792
1.9894392490386963,6.56327486038208,1.3217612504959106
1.9319522380828857,6.543159484863281,1.3214657306671143
1.873801589012146,6.51887845993042,1.320358395576477
1.8148640394210815,6.486517429351807,1.3175684213638306
1.7523359060287476,6.434952259063721,1.3108083009719849
1.699379801750183,6.416207790374756,1.310750126838684
0.8371075391769409,3.254422426223755,0.6663041710853577
1.5856328010559082,6.352380752563477,1.3034889698028564
0.7952187657356262,3.287485361099243,0.6761485934257507
1.4866491556167603,6.338800430297852,1.30666983127594
1.4304312467575073,6.29574728012085,1.300771713256836
1.377354383468628,6.26345157623291,1.2971152067184448
1.3247194290161133,6.234816074371338,1.293438196182251
1.2616803646087646,6.157202243804932,1.2795374393463135
1.2220898866653442,6.187780857086182,1.2881265878677368
1.167868971824646,6.139021396636963,1.2802131175994873
1.1222424507141113,6.1311774253845215,1.280854344367981
1.0807578563690186,6.145605564117432,1.286208152770996
1.0220224857330322,6.065741062164307,1.2713605165481567
0.9752018451690674,6.049592971801758,1.2694971561431885
0.922329843044281,5.991499423980713,1.2588706016540527
0.8851051926612854,6.031307697296143,1.2688570022583008
0.8329691290855408,5.964787006378174,1.2565094232559204
0.7896708250045776,5.962364673614502,1.2577321529388428
0.7436964511871338,5.933043003082275,1.2531464099884033
0.5950286388397217,5.034164905548096,1.0640883445739746
0.5699973106384277,5.132879734039307,1.0858221054077148
0.5345728993415833,5.1440229415893555,1.08910071849823
0.3973352611064911,4.101080417633057,0.8690551519393921
0.37036165595054626,4.126345634460449,0.875235378742218
0.34604761004447937,4.181863307952881,0.8878775835037231
0.31505367159843445,4.161116600036621,0.8839719295501709
0.28380972146987915,4.132565021514893,0.878229022026062
0.2566949129104614,4.164809703826904,0.885450005531311
0.42206498980522156,7.745179176330566,1.6474242210388184
0.36781415343284607,7.740004539489746,1.6471631526947021
0.3124171793460846,7.703909397125244,1.6403963565826416
0.25765931606292725,7.6712541580200195,1.6343762874603271
0.2039063721895218,7.665168285369873,1.6330255270004272
0.14838075637817383,7.612886428833008,1.6219134330749512
0.09524185210466385,7.613677978515625,1.6221877336502075
0.041957512497901917,7.55679178237915,1.6102498769760132
-0.010512970387935638,7.549202919006348,1.6088923215866089
-0.06262120604515076,7.510686874389648,1.6010193824768066
-0.11509072780609131,7.475715637207031,1.5935136079788208
-0.16693614423274994,7.4749064445495605,1.592722773551941
-0.21832871437072754,7.458461761474609,1.588678002357483
-0.2695012092590332,7.441662788391113,1.5846366882324219
-0.3212825357913971,7.439775466918945,1.583846092224121
-0.27135124802589417,5.411195278167725,1.1517573595046997
-0.3083201050758362,5.386376857757568,1.1463018655776978
-0.3450722396373749,5.376737117767334,1.1435133218765259
-0.38111206889152527,5.359263896942139,1.1389325857162476
-0.41722437739372253,5.345357894897461,1.135168433189392
-0.45101913809776306,5.304542541503906,1.1257483959197998
-0.42537927627563477,4.616462230682373,0.9791016578674316
-0.45445290207862854,4.5832109451293945,0.971490740776062
-0.4854571223258972,4.572606563568115,0.9686365127563477
-0.5151860117912292,4.5543413162231445,0.9636443853378296
-0.5492445826530457,4.573837757110596,0.9666862487792969
-0.5783306956291199,4.547510147094727,0.9600718021392822
-0.606360673904419,4.517231464385986,0.9526877999305725
-0.6356028914451599,4.4981369972229,0.9477177858352661
-0.6669053435325623,4.493977069854736,0.9459415674209595
-0.6943250894546509,4.467047691345215,0.9390512704849243
-0.7229759097099304,4.447507858276367,0.933466911315918
-0.7534493803977966,4.442943572998047,0.9310988783836365
-0.7827122807502747,4.430610179901123,0.927142322063446
-0.8086794018745422,4.399216175079346,0.9192385077476501
-0.8335786461830139,4.3639020919799805,0.9105749726295471
-0.7255145907402039,3.6602420806884766,0.76265549659729
-0.7478586435317993,3.6406407356262207,0.7570031881332397
-0.7862383127212524,3.699620246887207,0.7677332758903503
-0.9519458413124084,4.334151268005371,0.8976497054100037
-0.982013463973999,4.328061103820801,0.8946411609649658
-1.0121843814849854,4.3217291831970215,0.8916179537773132
-1.0356385707855225,4.285284519195557,0.882408618927002
-1.0668015480041504,4.286232948303223,0.880518913269043
-1.0920881032943726,4.264771461486816,0.8739210963249207
-1.119128704071045,4.250557899475098,0.8688567280769348
-1.1484829187393188,4.24345588684082,0.8652570247650146
-1.1775825023651123,4.232248306274414,0.860805094242096
-1.2050279378890991,4.217280864715576,0.8556723594665527
-1.227528691291809,4.1876091957092285,0.8472931981086731
-1.2581459283828735,4.187358856201172,0.8446378111839294
-1.2820006608963013,4.164899826049805,0.8375496864318848
-1.3111302852630615,4.156677722930908,0.8332915306091309
-1.3331276178359985,4.126338005065918,0.8246537446975708
-1.3619521856307983,4.1177592277526855,0.8204227685928345
-1.3927043676376343,4.11646032333374,0.8173800110816956
-1.4154675006866455,4.093380451202393,0.8097708821296692
-1.4341427087783813,4.059306621551514,0.8000531196594238
-1.4664794206619263,4.060950756072998,0.7973130345344543
-1.488308072090149,4.03348970413208,0.788898766040802
-1.5193089246749878,4.031081199645996,0.7854316234588623
-1.5440138578414917,4.0144548416137695,0.77886563539505
-1.5654325485229492,3.990666151046753,0.7707858085632324
-1.589915156364441,3.9737324714660645,0.7640249729156494
-1.6263221502304077,3.9849605560302734,0.7626438140869141
-1.654283046722412,3.9744937419891357,0.7571046352386475
-1.6850767135620117,3.970959186553955,0.7528744339942932
-1.6994534730911255,3.932431936264038,0.741586446762085
-1.7200570106506348,3.9077775478363037,0.7329206466674805
-1.7435857057571411,3.8900234699249268,0.7255995869636536
-1.7678415775299072,3.871748447418213,0.7180965542793274
-1.7952073812484741,3.8602848052978516,0.7118948698043823
-1.828039526939392,3.8631021976470947,0.7079604864120483
-1.8577122688293457,3.8587100505828857,0.7024989724159241
-1.8803532123565674,3.840355634689331,0.6945755481719971
-1.9109441041946411,3.835106372833252,0.6888359189033508
-1.9311158657073975,3.808950424194336,0.6793782114982605
-1.9499142169952393,3.783285140991211,0.6697534918785095
-1.9858489036560059,3.791996717453003,0.6660779714584351
-2.0009937286376953,3.759125232696533,0.6549681425094604
-2.020249128341675,3.732600212097168,0.644878625869751
-1.6984211206436157,3.086616277694702,0.5287460684776306
-1.7246378660202026,3.086460590362549,0.5238562822341919
-0.8391620516777039,1.4792073965072632,0.24870482087135315
-0.83794105052948,1.4537506103515625,0.24196818470954895
-0.8560670614242554,1.4616706371307373,0.24078047275543213
-0.8621768951416016,1.4496479034423828,0.23623517155647278
-0.8797098994255066,1.4577542543411255,0.2348722219467163
-0.8854422569274902,1.4457862377166748,0.2302207201719284
-0.9000316262245178,1.446494698524475,0.2273714691400528
-0.8853106498718262,1.4014699459075928,0.21742281317710876
-0.8986836075782776,1.4027328491210938,0.21461248397827148
-0.8996290564537048,1.3842676877975464,0.2087445706129074
-0.8945764303207397,1.3557583093643188,0.20124801993370056
-0.9536671042442322,1.4241877794265747,0.2079094499349594
-2.3920648097991943,3.523970365524292,0.505683422088623
-1.3467954397201538,1.9558473825454712,0.27548274397850037
-1.3140664100646973,1.8802719116210938,0.25963830947875977
-1.3671562671661377,2.2029078006744385,-0.21496012806892395
-1.3547693490982056,2.2188940048217773,-0.2234916239976883
-1.2075921297073364,2.0425517559051514,-0.21794350445270538
-0.8301440477371216,1.451067566871643,-0.16313840448856354
-1.0618059635162354,1.886627435684204,-0.21732142567634583
-1.040018916130066,1.8802741765975952,-0.22182084619998932
-0.9966463446617126,1.8324816226959229,-0.22106236219406128
-0.9396587610244751,1.7566516399383545,-0.216464102268219
-0.9268606305122375,1.7627837657928467,-0.22172681987285614
-0.8889429569244385,1.720606803894043,-0.22078607976436615
-0.8623722791671753,1.6986874341964722,-0.22221456468105316
-0.8346735835075378,1.6729060411453247,-0.22290800511837006
-0.7985227108001709,1.6295863389968872,-0.22102242708206177
-0.7782390117645264,1.6172658205032349,-0.22317425906658173
-0.7501760125160217,1.5871038436889648,-0.22266116738319397
-0.7176042795181274,1.5461416244506836,-0.22043542563915253
-0.7029275894165039,1.543761968612671,-0.22360360622406006
-0.6917811036109924,1.548197627067566,-0.2276625633239746
-0.6621249914169312,1.5099436044692993,-0.22531060874462128
-0.6451930403709412,1.4998469352722168,-0.2270045131444931
-0.6207942366600037,1.4718304872512817,-0.22584471106529236
-0.6100332140922546,1.4757503271102905,-0.229557603597641
-0.5850433707237244,1.443650245666504,-0.22751519083976746
-0.5647260546684265,1.4221075773239136,-0.22697311639785767
-0.5404654145240784,1.3896013498306274,-0.2245086282491684
-0.5332616567611694,1.4001219272613525,-0.22893181443214417
0.547275960445404,1.3873037099838257,-0.22220765054225922
0.5599684715270996,1.3910839557647705,-0.2200903445482254
0.5785617828369141,1.4090847969055176,-0.22013504803180695
0.595819890499115,1.42339289188385,-0.21946734189987183
0.6209539771080017,1.455302357673645,-0.22139687836170197
0.6484207510948181,1.4903746843338013,-0.22357161343097687
0.641647458076477,1.4474005699157715,-0.21406954526901245
0.681961715221405,1.5105069875717163,-0.22014270722866058
0.6989743709564209,1.5203454494476318,-0.21826790273189545
0.7228739261627197,1.54399573802948,-0.21824780106544495
0.758902907371521,1.5918556451797485,-0.2213875651359558
0.7665108442306519,1.5801820755004883,-0.21616320312023163
0.7981250286102295,1.6171053647994995,-0.21748141944408417
0.8252425789833069,1.643202543258667,-0.21712632477283478
0.8543490767478943,1.6725581884384155,-0.21702450513839722
0.8855264782905579,1.7051324844360352,-0.217142254114151
0.9230608940124512,1.7474641799926758,-0.21815170347690582
0.9556529521942139,1.7791379690170288,-0.21765080094337463
