X,Y,Z
0.1790788173675537,1.8948140144348145,-0.45561155676841736
0.19405744969844818,1.9090462923049927,-0.4574457108974457
0.2106652557849884,1.9382964372634888,-0.46289002895355225
0.22725360095500946,1.963641881942749,-0.4673789441585541
0.241899773478508,1.9700217247009277,-0.4671984910964966
0.2556913197040558,1.9688243865966797,-0.4648961126804352
0.2707555890083313,1.9750422239303589,-0.4643244743347168
0.289960652589798,2.011310338973999,-0.47083887457847595
0.307996541261673,2.036144256591797,-0.47456565499305725
0.32225415110588074,2.0345959663391113,-0.47173011302948
0.3427093029022217,2.070523262023926,-0.47756388783454895
0.3598080575466156,2.0837533473968506,-0.47812002897262573
0.3773699998855591,2.0968151092529297,-0.4785810708999634
0.40403327345848083,2.1585819721221924,-0.48967447876930237
0.41482850909233093,2.1340112686157227,-0.4811381995677948
0.4298059642314911,2.131817102432251,-0.4777051508426666
0.46429571509361267,2.222909927368164,-0.49506843090057373
0.4850395917892456,2.2428057193756104,-0.4960326850414276
0.5074771642684937,2.270050287246704,-0.4985311031341553
0.5311797261238098,2.300828218460083,-0.5017319917678833
0.5562244653701782,2.335120916366577,-0.5056150555610657
0.5881545543670654,2.3952441215515137,-0.5147016644477844
0.6165688037872314,2.4365079402923584,-0.5193391442298889
0.6404861211776733,2.4590561389923096,-0.5199617147445679
0.6766561269760132,2.5257720947265625,-0.5297816395759583
0.7066634297370911,2.566338300704956,-0.5337709784507751
0.7403809428215027,2.6177449226379395,-0.5396319627761841
0.7698626518249512,2.650353193283081,-0.541382908821106
0.8203398585319519,2.7525925636291504,-0.5572009682655334
0.8689091205596924,2.8433492183685303,-0.5702397227287292
0.9072628021240234,2.897075891494751,-0.5752919316291809
0.9370288848876953,2.921191692352295,-0.574319064617157
0.9784860610961914,2.977748394012451,-0.5794260501861572
1.0436556339263916,3.1032261848449707,-0.5976511836051941
1.1017755270004272,3.2026805877685547,-0.6100849509239197
1.1613175868988037,3.301553726196289,-0.6220030784606934
1.2289823293685913,3.4178736209869385,-0.6367085576057434
1.2997010946273804,3.5370943546295166,-0.6514519453048706
1.379127025604248,3.6736202239990234,-0.6683224439620972
1.4710955619812012,3.8382346630096436,-0.6897785067558289
1.5629162788391113,3.994596481323242,-0.7089464068412781
1.6298550367355347,4.08193826675415,-0.7153141498565674
1.6948645114898682,4.161633491516113,-0.719616711139679
1.7378592491149902,4.183494567871094,-0.7134727835655212
1.7660038471221924,4.169473648071289,-0.701237142086029
1.7926124334335327,4.151644229888916,-0.6883822083473206
1.8030062913894653,4.098495006561279,-0.669588029384613
1.491862416267395,3.32940411567688,-0.535789430141449
1.5287387371063232,3.3482534885406494,-0.5303376317024231
1.5525749921798706,3.338819742202759,-0.5204774141311646
1.5659384727478027,3.30845046043396,-0.5072738528251648
1.588983178138733,3.2989578247070312,-0.49733731150627136
1.6089800596237183,3.2821438312530518,-0.48618096113204956
1.625791072845459,3.2580575942993164,-0.47384682297706604
1.64836585521698,3.248164653778076,-0.46366241574287415
1.6690905094146729,3.234645128250122,-0.45299196243286133
1.6921205520629883,3.224111318588257,-0.4425264596939087
1.7203800678253174,3.223745107650757,-0.4334279000759125
1.753702998161316,3.2336585521698,-0.4255736768245697
2.1438815593719482,3.888841390609741,-0.5004109740257263
2.1013429164886475,3.749800443649292,-0.4714038670063019
2.1467087268829346,3.770378589630127,-0.46272173523902893
2.1686618328094482,3.7503914833068848,-0.4489733874797821
2.194986581802368,3.7366132736206055,-0.43573281168937683
2.2220265865325928,3.722172260284424,-0.42206621170043945
2.239274024963379,3.695141553878784,-0.40721651911735535
2.268660545349121,3.687774181365967,-0.39448094367980957
2.3072614669799805,3.692786693572998,-0.3825337588787079
2.307731866836548,3.6387295722961426,-0.36454254388809204
2.332695722579956,3.6241660118103027,-0.3504532277584076
2.3838183879852295,3.648087739944458,-0.33959725499153137
2.383378267288208,3.5937583446502686,-0.3213634192943573
2.407393455505371,3.5789906978607178,-0.3068358302116394
2.4586355686187744,3.6020305156707764,-0.29486948251724243
2.4485533237457275,3.534531831741333,-0.27504804730415344
2.4987292289733887,3.557736873626709,-0.2626211941242218
2.5278844833374023,3.5478293895721436,-0.2468360811471939
2.5247080326080322,3.4936108589172363,-0.2278091460466385
2.570439577102661,3.509615182876587,-0.21341992914676666
2.1808364391326904,2.934908628463745,-0.16434255242347717
2.8050122261047363,3.9481053352355957,0.6514527201652527
2.7615902423858643,3.9474716186523438,0.6652765870094299
2.7645463943481445,4.017869472503662,0.6908916234970093
2.7170727252960205,4.010108470916748,0.7021244168281555
2.6917693614959717,4.033766269683838,0.718388557434082
2.6679189205169678,4.065394401550293,0.7356576919555664
2.6357572078704834,4.08363151550293,0.7504364848136902
2.6289334297180176,4.135905742645264,0.7706449627876282
2.597540855407715,4.153169631958008,0.7841327786445618
2.550673246383667,4.147945880889893,0.7930689454078674
2.523287057876587,4.171230316162109,0.8070662617683411
2.496525764465332,4.193862438201904,0.8207560181617737
2.4667608737945557,4.21354866027832,0.833394467830658
2.437730550765991,4.236946105957031,0.8465585112571716
2.4208004474639893,4.279730319976807,0.8634635210037231
2.3862903118133545,4.288046360015869,0.8730806708335876
2.2971606254577637,4.198858261108398,0.8626396656036377
2.2630934715270996,4.210838794708252,0.8722216486930847
2.2325165271759033,4.229339122772217,0.8832135796546936
2.205456495285034,4.250139236450195,0.8943316340446472
2.1819870471954346,4.2774529457092285,0.9068339467048645
2.1462035179138184,4.284924030303955,0.9148586988449097
2.1237263679504395,4.3198113441467285,0.9284352660179138
2.0909972190856934,4.333782196044922,0.937569260597229
2.063368082046509,4.353625774383545,0.947675883769989
2.0323615074157715,4.366312026977539,0.9562743306159973
2.003326416015625,4.386317729949951,0.9660830497741699
1.9963970184326172,4.459068775177002,0.9874711036682129
2.027493715286255,4.619304656982422,1.0284470319747925
1.9627095460891724,4.558055877685547,1.0199874639511108
1.9615358114242554,4.644110202789307,1.0445222854614258
1.9147568941116333,4.624612331390381,1.0451363325119019
1.9127509593963623,4.718749046325684,1.0711220502853394
1.8522155284881592,4.667212963104248,1.0640431642532349
1.8266013860702515,4.700250148773193,1.076147198677063
1.8069453239440918,4.747110843658447,1.0914045572280884
1.7626653909683228,4.7295122146606445,1.091909646987915
1.3394032716751099,3.6758370399475098,0.8517554998397827
1.317419171333313,3.6988251209259033,0.8600761294364929
1.2876830101013184,3.700044631958008,0.863382875919342
1.661689043045044,4.885017395019531,1.1437962055206299
1.620025396347046,4.873420238494873,1.1449788808822632
1.5779401063919067,4.861672401428223,1.1462252140045166
1.547042965888977,4.886279106140137,1.1551905870437622
1.5416574478149414,4.994420051574707,1.1840440034866333
1.4986233711242676,4.982301712036133,1.1844950914382935
1.4633023738861084,4.991488933563232,1.1899631023406982
1.4323794841766357,5.014995574951172,1.1988881826400757
1.402631402015686,5.045779228210449,1.2096948623657227
1.354246735572815,5.010554790496826,1.2038567066192627
1.29091477394104,4.916067123413086,1.1837100982666016
1.2619069814682007,4.949975490570068,1.1945011615753174
1.2359415292739868,4.994621753692627,1.2079243659973145
1.2020827531814575,5.009596824645996,1.21427321434021
0.9257792234420776,3.980130910873413,0.9669160842895508
0.9016058444976807,4.004391193389893,0.9745831489562988
0.8744705319404602,4.017461776733398,0.979354202747345
0.8456302881240845,4.022907733917236,0.9823198914527893
0.8194513320922852,4.043094158172607,0.988960862159729
0.7868562936782837,4.025639533996582,0.9863757491111755
0.7615237236022949,4.04525899887085,0.9929226040840149
0.7426080703735352,4.102122783660889,1.0085524320602417
0.7133756875991821,4.106741905212402,1.0108509063720703
0.6836344003677368,4.111222743988037,1.0131866931915283
0.6573261618614197,4.134160041809082,1.020108699798584
0.6328718066215515,4.168121337890625,1.0297977924346924
0.6037728786468506,4.171872615814209,1.032076358795166
0.5767701268196106,4.190446853637695,1.0380747318267822
0.5467880964279175,4.193987846374512,1.0399986505508423
0.23977169394493103,1.946215033531189,0.4829728901386261
0.8699064254760742,7.496858596801758,1.8619091510772705
0.46964702010154724,4.3127641677856445,1.0720187425613403
0.4372420012950897,4.2928948402404785,1.0680230855941772
0.4094828963279724,4.318079471588135,1.0752865076065063
0.3808283507823944,4.343121528625488,1.0825977325439453
0.3503386080265045,4.345431327819824,1.0836234092712402
0.3158542811870575,4.2946295738220215,1.0713547468185425
0.28089582920074463,4.22465181350708,1.0543421506881714
0.24698610603809357,4.1544036865234375,1.0372971296310425
0.21720066666603088,4.148252964019775,1.036302924156189
0.18479280173778534,4.069935321807861,1.017308235168457
0.15532180666923523,4.040619373321533,1.0105609893798828
0.12663903832435608,4.026400566101074,1.0069847106933594
0.09751348942518234,3.9854602813720703,0.9967740774154663
0.0687374398112297,3.955686330795288,0.9894055128097534
0.041569050401449203,3.993910074234009,0.9990924000740051
0.013553386554121971,3.9258406162261963,0.9822360277175903
-0.020761214196681976,5.926576137542725,1.4831459522247314
-0.06241881102323532,5.9755144119262695,1.4956119060516357
-0.10433051735162735,5.956145286560059,1.4902085065841675
-0.14767032861709595,6.034996509552002,1.509456992149353
-0.23496119678020477,7.477147102355957,1.8696593046188354
-0.23336261510849,6.081923961639404,1.5204477310180664
-0.1630440354347229,3.596703052520752,0.8990001678466797
-0.19001951813697815,3.6334292888641357,0.9080661535263062
-0.21386054158210754,3.601877450942993,0.8999140858650208
-0.49453696608543396,7.458296775817871,1.8620895147323608
-0.5455065965652466,7.447644233703613,1.858184576034546
-0.5256696939468384,6.556191921234131,1.6347500085830688
-0.5823928713798523,6.681240081787109,1.6649651527404785
-0.6201359033584595,6.575489521026611,1.637723445892334
-0.655561089515686,6.469608783721924,1.6105717420578003
-0.701163113117218,6.473010063171387,1.6102102994918823
-0.7448425889015198,6.461188793182373,1.6055482625961304
-0.7833297252655029,6.407657623291016,1.5906122922897339
-0.8209658265113831,6.3462748527526855,1.573800802230835
-0.8598984479904175,6.3035173416137695,1.5617228746414185
-0.9048174023628235,6.305574893951416,1.5608282089233398
-0.9560215473175049,6.348585605621338,1.5701345205307007
-1.0008972883224487,6.3501996994018555,1.5685451030731201
-1.0562852621078491,6.411423683166504,1.58131742477417
-1.108535647392273,6.453616142272949,1.5894721746444702
-1.159483551979065,6.484179973602295,1.594804048538208
-1.2165195941925049,6.540362358093262,1.606442928314209
-1.2714375257492065,6.581176280975342,1.6143521070480347
-1.327805757522583,6.625262260437012,1.6231071949005127
-1.3854435682296753,6.672905921936035,1.631657600402832
-1.4310369491577148,6.664522171020508,1.626564383506775
-1.4716408252716064,6.633563041687012,1.6160472631454468
-1.5046255588531494,6.568928241729736,1.5974125862121582
-0.6681221723556519,2.826542854309082,0.686120867729187
-0.6845817565917969,2.8074960708618164,0.6802868247032166
-0.7002843618392944,2.78851318359375,0.6743465065956116
-0.7126024961471558,2.758528232574463,0.6655194163322449
-0.7401677966117859,2.787327289581299,0.6709015369415283
-0.763150155544281,2.7975335121154785,0.6718128323554993
-1.7489855289459229,6.2377448081970215,1.4944263696670532
-1.7769113779067993,6.171889781951904,1.475261926651001
-1.811482548713684,6.131503582000732,1.4623087644577026
-1.839844822883606,6.076939582824707,1.445080280303955
-1.8732376098632812,6.04042911529541,1.4322398900985718
-1.903402328491211,5.992650985717773,1.416772484779358
-1.937901258468628,5.959163188934326,1.4047722816467285
-1.9641687870025635,5.899977684020996,1.3867733478546143
-2.0007641315460205,5.873174667358398,1.3764969110488892
-2.0295681953430176,5.8286943435668945,1.3614418506622314
-2.058847188949585,5.7878098487854,1.3471111059188843
-2.0857105255126953,5.739388942718506,1.331062912940979
-2.116103410720825,5.701541423797607,1.3175667524337769
-2.1481871604919434,5.666840076446533,1.3048092126846313
-2.196428060531616,5.6746954917907715,1.3019158840179443
-2.2589454650878906,5.72191858291626,1.3073323965072632
-2.322512149810791,5.768529415130615,1.3122464418411255
-2.3528003692626953,5.733442306518555,1.2986881732940674
-2.3852694034576416,5.7013163566589355,1.2857447862625122
-2.4285271167755127,5.693390846252441,1.2782437801361084
-2.488466739654541,5.723779201507568,1.2793421745300293
-3.5411272048950195,7.99798059463501,1.7782843112945557
-3.6184418201446533,8.029413223266602,1.7760660648345947
-3.6693365573883057,8.000933647155762,1.760598063468933
-3.7585487365722656,8.047306060791016,1.7611207962036133
-3.833777904510498,8.061691284179688,1.7546029090881348
-3.910379409790039,8.079370498657227,1.7478991746902466
-3.983257532119751,8.094172477722168,1.740169644355774
-4.077097415924072,8.149540901184082,1.7410826683044434
-4.167242527008057,8.189316749572754,1.7380790710449219
-4.25732421875,8.224406242370605,1.7337977886199951
-4.318190097808838,8.205009460449219,1.717571496963501
-1.1379079818725586,2.127819538116455,0.4420090913772583
-1.1796671152114868,2.171787977218628,0.4477197527885437
-1.1874454021453857,2.1510353088378906,0.4398914575576782
-4.69827127456665,8.372869491577148,1.6981760263442993
-4.822754383087158,8.461324691772461,1.7012425661087036
-4.916685581207275,8.496026992797852,1.6923354864120483
-1.2384294271469116,2.1085216999053955,0.4161183834075928
-1.2318527698516846,2.0642940998077393,0.40328094363212585
-2.940910816192627,4.85114860534668,0.9380308389663696
-2.9691853523254395,4.8274736404418945,0.9231205582618713
-2.9977121353149414,4.803371429443359,0.9079681038856506
-3.0271406173706055,4.7784528732299805,0.8923706412315369
-3.0531373023986816,4.74628210067749,0.8751922845840454
-3.0661301612854004,4.699196815490723,0.8549202680587769
-3.067202091217041,4.636479377746582,0.8318809270858765
-3.0957205295562744,4.611023426055908,0.8148031234741211
-3.105017900466919,4.55623197555542,0.7924633026123047
-3.135054588317871,4.538435935974121,0.7761511206626892
-2.8628242015838623,4.089492321014404,0.6873447895050049
-2.8833658695220947,4.058783531188965,0.668882429599762
-2.9029879570007324,4.028431415557861,0.6500685811042786
-2.9382081031799316,4.024669170379639,0.6355260014533997
-2.9432826042175293,3.9756200313568115,0.61280357837677
-2.46826171875,3.4606101512908936,-0.24663211405277252
-2.4386959075927734,3.4707109928131104,-0.26348936557769775
-2.8795430660247803,4.164543628692627,-0.3354170322418213
-2.86672043800354,4.209529399871826,-0.3571881353855133
-2.8553578853607178,4.257843017578125,-0.37911754846572876
-2.8078107833862305,4.254947185516357,-0.3965716063976288
-2.780733346939087,4.280200481414795,-0.4159450829029083
-2.759640693664551,4.31512975692749,-0.43596309423446655
-2.739262104034424,4.3537983894348145,-0.456531286239624
-1.2739872932434082,2.0568315982818604,-0.2231164127588272
-2.7082526683807373,4.442367076873779,-0.4976985454559326
-2.140550374984741,3.5707175731658936,-0.4128880202770233
-2.6475560665130615,4.488274574279785,-0.534252405166626
-2.6231954097747803,4.518490314483643,-0.5528343319892883
-1.2090675830841064,2.117824077606201,-0.2660807967185974
-2.582526206970215,4.6000261306762695,-0.5928626656532288
-2.5583558082580566,4.63349723815918,-0.6119105815887451
-2.53930401802063,4.67709493637085,-0.6321549415588379
-2.5155205726623535,4.714040756225586,-0.6516501903533936
-2.4669692516326904,4.702369213104248,-0.6640809178352356
-2.4297537803649902,4.710709095001221,-0.6791037917137146
-1.0852220058441162,2.142070770263672,-0.31512650847435
-1.0590852499008179,2.1281301975250244,-0.3192216753959656
-1.0540486574172974,2.155456066131592,-0.32934674620628357
-1.045233130455017,2.175846576690674,-0.33850449323654175
-1.032576084136963,2.1893413066864014,-0.3465880751609802
-1.0198450088500977,2.202711820602417,-0.35468024015426636
-1.0133895874023438,2.2300455570220947,-0.365104079246521
-0.9973199367523193,2.236147880554199,-0.3719656467437744
-0.9825567603111267,2.2457494735717773,-0.3793635964393616
-0.9693322777748108,2.258739471435547,-0.38734176754951477
-0.9621418714523315,2.285783529281616,-0.39775407314300537
-0.9483397603034973,2.2986972332000732,-0.4058085083961487
-0.9345273375511169,2.3114845752716064,-0.4137198328971863
-0.912193775177002,2.302638530731201,-0.41771864891052246
-0.9041420817375183,2.329425573348999,-0.4281587302684784
-1.2443233728408813,3.273547649383545,-0.6093844175338745
-1.209585189819336,3.2520387172698975,-0.6129924654960632
-1.1691375970840454,3.2119972705841064,-0.6128060817718506
-1.0443615913391113,2.9325828552246094,-0.5661780834197998
-1.0183098316192627,2.9239742755889893,-0.5710321068763733
-0.9787282347679138,2.875218629837036,-0.5677530169487
-0.9529237747192383,2.8662233352661133,-0.572293758392334
-0.9396256804466248,2.8933684825897217,-0.5839493870735168
-0.9190184473991394,2.898533344268799,-0.5910865068435669
-0.8779366612434387,2.83769154548645,-0.5844177603721619
-0.8067777752876282,2.6737682819366455,-0.5560745000839233
-0.7759129405021667,2.6376938819885254,-0.5538978576660156
-0.746293842792511,2.6051242351531982,-0.5523179173469543
-0.7082176804542542,2.5391218662261963,-0.5430988073348999
-0.6751402616500854,2.4875266551971436,-0.5367481112480164
-0.6419783234596252,2.4319136142730713,-0.5293083190917969
-0.6143786907196045,2.3945207595825195,-0.5256181955337524
-0.5833460092544556,2.3421971797943115,-0.5182152986526489
-0.5560526847839355,2.3006794452667236,-0.5129891037940979
-0.5250021815299988,2.2403531074523926,-0.5034128427505493
-0.5057901740074158,2.2281131744384766,-0.504535973072052
-0.4810810089111328,2.189736843109131,-0.4992479979991913
-0.457444429397583,2.1549246311187744,-0.49473437666893005
-0.434625506401062,2.1198694705963135,-0.49000585079193115
-0.41010427474975586,2.073418617248535,-0.48253265023231506
-0.3869841396808624,2.0305824279785156,-0.47541242837905884
-0.3727419674396515,2.0324833393096924,-0.4786580204963684
-0.3549255430698395,2.015580177307129,-0.4775252342224121
-0.33190101385116577,1.9647632837295532,-0.46823516488075256
-0.31569257378578186,1.9513556957244873,-0.46746763586997986
-0.30087533593177795,1.9453624486923218,-0.46833592653274536
-0.2883608937263489,1.9542937278747559,-0.4728226363658905
-0.26653507351875305,1.8992228507995605,-0.46182703971862793
-0.24925614893436432,1.8703609704971313,-0.4568144977092743
-0.23811405897140503,1.8865984678268433,-0.46262240409851074
-0.22180460393428802,1.8613147735595703,-0.4582618176937103
-0.20880475640296936,1.8622989654541016,-0.4603665769100189
-0.18946288526058197,1.802890658378601,-0.44730040431022644
-0.17817236483097076,1.8188806772232056,-0.4526708424091339
-0.16206902265548706,1.7819256782531738,-0.44484660029411316
-0.14742745459079742,1.7561825513839722,-0.4397945702075958
-0.13636203110218048,1.7719274759292603,-0.44499051570892334
-0.12245204299688339,1.7498815059661865,-0.44037649035453796
-0.10913239419460297,1.7353044748306274,-0.4376589059829712
-0.09746618568897247,1.74331533908844,-0.44064193964004517
-0.08569737523794174,1.7512686252593994,-0.4435376226902008
-0.07193105667829514,1.71383535861969,-0.43455198407173157
-0.060544200241565704,1.7292792797088623,-0.43898826837539673
-0.048547178506851196,1.737078070640564,-0.44152048230171204
-0.036325838416814804,1.7296624183654785,-0.4401487410068512
-0.02444232627749443,1.7374101877212524,-0.44220539927482605
-0.012224774807691574,1.714792251586914,-0.4365537464618683
-0.0002936403907369822,1.7375154495239258,-0.4424668848514557
0.012010233476758003,1.7374399900436401,-0.4426001310348511
0.023537935689091682,1.6957660913467407,-0.4316515326499939
0.03652471303939819,1.7524223327636719,-0.4457504451274872
0.04830193892121315,1.7370775938034058,-0.44154879450798035
0.06038118153810501,1.7367887496948242,-0.4411984980106354
0.07152582705020905,1.713822364807129,-0.4346701204776764
0.08368188887834549,1.7134817838668823,-0.43384090065956116
0.09602553397417068,1.7206271886825562,-0.43493929505348206
0.10940956324338913,1.7428069114685059,-0.4398477077484131
0.1231381744146347,1.7649792432785034,-0.44436389207839966
0.1354335993528366,1.7644073963165283,-0.4430563449859619
0.14730878174304962,1.7561827898025513,-0.43983379006385803
0.16160540282726288,1.7780901193618774,-0.44418978691101074
0.1740228235721588,1.77732515335083,-0.4425569772720337
0.1884154975414276,1.795366883277893,-0.4454582929611206
0.20263326168060303,1.8095319271087646,-0.4473912715911865
0.2172682136297226,1.8235734701156616,-0.44926339387893677
0.22809730470180511,1.8074606657028198,-0.44348880648612976
0.2477717250585556,1.8590580224990845,-0.4540995955467224
0.2613030970096588,1.8616057634353638,-0.45269155502319336
0.2776528000831604,1.882845163345337,-0.45582249760627747
0.29456618428230286,1.9039747714996338,-0.4586583375930786
0.30306529998779297,1.8725183010101318,-0.4486422538757324
0.3295276165008545,1.949747085571289,-0.46462318301200867
0.3471599519252777,1.9705531597137451,-0.46705594658851624
0.36648496985435486,1.998732089996338,-0.47105634212493896
0.3819916248321533,2.0043795108795166,-0.46939772367477417
0.4015122354030609,2.0285556316375732,-0.47200503945350647
0.421892911195755,2.0563409328460693,-0.4754486680030823
0.4411035180091858,2.076514720916748,-0.47700926661491394
0.4630962014198303,2.1077756881713867,-0.480695515871048
0.4863939881324768,2.1425695419311523,-0.4850943088531494
0.5087326169013977,2.169685125350952,-0.4876057207584381
0.5410802364349365,2.2374749183654785,-0.4991706609725952
0.5587208271026611,2.2420501708984375,-0.49612516164779663
0.5887961983680725,2.294597625732422,-0.5036060810089111
0.6215733885765076,2.3542661666870117,-0.5124656558036804
0.6464998126029968,2.380354166030884,-0.513799786567688
0.6807669997215271,2.4395272731781006,-0.5218583345413208
0.7127504348754883,2.487348794937134,-0.5272406339645386
0.7422171235084534,2.523850202560425,-0.5300655364990234
0.7811014652252197,2.589421033859253,-0.5388028621673584
0.8155737519264221,2.636298894882202,-0.5430687665939331
0.8631705045700073,2.7231600284576416,-0.5552882552146912
0.9072930216789246,2.7949562072753906,-0.5641133785247803
0.9404285550117493,2.8298842906951904,-0.5652643442153931
0.9851294755935669,2.8972907066345215,-0.5724920630455017
1.056027889251709,3.036862373352051,-0.5933859944343567
1.1075084209442139,3.1140105724334717,-0.6014677286148071
1.1703529357910156,3.219632863998413,-0.6147363781929016
1.2279706001281738,3.30663800239563,-0.6238436698913574
1.3072328567504883,3.447101593017578,-0.6423389315605164
1.3844364881515503,3.5759358406066895,-0.6580133438110352
1.469772219657898,3.7180933952331543,-0.6753085255622864
1.5825504064559937,3.923889398574829,-0.7033356428146362
1.6629085540771484,4.043002605438232,-0.7148420214653015
1.7286889553070068,4.122120380401611,-0.7187515497207642
1.7732313871383667,4.147233009338379,-0.7128627300262451
1.8031119108200073,4.136449813842773,-0.7004538178443909
1.832095742225647,4.125770092010498,-0.6881234645843506
1.8356751203536987,4.0584821701049805,-0.6664775013923645
1.5363558530807495,3.3347017765045166,-0.5389161705970764
1.553358554840088,3.311389207839966,-0.5264157652854919
1.5769037008285522,3.301898717880249,-0.5159209966659546
1.5967463254928589,3.2853574752807617,-0.5044649243354797
1.6201233863830566,3.275491952896118,-0.49397385120391846
1.6430995464324951,3.2656044960021973,-0.4834319055080414
1.662212610244751,3.2487707138061523,-0.47184666991233826
1.685080885887146,3.238513946533203,-0.4611183702945709
1.7031664848327637,3.2174479961395264,-0.44860556721687317
1.7255934476852417,3.206979751586914,-0.4377255439758301
1.7477748394012451,3.196418523788452,-0.42683377861976624
1.8816546201705933,3.385559558868408,-0.44179022312164307
2.1138648986816406,3.742072820663452,-0.47679537534713745
2.1516201496124268,3.749086618423462,-0.4658259451389313
2.197052240371704,3.7693326473236084,-0.45650240778923035
2.200153112411499,3.715090036392212,-0.4378078281879425
2.226048469543457,3.7012386322021484,-0.42400890588760376
2.2593834400177,3.7007830142974854,-0.4117041826248169
2.281707525253296,3.679500102996826,-0.39648985862731934
2.2994842529296875,3.6515681743621826,-0.3806808590888977
2.3409504890441895,3.6636064052581787,-0.36900293827056885
2.3364524841308594,3.6031289100646973,-0.3499041795730591
2.370635986328125,3.600830316543579,-0.33611607551574707
2.425729274749756,3.631126880645752,-0.3249190151691437
2.42400860786438,3.5772690773010254,-0.30630263686180115
2.453835964202881,3.5676777362823486,-0.2908734679222107
2.5001678466796875,3.5842702388763428,-0.27746278047561646
2.506103038787842,3.5432000160217285,-0.259419709444046
2.5134689807891846,3.5008699893951416,-0.2403070479631424
2.5778746604919434,3.54207444190979,-0.2270987331867218
2.2310547828674316,3.023355484008789,-0.17956818640232086
2.7791097164154053,3.940847396850586,0.6883490085601807
2.7689857482910156,3.992037057876587,0.7113301753997803
2.7505507469177246,4.02982759475708,0.7316449284553528
2.707740545272827,4.02793550491333,0.7439844012260437
2.6932718753814697,4.071829795837402,0.7641879916191101
2.66688871383667,4.100063800811768,0.7814262509346008
2.617921829223633,4.087649822235107,0.789949893951416
2.5920944213867188,4.110499858856201,0.8050835132598877
2.57316517829895,4.1514081954956055,0.8234549760818481
2.5484120845794678,4.181981563568115,0.8397029042243958
2.5082473754882812,4.1812543869018555,0.8488666415214539
2.4797630310058594,4.2001447677612305,0.861975908279419
2.4585511684417725,4.236801624298096,0.8781864047050476
2.42872953414917,4.260253429412842,0.891914427280426
2.390167474746704,4.262020587921143,0.9004195332527161
2.370663642883301,4.296869277954102,0.9158632159233093
2.2686574459075928,4.184084892272949,0.8991881608963013
2.243666887283325,4.212686538696289,0.9125557541847229
2.220247745513916,4.244462966918945,0.9266923666000366
2.1897900104522705,4.258113861083984,0.9364871382713318
2.169511079788208,4.292101860046387,0.9508190751075745
2.133373737335205,4.299552917480469,0.9586443901062012
2.1039459705352783,4.320463180541992,0.9695265293121338
2.0779783725738525,4.3479084968566895,0.9818917512893677
2.059875726699829,4.388358116149902,0.9969897866249084
2.0364909172058105,4.418314456939697,1.0097901821136475
2.000018835067749,4.424647331237793,1.016525387763977
2.014706611633301,4.545967102050781,1.049850344657898
2.009859800338745,4.625422954559326,1.0737035274505615
1.970374584197998,4.623849868774414,1.078729510307312
1.949265480041504,4.664009094238281,1.0934678316116333
1.9150326251983643,4.676356315612793,1.1011950969696045
1.8773531913757324,4.681612014770508,1.1070679426193237
1.8369098901748657,4.679459571838379,1.1112293004989624
1.8082581758499146,4.7052001953125,1.121977686882019
1.800431251525879,4.7839484214782715,1.1453725099563599
1.7624740600585938,4.784154415130615,1.1500039100646973
1.3373421430587769,3.7130496501922607,0.8955310583114624
1.3099614381790161,3.7215688228607178,0.90062415599823
1.6533499956130981,4.810129642486572,1.168092966079712
1.649688482284546,4.910338878631592,1.1963576078414917
1.6233326196670532,4.94559383392334,1.2089484930038452
1.585853934288025,4.948213577270508,1.213457465171814
1.5349432229995728,4.911075592041016,1.2075432538986206
2.2802865505218506,7.488694667816162,1.8463702201843262
1.4970548152923584,5.0469560623168945,1.2477374076843262
1.4478709697723389,5.008512496948242,1.2415192127227783
1.3951259851455688,4.95503568649292,1.231568455696106
1.0791575908660889,3.937747001647949,0.9813279509544373
1.0525864362716675,3.951870918273926,0.9868586659431458
1.0234715938568115,3.9585700035095215,0.9906266331672668
0.9911578297615051,3.9502079486846924,0.9906312227249146
0.9578468799591064,3.934083938598633,0.9886738657951355
0.9284770488739014,3.9324285984039307,0.9903723001480103
0.9042969942092896,3.9527318477630615,0.9976505637168884
0.8771804571151733,3.9658091068267822,1.0026812553405762
0.851883590221405,3.9860851764678955,1.009385347366333
0.8301696181297302,4.024758338928223,1.0208196640014648
0.8059141039848328,4.052123069763184,1.0294500589370728
0.7761701345443726,4.049466133117676,1.0304772853851318
0.7487342953681946,4.061578750610352,1.0353457927703857
0.7254700064659119,4.0958757400512695,1.0457299947738647
0.6975381970405579,4.107827663421631,1.049917459487915
0.6646606922149658,4.089673042297363,1.0464568138122559
0.6355141401290894,4.093722343444824,1.0487264394760132
1.0867866277694702,7.344911575317383,1.8839212656021118
0.7588015198707581,5.386951446533203,1.3834385871887207
0.7282809019088745,5.443883419036865,1.3998609781265259
0.6871916055679321,5.425704479217529,1.3965059518814087
0.6505939364433289,5.4449310302734375,1.4024362564086914
0.6159360408782959,5.482701778411865,1.4132204055786133
0.5729344487190247,5.452578067779541,1.4065957069396973
0.4378550946712494,4.465638637542725,1.1529557704925537
0.39822885394096375,4.373960018157959,1.1302778720855713
0.3652323782444,4.3460516929626465,1.1241064071655273
0.3347635567188263,4.348231792449951,1.1251615285873413
0.2986939549446106,4.278589725494385,1.1075128316879272
0.2618245482444763,4.170889377593994,1.0800436735153198
0.23195242881774902,4.161073207855225,1.0779625177383423
0.1996678113937378,4.094379901885986,1.061186671257019
0.17042484879493713,4.076562881469727,1.0571180582046509
0.13976922631263733,4.024542808532715,1.0442315340042114
0.11013759672641754,3.9686708450317383,1.0297272205352783
0.08272714912891388,3.9844260215759277,1.033798336982727
0.053638607263565063,3.890349864959717,1.009421944618225
0.026252565905451775,3.8527822494506836,0.9997553825378418
-0.0009912473615258932,3.8755197525024414,1.005787968635559
-0.028029687702655792,3.890505790710449,1.0098570585250854
-0.0542524978518486,3.8296902179718018,0.994296669960022
-0.1527833640575409,7.239095687866211,1.8787144422531128
-0.20480404794216156,7.302359104156494,1.8944472074508667
-0.25427189469337463,7.266996383666992,1.8846814632415771
-0.2565355598926544,6.097836017608643,1.5810340642929077
-0.17668022215366364,3.6032772064208984,0.9340469837188721
-0.20134152472019196,3.594529867172241,0.9316214323043823
-0.2298775464296341,3.649789810180664,0.945788562297821
-0.5101597905158997,7.296789646148682,1.8894195556640625
-0.5130236744880676,6.663788795471191,1.7242599725723267
-0.5644212961196899,6.724677085876465,1.7388582229614258
-0.602119505405426,6.623165607452393,1.7115473747253418
-0.6322486996650696,6.457427501678467,1.667759895324707
-0.6795283555984497,6.475948333740234,1.6716605424880981
-0.7244136333465576,6.4640212059021,1.667569637298584
-0.7661057710647583,6.437111854553223,1.6587926149368286
-0.8042268753051758,6.383635520935059,1.6432641744613647
-0.8396528363227844,6.314920425415039,1.6239210367202759
-0.8812167048454285,6.294716835021973,1.6171423196792603
-0.9313778877258301,6.326531887054443,1.6237616539001465
-0.9817820191383362,6.361813068389893,1.6313601732254028
-1.0307399034500122,6.385607719421387,1.6356967687606812
-1.0864273309707642,6.450388431549072,1.6498299837112427
-1.136579155921936,6.477399826049805,1.6543365716934204
-1.1904778480529785,6.52268123626709,1.663559913635254
-1.2458007335662842,6.56357479095459,1.671634316444397
-1.3004111051559448,6.6004109382629395,1.6787561178207397
-1.3578717708587646,6.647956848144531,1.6886496543884277
-1.4146615266799927,6.691614627838135,1.696900486946106
-1.4522781372070312,6.646104335784912,1.68214750289917
-1.4859912395477295,6.581713676452637,1.662682056427002
-1.5241564512252808,6.54316520690918,1.649916172027588
-0.6790286302566528,2.825981378555298,0.7112906575202942
-0.6896747946739197,2.784909248352051,0.6996971368789673
-0.7044376730918884,2.7622084617614746,0.6927803754806519
-0.7284001708030701,2.7763102054595947,0.6946098208427429
-0.7571606636047363,2.808638334274292,0.7010316252708435
-0.7742640972137451,2.796781063079834,0.6964371800422668
-1.7617027759552002,6.198070526123047,1.5397900342941284
-1.7987209558486938,6.165247917175293,1.5280557870864868
-1.8306639194488525,6.1137895584106445,1.511752963066101
-1.8593050241470337,6.059103965759277,1.4942286014556885
-1.892406702041626,6.0226969718933105,1.4808895587921143
-1.9170092344284058,5.960731029510498,1.461382269859314
-1.949371099472046,5.923920631408691,1.4481440782546997
-1.9868695735931396,5.897184371948242,1.437269926071167
-2.0183589458465576,5.8560309410095215,1.4230635166168213
-2.048842668533325,5.814953327178955,1.4086511135101318
-2.0791985988616943,5.777764320373535,1.39463472366333
-2.107766628265381,5.7368483543396,1.3798366785049438
-2.134652614593506,5.692175388336182,1.364235520362854
-2.1754753589630127,5.678689002990723,1.3559287786483765
-2.2335596084594727,5.7113142013549805,1.3587491512298584
-2.294455051422119,5.750800609588623,1.362860918045044
-2.341879367828369,5.758528232574463,1.3587881326675415
-2.3661229610443115,5.709455490112305,1.3413887023925781
-2.4012789726257324,5.684510707855225,1.3296054601669312
-2.458195447921753,5.708132743835449,1.3290903568267822
-2.520110845565796,5.741765975952148,1.3308894634246826
-3.4955646991729736,7.820380687713623,1.8037617206573486
-2.566624641418457,5.641928195953369,1.2944920063018799
-3.6387722492218018,7.858425617218018,1.793432593345642
-3.706552028656006,7.863908767700195,1.7849477529525757
-3.793909788131714,7.906320571899414,1.7846180200576782
-3.8396875858306885,7.862090110778809,1.7646235227584839
-3.945300340652466,7.946053981781006,1.7722259759902954
-4.015142440795898,7.95335054397583,1.7624207735061646
-2.7672603130340576,5.391971588134766,1.1870914697647095
-4.181129455566406,8.009279251098633,1.7513175010681152
-4.290419578552246,8.081319808959961,1.7549911737442017
-1.1749821901321411,2.1787517070770264,0.4695699214935303
-1.1822013854980469,2.1584384441375732,0.4616170823574066
-4.583308219909668,8.23593521118164,1.7472434043884277
-4.634729862213135,8.19382381439209,1.7237827777862549
-2.951881170272827,5.135532379150391,1.071197271347046
-1.2285484075546265,2.1058599948883057,0.43518298864364624
-1.2484803199768066,2.1086716651916504,0.4316769540309906
-2.941455602645874,4.891202926635742,0.9911898374557495
-2.9626035690307617,4.8496880531311035,0.9725914597511292
-2.975649356842041,4.799251079559326,0.9519546627998352
-3.0034024715423584,4.775637626647949,0.9364622235298157
-3.027526617050171,4.744932651519775,0.9194192886352539
-3.0392906665802,4.689945220947266,0.8969340324401855
-3.033783435821533,4.613527774810791,0.8705575466156006
-3.089853286743164,4.634845733642578,0.8623300790786743
-3.112591028213501,4.603926181793213,0.8439990878105164
-3.1132068634033203,4.536492347717285,0.818284809589386
-2.923887252807617,4.200545787811279,0.7447054386138916
-2.8778131008148193,4.079801559448242,0.7105935215950012
-2.9109790325164795,4.068614959716797,0.6949542760848999
-2.9332892894744873,4.041161060333252,0.6760066747665405
-2.9364752769470215,3.9937586784362793,0.6534563302993774
-2.9590089321136475,3.9703848361968994,0.6342281699180603
-2.441556930541992,3.449875593185425,-0.25901779532432556
-2.4432666301727295,3.5044825077056885,-0.27955618500709534
-2.872512102127075,4.186911106109619,-0.3534955084323883
-2.8631210327148438,4.238667964935303,-0.37671318650245667
-2.834182024002075,4.260956287384033,-0.3967706859111786
-2.7952077388763428,4.270784854888916,-0.41570669412612915
-2.755815267562866,4.275938510894775,-0.4331742525100708
-2.7516849040985107,4.336705207824707,-0.4562133848667145
-2.7553811073303223,4.415050506591797,-0.48183006048202515
-2.7251973152160645,4.436273097991943,-0.5005818009376526
-2.154057741165161,3.5623552799224854,-0.4148719310760498
-2.6635308265686035,4.478404521942139,-0.5376695990562439
-2.638298988342285,4.509152412414551,-0.557184100151062
-2.6363930702209473,4.579872131347656,-0.5817015767097473
-1.1970078945159912,2.114410877227783,-0.27566543221473694
-2.5738091468811035,4.624080657958984,-0.6183041930198669
-2.5517332553863525,4.660547256469727,-0.638105034828186
-2.5326333045959473,4.7038493156433105,-0.6589708924293518
-2.4862258434295654,4.699791431427002,-0.6734578609466553
-1.1222583055496216,2.158362865447998,-0.31595519185066223
-1.0820950269699097,2.116964340209961,-0.3162824511528015
-1.0805326700210571,2.1513609886169434,-0.3278365135192871
-1.0544133186340332,2.137291193008423,-0.3320210874080658
-1.052155613899231,2.171680212020874,-0.3437722325325012
-1.0498454570770264,2.2059364318847656,-0.35552194714546204
-1.0205931663513184,2.1843740940093994,-0.3581969738006592
-1.011014699935913,2.2046470642089844,-0.36769911646842957
-1.0062650442123413,2.235299587249756,-0.3789348006248474
-0.993347704410553,2.2482964992523193,-0.38725560903549194
-0.9797349572181702,2.2614316940307617,-0.39563867449760437
-0.9692955613136292,2.2814505100250244,-0.4051925241947174
-0.9529746174812317,2.287074327468872,-0.4121420681476593
-0.930756688117981,2.2783193588256836,-0.41645705699920654
-0.9228343367576599,2.3051986694335938,-0.42716923356056213
-1.342627763748169,3.424757719039917,-0.6433846354484558
-1.267127275466919,3.2995352745056152,-0.6280403733253479
-1.254306674003601,3.3354837894439697,-0.6431041955947876
-1.2103158235549927,3.2885429859161377,-0.6418924927711487
-1.0616939067840576,2.948493003845215,-0.5825393795967102
-1.0249857902526855,2.911025047302246,-0.5821194052696228
-0.9979724287986755,2.8985180854797363,-0.5864036083221436
-0.9625141024589539,2.860426902770996,-0.5851032137870789
-0.937222421169281,2.8511383533477783,-0.589594304561615
-0.8900021910667419,2.772289991378784,-0.5794658660888672
-0.8241485953330994,2.63095760345459,-0.5558755397796631
-0.7919389605522156,2.5914745330810547,-0.5529688000679016
-0.7461469769477844,2.5040347576141357,-0.5395671725273132
-0.7102216482162476,2.445525646209717,-0.5320877432823181
-0.681420624256134,2.408749580383301,-0.5291427373886108
-0.6460588574409485,2.3460195064544678,-0.5199465155601501
-0.6142966151237488,2.2940926551818848,-0.5129910707473755
-0.5884171724319458,2.260289192199707,-0.5098495483398438
-0.5509018301963806,2.1781842708587646,-0.4955950975418091
-0.5309535264968872,2.1624608039855957,-0.49593687057495117
-0.5086063146591187,2.135465383529663,-0.49356597661972046
-0.48469066619873047,2.1009023189544678,-0.4894174635410309
-0.46402716636657715,2.0772459506988525,-0.4876573085784912
-0.4365272521972656,2.0199997425079346,-0.4775815010070801
-0.4090731739997864,1.9588203430175781,-0.4662863612174988
-0.3922702372074127,1.9458675384521484,-0.4663679301738739
-0.3768653869628906,1.9402787685394287,-0.46826010942459106
-0.3569382131099701,1.9084532260894775,-0.4634566605091095
-0.3449031114578247,1.9176197052001953,-0.46841946244239807
-0.32239100337028503,1.8668444156646729,-0.4587041735649109
-0.30370694398880005,1.8346080780029297,-0.4534425139427185
-0.2823314666748047,1.7835615873336792,-0.4432521164417267
-0.2709951102733612,1.792365550994873,-0.44763484597206116
-0.25360092520713806,1.759813904762268,-0.44167864322662354
-0.24229583144187927,1.7684332132339478,-0.44605156779289246
-0.22798387706279755,1.7544702291488647,-0.4445577561855316
-0.20927344262599945,1.7028741836547852,-0.4332032799720764
-0.1997988075017929,1.7263716459274292,-0.4409741759300232
-0.18775925040245056,1.727211356163025,-0.4429718554019928
-0.1749543994665146,1.7204712629318237,-0.4428914487361908
-0.1622850000858307,1.7137165069580078,-0.44248178601264954
-0.14970560371875763,1.7068721055984497,-0.4420599043369293
-0.13544459640979767,1.681104063987732,-0.4367619752883911
-0.12370769679546356,1.6816457509994507,-0.4381564259529114
-0.10998788475990295,1.6520212888717651,-0.431318461894989
-0.09894683212041855,1.6600251197814941,-0.43431276082992554
-0.08778791129589081,1.667952299118042,-0.4373171925544739
-0.07633800804615021,1.6758277416229248,-0.4402616620063782
-0.06528348475694656,1.6912702322006226,-0.4447954297065735
-0.052595824003219604,1.6613272428512573,-0.437409371137619
-0.04103819653391838,1.6615058183670044,-0.4379677474498749
-0.029359430074691772,1.6540650129318237,-0.43647924065589905
-0.01758483424782753,1.6466567516326904,-0.43456512689590454
-0.0061977640725672245,1.661826252937317,-0.4386303126811981
0.005302004981786013,1.6467012166976929,-0.43472033739089966
0.016821812838315964,1.6541653871536255,-0.4367621839046478
0.0281895212829113,1.6465613842010498,-0.43436843156814575
0.039088718593120575,1.6237735748291016,-0.4279969334602356
0.051040805876255035,1.6386650800704956,-0.4315738081932068
0.06244335696101189,1.638377070426941,-0.4311680793762207
0.07453430444002151,1.6532278060913086,-0.43426892161369324
0.08722805231809616,1.6755399703979492,-0.43933266401290894
0.09887603670358658,1.6751246452331543,-0.4384492039680481
0.10823024064302444,1.6369017362594604,-0.4276956617832184
0.12129732966423035,1.6590709686279297,-0.43228673934936523
0.1340760588645935,1.6736103296279907,-0.4348660111427307
0.14737966656684875,1.69182550907135,-0.4383983910083771
0.15598055720329285,1.657212734222412,-0.42827320098876953
0.17274074256420135,1.705457329750061,-0.43910858035087585
0.1830574870109558,1.6896251440048218,-0.43340975046157837
0.19746458530426025,1.7113369703292847,-0.4373607039451599
0.20940998196601868,1.710385799407959,-0.4355213940143585
0.22431311011314392,1.7319772243499756,-0.439035028219223
0.23668402433395386,1.7309246063232422,-0.43668484687805176
0.24988193809986115,1.7373089790344238,-0.43626561760902405
0.265431672334671,1.7585949897766113,-0.4395770728588104
0.2854916751384735,1.8060612678527832,-0.44902098178863525
0.3019023835659027,1.8271805047988892,-0.4517250061035156
0.312160462141037,1.81075918674469,-0.44516241550445557
0.3304693102836609,1.8390990495681763,-0.4495643973350525
0.34481412172317505,1.8449687957763672,-0.44820454716682434
0.36289581656455994,1.869415283203125,-0.451181024312973
0.38808026909828186,1.927266001701355,-0.4621097445487976
0.4016384482383728,1.9253172874450684,-0.45863524079322815
0.42591017484664917,1.9716349840164185,-0.4663143754005432
0.44647377729415894,1.9992388486862183,-0.46932992339134216
0.47001510858535767,2.037804365158081,-0.47481855750083923
0.48613592982292175,2.042806625366211,-0.4724369943141937
0.5214512944221497,2.125474452972412,-0.48770081996917725
0.5386084914207458,2.130150318145752,-0.48462390899658203
0.5719327330589294,2.197523355484009,-0.49575886130332947
0.5835249423980713,2.179757833480835,-0.4876054525375366
0.6222551465034485,2.261380672454834,-0.5014562010765076
0.6486713886260986,2.2948763370513916,-0.5041568279266357
0.6854569315910339,2.3611249923706055,-0.5137790441513062
0.7087281346321106,2.3794257640838623,-0.5128881931304932
0.749051570892334,2.4524471759796143,-0.5235407948493958
0.781260073184967,2.495913505554199,-0.5273562669754028
0.8223037719726562,2.564617872238159,-0.5362669229507446
0.8659731149673462,2.6364591121673584,-0.545403242111206
0.9103535413742065,2.7079684734344482,-0.5542333722114563
0.9582175016403198,2.786381244659424,-0.5638263821601868
0.9970231652259827,2.8353569507598877,-0.5671783685684204
1.0574743747711182,2.9417481422424316,-0.5816171765327454
1.1168338060379028,3.04030442237854,-0.5940321087837219
1.17922043800354,3.1418521404266357,-0.6061089634895325
1.244070291519165,3.2464723587036133,-0.6184113025665283
1.3022068738937378,3.328871250152588,-0.6259656548500061
1.407291054725647,3.5250630378723145,-0.6542137265205383
1.500389814376831,3.684612274169922,-0.6744992136955261
1.6051393747329712,3.8643620014190674,-0.6974158883094788
1.6957627534866333,4.003998756408691,-0.7123369574546814
1.7747710943222046,4.1107635498046875,-0.7207303047180176
1.8067560195922852,4.107446193695068,-0.7092819809913635
1.838734745979309,4.103874683380127,-0.697766900062561
1.8652446269989014,4.085625171661377,-0.6834424138069153
1.8732224702835083,4.028797149658203,-0.6630064845085144
1.5525761842727661,3.280517101287842,-0.5307645797729492
1.5872682332992554,3.2956464290618896,-0.5240496397018433
1.614154577255249,3.292898178100586,-0.5142585635185242
1.6311265230178833,3.2689566612243652,-0.5010033249855042
1.645149827003479,3.2418956756591797,-0.4874299168586731
1.6730901002883911,3.2422783374786377,-0.4780175983905792
1.6962647438049316,3.231858968734741,-0.46676865220069885
1.7191905975341797,3.2213358879089355,-0.45549842715263367
1.7359713315963745,3.2006754875183105,-0.44280311465263367
1.7606242895126343,3.193195343017578,-0.4317067563533783
1.8650301694869995,3.3276240825653076,-0.4392980933189392
2.1380293369293213,3.754603147506714,-0.483635276556015
2.15999698638916,3.7347910404205322,-0.46903419494628906
2.1823770999908447,3.714494466781616,-0.45415306091308594
2.2252602577209473,3.726972818374634,-0.4428471028804779
2.2426517009735107,3.700035810470581,-0.42703935503959656
2.2640061378479004,3.6795108318328857,-0.41197121143341064
2.3025944232940674,3.6846795082092285,-0.3992737829685211
2.315579891204834,3.650501012802124,-0.38233211636543274
2.3280529975891113,3.616360664367676,-0.3653346598148346
2.374889612197876,3.6339080333709717,-0.3531571328639984
2.387411117553711,3.5991735458374023,-0.33572742342948914
2.4072062969207764,3.5779900550842285,-0.31970837712287903
2.458465099334717,3.6011338233947754,-0.30699262022972107
2.470799684524536,3.565664529800415,-0.2886183559894562
2.4809927940368652,3.5313191413879395,-0.27078959345817566
2.5235512256622314,3.540686845779419,-0.25560134649276733
2.538884162902832,3.5117008686065674,-0.23720674216747284
2.5986807346343994,3.546513795852661,-0.22299958765506744
2.1765496730804443,2.9280688762664795,-0.16928957402706146
2.808431625366211,3.9545090198516846,0.7124196887016296
2.7907533645629883,3.992067813873291,0.7337670922279358
2.7536184787750244,4.005109786987305,0.7503988742828369
2.741170644760132,4.047929763793945,0.7713701725006104
2.7172811031341553,4.074872016906738,0.7891147136688232
2.6696743965148926,4.070939064025879,0.8004019856452942
2.637498378753662,4.088828086853027,0.8157424330711365
2.6117985248565674,4.1115803718566895,0.8312097191810608
2.5843329429626465,4.135138034820557,0.8465349674224854
2.5514955520629883,4.152635097503662,0.8603808283805847
2.5339174270629883,4.192111492156982,0.8784295320510864
2.499094247817993,4.201310634613037,0.8899418115615845
2.4712789058685303,4.223991870880127,0.9037975072860718
2.457453489303589,4.273759841918945,0.923251211643219
2.42478084564209,4.289760112762451,0.9353556632995605
2.393808126449585,4.304622173309326,0.9467853903770447
2.290139675140381,4.188471794128418,0.9292289018630981
2.2559893131256104,4.20025634765625,0.9390894174575806
2.2325050830841064,4.2320756912231445,0.953508734703064
