X,Y,Z
-1.8722783327102661,3.45094633102417,-0.16729384660720825
-1.8830493688583374,3.5291805267333984,-0.17399603128433228
-1.8737072944641113,3.5736794471740723,-0.17906366288661957
-1.8581997156143188,3.6079459190368652,-0.18364892899990082
-1.7072163820266724,3.3737850189208984,-0.17434239387512207
-1.6732141971588135,3.3644866943359375,-0.17638462781906128
-1.6041603088378906,3.2852587699890137,-0.17460648715496063
-1.5633565187454224,3.261497974395752,-0.17569230496883392
-1.533887505531311,3.258066415786743,-0.17775416374206543
-1.520864725112915,3.2898178100585938,-0.18173836171627045
-1.4997931718826294,3.3078911304473877,-0.18493656814098358
-1.4884850978851318,3.3470239639282227,-0.18930615484714508
-2.287283182144165,5.241374969482422,-0.29974329471588135
-2.1892483234405518,5.113528728485107,-0.29563358426094055
-2.1598715782165527,5.14693546295166,-0.30061250925064087
-1.594092607498169,3.878135919570923,-0.2288435697555542
-2.14253568649292,5.318068504333496,-0.31687262654304504
-2.1598470211029053,5.470487594604492,-0.3290775418281555
-2.1348793506622314,5.52187967300415,-0.335160493850708
-1.3567986488342285,3.5854294300079346,-0.21953058242797852
-1.3308935165405273,3.5949714183807373,-0.22203990817070007
-1.3031054735183716,3.5966928005218506,-0.22401124238967896
-1.277715802192688,3.605642557144165,-0.22637934982776642
-1.249293327331543,3.6071934700012207,-0.2281886637210846
-1.2284120321273804,3.6306827068328857,-0.23140104115009308
-1.2026845216751099,3.6391422748565674,-0.2336530238389969
-1.153381586074829,3.5730724334716797,-0.23106789588928223
-0.9780644774436951,3.1050515174865723,-0.20212282240390778
-0.9582282304763794,3.1192739009857178,-0.20436200499534607
-0.9104805588722229,3.039944648742676,-0.20043739676475525
-0.80296391248703,2.7504770755767822,-0.18249382078647614
-0.7759044170379639,2.7297754287719727,-0.1822422742843628
-0.7523283958435059,2.720101833343506,-0.18259482085704803
-0.7350035309791565,2.732816696166992,-0.18445681035518646
-0.713888943195343,2.7302608489990234,-0.18528184294700623
-0.7054135203361511,2.7766313552856445,-0.18944382667541504
-1.4960592985153198,6.070139408111572,-0.41625648736953735
-1.462095022201538,6.1183085441589355,-0.42150282859802246
-1.4591673612594604,6.302987098693848,-0.4362426698207855
-1.4246248006820679,6.354639530181885,-0.44183215498924255
-1.3746178150177002,6.3375444412231445,-0.4426653981208801
-1.322859525680542,6.316526889801025,-0.4430098235607147
-1.272098183631897,6.294978141784668,-0.4431876838207245
-1.2180359363555908,6.253896236419678,-0.44198858737945557
-0.9151667356491089,4.879427433013916,-0.34616756439208984
-0.8693915009498596,4.820367336273193,-0.34329473972320557
-0.8236424326896667,4.761073112487793,-0.3401657044887543
-0.7837526798248291,4.728206157684326,-0.3388495445251465
-0.741356372833252,4.675769329071045,-0.3361251950263977
-0.7064339518547058,4.665309906005859,-0.3364097476005554
-0.6728061437606812,4.662304401397705,-0.3372430205345154
-0.6384202241897583,4.6591877937316895,-0.33784857392311096
-0.6096663475036621,4.694389343261719,-0.3412059545516968
-0.5776835083961487,4.706202030181885,-0.34288471937179565
-0.5463436841964722,4.721628665924072,-0.34483861923217773
-0.5168803930282593,4.756215572357178,-0.34821709990501404
-0.4769613742828369,4.693755626678467,-0.34424087405204773
-0.5453450083732605,5.7752203941345215,-0.4242801368236542
-0.419173002243042,4.796922206878662,-0.35301607847213745
-0.39232373237609863,4.881211280822754,-0.35985127091407776
-0.25456854701042175,3.4695305824279785,-0.2562410235404968
-0.23264747858047485,3.506178617477417,-0.2592264413833618
-0.20815932750701904,3.5154950618743896,-0.2601741850376129
-0.2973547875881195,5.695406436920166,-0.4219367504119873
-0.25703540444374084,5.681726455688477,-0.42137277126312256
-0.21677161753177643,5.663869380950928,-0.4205165505409241
-0.17579285800457,5.618497848510742,-0.41734230518341064
-0.13540855050086975,5.596220970153809,-0.41582053899765015
-0.09592520445585251,5.569748401641846,-0.41400399804115295
-0.056845102459192276,5.531311988830566,-0.4113156497478485
-0.014798539690673351,4.4408278465271,-0.33037716150283813
0.01516008097678423,4.187620162963867,-0.31151527166366577
0.057948049157857895,5.426113605499268,-0.4035267233848572
0.09603431820869446,5.448960304260254,-0.4051273763179779
0.13358022272586823,5.432592391967773,-0.4038316607475281
0.16955141723155975,5.373137950897217,-0.3993534743785858
0.20345555245876312,5.282323837280273,-0.39235618710517883
0.19586513936519623,4.3079352378845215,-0.31968119740486145
0.2753874957561493,5.2401251792907715,-0.3885035812854767
0.2532222867012024,4.254271507263184,-0.315145879983902
0.28018510341644287,4.213568210601807,-0.3118816018104553
0.30824053287506104,4.196022987365723,-0.310208797454834
0.3363524377346039,4.182187080383301,-0.30869394540786743
0.3701995611190796,4.2302165031433105,-0.31174808740615845
0.4754383862018585,5.0304484367370605,-0.37016311287879944
0.5112269520759583,5.03482723236084,-0.3699420988559723
0.4977644681930542,4.585818290710449,-0.3363379240036011
0.5249493718147278,4.543644428253174,-0.33248671889305115
0.564460813999176,4.601790904998779,-0.3359754979610443
0.6059101819992065,4.671247482299805,-0.34029385447502136
0.6679282784461975,4.883172512054443,-0.35496020317077637
0.7028403878211975,4.88623046875,-0.35430708527565
0.7353233695030212,4.8736677169799805,-0.3523612916469574
0.7645662426948547,4.837712287902832,-0.3487326204776764
0.7955895066261292,4.817010879516602,-0.3462390601634979
0.8330205678939819,4.834504127502441,-0.3465048372745514
0.8692086935043335,4.8440728187561035,-0.34609636664390564
0.9010556936264038,4.830442428588867,-0.3438688814640045
0.9327976703643799,4.81659460067749,-0.3416445553302765
0.9652168154716492,4.802375316619873,-0.33938369154930115
0.9938516020774841,4.772769927978516,-0.33607667684555054
1.023563027381897,4.750668048858643,-0.33320125937461853
1.0502243041992188,4.717037677764893,-0.32939058542251587
1.080837607383728,4.7022552490234375,-0.32692208886146545
1.1140106916427612,4.694645404815674,-0.324929803609848
0.5872401595115662,2.400240659713745,-0.16539500653743744
0.6037791967391968,2.396207571029663,-0.16432206332683563
0.6143001914024353,2.3694570064544678,-0.16165021061897278
0.6265109777450562,2.350201368331909,-0.159509539604187
1.252256155014038,4.567513942718506,-0.308349072933197
1.289276123046875,4.577602386474609,-0.3074139356613159
1.3195898532867432,4.565057754516602,-0.3047918677330017
1.3396589756011963,4.518723964691162,-0.2998822033405304
1.363764762878418,4.487225532531738,-0.2959907650947571
1.397839069366455,4.4850592613220215,-0.29399222135543823
1.4243175983428955,4.460513591766357,-0.29057273268699646
1.4522379636764526,4.443470478057861,-0.28744617104530334
1.478755235671997,4.422554969787598,-0.2840907573699951
1.501621127128601,4.39029598236084,-0.28001168370246887
1.524427056312561,4.357821941375732,-0.2759316861629486
1.2805116176605225,3.5798158645629883,-0.22493496537208557
1.3047720193862915,3.5711910724639893,-0.22259928286075592
1.6002204418182373,4.289495944976807,-0.26521989703178406
1.6328344345092773,4.285713195800781,-0.2627798616886139
1.6584364175796509,4.263496398925781,-0.2592217028141022
1.692244291305542,4.262968063354492,-0.2568124532699585
1.7210733890533447,4.251593589782715,-0.2537701427936554
1.7457457780838013,4.229049205780029,-0.25004732608795166
1.7690898180007935,4.202597618103027,-0.24608565866947174
1.7886627912521362,4.169034004211426,-0.24167199432849884
1.8234373331069946,4.17116641998291,-0.23921015858650208
1.848436713218689,4.151795864105225,-0.23555490374565125
1.8741047382354736,4.131895542144775,-0.23181237280368805
1.8961068391799927,4.104848861694336,-0.22767557203769684
1.9269397258758545,4.099277973175049,-0.22463801503181458
1.9447740316390991,4.065102577209473,-0.2200068235397339
1.9644513130187988,4.034132480621338,-0.21553470194339752
1.9976791143417358,4.031038284301758,-0.21255294978618622
2.031580686569214,4.031735420227051,-0.20965565741062164
2.0477874279022217,3.997426748275757,-0.2049524188041687
2.0754637718200684,3.983318567276001,-0.2011970728635788
2.1017117500305176,3.9653091430664062,-0.19718028604984283
2.1298418045043945,3.9548935890197754,-0.19352173805236816
2.150482177734375,3.930553674697876,-0.18918979167938232
2.166410446166992,3.895214319229126,-0.1842159926891327
2.156602382659912,3.815882921218872,-0.17721468210220337
2.182182788848877,3.8014981746673584,-0.17317810654640198
2.21555233001709,3.8004140853881836,-0.16974014043807983
2.2339954376220703,3.771651268005371,-0.16495373845100403
2.255120277404785,3.750133991241455,-0.1604648381471634
2.291860818862915,3.755439043045044,-0.1570977121591568
2.3058366775512695,3.7195305824279785,-0.15175850689411163
2.327070713043213,3.6972403526306152,-0.1470259428024292
2.3552985191345215,3.688765048980713,-0.14283129572868347
2.371683120727539,3.6598329544067383,-0.13771112263202667
2.3883938789367676,3.630445957183838,-0.13247762620449066
2.4165492057800293,3.6213319301605225,-0.12788383662700653
2.436342716217041,3.5987889766693115,-0.12274698913097382
2.4477975368499756,3.562788724899292,-0.11700855940580368
2.4704558849334717,3.547278642654419,-0.11194129288196564
2.498793125152588,3.537106990814209,-0.10677946358919144
2.5138375759124756,3.5073962211608887,-0.1007721796631813
2.5359349250793457,3.491607189178467,-0.09527328610420227
2.569464921951294,3.4865927696228027,-0.08952853083610535
2.6751012802124023,3.7791295051574707,0.1580047309398651
2.6481502056121826,3.7978057861328125,0.1640845537185669
2.6440303325653076,3.8526055812835693,0.17164887487888336
2.653430461883545,3.93092679977417,0.1803533285856247
2.6345269680023193,3.962127685546875,0.18649373948574066
2.632402181625366,4.024045467376709,0.19408676028251648
2.585193395614624,4.0171895027160645,0.1982845962047577
2.565412759780884,4.048090934753418,0.20402494072914124
2.5266690254211426,4.053742408752441,0.20848816633224487
2.4999704360961914,4.079157829284668,0.21386383473873138
2.4632253646850586,4.082987308502197,0.21781450510025024
2.446004629135132,4.120329856872559,0.22351126372814178
2.4386000633239746,4.178767204284668,0.2303244024515152
2.3958723545074463,4.17618989944458,0.23376314342021942
2.36279559135437,4.185793399810791,0.23766444623470306
2.2849225997924805,4.117367267608643,0.23699001967906952
2.2392165660858154,4.106652736663818,0.2395136058330536
2.2207930088043213,4.142989158630371,0.24466587603092194
2.1949846744537354,4.165308475494385,0.2489927113056183
2.1754472255706787,4.201691627502441,0.2540179491043091
2.1479010581970215,4.224365234375,0.2581961452960968
2.117548704147339,4.239437580108643,0.2618477940559387
2.091360092163086,4.26088809967041,0.2658364176750183
2.060229539871216,4.2758049964904785,0.2693875730037689
2.033747911453247,4.301192283630371,0.2734883725643158
2.0008156299591064,4.3120951652526855,0.2766571342945099
1.970684289932251,4.325738906860352,0.27991628646850586
2.007179021835327,4.488736629486084,0.29291826486587524
1.9477051496505737,4.442366600036621,0.29214808344841003
4.387955665588379,10.21342658996582,0.676954448223114
1.8875969648361206,4.48051643371582,0.29917794466018677
1.9024479389190674,4.605072498321533,0.3097319006919861
1.86674165725708,4.61104679107666,0.31227415800094604
1.8274235725402832,4.609801769256592,0.31421005725860596
1.804539680480957,4.652070999145508,0.3191717863082886
1.7872369289398193,4.704450607299805,0.3247562646865845
1.3426568508148193,3.609597682952881,0.2507046163082123
1.3222538232803345,3.633573055267334,0.25380492210388184
1.2933582067489624,3.6355438232421875,0.25531208515167236
1.2640447616577148,3.6374435424804688,0.256846159696579
1.6122150421142578,4.745757579803467,0.3368500769138336
1.6134724617004395,4.860269546508789,0.34677019715309143
1.5681661367416382,4.838043212890625,0.3468320667743683
1.5379869937896729,4.86390495300293,0.3502374291419983
1.5069258213043213,4.8897600173950195,0.35369637608528137
1.4827282428741455,4.933619022369385,0.35842210054397583
1.4253530502319336,4.865120887756348,0.35497817397117615
1.3997166156768799,4.904824733734131,0.3593491315841675
0.6483986973762512,2.3352675437927246,0.1717178374528885
1.3039851188659668,4.830015182495117,0.35646846890449524
1.2692259550094604,4.839117527008057,0.3584688901901245
1.2421561479568481,4.874142646789551,0.3623756468296051
1.2137701511383057,4.905228614807129,0.3660185933113098
1.186008334159851,4.943944454193115,0.36999791860580444
1.1506478786468506,4.952165603637695,0.37170225381851196
1.1181138753890991,4.9754557609558105,0.3745768070220947
1.0875955820083618,5.002025604248047,0.3776789903640747
1.0576115846633911,5.032210826873779,0.38108015060424805
1.0191861391067505,5.024116516113281,0.38149207830429077
0.9910399913787842,5.069334506988525,0.3858121633529663
2.1752102375030518,11.568931579589844,0.8825775384902954
2.0638675689697266,11.418896675109863,0.8731942176818848
1.9576442241668701,11.279243469238281,0.8645662069320679
1.8547459840774536,11.146360397338867,0.8564442992210388
1.7534011602401733,11.016647338867188,0.8480578660964966
1.6519041061401367,10.88245677947998,0.839194655418396
1.5552970170974731,10.758781433105469,0.831123948097229
1.4588420391082764,10.61487102508545,0.8214726448059082
1.368927001953125,10.500992774963379,0.814137876033783
1.2730307579040527,10.324542045593262,0.8019402027130127
1.1967353820800781,10.302172660827637,0.8011296391487122
1.0994187593460083,10.093525886535645,0.7858655452728271
1.0267724990844727,10.085395812988281,0.7862153053283691
0.4112270772457123,4.338510513305664,0.33864590525627136
0.3783571720123291,4.310173988342285,0.33687999844551086
0.34550291299819946,4.277720928192139,0.3347555100917816
0.3150264322757721,4.28004264831543,0.335154265165329
0.2852785587310791,4.286000728607178,0.33585116267204285
0.2599041759967804,4.365610599517822,0.34234023094177246
0.23140959441661835,4.402280330657959,0.34548336267471313
0.19603146612644196,4.298713684082031,0.33763301372528076
0.16589750349521637,4.307750701904297,0.33856526017189026
0.13470712304115295,4.2737627029418945,0.3359520137310028
0.10557211190462112,4.301838397979736,0.3382337987422943
0.045907966792583466,4.326233386993408,0.34035152196884155
0.01551333349198103,4.3887457847595215,0.3453979790210724
-0.04256545752286911,4.104280948638916,0.322955846786499
-0.0708312839269638,4.088320255279541,0.321620911359787
-0.09944438934326172,4.095522880554199,0.32212406396865845
-0.12840427458286285,4.1103105545043945,0.32323893904685974
-0.15689362585544586,4.093742370605469,0.3219030797481537
-0.18160279095172882,4.010876178741455,0.3152623772621155
-0.18561291694641113,3.5545380115509033,0.2791776657104492
-0.21091312170028687,3.5648539066314697,0.2797848880290985
-0.2348235696554184,3.5516743659973145,0.27856147289276123
-0.2849910259246826,3.891737222671509,0.30503615736961365
-0.3076946437358856,3.8353402614593506,0.30043962597846985
-0.3305383324623108,3.7904751300811768,0.2966456711292267
-0.3468400239944458,3.6834585666656494,0.2879068851470947
-0.3632477819919586,3.5918993949890137,0.2804088294506073
-0.38687336444854736,3.5738048553466797,0.2786625027656555
-0.424617201089859,3.683274030685425,0.2868727147579193
-0.44734859466552734,3.657083511352539,0.28452298045158386
-0.46805238723754883,3.6192023754119873,0.28114840388298035
-0.49077939987182617,3.6005258560180664,0.2792077660560608
-0.5126006603240967,3.5739359855651855,0.27666354179382324
-0.5315050482749939,3.5318479537963867,0.27294591069221497
-0.5596595406532288,3.551213264465332,0.2739906311035156
-0.5932093858718872,3.6010971069335938,0.2773929834365845
-0.5974970459938049,3.478001594543457,0.26733288168907166
-0.5952490568161011,3.328193187713623,0.25523641705513
-1.1841403245925903,6.364680290222168,0.4869912266731262
-1.2407194375991821,6.421481609344482,0.49024543166160583
-1.2952722311019897,6.462488174438477,0.4922933280467987
-1.349630355834961,6.499239921569824,0.49401116371154785
-0.7680888175964355,3.5763890743255615,0.2710648775100708
-1.438826322555542,6.480400085449219,0.48975032567977905
-1.2862927913665771,5.612408638000488,0.42296165227890015
-0.816015362739563,3.4500298500061035,0.2592630088329315
-0.6784823536872864,2.7819740772247314,0.2084733247756958
-0.7033398151397705,2.799976348876953,0.20918254554271698
-0.7110112905502319,2.7498552799224854,0.20470856130123138
-0.7286723256111145,2.7412760257720947,0.20336370170116425
-0.7505650520324707,2.747561454772949,0.20312127470970154
-0.7802115678787231,2.7798638343811035,0.20478948950767517
-0.7855262160301208,2.7257697582244873,0.2001056671142578
-0.9899752140045166,3.3481392860412598,0.24477148056030273
-1.0092413425445557,3.3302791118621826,0.24244290590286255
-1.024844765663147,3.3011457920074463,0.23931504786014557
-1.0477337837219238,3.2940638065338135,0.2377791404724121
-1.0730178356170654,3.2942240238189697,0.2367737889289856
-1.0836243629455566,3.2498114109039307,0.23248985409736633
-1.120571255683899,3.2868287563323975,0.23396624624729156
-1.2157443761825562,3.4891300201416016,0.24712997674942017
-1.3377878665924072,3.7561988830566406,0.2646905481815338
-2.0625007152557373,5.666195869445801,0.3972240388393402
-2.0907187461853027,5.622804164886475,0.3920908570289612
-2.117997407913208,5.579473495483398,0.3867422342300415
-2.146925687789917,5.5435566902160645,0.3819875419139862
-2.1876442432403564,5.53622579574585,0.37918227910995483
-1.3878905773162842,3.442087411880493,0.23429863154888153
-1.4146926403045654,3.4397356510162354,0.23266318440437317
-1.4169731140136719,3.379840850830078,0.22699885070323944
-2.376802444458008,5.564797401428223,0.3711380958557129
-1.4516358375549316,3.3356523513793945,0.22087445855140686
-1.4717036485671997,3.3184688091278076,0.2181178629398346
-1.4880651235580444,3.294208526611328,0.21487747132778168
-1.5005548000335693,3.26296067237854,0.21107518672943115
-1.522221326828003,3.2530622482299805,0.20870600640773773
-1.547973871231079,3.249685764312744,0.20669697225093842
-1.5705801248550415,3.238978385925293,0.2042091190814972
-1.5992752313613892,3.242471694946289,0.20252646505832672
-1.6315466165542603,3.2527213096618652,0.20116493105888367
-1.6603847742080688,3.2557830810546875,0.19935542345046997
-1.6920639276504517,3.261589527130127,0.19761823117733002
-1.7327308654785156,3.2845075130462646,0.19686831533908844
-2.4656457901000977,4.600351810455322,0.272599458694458
-2.469783306121826,4.536283493041992,0.26569828391075134
-1.1828124523162842,2.136641263961792,0.1235782578587532
-1.8978121280670166,3.372955560684204,0.19262783229351044
-1.9158744812011719,3.353931188583374,0.1889706403017044
-1.937660574913025,3.3415751457214355,0.1857050359249115
-1.952793002128601,3.3148441314697266,0.18149948120117188
-1.2345975637435913,2.0623891353607178,0.1111690104007721
-1.2479652166366577,2.0544469356536865,0.10895032435655594
-2.647566556930542,4.295415878295898,0.22401459515094757
-2.772693157196045,4.429281234741211,0.22680766880512238
-2.9992709159851074,4.720368385314941,0.2371683120727539
-2.9856350421905518,4.632071018218994,0.22808797657489777
-3.008172035217285,4.599103927612305,0.22168704867362976
-3.0531442165374756,4.597797870635986,0.21663178503513336
-3.067103147506714,4.555876731872559,0.20954890549182892
-3.0659923553466797,4.490885257720947,0.20135775208473206
-3.0978426933288574,4.469267845153809,0.1947130262851715
-3.153167963027954,4.48806619644165,0.18979674577713013
-2.842536687850952,3.990769624710083,0.16345098614692688
-2.8791844844818115,3.9839582443237305,0.15744437277317047
-2.908355236053467,3.972648859024048,0.15116217732429504
-2.902209758758545,3.9095299243927,0.14250724017620087
-3.0007681846618652,4.229163646697998,-0.1404474675655365
-2.4363865852355957,3.4897232055664062,-0.12174253910779953
-2.946256637573242,4.28575325012207,-0.15621307492256165
-2.9015755653381348,4.287601470947266,-0.16276699304580688
-2.886246919631958,4.335230350494385,-0.1709519624710083
-2.8557863235473633,4.355090618133545,-0.17760130763053894
-2.8279223442077637,4.382254123687744,-0.18453603982925415
-2.1234664916992188,3.3451132774353027,-0.14523158967494965
-2.0769121646881104,3.3234806060791016,-0.1483772099018097
-1.2757269144058228,2.0748212337493896,-0.09509977698326111
-1.256210207939148,2.0774452686309814,-0.0976644977927208
-2.0122008323669434,3.3806068897247314,-0.16264085471630096
-1.9878350496292114,3.394779682159424,-0.16700395941734314
-1.9718959331512451,3.4263741970062256,-0.17228806018829346
-1.1881396770477295,2.0986735820770264,-0.10766196995973587
-1.1848194599151611,2.1272599697113037,-0.11124001443386078
-1.8811675310134888,3.4363954067230225,-0.18302670121192932
-1.8690776824951172,3.4738171100616455,-0.18833568692207336
-1.8735041618347168,3.5419931411743164,-0.19532521069049835
-1.8931125402450562,3.64162540435791,-0.20409104228019714
-1.7191390991210938,3.36678409576416,-0.19165931642055511
-1.688035011291504,3.364832639694214,-0.19443537294864655
-1.631719708442688,3.309860944747925,-0.19402429461479187
-1.5752023458480835,3.254784345626831,-0.19348332285881042
-1.5514756441116333,3.265964984893799,-0.1967644989490509
-1.5282936096191406,3.2766835689544678,-0.19995951652526855
-1.5053614377975464,3.287088632583618,-0.20310978591442108
-1.4913320541381836,3.3189566135406494,-0.2075192928314209
-2.278714418411255,5.1708664894104,-0.32706284523010254
-2.211991786956787,5.1188435554504395,-0.3274616003036499
-2.1670713424682617,5.112329006195068,-0.3306080996990204
-1.6084295511245728,3.8707144260406494,-0.2529093623161316
-2.1729869842529297,5.337287425994873,-0.35224205255508423
-1.492179274559021,3.7408199310302734,-0.24930475652217865
-1.4244587421417236,3.645796775817871,-0.24532842636108398
-1.3666648864746094,3.57181453704834,-0.2425546646118164
-1.330078125,3.5521299839019775,-0.24331757426261902
-1.3019437789916992,3.554048538208008,-0.24554665386676788
-1.27977454662323,3.570189952850342,-0.2487158477306366
-1.2544013261795044,3.5789947509765625,-0.25142255425453186
-1.2313284873962402,3.595061779022217,-0.2544546127319336
-1.2105625867843628,3.6183714866638184,-0.2580240070819855
-1.185090184211731,3.6266162395477295,-0.2605099380016327
-1.001046895980835,3.1371231079101562,-0.22697888314723969
-0.971589982509613,3.12174129486084,-0.22743253409862518
-0.9470803737640381,3.120978355407715,-0.22884148359298706
-0.8044456839561462,2.7201998233795166,-0.2007332295179367
-0.7886991500854492,2.7368507385253906,-0.20322920382022858
-0.7622312307357788,2.71589994430542,-0.2029358446598053
-0.7409089207649231,2.7136037349700928,-0.20389100909233093
-0.7232829332351685,2.726301670074463,-0.20598824322223663
-0.7147638201713562,2.7727108001708984,-0.2106342762708664
-0.6888056993484497,2.751056432723999,-0.21011418104171753
-1.4678808450698853,6.041326999664307,-0.4638196527957916
-1.4733086824417114,6.256084442138672,-0.4825192391872406
-1.4411922693252563,6.323264122009277,-0.4899936020374298
-1.4019783735275269,6.355775356292725,-0.49476760625839233
-1.3527913093566895,6.342298984527588,-0.495977520942688
-1.2965912818908691,6.2941694259643555,-0.4943000078201294
-1.2407478094100952,6.245662689208984,-0.4923555850982666
-1.1885707378387451,6.215951919555664,-0.4919206202030182
-1.1374465227127075,6.181758880615234,-0.4910765290260315
-1.0719927549362183,6.0627851486206055,-0.48346787691116333
-0.9643780589103699,5.686038970947266,-0.4549423158168793
-0.9199808239936829,5.66562557220459,-0.45467260479927063
-0.7624767422676086,4.917707443237305,-0.3958725929260254
-0.8934414386749268,6.039830684661865,-0.48768362402915955
-0.6868741512298584,4.877462863922119,-0.39503976702690125
-0.6516587138175964,4.874324798583984,-0.3957890272140503
-0.7597077488899231,6.002738952636719,-0.4885326027870178
-0.7184476852416992,6.015532493591309,-0.4907175600528717
-0.6576701402664185,5.857829570770264,-0.47899553179740906
-0.6194124221801758,5.885365009307861,-0.4823969900608063
-0.5775777697563171,5.881694793701172,-0.4829743802547455
-0.5357494950294495,5.877743721008301,-0.48342904448509216
-0.49139443039894104,5.8424601554870605,-0.4813239276409149
-0.4488438367843628,5.830174446105957,-0.4811398684978485
-0.24407455325126648,3.4874141216278076,-0.28830260038375854
-0.2207012176513672,3.5045361518859863,-0.29005008935928345
-0.32024019956588745,5.721477031707764,-0.4739733338356018
-0.27834272384643555,5.684639930725098,-0.4713820517063141
-0.23713146150112152,5.6630778312683105,-0.4700814485549927
-0.19674740731716156,5.637306213378906,-0.4684421122074127
-0.15657716989517212,5.607382297515869,-0.46618613600730896
-0.11697524785995483,5.584969520568848,-0.4644453823566437
-0.07779692858457565,5.566170692443848,-0.4630265235900879
-0.0381663516163826,5.527637481689453,-0.45998960733413696
0.0001950120204128325,4.4689154624938965,-0.3720386326313019
0.028716066852211952,4.102897644042969,-0.34152257442474365
0.07550467550754547,5.414358615875244,-0.45050978660583496
0.11343361437320709,5.429288864135742,-0.4515954256057739
0.15092350542545319,5.420605182647705,-0.4507383704185486
0.1855681836605072,5.314377784729004,-0.44179272651672363
0.17996323108673096,4.297849655151367,-0.3570241928100586
0.20974200963974,4.296538829803467,-0.3565477728843689
0.23803141713142395,4.267810821533203,-0.35381513833999634
0.2652010917663574,4.227242946624756,-0.3501231074333191
0.2934550940990448,4.202000617980957,-0.3477163016796112
0.32257360219955444,4.199918746948242,-0.34707358479499817
0.35353928804397583,4.220930576324463,-0.348220556974411
0.4562591314315796,5.028792381286621,-0.41418397426605225
0.48970553278923035,5.010075569152832,-0.4119766056537628
0.5222622752189636,4.979462146759033,-0.4088061451911926
0.5351109504699707,4.782354831695557,-0.39183127880096436
0.5497576594352722,4.623995780944824,-0.3779524266719818
0.5831559300422668,4.631772994995117,-0.37769919633865356
0.6271536946296692,4.716475963592529,-0.38371238112449646
0.6854147911071777,4.889392375946045,-0.39685413241386414
0.7164407968521118,4.865383148193359,-0.3938344717025757
0.7464444041252136,4.837360858917236,-0.3903735280036926
0.7772945761680603,4.8168511390686035,-0.3875482976436615
0.8120688199996948,4.819137096405029,-0.38656747341156006
0.853649914264679,4.859526634216309,-0.38864901661872864
0.8863919377326965,4.845890522003174,-0.3861999213695526
0.9182597398757935,4.832178592681885,-0.3836566209793091
0.9469671845436096,4.80297327041626,-0.3799104392528534
0.9788018465042114,4.788790702819824,-0.3773639500141144
1.0072592496871948,4.7591552734375,-0.3736270070075989
1.0364453792572021,4.733120441436768,-0.3699650466442108
1.0672012567520142,4.718468189239502,-0.3671497106552124
1.097844123840332,4.703606128692627,-0.3643387258052826
1.1269426345825195,4.680868625640869,-0.3609209954738617
1.1539013385772705,4.650390148162842,-0.35693734884262085
1.184450387954712,4.634853839874268,-0.35386109352111816
1.2122362852096558,4.611743927001953,-0.3502177298069
1.2419452667236328,4.595951080322266,-0.34714674949645996
1.2666224241256714,4.561103820800781,-0.34264683723449707
1.3025565147399902,4.56736946105957,-0.34124359488487244
1.3255488872528076,4.52849006652832,-0.33620813488960266
1.3542370796203613,4.51206111907959,-0.33291029930114746
1.3761792182922363,4.473015308380127,-0.3279569447040558
1.409579873085022,4.470977306365967,-0.32572853565216064
1.4356248378753662,4.446512699127197,-0.3217979669570923
1.4639475345611572,4.429279804229736,-0.31822875142097473
1.490290880203247,4.408358573913574,-0.31446170806884766
1.5158402919769287,4.38336181640625,-0.31037941575050354
1.2643650770187378,3.5754952430725098,-0.2513014078140259
1.288808822631836,3.5669398307800293,-0.24870049953460693
1.3184478282928467,3.5728988647460938,-0.2470744550228119
1.6169543266296387,4.289694786071777,-0.2941318154335022
1.649604082107544,4.285824298858643,-0.29136204719543457
1.6791651248931885,4.2745537757873535,-0.28804856538772583
1.7109452486038208,4.270565032958984,-0.28509366512298584
1.7339327335357666,4.244670867919922,-0.2806909680366516
1.7564183473587036,4.214539051055908,-0.2759235203266144
1.7765973806381226,4.1808929443359375,-0.27100682258605957
1.804889440536499,4.168992042541504,-0.26737087965011597
1.8361241817474365,4.164088726043701,-0.2641770541667938
1.861558198928833,4.144467353820801,-0.26000264286994934
1.8812180757522583,4.1100993156433105,-0.25484323501586914
1.9157458543777466,4.111573696136475,-0.2518812417984009
1.9400044679641724,4.091788291931152,-0.24757269024848938
1.9611507654190063,4.0646162033081055,-0.24279287457466125
1.9894604682922363,4.051072597503662,-0.2387850284576416
2.0139963626861572,4.030452728271484,-0.2342609167098999
2.032092809677124,3.999727964401245,-0.2291821539402008
2.055694103240967,3.9791042804718018,-0.22465626895427704
2.079775094985962,3.957995891571045,-0.22004249691963196
2.115772008895874,3.961237668991089,-0.2167171835899353
2.136528253555298,3.937001943588257,-0.21184946596622467
2.1563029289245605,3.9086294174194336,-0.20663660764694214
2.1472301483154297,3.829071521759033,-0.19879190623760223
2.168881416320801,3.8080992698669434,-0.1939970850944519
2.186194658279419,3.780388355255127,-0.1888781636953354
2.220266103744507,3.77882719039917,-0.1848917156457901
2.2506825923919678,3.7701163291931152,-0.18043120205402374
2.271402597427368,3.7487688064575195,-0.1753978282213211
2.292494535446167,3.72696852684021,-0.1702740341424942
2.322497606277466,3.7177796363830566,-0.16559679806232452
2.330191135406494,3.676259994506836,-0.15946239233016968
2.3588831424713135,3.6674206256866455,-0.15465958416461945
2.3843913078308105,3.651108980178833,-0.14934034645557404
2.3999764919281006,3.622379779815674,-0.14350977540016174
2.4276883602142334,3.6134836673736572,-0.13847097754478455
2.4484896659851074,3.590188980102539,-0.13250207901000977
2.45918869972229,3.5546276569366455,-0.12602126598358154
2.4777467250823975,3.532382011413574,-0.12006160616874695
2.5068278312683105,3.5215988159179688,-0.1141194999217987
2.5200157165527344,3.4931247234344482,-0.10761439800262451
2.5362884998321533,3.4670145511627197,-0.10091675817966461
2.2451565265655518,3.0268468856811523,-0.08267825096845627
2.7364556789398193,3.835364818572998,0.17759525775909424
2.7256805896759033,3.8809103965759277,0.18602654337882996
2.722277879714966,3.9352853298187256,0.1945631206035614
2.691676616668701,3.9559359550476074,0.20141927897930145
2.6588637828826904,3.9683456420898438,0.20742584764957428
2.625732660293579,3.980672836303711,0.21324966847896576
2.6030490398406982,4.013820171356201,0.22023363411426544
2.5785269737243652,4.03856086730957,0.22634626924991608
2.549628496170044,4.056550025939941,0.23196573555469513
2.5351932048797607,4.102002143859863,0.23909346759319305
2.4930520057678223,4.100063323974609,0.24330559372901917
2.479856491088867,4.144155025482178,0.25016120076179504
2.4410452842712402,4.148730278015137,0.2544570863246918
2.417584180831909,4.180164337158203,0.26039057970046997
2.384331703186035,4.189949035644531,0.26472851634025574
2.3470685482025146,4.192766189575195,0.2685821056365967
2.2756972312927246,4.138402462005615,0.268629789352417
2.241299867630005,4.147975444793701,0.27268630266189575
2.2159321308135986,4.170135498046875,0.2773914337158203
2.1864349842071533,4.185394763946533,0.28161731362342834
2.1660866737365723,4.221993923187256,0.28716227412223816
2.1342742443084717,4.2378764152526855,0.2913799583911896
2.101149082183838,4.245428562164307,0.2948136031627655
2.0782504081726074,4.273758888244629,0.29970934987068176
2.0433762073516846,4.281639575958252,0.30299004912376404
2.020052909851074,4.313955307006836,0.30802106857299805
1.9893723726272583,4.32792854309082,0.3116711676120758
1.9585942029953003,4.34168004989624,0.31532102823257446
1.998429775238037,4.515725612640381,0.33055388927459717
1.9622423648834229,4.522812366485596,0.33356398344039917
1.9338353872299194,4.547479629516602,0.3378788232803345
1.9200539588928223,4.6037726402282715,0.34448567032814026
1.8681697845458984,4.57012939453125,0.34441834688186646
1.8263698816299438,4.561578273773193,0.3459719717502594
1.7960216999053955,4.5817437171936035,0.34967875480651855
1.7686306238174438,4.608845233917236,0.3539198338985443
1.769366979598999,4.708352565765381,0.36371946334838867
1.3338583707809448,3.6272547245025635,0.2819041907787323
1.3049644231796265,3.6292991638183594,0.28353917598724365
1.2812798023223877,3.6458160877227783,0.2863112688064575
1.6436010599136353,4.7857666015625,0.37776854634284973
1.6337387561798096,4.8670549392700195,0.38611310720443726
1.568849802017212,4.785758018493652,0.38160157203674316
1.5368983745574951,4.80409049987793,0.3847493827342987
1.4976677894592285,4.7999444007873535,0.38608118891716003
1.472266435623169,4.840169906616211,0.39100274443626404
1.4540153741836548,4.9023823738098145,0.39769959449768066
1.420864224433899,4.915945053100586,0.400490403175354
1.3917322158813477,4.948355197906494,0.4046919643878937
1.3490686416625977,4.93172025680542,0.40475282073020935
1.2827019691467285,4.824414253234863,0.3973514139652252
1.2575889825820923,4.867051124572754,0.4022670090198517
1.2331246137619019,4.913286209106445,0.4075106978416443
1.1999515295028687,4.9293317794799805,0.4102591276168823
1.1629737615585327,4.930033206939697,0.41147246956825256
1.1364984512329102,4.9759931564331055,0.4164898097515106
1.1070061922073364,5.010395526885986,0.420572966337204
1.0737611055374146,5.025434494018555,0.4230344593524933
1.0412870645523071,5.048007488250732,0.42617884278297424
1.0072274208068848,5.062713146209717,0.42848101258277893
0.9698507189750671,5.061948776245117,0.42936480045318604
2.1287732124328613,11.553595542907715,0.982210636138916
2.0177886486053467,11.399306297302246,0.9712933897972107
1.9090485572814941,11.247992515563965,0.960631787776947
1.8057653903961182,11.107039451599121,0.9508007764816284
1.6962153911590576,10.91928482055664,0.9363256692886353
1.6042107343673706,10.830670356750488,0.9302714467048645
1.5043107271194458,10.675790786743164,0.9185332655906677
1.3991379737854004,10.466087341308594,0.9020736813545227
1.316083312034607,10.394268989562988,0.8974649310112
1.231152892112732,10.2986478805542,0.8907644152641296
1.141324758529663,10.152203559875488,0.8790552616119385
1.0699211359024048,10.159832000732422,0.8807159066200256
0.9897180795669556,10.07787799835205,0.8746451735496521
0.38998690247535706,4.282614231109619,0.37214261293411255
0.36017903685569763,4.285163402557373,0.3728344738483429
0.3282208740711212,4.260353088378906,0.371105432510376
0.3018912374973297,4.3129801750183105,0.3759106397628784
0.27459555864334106,4.3615593910217285,0.3803867697715759
0.31112760305404663,5.575633525848389,0.48660939931869507
0.2738584876060486,5.6087117195129395,0.48985257744789124
0.2345166951417923,5.602658271789551,0.48970329761505127
0.19856949150562286,5.693567276000977,0.49796032905578613
0.15860819816589355,5.687020778656006,0.4974385201931
0.11852190643548965,5.70355224609375,0.4989612102508545
0.07968297600746155,5.7703728675842285,0.5049077868461609
0.03953300043940544,5.762990951538086,0.5043866038322449
-0.0005101932329125702,5.751438140869141,0.5035244226455688
-0.029625361785292625,4.210350513458252,0.3686541020870209
-0.057813361287117004,4.101101875305176,0.35895776748657227
-0.08596742898225784,4.085052967071533,0.35744237899780273
-0.14111237227916718,4.0368218421936035,0.35305431485176086
-0.1704917997121811,4.066860198974609,0.3556225299835205
-0.1765093356370926,3.610841751098633,0.31563863158226013
-0.19913679361343384,3.559030055999756,0.3108495771884918
-0.22280430793762207,3.542062282562256,0.30912816524505615
-0.26739972829818726,3.8277406692504883,0.33381742238998413
-0.30326762795448303,3.946106195449829,0.343904972076416
-0.3196183443069458,3.8120877742767334,0.33201414346694946
-0.33908820152282715,3.7283921241760254,0.3244447112083435
-0.3545628786087036,3.6214427947998047,0.31472650170326233
-0.3762911260128021,3.587999105453491,0.31142666935920715
-0.4118511974811554,3.682063341140747,0.31920209527015686
-0.43651479482650757,3.6714367866516113,0.31790482997894287
-0.45858198404312134,3.637421131134033,0.3145952820777893
-0.4801349341869354,3.6072182655334473,0.31154850125312805
-0.5027382373809814,3.5884902477264404,0.3093794584274292
-0.5228411555290222,3.5542190074920654,0.30589190125465393
-0.5437547564506531,3.5275237560272217,0.3030772805213928
-0.5724087357521057,3.5467183589935303,0.30420663952827454
-0.5925166010856628,3.5158586502075195,0.3010669946670532
-1.106812834739685,6.302801609039307,0.5386369228363037
-1.1596795320510864,6.3488569259643555,0.5413143038749695
-1.2183064222335815,6.4212541580200195,0.5462366938591003
-1.2654545307159424,6.428165435791016,0.5455882549285889
-1.324234962463379,6.484044075012207,0.5490694642066956
-1.3846298456192017,6.547205924987793,0.5531913042068481
-1.4344720840454102,6.560573577880859,0.5528085231781006
-1.4663200378417969,6.493877410888672,0.5456083416938782
-1.505276083946228,6.461175918579102,0.541309118270874
-0.6652367115020752,2.7672598361968994,0.23116105794906616
-0.6956840753555298,2.808008909225464,0.233896404504776
-0.7036280035972595,2.757922887802124,0.22906585037708282
-0.7223106026649475,2.7531886100769043,0.22786492109298706
-0.7430148720741272,2.7558395862579346,0.22728241980075836
-0.774527907371521,2.795769691467285,0.22975505888462067
-0.7811859250068665,2.7454662322998047,0.2248176783323288
-0.9476438760757446,3.244720458984375,0.26476094126701355
-0.9844264388084412,3.2867631912231445,0.26715177297592163
-1.0237559080123901,3.3360183238983154,0.2700100541114807
-1.0315263271331787,3.2807254791259766,0.26439449191093445
-1.0635918378829956,3.303356885910034,0.26508113741874695
-1.084100365638733,3.2886204719543457,0.2627602815628052
-1.104426383972168,3.273768663406372,0.2604319155216217
-1.1899172067642212,3.45054292678833,0.2731199860572815
-1.311493992805481,3.721848964691162,0.2931186258792877
-1.3477280139923096,3.7421984672546387,0.293204128742218
-2.073499917984009,5.634049892425537,0.4391343593597412
-2.1017508506774902,5.590549945831299,0.4334765374660492
-2.136690378189087,5.569222450256348,0.42932018637657166
-2.1740849018096924,5.555011749267578,0.42568033933639526
-2.2352230548858643,5.598165035247803,0.4263797104358673
-1.4053683280944824,3.4499716758728027,0.2611348032951355
-1.4114270210266113,3.397091865539551,0.2555312514305115
-1.4342650175094604,3.387695550918579,0.2530970275402069
-1.4630101919174194,3.3925490379333496,0.2516879737377167
-1.4657691717147827,3.336278200149536,0.24573102593421936
-1.4794937372207642,3.304797410964966,0.24160705506801605
-1.499319076538086,3.2874701023101807,0.23854516446590424
-1.518019676208496,3.270476818084717,0.23537030816078186
-1.5430936813354492,3.2675368785858154,0.23320414125919342
-1.558836817741394,3.242960214614868,0.22943918406963348
-1.5951030254364014,3.260230541229248,0.22861632704734802
-1.6244114637374878,3.2633557319641113,0.2267451137304306
-1.6494170427322388,3.259733200073242,0.22429290413856506
-1.6798185110092163,3.2663114070892334,0.22253336012363434
-1.7096010446548462,3.268644332885742,0.22036749124526978
-2.4672904014587402,4.637083053588867,0.3092292845249176
-2.4831290245056152,4.593491077423096,0.30284348130226135
-1.1862350702285767,2.1604981422424316,0.1407843679189682
-2.519608974456787,4.516218662261963,0.2906957268714905
-2.5626308917999268,4.519176959991455,0.28717848658561707
-2.5893826484680176,4.495217800140381,0.2817516624927521
-2.5989747047424316,4.444859027862549,0.27472567558288574
-2.6150364875793457,4.404012680053711,0.2682092785835266
-1.2492971420288086,2.071065902709961,0.12418490648269653
-2.6623013019561768,4.348809719085693,0.25655055046081543
-2.666180372238159,4.291725158691406,0.24889659881591797
-2.9911415576934814,4.7422637939453125,0.2700630724430084
-2.996427059173584,4.6791534423828125,0.2614416778087616
-3.0221102237701416,4.653650760650635,0.25483089685440063
-3.035407543182373,4.607996940612793,0.24704144895076752
-3.052966594696045,4.56391716003418,0.23895177245140076
-3.084768295288086,4.547550678253174,0.232362300157547
-3.0895097255706787,4.4926652908325195,0.2237880527973175
-3.116293430328369,4.464974403381348,0.2161201685667038
-2.8385379314422607,4.011685371398926,0.1884082406759262
-2.882662534713745,4.018911361694336,0.1826878786087036
-2.892303943634033,3.9737486839294434,0.1741148829460144
-2.9217007160186768,3.9622092247009277,0.16698969900608063
-2.991593360900879,4.1874847412109375,-0.1474689245223999
-2.4497156143188477,3.48012113571167,-0.12890492379665375
-2.4320268630981445,3.511254072189331,-0.13641390204429626
-2.912198543548584,4.270527362823486,-0.17317131161689758
-2.890202045440674,4.3039469718933105,-0.18145884573459625
-2.8854458332061768,4.367753982543945,-0.1910993754863739
-2.8262922763824463,4.345522403717041,-0.19662977755069733
-2.851544141769409,4.454320430755615,-0.20795220136642456
-2.1026151180267334,3.3390920162200928,-0.16063173115253448
-1.2750555276870728,2.0565457344055176,-0.10164295881986618
-1.2683308124542236,2.0788516998291016,-0.10544571280479431
-2.0233287811279297,3.3733134269714355,-0.17551030218601227
-1.9875279664993286,3.3671181201934814,-0.17926305532455444
-1.9793130159378052,3.4078454971313477,-0.18546772003173828
-1.1743865013122559,2.056655168533325,-0.11432941257953644
-1.1996362209320068,2.136354446411133,-0.12117914855480194
-1.8934797048568726,3.428776979446411,-0.19830752909183502
-1.8851327896118164,3.4731130599975586,-0.20458775758743286
-1.863180160522461,3.4935169219970703,-0.20949050784111023
-1.8766815662384033,3.5787782669067383,-0.2181968092918396
-1.8800207376480103,3.647111177444458,-0.2259777933359146
-1.7031731605529785,3.364917516708374,-0.21179354190826416
-1.6666288375854492,3.35245680809021,-0.21420107781887054
-1.597029447555542,3.2691314220428467,-0.21186189353466034
-1.563735842704773,3.2590177059173584,-0.2141360342502594
-1.5334275960922241,3.2559189796447754,-0.21678701043128967
-1.506771206855774,3.2595150470733643,-0.21984587609767914
-1.4964104890823364,3.2983269691467285,-0.22528991103172302
-1.4729697704315186,3.308626651763916,-0.22871586680412292
-2.23820424079895,5.126715183258057,-0.3584864139556885
-2.178368330001831,5.088521480560303,-0.35983309149742126
-2.183537244796753,5.200285911560059,-0.3717273473739624
-1.5736653804779053,3.824183464050293,-0.27629420161247253
-1.515489101409912,3.7592480182647705,-0.27432313561439514
-1.458385705947876,3.6936633586883545,-0.2722034156322479
-1.4058841466903687,3.6344423294067383,-0.2703845202922821
-1.3404202461242676,3.5382604598999023,-0.26570239663124084
-1.3145853281021118,3.5477094650268555,-0.26876628398895264
-1.2917804718017578,3.5641372203826904,-0.27233755588531494
-1.266676425933838,3.572909355163574,-0.27529942989349365
-1.244231104850769,3.5888075828552246,-0.2788134217262268
-1.2286995649337769,3.6268534660339355,-0.283958375453949
-1.2059366703033447,3.6465725898742676,-0.28767892718315125
-1.1620795726776123,3.599216938018799,-0.2860422432422638
-0.9730414748191833,3.086949348449707,-0.24710285663604736
-0.9560320973396301,3.108380079269409,-0.2505704462528229
-0.8936425447463989,2.9806301593780518,-0.2418098896741867
-0.7981787919998169,2.7325520515441895,-0.22309885919094086
-0.7712299823760986,2.7117979526519775,-0.22281727194786072
-0.7523282170295715,2.7169532775878906,-0.22462968528270721
-0.7372260093688965,2.7370803356170654,-0.22759974002838135
-0.718782365322113,2.74586820602417,-0.22957731783390045
-0.6993371248245239,2.7507457733154297,-0.23123829066753387
-1.4873825311660767,6.028828144073486,-0.5095753073692322
-1.4670902490615845,6.1296067237854,-0.5208753943443298
-1.463297724723816,6.310194492340088,-0.538708508014679
-1.4246222972869873,6.346683979034424,-0.5443033576011658
-1.3692538738250732,6.3068037033081055,-0.5433518290519714
-1.3165454864501953,6.2779669761657715,-0.5433650612831116
-1.2681046724319458,6.263831615447998,-0.5445385575294495
-1.2142566442489624,6.222707748413086,-0.5429921746253967
-1.1609989404678345,6.181150913238525,-0.5414048433303833
-1.108060598373413,6.135262966156006,-0.5394136309623718
-1.0532596111297607,6.077535152435303,-0.5363955497741699
-0.9495793581008911,5.715993404388428,-0.5062608122825623
-0.9551947712898254,6.01057243347168,-0.5339365601539612
-0.7424901723861694,4.893574237823486,-0.4360195994377136
-0.7172055244445801,4.960100173950195,-0.4432848393917084
-0.6778024435043335,4.93405818939209,-0.4423271417617798
-0.6327841877937317,4.857504844665527,-0.4366343021392822
-0.7261199951171875,5.896600723266602,-0.5312377214431763
-0.5515860915184021,4.753579616546631,-0.4292464554309845
-0.6453368663787842,5.921344757080078,-0.5359398126602173
-0.6013656258583069,5.898448467254639,-0.5351300239562988
-0.5572760701179504,5.879202842712402,-0.5344237089157104
-0.51273113489151,5.844099521636963,-0.5320471525192261
-0.46995633840560913,5.824173450469971,-0.5310696363449097
-0.2553270161151886,3.4645049571990967,-0.3164156675338745
-0.23255930840969086,3.4855403900146484,-0.3188634514808655
-0.20831085741519928,3.494818925857544,-0.3201026916503906
-0.29999956488609314,5.702609062194824,-0.5227817893028259
-0.25883856415748596,5.67341423034668,-0.520587146282196
-0.2185988873243332,5.655583381652832,-0.51945561170578
-0.1780039668083191,5.61802864074707,-0.5165322422981262
-0.13742023706436157,5.588005542755127,-0.5140352249145508
-0.09801468998193741,5.565478324890137,-0.5120534300804138
-0.058937132358551025,5.538783550262451,-0.5097120404243469
-0.016501275822520256,4.473245143890381,-0.4117670953273773
0.014544010162353516,4.457680702209473,-0.41046610474586487
0.04300648346543312,4.157975673675537,-0.3828023672103882
0.09368643164634705,5.4177093505859375,-0.49854767322540283
0.13132750988006592,5.4169535636901855,-0.49827057123184204
0.16641542315483093,5.334288120269775,-0.4904860258102417
0.20036104321479797,5.251399993896484,-0.4827098548412323
0.23679420351982117,5.249931812286377,-0.4821802079677582
0.22436875104904175,4.30033540725708,-0.39451542496681213
0.25211021304130554,4.263780117034912,-0.39074286818504333
0.2781462073326111,4.207634449005127,-0.3852013945579529
0.306249737739563,4.190132141113281,-0.38322269916534424
0.33591023087501526,4.195734024047852,-0.3831616938114166
0.3695031702518463,4.239854335784912,-0.386485755443573
0.472848117351532,5.023537635803223,-0.457122802734375
0.507781445980072,5.020224571228027,-0.45603910088539124
0.5401808619499207,4.993462085723877,-0.45285069942474365
0.572532594203949,4.970396518707275,-0.4497631788253784
0.6065259575843811,4.9586591720581055,-0.44756829738616943
0.634796679019928,4.908177852630615,-0.44192931056022644
0.6689179539680481,4.903775691986084,-0.4404640793800354
0.7019034028053284,4.891433238983154,-0.43830856680870056
0.7328109741210938,4.8673787117004395,-0.4348638355731964
0.7597127556800842,4.816152095794678,-0.4288954436779022
0.7929154634475708,4.810958385467529,-0.4270857274532318
0.8289664387702942,4.820834636688232,-0.42662009596824646
