X,Y,Z
2.4888083934783936,4.177612781524658,0.6804539561271667
2.4628403186798096,4.200191497802734,0.6922610998153687
2.4459590911865234,4.244052410125732,0.707157552242279
2.4018373489379883,4.240795135498047,0.7142492532730103
2.3824517726898193,4.276615142822266,0.7274946570396423
2.2715916633605957,4.146416664123535,0.7123557329177856
2.2514243125915527,4.182162284851074,0.7250069975852966
2.2014827728271484,4.163469314575195,0.7281329035758972
2.206296443939209,4.246556282043457,0.7489532828330994
2.1760902404785156,4.2606024742126465,0.7575027346611023
2.144808292388916,4.274905681610107,0.7660889029502869
2.121105670928955,4.306755065917969,0.7773533463478088
2.0920052528381348,4.328051567077637,0.7867883443832397
2.0640852451324463,4.3485426902771,0.7958999276161194
2.0300025939941406,4.35464334487915,0.8023254871368408
2.0080251693725586,4.38886022567749,0.8137431144714355
1.9746246337890625,4.40261173248291,0.8211589455604553
2.019227981567383,4.592064380645752,0.8614944219589233
1.971070647239685,4.569690704345703,0.8620898723602295
1.9567444324493408,4.624678611755371,0.8772679567337036
1.9265292882919312,4.644342422485352,0.885649561882019
1.8828091621398926,4.636042594909668,0.8883563876152039
1.837111234664917,4.619978427886963,0.8895008563995361
1.8232500553131104,4.682026386260986,0.9056503176689148
1.7957215309143066,4.707879066467285,0.9147995114326477
1.7692137956619263,4.737176418304443,0.924697756767273
1.3426200151443481,3.677248001098633,0.7206597328186035
1.318217158317566,3.6933350563049316,0.7266130447387695
1.2810029983520508,3.67299485206604,0.7254219651222229
2.962538719177246,8.688458442687988,1.7224221229553223
1.6345309019088745,4.90522575378418,0.9760918617248535
1.588423252105713,4.88291597366333,0.9751906394958496
1.5702368021011353,4.948193073272705,0.9912721514701843
1.5387606620788574,4.9731059074401855,0.9993581771850586
1.4773136377334595,4.898605823516846,0.9874577522277832
1.4505386352539062,4.9336018562316895,0.9975479245185852
1.4370707273483276,5.016361713409424,1.0174064636230469
1.4080390930175781,5.051475524902344,1.0274666547775269
1.3464478254318237,4.968143939971924,1.0129762887954712
1.3066799640655518,4.962029457092285,1.0142258405685425
1.2663350105285645,4.951840400695801,1.0146628618240356
1.2353142499923706,4.974614143371582,1.021845817565918
1.2025436162948608,4.993592262268066,1.0283564329147339
1.174208641052246,5.030989170074463,1.0384324789047241
1.1415033340454102,5.053492546081543,1.045019268989563
1.101943850517273,5.045865058898926,1.0454320907592773
1.077618956565857,5.1090898513793945,1.060591697692871
1.0389891862869263,5.104639530181885,1.0617587566375732
1.0085275173187256,5.13733434677124,1.0706710815429688
1.5711578130722046,8.309405326843262,1.7351354360580444
1.507239580154419,8.2930908203125,1.7340576648712158
1.4514271020889282,8.321534156799316,1.7424280643463135
0.34464746713638306,2.0638527870178223,0.4327772557735443
1.3297630548477173,8.320616722106934,1.7473303079605103
1.2705600261688232,8.321215629577637,1.7500720024108887
1.2103111743927002,8.313823699951172,1.751211166381836
1.1506729125976562,8.313828468322754,1.7531191110610962
1.0878963470458984,8.298463821411133,1.751525640487671
1.0282304286956787,8.297698974609375,1.7530697584152222
0.972366988658905,8.326861381530762,1.7610218524932861
0.9081531167030334,8.275773048400879,1.7520568370819092
0.44011738896369934,4.285103797912598,0.9081907272338867
0.41200971603393555,4.3067803382873535,0.9137111902236938
0.38050881028175354,4.301787853240967,0.9131163358688354
0.35150742530822754,4.3193793296813965,0.9173535704612732
0.3179801106452942,4.279613018035889,0.9094517827033997
0.2886601686477661,4.289140701293945,0.9120601415634155
0.34347301721572876,5.694415092468262,1.2117148637771606
0.3023774325847626,5.681156635284424,1.2097965478897095
0.2648453712463379,5.72875452041626,1.22036874294281
0.22649961709976196,5.77235221862793,1.2298110723495483
0.18613629043102264,5.773688316345215,1.2303107976913452
0.14672936499118805,5.8129353523254395,1.2389508485794067
0.10595922917127609,5.832817554473877,1.2435314655303955
0.06574177742004395,5.8715081214904785,1.2521814107894897
0.024864623323082924,5.864075660705566,1.2510569095611572
-0.02249491587281227,8.240397453308105,1.757594108581543
-0.07983522862195969,8.240140914916992,1.757128357887268
-0.1391889899969101,8.296768188476562,1.7688698768615723
-0.1956508308649063,8.242226600646973,1.757002353668213
-0.18915203213691711,6.163391590118408,1.3137400150299072
-0.23110347986221313,6.139095306396484,1.3085097074508667
-0.27294594049453735,6.122203826904297,1.304672122001648
-0.18595118820667267,3.6096789836883545,0.7687473893165588
-0.20981457829475403,3.5817339420318604,0.7623347043991089
-0.40747085213661194,6.218900680541992,1.32290518283844
-0.4517367482185364,6.231431007385254,1.3249070644378662
-0.5002048015594482,6.293163776397705,1.3374253511428833
-0.5445408821105957,6.297420978546143,1.3377875089645386
-0.5942155122756958,6.350898742675781,1.3480665683746338
-0.6410250663757324,6.377536773681641,1.3523496389389038
-0.6950989961624146,6.468448638916016,1.3703023195266724
-0.7380003929138184,6.4487738609313965,1.3648720979690552
-0.777804970741272,6.402205944061279,1.3538161516189575
-0.8172393441200256,6.351513862609863,1.341951608657837
-0.8537263870239258,6.289303779602051,1.3277524709701538
-0.8968905806541443,6.283936977386475,1.3247056007385254
-0.9439851641654968,6.304746627807617,1.327231764793396
-0.9931840896606445,6.336544513702393,1.3321149349212646
-1.0458027124404907,6.3791303634643555,1.339261770248413
-1.0992778539657593,6.425134658813477,1.3471808433532715
-1.1526999473571777,6.466955661773682,1.3542640209197998
-1.2057408094406128,6.504733085632324,1.3601020574569702
-1.2595523595809937,6.546050071716309,1.3662089109420776
-1.3103135824203491,6.5681633949279785,1.3683375120162964
-1.3675928115844727,6.615993976593018,1.3758162260055542
-1.4265491962432861,6.667069911956787,1.3839857578277588
-1.4581629037857056,6.590554714202881,1.3657385110855103
-1.4964218139648438,6.547515392303467,1.354500651359558
-1.526956558227539,6.478577136993408,1.3370901346206665
-0.6818916201591492,2.8064186573028564,0.5778442621231079
-0.6945011019706726,2.776141405105591,0.5703063607215881
-0.7156269550323486,2.7791378498077393,0.5696191191673279
-0.7271947264671326,2.7448887825012207,0.5613236427307129
-0.7614853978157043,2.79565691947937,0.5704298615455627
-1.7302395105361938,6.183342456817627,1.2581666707992554
-1.770102858543396,6.165248870849609,1.25088369846344
-1.80221688747406,6.12114143371582,1.2384039163589478
-1.8332175016403198,6.073053359985352,1.2251734733581543
-1.8620729446411133,6.017284870147705,1.2104403972625732
-1.9013705253601074,5.994102954864502,1.2022972106933594
-1.9305464029312134,5.9456987380981445,1.1886999607086182
-1.9585844278335571,5.897392272949219,1.1749272346496582
-1.9898183345794678,5.859845161437988,1.1633884906768799
-2.017449378967285,5.811059474945068,1.149654507637024
-2.0491223335266113,5.772759437561035,1.138015866279602
-2.077186107635498,5.723200798034668,1.1241810321807861
-2.1081905364990234,5.688656330108643,1.1129059791564941
-2.1342897415161133,5.643361568450928,1.0993939638137817
-2.1764185428619385,5.6410040855407715,1.0943211317062378
-2.2379727363586426,5.684462070465088,1.0980032682418823
-2.300147294998169,5.723292827606201,1.1005909442901611
-2.3462448120117188,5.722653388977051,1.0956612825393677
-2.3728630542755127,5.679910182952881,1.081961750984192
-2.3975017070770264,5.633502006530762,1.067671775817871
-2.4614176750183105,5.6788153648376465,1.0707863569259644
-3.8964266777038574,8.817943572998047,1.6536595821380615
-3.9648916721343994,8.806802749633789,1.6427448987960815
-4.0493083000183105,8.834527969360352,1.6384406089782715
-4.149172306060791,8.8971586227417,1.6400083303451538
-2.6114747524261475,5.504852771759033,1.008500099182129
-4.345334529876709,8.997326850891113,1.6376205682754517
-4.40888786315918,8.969217300415039,1.6218724250793457
-4.52440071105957,9.048286437988281,1.625032901763916
-2.7267112731933594,5.365065097808838,0.9565101265907288
-2.7518551349639893,5.327937126159668,0.9429066181182861
-4.7826948165893555,9.107111930847168,1.5992836952209473
-2.792606830596924,5.2273688316345215,0.9105489253997803
-1.1645973920822144,2.1450300216674805,0.3705202639102936
-1.2030978202819824,2.181978940963745,0.37357932329177856
-5.20066499710083,9.288877487182617,1.5762068033218384
-2.5347609519958496,4.454625606536865,0.7486405372619629
-2.5862839221954346,4.471346855163574,0.7440073490142822
-1.2140470743179321,2.0677666664123535,0.34045425057411194
-1.2474935054779053,2.093722343444824,0.34102922677993774
-2.932361364364624,4.84727144241333,0.7805889844894409
-2.954742670059204,4.808399677276611,0.765093982219696
-2.996198892593384,4.802953720092773,0.7544766068458557
-3.0318760871887207,4.791656017303467,0.7428740859031677
-3.0560288429260254,4.759896278381348,0.7278121709823608
-3.0454630851745605,4.671875476837158,0.7038678526878357
-3.031972646713257,4.585379600524902,0.6801838278770447
-3.0903050899505615,4.609123229980469,0.6725699305534363
-3.098129987716675,4.554447174072266,0.6530107259750366
-3.13067626953125,4.534261703491211,0.6380888223648071
-2.912905216217041,4.16302490234375,0.5743257999420166
-2.8661422729492188,4.041170597076416,0.5460405349731445
-2.9091897010803223,4.041098594665527,0.5332217216491699
-2.917370319366455,3.998762369155884,0.5148068070411682
-2.956970691680908,4.000559329986572,0.5018478035926819
-2.483664035797119,3.4798061847686768,-0.2268572747707367
-2.4395573139190674,3.4717462062835693,-0.2409096509218216
-2.873877763748169,4.1518073081970215,-0.3044559061527252
-2.8507001399993896,4.185293674468994,-0.32329848408699036
-2.861626625061035,4.265957832336426,-0.3451133966445923
-2.830474376678467,4.285305976867676,-0.36190229654312134
-2.7931628227233887,4.298957824707031,-0.37845557928085327
-2.7517642974853516,4.301051139831543,-0.3928801119327545
-2.726442813873291,4.329491138458252,-0.40961337089538574
-1.271006464958191,2.0517590045928955,-0.20076322555541992
-1.2522125244140625,2.053466796875,-0.2072080373764038
-79.48707580566406,132.47581481933594,-13.772022247314453
-2.658992290496826,4.505680561065674,-0.48180532455444336
-2.6262166500091553,4.523250102996826,-0.4967177212238312
-1.2034467458724976,2.106382369995117,-0.23722496628761292
-2.5906484127044678,4.611881256103516,-0.5322253108024597
-2.5578246116638184,4.632861137390137,-0.547592043876648
-2.5433273315429688,4.683390140533447,-0.565902829170227
-2.512944221496582,4.706827640533447,-0.5810214281082153
-2.488945484161377,4.744104385375977,-0.5978847146034241
-2.463491678237915,4.777432441711426,-0.6141169667243958
-2.442866325378418,4.821005821228027,-0.6318330764770508
-2.414435863494873,4.8508148193359375,-0.6475194692611694
-2.392411708831787,4.894402027130127,-0.6651496291160583
-1.5840013027191162,3.298588991165161,-0.45597022771835327
-1.5488975048065186,3.283996343612671,-0.4615505635738373
-1.0529913902282715,2.2744619846343994,-0.3248036205768585
-1.0057346820831299,2.214294672012329,-0.3212772309780121
-0.9994763731956482,2.2417399883270264,-0.3301679790019989
-0.9943166971206665,2.2727746963500977,-0.33967041969299316
-0.9808778166770935,2.2861621379852295,-0.3465154469013214
-0.9613742232322693,2.285165548324585,-0.3511746823787689
-0.9507588744163513,2.305452585220337,-0.3591427803039551
-0.9343227744102478,2.3112826347351074,-0.3647613525390625
-0.9261659979820251,2.338639974594116,-0.373724102973938
-0.9121223092079163,2.351548910140991,-0.3804403245449066
-0.9023240804672241,2.3750991821289062,-0.38887184858322144
-0.8878202438354492,2.3878819942474365,-0.39563047885894775
-0.883873701095581,2.429560899734497,-0.4070286750793457
-0.871629536151886,2.449455499649048,-0.414887398481369
-0.8542530536651611,2.454655885696411,-0.4202587306499481
-0.8393129706382751,2.467034101486206,-0.4268451929092407
-0.8419714570045471,2.5343456268310547,-0.4429393708705902
-0.8785108923912048,2.7079379558563232,-0.47795000672340393
-0.9082311987876892,2.867281436920166,-0.5109597444534302
-0.9039043188095093,2.9240641593933105,-0.5260639786720276
-0.816452145576477,2.7083170413970947,-0.4915335476398468
-0.7895960807800293,2.6872689723968506,-0.4919739067554474
-0.7702855467796326,2.6919174194335938,-0.49714770913124084
-0.7430322170257568,2.6667094230651855,-0.49670934677124023
-0.7241435647010803,2.6710171699523926,-0.5014381408691406
-0.7130224704742432,2.704930543899536,-0.5117266178131104
-0.7139487266540527,2.7871453762054443,-0.5313137173652649
-0.7347577810287476,2.9552175998687744,-0.5677095651626587
-0.7175319194793701,2.9743144512176514,-0.5754308700561523
-0.694793164730072,2.9709208011627197,-0.5786436200141907
-0.6721585988998413,2.967348098754883,-0.5818265676498413
-0.6512721180915833,2.9710915088653564,-0.5864590406417847
-0.6188694834709167,2.922257900238037,-0.5805758833885193
-0.5821367502212524,2.8468661308288574,-0.5688770413398743
-0.5620898008346558,2.8501014709472656,-0.5728238224983215
-0.5392290353775024,2.8381245136260986,-0.5737133026123047
-0.514517068862915,2.8146679401397705,-0.5722408890724182
-0.48053428530693054,2.7383599281311035,-0.5594750046730042
-0.45624735951423645,2.7107884883880615,-0.5565383434295654
-0.4281271696090698,2.656569004058838,-0.5480681657791138
-0.4083811044692993,2.6512808799743652,-0.5496525764465332
-0.38207054138183594,2.6005008220672607,-0.5413806438446045
-0.3598651587963104,2.5760860443115234,-0.5384629964828491
-0.3378307819366455,2.5476737022399902,-0.5346521139144897
-0.3209923803806305,2.557027578353882,-0.5387716293334961
-0.3004618287086487,2.5359418392181396,-0.5362464785575867
-0.2810696065425873,2.52236008644104,-0.5350125432014465
-0.2606910467147827,2.497232675552368,-0.5313283205032349
-0.2407488375902176,2.4757773876190186,-0.5284472107887268
-0.220066100358963,2.438948392868042,-0.5221569538116455
-0.20371733605861664,2.4477386474609375,-0.5251730680465698
-0.18230338394641876,2.391674280166626,-0.5142776370048523
-0.1672375500202179,2.415452718734741,-0.5205582976341248
-0.14824096858501434,2.385786771774292,-0.5153628587722778
-0.1320466250181198,2.3941900730133057,-0.517918050289154
-0.11429137736558914,2.371990442276001,-0.5137901306152344
-0.0971834659576416,2.3572919368743896,-0.5113000869750977
-0.08105204999446869,2.3653640747070312,-0.5137723684310913
-0.06369849294424057,2.342865467071533,-0.5093390941619873
-0.04673169553279877,2.308842182159424,-0.5021570324897766
-0.03133910149335861,2.3586654663085938,-0.5132374167442322
-0.014724117703735828,2.3244123458862305,-0.5060490369796753
0.0014337209286168218,2.3244218826293945,-0.5062171816825867
0.01728186570107937,2.24807071685791,-0.48936039209365845
0.03285110369324684,2.2441296577453613,-0.4883016347885132
0.04887774959206581,2.262977123260498,-0.4922237694263458
0.06571315228939056,2.3007876873016357,-0.5002903938293457
0.08254090696573257,2.3233203887939453,-0.504543662071228
0.0991998240351677,2.3342978954315186,-0.5062612891197205
0.11554096639156342,2.329892873764038,-0.5046542286872864
0.132803812623024,2.3482601642608643,-0.5080127120018005
0.14744043350219727,2.3208396434783936,-0.501158595085144
0.16653753817081451,2.3619372844696045,-0.508915901184082
0.18355748057365417,2.3686163425445557,-0.5092583298683167
0.2029143124818802,2.3979909420013428,-0.5144680142402649
0.2182232141494751,2.3816192150115967,-0.5097272396087646
0.23106710612773895,2.342402935028076,-0.49979591369628906
0.2530134618282318,2.3943238258361816,-0.5093252062797546
0.27608585357666016,2.449867010116577,-0.5195824503898621
0.29707884788513184,2.478621006011963,-0.5240869522094727
0.31769701838493347,2.5035526752471924,-0.5272769331932068
0.3341063857078552,2.4942092895507812,-0.5232579708099365
0.35789796710014343,2.5377800464630127,-0.5303321480751038
0.3789685368537903,2.558443784713745,-0.5325875282287598
0.40123897790908813,2.5827605724334717,-0.5351756811141968
0.42171603441238403,2.595634698867798,-0.5352674722671509
0.44497236609458923,2.623448610305786,-0.5384185314178467
0.3559929430484772,2.0137577056884766,-0.4113202393054962
0.38600197434425354,2.0983808040618896,-0.42640766501426697
0.5193681120872498,2.717167854309082,-0.5490159392356873
0.5483996868133545,2.763031482696533,-0.5550621151924133
0.5754743814468384,2.797427177429199,-0.5587834119796753
0.602252721786499,2.827855348587036,-0.5615978240966797
0.6302506923675537,2.8618977069854736,-0.5646405220031738
0.6630294322967529,2.9144039154052734,-0.5712282061576843
0.6891176700592041,2.9329042434692383,-0.5709962844848633
0.722379744052887,2.9811055660247803,-0.5765434503555298
0.753494143486023,3.0179202556610107,-0.5793927907943726
0.8004702925682068,3.113999843597412,-0.593368649482727
0.8448984622955322,3.1947619915008545,-0.6041883826255798
0.8849091529846191,3.252737045288086,-0.6104221940040588
0.9315037131309509,3.332719326019287,-0.6204034090042114
0.9749631881713867,3.397514820098877,-0.6271510124206543
1.0215961933135986,3.4692678451538086,-0.6349711418151855
1.0849645137786865,3.5921244621276855,-0.6518295407295227
1.148206114768982,3.706908702850342,-0.6665999889373779
1.2032309770584106,3.7918922901153564,-0.6754822731018066
1.2999705076217651,4.000904083251953,-0.7059724926948547
1.361045241355896,4.091785907745361,-0.7150560021400452
1.4159408807754517,4.160189628601074,-0.7198989987373352
1.4868347644805908,4.271910190582275,-0.7315173149108887
1.5365861654281616,4.3173370361328125,-0.7313726544380188
1.56440269947052,4.300715446472168,-0.7207238674163818
1.5894280672073364,4.276636600494385,-0.7088847160339355
1.6192477941513062,4.267045974731445,-0.6991246938705444
1.6364630460739136,4.224810600280762,-0.6840881705284119
1.6440017223358154,4.157079219818115,-0.6649144291877747
1.3797715902328491,3.419302463531494,-0.5402492880821228
1.4006705284118652,3.40372633934021,-0.5309140682220459
1.4273358583450317,3.4022998809814453,-0.5237701535224915
1.4603934288024902,3.4147837162017822,-0.5186566710472107
1.478783369064331,3.3912782669067383,-0.507925271987915
1.496105432510376,3.368011713027954,-0.4972587525844574
1.5226225852966309,3.365868330001831,-0.48971307277679443
1.5398011207580566,3.3422529697418213,-0.4789734184741974
1.5634591579437256,3.332498073577881,-0.47022387385368347
1.5836622714996338,3.315619945526123,-0.4602320194244385
1.5997679233551025,3.291865825653076,-0.4494648277759552
1.6263495683670044,3.2886903285980225,-0.44140470027923584
1.6461817026138306,3.2713356018066406,-0.43139708042144775
2.0346450805664062,3.9761815071105957,-0.5148376822471619
2.0530314445495605,3.9462883472442627,-0.5014832019805908
2.0777289867401123,3.9260196685791016,-0.4890156686306
2.0796029567718506,3.8647990226745605,-0.47172701358795166
2.089235782623291,3.821168899536133,-0.4567079246044159
2.1551382541656494,3.8793671131134033,-0.45371246337890625
2.1310386657714844,3.7739529609680176,-0.4313490092754364
2.157729387283325,3.7600979804992676,-0.41949203610420227
2.195068359375,3.7667458057403564,-0.4100278615951538
2.1975367069244385,3.712449550628662,-0.39375826716423035
2.227837085723877,3.704697608947754,-0.3823651373386383
2.2649927139282227,3.7107155323028564,-0.37231916189193726
2.2824547290802,3.6829235553741455,-0.3585931956768036
2.3085989952087402,3.6678149700164795,-0.3458639085292816
2.350520133972168,3.679302930831909,-0.33556637167930603
2.3413116931915283,3.612253189086914,-0.3181963562965393
2.3666694164276123,3.5968315601348877,-0.3050256371498108
2.422072649002075,3.626683473587036,-0.2952839434146881
2.415426254272461,3.56644868850708,-0.2784329652786255
2.444737434387207,3.5569517612457275,-0.2649939954280853
2.5003433227539062,3.5858819484710693,-0.2540729343891144
2.4878604412078857,3.5193774700164795,-0.23642662167549133
2.5265750885009766,3.521533966064453,-0.22239413857460022
2.56845760345459,3.5307087898254395,-0.20876790583133698
2.5824265480041504,3.502011299133301,-0.1926039159297943
2.7844109535217285,3.946669816970825,0.5677632689476013
2.755300760269165,3.9648241996765137,0.5830882787704468
2.7233893871307373,3.984557628631592,0.5982933044433594
2.6968913078308105,4.00967264175415,0.6138840317726135
2.663642406463623,4.020443916320801,0.6265353560447693
2.636061906814575,4.045717716217041,0.6410170197486877
2.604393720626831,4.064059734344482,0.6542975306510925
2.5916907787323,4.106845378875732,0.6707704663276672
2.5646228790283203,4.130875587463379,0.6842584013938904
2.516209840774536,4.122346878051758,0.6918630599975586
2.5049710273742676,4.172384262084961,0.7090453505516052
2.475088357925415,4.188297271728516,0.7200837135314941
2.451728582382202,4.218014717102051,0.7332963943481445
2.418621301651001,4.235174655914307,0.7442535758018494
2.4037349224090576,4.28167200088501,0.7601432800292969
2.345139503479004,4.246253490447998,0.761109471321106
2.2645912170410156,4.1698408126831055,0.754369854927063
2.2145678997039795,4.151275157928467,0.7574883103370667
2.2109365463256836,4.2212443351745605,0.776948094367981
2.1841793060302734,4.242199897766113,0.787015974521637
2.1661787033081055,4.280043601989746,0.800250768661499
2.1344339847564697,4.294368743896484,0.8087604641914368
2.1054112911224365,4.315663814544678,0.8184385299682617
2.0642759799957275,4.312558174133301,0.8235689997673035
2.0483083724975586,4.356959819793701,0.8374680876731873
2.017294406890869,4.369879245758057,0.8453969955444336
1.9753072261810303,4.3622355461120605,0.8488627076148987
2.014361619949341,4.537119388580322,0.887934148311615
2.002072811126709,4.599809169769287,0.9052935838699341
1.9538896083831787,4.5772552490234375,0.9057725667953491
1.9526857137680054,4.663915634155273,0.927866518497467
1.8968275785446167,4.623291015625,0.9242671728134155
1.881210446357727,4.682150363922119,0.9403610229492188
1.8423373699188232,4.683830261230469,0.9450550675392151
1.8125085830688477,4.706440448760986,0.9539351463317871
3.2064764499664307,8.502057075500488,1.7309057712554932
1.356452226638794,3.6745054721832275,0.7512884736061096
1.3346450328826904,3.6978490352630615,0.758879542350769
1.3023993968963623,3.6921160221099854,0.7605403065681458
1.2775739431381226,3.7079296112060547,0.7666991353034973
1.6221458911895752,4.816504955291748,0.9995424151420593
1.5930416584014893,4.841153144836426,1.008330225944519
1.565433144569397,4.873164653778076,1.0183504819869995
1.5562599897384644,4.967417240142822,1.0411478281021118
1.512725830078125,4.955705165863037,1.041884422302246
1.4706568717956543,4.943304538726807,1.0423977375030518
1.458304762840271,5.029654502868652,1.063760757446289
1.4094973802566528,4.990789413452148,1.0587066411972046
1.3758996725082397,5.007105827331543,1.0649305582046509
1.3110970258712769,4.908778190612793,1.0464590787887573
1.2769170999526978,4.924753665924072,1.0524054765701294
1.2520008087158203,4.973633289337158,1.0653908252716064
1.220755934715271,4.996240615844727,1.07278311252594
1.1875462532043457,5.01119327545166,1.0785915851593018
1.1605699062347412,5.055898666381836,1.090527057647705
1.1252857446670532,5.070919990539551,1.0957499742507935
1.090469479560852,5.085570335388184,1.1009217500686646
1.0610932111740112,5.126136302947998,1.1117675304412842
1.0237699747085571,5.1251726150512695,1.1136261224746704
0.9922890067100525,5.153946399688721,1.1220070123672485
0.3602328896522522,1.9453812837600708,0.42429178953170776
1.4424360990524292,8.110255241394043,1.7711338996887207
0.3549959361553192,2.081599473953247,0.45518895983695984
1.3268604278564453,8.128063201904297,1.7798333168029785
1.2651156187057495,8.106054306030273,1.7775025367736816
1.2064708471298218,8.106324195861816,1.7801628112792969
0.2784993052482605,1.965104341506958,0.4321806728839874
0.5751261711120605,4.274085521697998,0.9409427046775818
0.5414808988571167,4.251196384429932,0.9367126226425171
0.516434907913208,4.296238899230957,0.9474994540214539
0.48444864153862,4.284249782562256,0.9457579255104065
0.4548703134059906,4.294808864593506,0.9490456581115723
0.4230862557888031,4.278539180755615,0.9464314579963684
0.39430058002471924,4.29245138168335,0.9504406452178955
0.3667598366737366,4.325305461883545,0.9581344723701477
0.3351796269416809,4.312350749969482,0.9557299613952637
0.30324774980545044,4.299201965332031,0.9533361196517944
0.2720296084880829,4.281970977783203,0.9500669240951538
0.24283872544765472,4.2949748039245605,0.9535504579544067
0.28432923555374146,5.736083507537842,1.2743574380874634
0.24368946254253387,5.722496509552002,1.2718229293823242
0.20539075136184692,5.792587757110596,1.2874979972839355
0.1654522866010666,5.812845230102539,1.2921602725982666
0.12492691725492477,5.821390151977539,1.294283151626587
0.08511647582054138,5.867776393890381,1.3048831224441528
0.04439028725028038,5.868130207061768,1.3053113222122192
0.002938646823167801,5.933021068572998,1.3201707601547241
-0.03859727829694748,5.978713035583496,1.3300848007202148
-0.0802881270647049,5.993651390075684,1.3330317735671997
-0.12280159443616867,6.0349836349487305,1.341909646987915
-0.1651650071144104,6.0493316650390625,1.3448492288589478
-0.20773378014564514,6.063381671905518,1.3477866649627686
-0.25144708156585693,6.080912113189697,1.351560115814209
-0.17518842220306396,3.6261489391326904,0.8058869242668152
-0.19816650450229645,3.586948871612549,0.7966355681419373
-0.22534482181072235,3.6237308979034424,0.8042978644371033
-0.4324325919151306,6.255249977111816,1.3875622749328613
-0.4806366562843323,6.305595874786377,1.3979666233062744
-0.5257421135902405,6.3176140785217285,1.39994478225708
-0.5703523755073547,6.321712017059326,1.4002333879470825
-0.6196901798248291,6.374941825866699,1.4111164808273315
-0.6734665036201477,6.465902805328369,1.4297600984573364
-0.7195813655853271,6.469142913818359,1.429027795791626
-0.7632346749305725,6.456977367401123,1.4249844551086426
-0.8000137209892273,6.38767671585083,1.4084036350250244
-0.8354392051696777,6.314376354217529,1.3910330533981323
-0.8735717535018921,6.2673444747924805,1.3795371055603027
-0.9208406805992126,6.2843852043151855,1.3815040588378906
-0.971462070941925,6.3276848793029785,1.3890283107757568
-1.0221878290176392,6.366812705993652,1.3956695795059204
-1.072938323020935,6.4017720222473145,1.4014338254928589
-1.1260465383529663,6.443782329559326,1.4087605476379395
-1.1791075468063354,6.481612682342529,1.415215015411377
-1.2369974851608276,6.537696361541748,1.425528883934021
-1.2905211448669434,6.57501745223999,1.430946707725525
-1.3452998399734497,6.615677833557129,1.437124252319336
-1.4014800786972046,6.659644603729248,1.4440467357635498
-1.4476181268692017,6.650750637054443,1.439516544342041
-1.483062982559204,6.5891008377075195,1.4235968589782715
-1.5238245725631714,6.557224750518799,1.4142534732818604
-0.6734975576400757,2.8109395503997803,0.6049512028694153
-0.6862210035324097,2.780794620513916,0.5970568060874939
-0.6995061635971069,2.7543041706085205,0.5899989604949951
-0.7226121425628662,2.764650821685791,0.5908289551734924
-0.7418931722640991,2.760040044784546,0.588485836982727
-0.7682770490646362,2.7811119556427,0.5916351079940796
-1.753544569015503,6.182165622711182,1.3118932247161865
-1.7869092226028442,6.1420087814331055,1.299576759338379
-1.8226447105407715,6.108832359313965,1.2887709140777588
-1.851763367652893,6.057307243347168,1.2742502689361572
-1.8805218935012817,6.001596927642822,1.2588363885879517
-1.9144420623779297,5.963996887207031,1.2473260164260864
-1.9463673830032349,5.922709941864014,1.234966516494751
-1.9762592315673828,5.877872467041016,1.221215009689331
-2.0060901641845703,5.836747646331787,1.2084224224090576
-2.0355119705200195,5.795450687408447,1.1956852674484253
-2.061873435974121,5.7427544593811035,1.1805651187896729
-2.0916154384613037,5.700732707977295,1.1677422523498535
-2.128441333770752,5.6803388595581055,1.1592071056365967
-2.1619012355804443,5.652826309204102,1.148591160774231
-2.2138898372650146,5.675425052642822,1.1482850313186646
-2.2709274291992188,5.708150386810303,1.1499595642089844
-2.3314239978790283,5.743396759033203,1.151926875114441
-2.3601388931274414,5.700028419494629,1.1381717920303345
-2.394038200378418,5.670904159545898,1.126782774925232
-2.4322500228881836,5.656341075897217,1.1181164979934692
-3.754899501800537,8.574952125549316,1.6863332986831665
-3.825190544128418,8.575968742370605,1.677613615989685
-3.9221739768981934,8.63201904296875,1.6794734001159668
-4.009362697601318,8.662528038024902,1.6759939193725586
-4.085296154022217,8.676675796508789,1.6684489250183105
-4.163172245025635,8.69370174407959,1.6614512205123901
-4.2374773025512695,8.69921588897705,1.652050256729126
-4.348745346069336,8.77202320098877,1.654907464981079
-4.434581279754639,8.788192749023438,1.6467887163162231
-4.53564453125,8.843740463256836,1.645014762878418
-4.603550910949707,8.83353042602539,1.6309082508087158
-4.69788932800293,8.86996841430664,1.6251425743103027
-1.1651058197021484,2.1632163524627686,0.3931497633457184
-1.1804249286651611,2.15572190284729,0.3885914385318756
-5.014603614807129,9.015727996826172,1.6103863716125488
-5.1315598487854,9.086484909057617,1.6083498001098633
-2.555842638015747,4.455199718475342,0.7811092734336853
-2.5680344104766846,4.405368804931641,0.7647474408149719
-1.2479521036148071,2.1082675457000732,0.3621954917907715
-2.922372817993164,4.864136695861816,0.8264191746711731
-2.954833507537842,4.846543788909912,0.8142661452293396
-2.97711181640625,4.8077826499938965,0.7980228662490845
-3.0024161338806152,4.7758917808532715,0.7829021215438843
-3.041978120803833,4.7713141441345215,0.771838903427124
-3.054995059967041,4.723718643188477,0.7536435723304749
-3.039961099624634,4.6294732093811035,0.7275370359420776
-3.0743486881256104,4.613593578338623,0.7137856483459473
-3.058877944946289,4.528177738189697,0.689109206199646
-3.0981009006500244,4.522461891174316,0.6763641238212585
-3.1531574726104736,4.533941268920898,0.6651167869567871
-2.8746631145477295,4.077677249908447,0.5863322019577026
-2.873781204223633,4.02324104309082,0.5666443705558777
-2.9025261402130127,4.004762649536133,0.5508102178573608
-2.938859462738037,3.999652147293091,0.5364936590194702
-2.9643328189849854,3.9829437732696533,0.5204087495803833
-2.4570629596710205,3.4691011905670166,-0.23904843628406525
-2.431022882461548,3.4862663745880127,-0.2550303339958191
-2.8805196285247803,4.193335056304932,-0.323488712310791
-2.847780227661133,4.214166641235352,-0.3421157896518707
-2.853712558746338,4.288498878479004,-0.3642018735408783
-2.8032290935516357,4.278322696685791,-0.37886708974838257
-2.7812416553497314,4.314281463623047,-0.3975965976715088
-2.7624714374542236,4.352473258972168,-0.4159542918205261
-1.2620140314102173,2.0205023288726807,-0.1999484747648239
-1.2630637884140015,2.0557117462158203,-0.21023383736610413
-2.711627960205078,4.484329700469971,-0.4728018641471863
-2.6635591983795166,4.475200176239014,-0.485629141330719
-2.6340572834014893,4.499919891357422,-0.5020509362220764
-2.623673915863037,4.558104515075684,-0.5223889946937561
-1.2065250873565674,2.130228281021118,-0.2502758502960205
-2.578256607055664,4.6293768882751465,-0.5571185946464539
-2.543870449066162,4.646509170532227,-0.5723558068275452
-2.5253334045410156,4.690088272094727,-0.5904775857925415
-2.5019047260284424,4.7270917892456055,-0.6080676913261414
-2.479557991027832,4.767577171325684,-0.6259322166442871
-2.4447576999664307,4.783581733703613,-0.6405433416366577
-2.424591064453125,4.8266472816467285,-0.658585786819458
-2.3964591026306152,4.8560099601745605,-0.6747890710830688
-1.5881078243255615,3.278026819229126,-0.4638111889362335
-1.073517918586731,2.2561378479003906,-0.3247123658657074
-1.039440631866455,2.2241878509521484,-0.3254427909851074
-1.024917721748352,2.234264373779297,-0.33216193318367004
-1.003888726234436,2.2301430702209473,-0.33674389123916626
-0.9957218170166016,2.2540416717529297,-0.3455103039741516
-0.9855290651321411,2.2744319438934326,-0.35389047861099243
-0.9750531911849976,2.2948153018951416,-0.3621218204498291
-0.9554096460342407,2.2937400341033936,-0.36698785424232483
-0.9478219747543335,2.3209946155548096,-0.37634190917015076
-0.9227354526519775,2.305182695388794,-0.3787118196487427
-0.9227481484413147,2.3540456295013428,-0.391672283411026
-0.9030154347419739,2.3524537086486816,-0.3962441384792328
-0.898482620716095,2.390347480773926,-0.4074799418449402
-0.8868113160133362,2.4101555347442627,-0.41574349999427795
-0.8694952726364136,2.4154882431030273,-0.4213351309299469
-0.8646165728569031,2.457129955291748,-0.4334169924259186
-0.9524196982383728,2.7681710720062256,-0.4935600161552429
-0.9536749720573425,2.8357629776000977,-0.5110051035881042
-0.9478541016578674,2.885258197784424,-0.5251432657241821
-0.9343095421791077,2.9127962589263916,-0.5353692173957825
-0.9178358316421509,2.9329886436462402,-0.544408917427063
-0.8903459906578064,2.916181802749634,-0.5464814305305481
-0.8016112446784973,2.6929221153259277,-0.509207546710968
-0.7727850079536438,2.664335012435913,-0.508216381072998
-0.7538995146751404,2.668735980987549,-0.513465166091919
-0.7350671887397766,2.672975778579712,-0.5186901092529297
-0.7019528746604919,2.62528133392334,-0.5136547088623047
-0.7026664018630981,2.703524351119995,-0.5330384373664856
-0.7333107590675354,2.9045681953430176,-0.57706618309021
-0.7165129780769348,2.923515558242798,-0.5852457880973816
-0.6888073086738586,2.8976330757141113,-0.5843297243118286
-0.6499194502830505,2.8231167793273926,-0.573204517364502
-0.6191731691360474,2.778088092803955,-0.5678476691246033
-0.5859458446502686,2.717805862426758,-0.5592321157455444
-0.559078574180603,2.683468818664551,-0.5558197498321533
-0.5319461226463318,2.6452534198760986,-0.551059901714325
-0.5057726502418518,2.610617160797119,-0.5470355749130249
-0.4804280698299408,2.5757174491882324,-0.542838454246521
-0.45224127173423767,2.5217881202697754,-0.5345401167869568
-0.4306478798389435,2.5016119480133057,-0.53293377161026
-0.4075101613998413,2.4699718952178955,-0.5287488698959351
-0.3839499354362488,2.4344072341918945,-0.5237189531326294
-0.36123892664909363,2.3986144065856934,-0.5185373425483704
-0.3417465388774872,2.381601333618164,-0.517105221748352
-0.32304710149765015,2.3682682514190674,-0.5162349939346313
-0.30257415771484375,2.339653968811035,-0.5120219588279724
-0.2829798460006714,2.3146698474884033,-0.5085790157318115
-0.26564499735832214,2.308546543121338,-0.5091574788093567
-0.24543637037277222,2.2720048427581787,-0.502616286277771
-0.2246006280183792,2.2239224910736084,-0.493487685918808
-0.20767517387866974,2.209850549697876,-0.4918844699859619
-0.1902962028980255,2.1880605220794678,-0.48854774236679077
-0.17539624869823456,2.1966681480407715,-0.491531103849411
-0.159000426530838,2.1823441982269287,-0.4893846809864044
-0.14329731464385986,2.1755099296569824,-0.48893144726753235
-0.12681695818901062,2.153345823287964,-0.4850400984287262
-0.11184626072645187,2.1539838314056396,-0.485889732837677
-0.09661930054426193,2.1545519828796387,-0.4866369366645813
-0.08220675587654114,2.1702356338500977,-0.4908166825771332
-0.06628557294607162,2.143930673599243,-0.48552051186561584
-0.05163488909602165,2.1556599140167236,-0.48857858777046204
-0.03658463805913925,2.152107000350952,-0.4879390299320221
-0.021050773561000824,2.121785879135132,-0.4812546372413635
-0.006392691750079393,2.152305841445923,-0.48839041590690613
0.008642862550914288,2.171325206756592,-0.49280068278312683
0.023276062682271004,2.129376173019409,-0.4830086827278137
0.03850046917796135,2.152080535888672,-0.48790788650512695
0.053536735475063324,2.1556341648101807,-0.4884863495826721
0.06841050833463669,2.143845796585083,-0.48560041189193726
0.08375925570726395,2.1549198627471924,-0.4873906970024109
0.0990908294916153,2.162078380584717,-0.4883127510547638
0.1137063130736351,2.153907299041748,-0.48579680919647217
0.13050252199172974,2.18367862701416,-0.4918544590473175
0.14494125545024872,2.1677587032318115,-0.48723113536834717
0.16059370338916779,2.1745922565460205,-0.4876362681388855
0.17694640159606934,2.188915491104126,-0.4897339940071106
0.19083702564239502,2.1727306842803955,-0.4850296974182129
0.20595905184745789,2.171694040298462,-0.48348504304885864
0.22290688753128052,2.1857635974884033,-0.4850262701511383
0.23647867143154144,2.169387102127075,-0.4798632860183716
0.25600722432136536,2.2059850692749023,-0.4864240884780884
0.26861631870269775,2.181842803955078,-0.479485422372818
0.2902589440345764,2.229624032974243,-0.4879763722419739
0.3165084719657898,2.303675651550293,-0.5020918250083923
0.3326013684272766,2.301931858062744,-0.499680757522583
0.3584182560443878,2.36427903175354,-0.5111503005027771
0.37974050641059875,2.3925414085388184,-0.5146887898445129
0.4021003842353821,2.4244039058685303,-0.5189522504806519
0.3415032625198364,1.9739078283309937,-0.42042943835258484
0.43493640422821045,2.4122672080993652,-0.5112171769142151
0.46663591265678406,2.4888243675231934,-0.5244776010513306
0.48990359902381897,2.5162997245788574,-0.5271623730659485
0.5150926113128662,2.551086187362671,-0.5313215851783752
0.5384596586227417,2.574413776397705,-0.533038854598999
0.5681520700454712,2.623741865158081,-0.5397833585739136
0.5923861265182495,2.6467432975769043,-0.5408419370651245
0.621283233165741,2.688211679458618,-0.5456024408340454
0.6552751660346985,2.748061418533325,-0.553963303565979
0.6882943511009216,2.800173759460449,-0.5605227947235107
0.7289901375770569,2.8780200481414795,-0.5716198682785034
0.7598073482513428,2.9147098064422607,-0.5744606852531433
0.7952365875244141,2.9659383296966553,-0.5800291299819946
0.8283616304397583,3.00573468208313,-0.5832380652427673
0.8577796220779419,3.0305633544921875,-0.5830179452896118
0.9062230587005615,3.117764711380005,-0.5945241451263428
0.9611101150512695,3.222982168197632,-0.6092326045036316
1.0040760040283203,3.28351092338562,-0.6152186989784241
1.051268458366394,3.3547375202178955,-0.6226584315299988
1.114733099937439,3.4731674194335938,-0.6384453773498535
1.176854133605957,3.5798277854919434,-0.6515347957611084
1.2561622858047485,3.7333874702453613,-0.6727855205535889
1.3274832963943481,3.8570737838745117,-0.6879033446311951
1.4069167375564575,3.9982550144195557,-0.7054630517959595
1.4741262197494507,4.098679542541504,-0.7153498530387878
1.5443845987319946,4.201961994171143,-0.7252811193466187
1.6029449701309204,4.268340110778809,-0.7281906604766846
1.6327722072601318,4.25875997543335,-0.7179436087608337
1.6654711961746216,4.256097316741943,-0.70884770154953
1.6812962293624878,4.210042476654053,-0.6925387978553772
1.7094714641571045,4.19621467590332,-0.6815420985221863
1.7303425073623657,4.164299488067627,-0.6673107147216797
1.4323019981384277,3.3813860416412354,-0.5345991253852844
1.4623980522155762,3.386709690093994,-0.5280687808990479
1.4862594604492188,3.3776772022247314,-0.5192274451255798
1.509732723236084,3.3686225414276123,-0.5102514624595642
1.5175600051879883,3.323976516723633,-0.4958304464817047
1.547675609588623,3.3284969329833984,-0.48881739377975464
1.5611358880996704,3.297844886779785,-0.4766276776790619
1.5873401165008545,3.2952370643615723,-0.4684227406978607
1.606884479522705,3.2784290313720703,-0.4581756293773651
1.6305686235427856,3.2680466175079346,-0.4485737681388855
1.6569595336914062,3.264737367630005,-0.44003719091415405
1.6670080423355103,3.230361223220825,-0.42731115221977234
2.0736172199249268,3.9518368244171143,-0.5126851201057434
2.0870349407196045,3.9111387729644775,-0.49723443388938904
2.1030685901641846,3.877558708190918,-0.48275214433670044
2.126338243484497,3.857468605041504,-0.46984541416168213
2.1211743354797363,3.7862396240234375,-0.45081329345703125
2.159566640853882,3.7927613258361816,-0.4410580098628998
2.1698758602142334,3.7523891925811768,-0.42581912875175476
2.1955618858337402,3.7387819290161133,-0.41367530822753906
2.226526975631714,3.730889081954956,-0.4015832841396332
2.2362372875213623,3.6900668144226074,-0.3861936926841736
2.261193037033081,3.676119565963745,-0.3736923038959503
2.2992300987243652,3.681314468383789,-0.36272892355918884
2.31681227684021,3.6531248092651367,-0.34828874468803406
2.329101800918579,3.6187903881073,-0.3331722617149353
2.3794713020324707,3.6430468559265137,-0.3233429789543152
2.3794310092926025,3.5883095264434814,-0.3061128556728363
2.4077327251434326,3.579925060272217,-0.29296234250068665
2.449500560760498,3.590414524078369,-0.2810325622558594
2.453171968460083,3.541722536087036,-0.26365065574645996
2.4855551719665527,3.5392069816589355,-0.25004762411117554
2.527545213699341,3.5487563610076904,-0.23678842186927795
2.5340657234191895,3.5066847801208496,-0.21946768462657928
2.5797572135925293,3.5226359367370605,-0.20579011738300323
2.1803741455078125,2.935579299926758,-0.15838800370693207
2.784797191619873,3.9194841384887695,0.5869098901748657
2.767509937286377,3.953010320663452,0.6050641536712646
2.7363662719726562,3.972212076187134,0.6207526922225952
2.7178289890289307,4.010583400726318,0.639256477355957
2.669353485107422,3.998920440673828,0.6487259268760681
2.6579082012176514,4.0459885597229,0.667472779750824
2.6418497562408447,4.091019630432129,0.6860052943229675
2.5866050720214844,4.069108486175537,0.6923757195472717
2.577812433242798,4.1182074546813965,0.7105521559715271
2.5416600704193115,4.129404067993164,0.7217782139778137
2.525327444076538,4.173398017883301,0.7387956976890564
2.490664005279541,4.1831207275390625,0.7492767572402954
2.4742419719696045,4.222148895263672,0.7648732662200928
2.431950807571411,4.222391128540039,0.7728990316390991
2.408787727355957,4.255790710449219,0.7870404720306396
2.389068603515625,4.291450023651123,0.8012380599975586
2.2726755142211914,4.151239395141602,0.7824106216430664
2.2560861110687256,4.193483829498291,0.7972198128700256
2.206026792526245,4.17469596862793,0.8002983331680298
2.206756114959717,4.2507524490356445,0.8214971423149109
2.178161144256592,4.268049240112305,0.8311892151832581
2.150406837463379,4.288928031921387,0.8416644930839539
2.124727725982666,4.3171706199646,0.8529888987541199
2.095392942428589,4.338319301605225,0.862988293170929
2.06370210647583,4.351823806762695,0.8713215589523315
2.023014783859253,4.3438401222229,0.8752239346504211
2.007779121398926,4.391565322875977,0.890288233757019
1.9774575233459473,4.412140369415283,0.899497926235199
2.021613836288452,4.600991249084473,0.9431889057159424
1.9789537191390991,4.592845439910889,0.9465829133987427
1.9628705978393555,4.644050598144531,0.9621303081512451
1.9387683868408203,4.677517890930176,0.9741223454475403
3.3816421031951904,8.332707405090332,1.7432600259780884
1.8630998134613037,4.688716411590576,0.9853048920631409
1.8340567350387573,4.715140342712402,0.9952885508537292
1.8034582138061523,4.733716011047363,1.0035005807876587
1.7887521982192993,4.795151710510254,1.020900845527649
1.337478756904602,3.6662111282348633,0.7836940288543701
1.320804476737976,3.703781843185425,0.7945836186408997
1.2860138416290283,3.690675735473633,0.7946496605873108
1.659079909324646,4.872616291046143,1.052898645401001
1.616281270980835,4.857476711273193,1.0533331632614136
1.5921357870101929,4.900351047515869,1.066467523574829
1.5520631074905396,4.895956993103027,1.0687395334243774
1.5163503885269165,4.9059834480285645,1.0740156173706055
1.4916495084762573,4.952332019805908,1.087319254875183
1.4854016304016113,5.060703277587891,1.1143169403076172
1.4372626543045044,5.025761604309082,1.1098004579544067
1.417780876159668,5.093605995178223,1.1281012296676636
1.3403396606445312,4.951434135437012,1.0992226600646973
1.2996954917907715,4.94154167175293,1.0995056629180908
1.2668206691741943,4.960920333862305,1.1063553094863892
1.2370375394821167,4.991068363189697,1.1156412363052368
1.2104010581970215,5.035886287689209,1.1282978057861328
1.1733572483062744,5.0358452796936035,1.1309338808059692
1.140960454940796,5.058061599731445,1.138152003288269
1.1070749759674072,5.076494216918945,1.1442558765411377
1.080115556716919,5.128273963928223,1.157954216003418
1.0413756370544434,5.127670764923096,1.1599252223968506
1.0114198923110962,5.163955211639404,1.1702284812927246
1.4954520463943481,7.927481174468994,1.79978609085083
0.3538394272327423,1.9503917694091797,0.443561315536499
0.7210514545440674,4.141818046569824,0.9430848956108093
0.35022297501564026,2.1014018058776855,0.4790998101234436
0.6639403700828552,4.165771007537842,0.950998842716217
0.6347318887710571,4.169820785522461,0.9531933069229126
0.6067853569984436,4.181180477142334,0.9570989012718201
0.577621340751648,4.184807777404785,0.9592858552932739
0.5486452579498291,4.195982456207275,0.9627905488014221
0.5199087858200073,4.206955432891846,0.9660930037498474
0.4967697560787201,4.266905307769775,0.9807034134864807
0.4646350145339966,4.251007080078125,0.9779341220855713
0.437743216753006,4.280294895172119,0.9855990409851074
0.4072168171405792,4.275296211242676,0.985420823097229
0.3745362162590027,4.251177787780762,0.9808300733566284
0.3474268317222595,4.287641525268555,0.9896331429481506
0.3164035975933075,4.278376579284668,0.9879332184791565
0.2843078076839447,4.249896049499512,0.981839656829834
0.2509567439556122,4.19077730178833,0.9687023758888245
0.2207634001970291,4.1808319091796875,0.966975748538971
0.191338911652565,4.174455165863037,0.9661104083061218
0.1620149165391922,4.167929172515869,0.9649955034255981
0.18480660021305084,5.796905040740967,1.3421775102615356
0.1454324573278427,5.839822769165039,1.352207899093628
0.1045011505484581,5.871066570281982,1.359606146812439
0.06364027410745621,5.871572494506836,1.359950065612793
0.02291027642786503,5.906042575836182,1.3682281970977783
-0.01826123520731926,5.9288105964660645,1.3738648891448975
-0.060076743364334106,5.985666275024414,1.386887788772583
-0.10313388705253601,6.0232696533203125,1.3951385021209717
-0.14612287282943726,6.068190097808838,1.4051543474197388
-0.18860721588134766,6.078570365905762,1.40723717212677
-0.23174810409545898,6.100059509277344,1.4119576215744019
-0.2755388021469116,6.128846645355225,1.418433666229248
-0.18750253319740295,3.6107733249664307,0.8355920314788818
-0.21247488260269165,3.6019513607025146,0.8330279588699341
-0.41042348742485046,6.22508430480957,1.4387083053588867
-0.45597386360168457,6.256614685058594,1.4450840950012207
-0.5029628872871399,6.299192905426025,1.4540681838989258
-0.558617889881134,6.432436943054199,1.4840251207351685
-0.6179899573326111,6.576524257659912,1.516510009765625
-0.6502830982208252,6.439880847930908,1.4842414855957031
-0.6986857056617737,6.473693370819092,1.4904216527938843
-0.742368757724762,6.461750507354736,1.4861304759979248
-0.7822348475456238,6.419267177581787,1.4748963117599487
-0.8191784024238586,6.349972248077393,1.4575624465942383
-0.8561403155326843,6.291860580444336,1.4429106712341309
-0.9010440111160278,6.293861389160156,1.4421217441558838
-0.9479385614395142,6.3107476234436035,1.4444082975387573
-0.9995025992393494,6.357587814331055,1.452976107597351
-1.0506328344345093,6.392637729644775,1.4588520526885986
-1.0996323823928833,6.416133880615234,1.462172031402588
-1.156888723373413,6.480457305908203,1.4748106002807617
-1.2082802057266235,6.506800174713135,1.4788379669189453
