X,Y,Z
0.40377703309059143,4.308173656463623,0.561093270778656
0.374383807182312,4.318490028381348,0.5629749894142151
0.34311291575431824,4.305429458618164,0.5618337988853455
0.31372126936912537,4.323092460632324,0.5647209882736206
0.2856695055961609,4.359912395477295,0.569732129573822
0.32908865809440613,5.626186847686768,0.7354980111122131
0.29021522402763367,5.639882564544678,0.7376208901405334
0.2523324489593506,5.672642707824707,0.742273211479187
0.2130388468503952,5.697429656982422,0.7459290027618408
0.17415016889572144,5.721921443939209,0.7495784163475037
0.13456372916698456,5.734593391418457,0.7512412667274475
0.09530613571405411,5.781856060028076,0.75739586353302
0.054795388132333755,5.7591328620910645,0.754419207572937
0.014090292155742645,5.805845260620117,0.7605761289596558
-0.04958492890000343,10.945412635803223,1.4340088367462158
-0.10072720795869827,8.768221855163574,1.1489328145980835
-0.1596035659313202,8.65506362915039,1.133792757987976
-0.21885132789611816,8.618990898132324,1.1285215616226196
-0.2762281894683838,8.53993034362793,1.117682933807373
-0.2374044954776764,6.022169589996338,0.787854790687561
-0.27787214517593384,5.989482879638672,0.7833126187324524
-0.1900799423456192,3.5623135566711426,0.46574875712394714
-0.21383440494537354,3.545501947402954,0.46329209208488464
-0.24148081243038177,3.5903971195220947,0.4687187969684601
-0.2871302664279938,3.8629634380340576,0.5038447976112366
-0.31192904710769653,3.837810754776001,0.5001423358917236
-0.3359181582927704,3.80476450920105,0.4954376518726349
-0.3620351254940033,3.79856538772583,0.4942565858364105
-0.38285529613494873,3.7421066761016846,0.48648691177368164
-0.40739554166793823,3.724059581756592,0.4834611415863037
-0.4272359609603882,3.6712653636932373,0.4759705364704132
-0.44870108366012573,3.637603998184204,0.47099778056144714
-0.4719579815864563,3.61915922164917,0.4680199921131134
-0.49603578448295593,3.608243227005005,0.46604204177856445
-0.5143107175827026,3.5549275875091553,0.4585786759853363
-0.5374914407730103,3.543825149536133,0.45629605650901794
-0.5654399991035461,3.5631840229034424,0.457952082157135
-0.5714672803878784,3.448521137237549,0.4424259662628174
-1.0943771600723267,6.3317179679870605,0.8108927607536316
-1.1486355066299438,6.381479263305664,0.8158570528030396
-1.2037310600280762,6.426839351654053,0.8202456831932068
-1.2571401596069336,6.468321800231934,0.8235942721366882
-1.3089406490325928,6.497964382171631,0.8254445791244507
-1.361928105354309,6.531009674072266,0.8277451992034912
-1.4194430112838745,6.578640937805176,0.8318734169006348
-1.4601314067840576,6.542325496673584,0.8253765106201172
-1.4969329833984375,6.494612216949463,0.817520022392273
-1.5330618619918823,6.450767993927002,0.8096518516540527
-0.6870393753051758,2.806004285812378,0.351179838180542
-0.6947623491287231,2.756330728530884,0.34398505091667175
-0.7181146144866943,2.7665679454803467,0.3442581593990326
-0.7353622317314148,2.754202365875244,0.3417470455169678
-0.7564898729324341,2.7567198276519775,0.341057687997818
-0.7877344489097595,2.796569347381592,0.3447752594947815
-1.7651655673980713,6.108277320861816,0.7504318952560425
-1.7941018342971802,6.051802158355713,0.7408626079559326
-1.1433498859405518,3.7603769302368164,0.45870843529701233
-1.16379714012146,3.7340946197509766,0.45389416813850403
-1.1918545961380005,3.733708143234253,0.4521041512489319
-1.2255430221557617,3.7517194747924805,0.4523724615573883
-1.2562686204910278,3.7582669258117676,0.4512265920639038
-1.3083797693252563,3.8270418643951416,0.4575343132019043
-2.0114054679870605,5.7529683113098145,0.6848328113555908
-2.0409624576568604,5.710119247436523,0.6768174171447754
-2.071359634399414,5.674949645996094,0.6693423390388489
-2.1039209365844727,5.6469645500183105,0.6627337336540222
-2.124497175216675,5.585862159729004,0.6522420048713684
-2.163524627685547,5.5714521408081055,0.6471815705299377
-2.2139012813568115,5.58565092086792,0.6454585194587708
-2.2796263694763184,5.639444828033447,0.6480346918106079
-2.3396077156066895,5.67853307723999,0.6486717462539673
-2.3647639751434326,5.6308441162109375,0.6393457055091858
-2.3946034908294678,5.593517780303955,0.6311987638473511
-2.4305472373962402,5.570163249969482,0.6246493458747864
-2.5191588401794434,5.667678356170654,0.6314191222190857
-3.9924066066741943,8.824158668518066,0.9761984348297119
-2.561070442199707,5.560507297515869,0.6107468008995056
-4.2021613121032715,8.960835456848145,0.9769889712333679
-2.603111982345581,5.452012062072754,0.5899754166603088
-2.6469810009002686,5.448846340179443,0.5849783420562744
-2.664198398590088,5.393493175506592,0.5742371082305908
-2.6830925941467285,5.341345310211182,0.563853919506073
-2.7346084117889404,5.350852012634277,0.5598289966583252
-2.7343525886535645,5.259809970855713,0.5453537106513977
-2.7747280597686768,5.25255823135376,0.5393294095993042
-2.7780067920684814,5.176608085632324,0.5262808203697205
-1.2016079425811768,2.203411817550659,0.22170375287532806
-1.181445837020874,2.130443811416626,0.21200940012931824
-2.537026882171631,4.503035068511963,0.44308531284332275
-2.543333053588867,4.44640588760376,0.4323849678039551
-2.5767107009887695,4.436809539794922,0.4262557923793793
-2.6275408267974854,4.452850341796875,0.4222685992717743
-1.253164291381836,2.0906665325164795,0.19556574523448944
-1.2586419582366943,2.069486141204834,0.1908642053604126
-2.669354200363159,4.325058937072754,0.3930874764919281
-2.743110418319702,4.376215934753418,0.39146357774734497
-2.985870122909546,4.6935601234436035,0.41298145055770874
-3.0208916664123535,4.6811418533325195,0.4047464430332184
-3.052412271499634,4.661426544189453,0.3956993818283081
-3.0375828742980957,4.569291591644287,0.38034743070602417
-3.080003023147583,4.569804668426514,0.372597336769104
-3.0896644592285156,4.5216169357299805,0.3608056902885437
-3.1175410747528076,4.493782043457031,0.3498538136482239
-3.1379847526550293,4.461268424987793,0.33860692381858826
-2.849435329437256,3.99747896194458,0.29545584321022034
-2.872866630554199,3.9717981815338135,0.28476595878601074
-2.916797637939453,3.9791252613067627,0.27631157636642456
-2.91902756690979,3.92972731590271,0.2636145353317261
-2.4566383361816406,3.464374303817749,-0.15980227291584015
-2.4387285709381104,3.4955873489379883,-0.17037935554981232
-2.4009125232696533,3.492839813232422,-0.1784473955631256
-2.341553211212158,3.461984872817993,-0.18505370616912842
-2.2704765796661377,3.4105238914489746,-0.18994301557540894
-2.209996461868286,3.3705246448516846,-0.19484274089336395
-2.163313627243042,3.3538758754730225,-0.20088699460029602
-2.1345927715301514,3.362525701522827,-0.208136647939682
-2.122757911682129,3.3971669673919678,-0.21689312160015106
-1.2783703804016113,2.080054998397827,-0.13672417402267456
-2.060253143310547,3.4071648120880127,-0.23016101121902466
-2.0363128185272217,3.421055316925049,-0.23705925047397614
-2.011040687561035,3.435490369796753,-0.24394288659095764
-2.000883102416992,3.4769480228424072,-0.2528466582298279
-1.2139133214950562,2.1437716484069824,-0.1593274623155594
-1.932308554649353,3.47000789642334,-0.2633652687072754
-1.9497568607330322,3.5622689723968506,-0.2759198844432831
-1.913297176361084,3.5549557209014893,-0.28068020939826965
-2.507418394088745,4.73900032043457,-0.3812551498413086
-2.47987699508667,4.7703752517700195,-0.39059683680534363
-2.4609591960906982,4.818885326385498,-0.40140777826309204
-2.427126884460449,4.835348129272461,-0.4093458950519562
-2.406597852706909,4.879690647125244,-0.4196346700191498
-2.3805735111236572,4.917720794677734,-0.4294500946998596
-2.3535032272338867,4.9516143798828125,-0.43878859281539917
-1.5611871480941772,3.3444719314575195,-0.30055952072143555
-1.5405610799789429,3.362130880355835,-0.3062770366668701
-1.5097776651382446,3.3585445880889893,-0.30997613072395325
-1.485694169998169,3.3688104152679443,-0.31490522623062134
-1.4678153991699219,3.393144130706787,-0.32116636633872986
-1.4695359468460083,3.4639172554016113,-0.3317631185054779
-1.4370759725570679,3.455993175506592,-0.3347834050655365
-1.4094116687774658,3.458509922027588,-0.3387741446495056
-1.3764946460723877,3.446171522140503,-0.34122270345687866
-1.360208511352539,3.477247476577759,-0.34797051548957825
-1.3394097089767456,3.4973669052124023,-0.353459894657135
-1.7783970832824707,4.744403839111328,-0.48419666290283203
-2.0358331203460693,5.5482025146484375,-0.5716056823730469
-1.9785723686218262,5.51038932800293,-0.5730101466178894
-1.884366750717163,5.369908332824707,-0.5633331537246704
-1.59254789352417,4.643569469451904,-0.4913240373134613
-1.5648462772369385,4.668819427490234,-0.49814364314079285
-1.872029185295105,5.716813087463379,-0.6150187849998474
-0.9737346172332764,3.045985221862793,-0.3302050232887268
-0.9678640365600586,3.1045258045196533,-0.33910512924194336
-0.9176422953605652,3.018019437789917,-0.3320886492729187
-0.7816779613494873,2.6367132663726807,-0.29224130511283875
-0.760933518409729,2.634398937225342,-0.29402750730514526
-0.748491644859314,2.661898136138916,-0.2990162968635559
-0.7438934445381165,2.7193102836608887,-0.3074344992637634
-0.7165811657905579,2.6942174434661865,-0.3065544366836548
-0.7104328274726868,2.747727870941162,-0.31460902094841003
-0.6910680532455444,2.7523982524871826,-0.31690946221351624
-0.6670345664024353,2.7380881309509277,-0.31698450446128845
-1.4873597621917725,6.297061920166016,-0.7329732179641724
-1.431338906288147,6.257680892944336,-0.73240065574646
-1.3749030828475952,6.210140705108643,-0.7306199073791504
-1.3180289268493652,6.158459186553955,-0.7278675436973572
-1.2627884149551392,6.110086441040039,-0.7254745960235596
-1.205606460571289,6.04596471786499,-0.7211503982543945
-1.130553126335144,5.886206150054932,-0.7053643465042114
-1.0864579677581787,5.87827730178833,-0.7072652578353882
-1.028149127960205,5.78986930847168,-0.6992319822311401
-0.9575520753860474,5.620639324188232,-0.6813435554504395
-0.952701210975647,5.837302207946777,-0.710268497467041
-0.9370061755180359,6.008249759674072,-0.7338830232620239
-0.8970949649810791,6.029662132263184,-0.7386931777000427
-0.8596796989440918,6.070004463195801,-0.7458357810974121
-0.8151240944862366,6.060141563415527,-0.7468477487564087
-0.6244454979896545,4.899938106536865,-0.6056787371635437
-0.7191300988197327,5.973972797393799,-0.7405444383621216
-0.6726651191711426,5.943996906280518,-0.7384423017501831
-0.6286289691925049,5.92515754699707,-0.7377162575721741
-0.5823128819465637,5.878983020782471,-0.7335986495018005
-0.5385449528694153,5.851748466491699,-0.7318534851074219
-0.49511510133743286,5.824235916137695,-0.7297912240028381
-0.45038098096847534,5.784918308258057,-0.7259202599525452
-0.24701878428459167,3.487338066101074,-0.4382545053958893
-0.22052010893821716,3.4540538787841797,-0.4347296953201294
-0.1951281726360321,3.432182788848877,-0.4326521158218384
-0.2833472192287445,5.682315826416016,-0.7169773578643799
-0.2413458675146103,5.645373344421387,-0.7128086686134338
-0.20077309012413025,5.611971855163574,-0.7091060876846313
-0.1608356535434723,5.582154273986816,-0.7058838605880737
-0.12136930227279663,5.552053928375244,-0.7026530504226685
-0.08211137354373932,5.510124683380127,-0.6973773837089539
-0.04306808486580849,5.502811908721924,-0.6964405179023743
-0.0038339169695973396,4.410129070281982,-0.5581678152084351
0.03258460387587547,5.367233753204346,-0.6793587803840637
0.07043690234422684,5.413379192352295,-0.6852390766143799
0.10787307471036911,5.405085563659668,-0.6836665272712708
0.11139107495546341,4.141345977783203,-0.5234466195106506
0.17975041270256042,5.290870666503906,-0.6682859063148499
0.21293136477470398,5.200501441955566,-0.6564628481864929
0.19906383752822876,4.153768539428711,-0.5238959193229675
0.2306831032037735,4.2027130126953125,-0.5292873978614807
0.25437718629837036,4.112154483795166,-0.5171422362327576
0.28182756900787354,4.0871734619140625,-0.5132772922515869
0.31491905450820923,4.147071838378906,-0.5201024413108826
0.3459264636039734,4.171974182128906,-0.5223203301429749
0.3703019618988037,4.1194658279418945,-0.5146283507347107
0.39396682381629944,4.066817283630371,-0.5069705843925476
0.4227365553379059,4.0641045570373535,-0.5055527687072754
0.4509797692298889,4.061240196228027,-0.5041598677635193
0.47641128301620483,4.0351243019104,-0.49959149956703186
0.5052750706672668,4.03965425491333,-0.4987049102783203
0.6414139270782471,4.855073928833008,-0.5976547002792358
0.6784669756889343,4.869889736175537,-0.5977451801300049
0.7094958424568176,4.846144676208496,-0.5931639075279236
0.7394815683364868,4.8184494972229,-0.5876613855361938
0.7703315019607544,4.798233509063721,-0.5830771327018738
0.7996938228607178,4.7701616287231445,-0.577580451965332
0.8448901176452637,4.833588600158691,-0.5831607580184937
0.8790501356124878,4.8278422355651855,-0.5802622437477112
0.910899817943573,4.814428329467773,-0.5760989189147949
0.939615786075592,4.785572528839111,-0.5701313018798828
0.9682099223136902,4.756501197814941,-0.564171552658081
0.998162031173706,4.734828948974609,-0.5591278672218323
1.024134635925293,4.693950653076172,-0.5516048073768616
1.0565179586410522,4.687197208404541,-0.5479490756988525
1.0853379964828491,4.66509485244751,-0.542534351348877
1.1142034530639648,4.6427459716796875,-0.5371089577674866
1.1465380191802979,4.635289669036865,-0.5334417819976807
1.1732978820800781,4.6050214767456055,-0.5267866849899292
1.2010011672973633,4.582282066345215,-0.5210273861885071
1.2316962480545044,4.570566654205322,-0.5165372490882874
1.2615045309066772,4.5548319816589355,-0.5116003155708313
1.286795735359192,4.523996353149414,-0.5049285888671875
1.3184115886688232,4.515385150909424,-0.5004218816757202
1.3449790477752686,4.491814613342285,-0.4943526089191437
1.3716707229614258,4.467973232269287,-0.4882566034793854
1.395867109298706,4.436526298522949,-0.4813704788684845
1.431235909461975,4.442081451416016,-0.4782971441745758
1.4537357091903687,4.406653881072998,-0.47067227959632874
1.4816175699234009,4.389662265777588,-0.46511849761009216
1.5020930767059326,4.350322723388672,-0.45720452070236206
1.2618439197540283,3.574127197265625,-0.37249425053596497
1.2889039516448975,3.5731594562530518,-0.3690750002861023
1.3160079717636108,3.5719854831695557,-0.3656381368637085
1.6085063219070435,4.272683620452881,-0.4332495629787445
1.6411736011505127,4.269097328186035,-0.4288332462310791
1.6675668954849243,4.251036643981934,-0.42276695370674133
1.6994709968566895,4.24729585647583,-0.418110191822052
1.7185142040252686,4.210760116577148,-0.4102122187614441
1.7484666109085083,4.1989521980285645,-0.404640257358551
1.777297854423523,4.187366008758545,-0.3990574777126312
1.7933942079544067,4.1471357345581055,-0.3906974792480469
1.8218129873275757,4.135262489318848,-0.3850201666355133
1.8507145643234253,4.122946262359619,-0.37922900915145874
1.882853627204895,4.117476463317871,-0.37391939759254456
1.9008727073669434,4.0839738845825195,-0.366066038608551
1.92869234085083,4.071441173553467,-0.3601045608520508
1.9571621417999268,4.058371067047119,-0.35398393869400024
1.981701374053955,4.038304328918457,-0.3472249507904053
2.005882978439331,4.01818323135376,-0.34031033515930176
2.024425745010376,3.9875688552856445,-0.332584947347641
2.0523247718811035,3.9738147258758545,-0.3261620104312897
2.079591751098633,3.960139513015747,-0.3197072446346283
2.106171131134033,3.9465880393981934,-0.31321704387664795
2.1219654083251953,3.912057399749756,-0.3050115406513214
2.1460378170013428,3.8905341625213623,-0.2976413071155548
2.132326126098633,3.8050124645233154,-0.2855268716812134
2.1500015258789062,3.777616024017334,-0.27788400650024414
2.1956710815429688,3.7968621253967285,-0.2734416723251343
2.19834041595459,3.741647958755493,-0.2635970115661621
2.227569818496704,3.7338974475860596,-0.25700369477272034
2.2607643604278564,3.732624053955078,-0.25085100531578064
2.2787301540374756,3.7038679122924805,-0.24261155724525452
2.287025213241577,3.662487506866455,-0.23359638452529907
2.3445587158203125,3.700491428375244,-0.22959046065807343
2.353862762451172,3.658005475997925,-0.22007666528224945
2.361453056335449,3.616346597671509,-0.21081720292568207
2.4108383655548096,3.6403496265411377,-0.20535998046398163
2.409841775894165,3.585176944732666,-0.1950293332338333
2.4252209663391113,3.5563509464263916,-0.18614467978477478
2.4796619415283203,3.585674285888672,-0.18010370433330536
2.4821009635925293,3.5368411540985107,-0.16969649493694305
2.5143775939941406,3.5335633754730225,-0.1614856868982315
2.532811164855957,3.511152982711792,-0.15220464766025543
2.575650453567505,3.5190393924713135,-0.14356113970279694
2.1698739528656006,2.926046133041382,-0.11184625327587128
2.7847189903259277,3.906324625015259,0.26643940806388855
2.766057014465332,3.937964677810669,0.2770853638648987
2.717763900756836,3.9328951835632324,0.2849838137626648
2.6968765258789062,3.9654414653778076,0.29521608352661133
2.6558988094329834,3.964226245880127,0.302430659532547
2.6422882080078125,4.010046005249023,0.3130526542663574
2.6117732524871826,4.029319763183594,0.3215271234512329
2.579188585281372,4.040380477905273,0.3288392722606659
2.5692527294158936,4.092151165008545,0.3393436074256897
2.5380616188049316,4.110921859741211,0.34710249304771423
2.513166904449463,4.13469934463501,0.3548406660556793
2.4866223335266113,4.159170627593994,0.3626728951931
2.447155475616455,4.163835048675537,0.3685368597507477
2.4205381870269775,4.187759876251221,0.3759291470050812
2.396895170211792,4.214193344116211,0.38336899876594543
2.364023447036743,4.227673053741455,0.3894849419593811
2.2660610675811768,4.125574588775635,0.3848126530647278
2.243588924407959,4.15498685836792,0.3920515179634094
2.218047618865967,4.176945209503174,0.39849647879600525
2.191185235977173,4.199337005615234,0.40484321117401123
2.1651551723480225,4.225397109985352,0.4114694595336914
2.140803813934326,4.254671573638916,0.4184292256832123
2.1074612140655518,4.262082099914551,0.42305073142051697
2.0770421028137207,4.276467800140381,0.4282800257205963
2.048656463623047,4.298249244689941,0.43406346440315247
2.0200953483581543,4.319821357727051,0.4398573637008667
1.9896916151046753,4.33341646194458,0.4446861445903778
1.9651907682418823,4.361147403717041,0.4510437548160553
1.9885436296463013,4.499284267425537,0.4686487317085266
1.958516240119934,4.520421028137207,0.4741055965423584
1.93019700050354,4.544770240783691,0.4798991084098816
4.324304103851318,10.382219314575195,1.1034457683563232
1.8746334314346313,4.592207908630371,0.49129346013069153
1.8613637685775757,4.655804634094238,0.5009571313858032
1.813118577003479,4.63263463973999,0.5012953281402588
1.7935763597488403,4.681424617767334,0.5094079971313477
1.7785451412200928,4.7407050132751465,0.5186522006988525
1.3283498287200928,3.618380069732666,0.3980421721935272
1.3100683689117432,3.64949631690979,0.40337783098220825
1.2835406064987183,3.6585891246795654,0.40628138184547424
1.6337090730667114,4.766204357147217,0.5317566394805908
1.5979033708572388,4.769729137420654,0.5345624089241028
1.5591294765472412,4.765787124633789,0.5365886688232422
1.5487171411514282,4.850400924682617,0.5483480095863342
1.5332834720611572,4.924116134643555,0.5588176250457764
1.502203345298767,4.949540138244629,0.563869833946228
1.4585808515548706,4.929810523986816,0.5637417435646057
1.41985023021698,4.924572467803955,0.5652645230293274
1.3826088905334473,4.926724910736084,0.5676108002662659
1.3451815843582153,4.928701400756836,0.5695740580558777
1.2909252643585205,4.8665947914123535,0.564130425453186
1.2600479125976562,4.890395164489746,0.5686467289924622
1.233450174331665,4.928870677947998,0.5748742818832397
1.200238823890686,4.944726943969727,0.5785384178161621
1.1697051525115967,4.971681594848633,0.5832605957984924
1.134175181388855,4.97963285446167,0.5855985283851624
1.1119476556777954,5.0479655265808105,0.5950846076011658
1.0730587244033813,5.040230751037598,0.5956295728683472
1.0435534715652466,5.0778398513793945,0.6015738248825073
1.006701111793518,5.077089309692383,0.6029817461967468
0.981686532497406,5.141012191772461,0.6117559671401978
2.110323905944824,11.493438720703125,1.3701575994491577
2.0030784606933594,11.362441062927246,1.3570679426193237
1.9071438312530518,11.287954330444336,1.3507548570632935
1.798750638961792,11.116662979125977,1.3328018188476562
1.6903512477874756,10.929115295410156,1.3128796815872192
1.5945253372192383,10.813761711120605,1.30076265335083
1.4975996017456055,10.678437232971191,1.286162257194519
1.392130970954895,10.473262786865234,1.2631863355636597
1.3107459545135498,10.416963577270508,1.258131504058838
1.2217433452606201,10.286848068237305,1.2441822290420532
1.1415053606033325,10.217679977416992,1.2376272678375244
1.0605136156082153,10.136486053466797,1.2288258075714111
0.9921941757202148,10.17435073852539,1.2344098091125488
0.39168882369995117,4.33733606338501,0.5266869068145752
0.3556087017059326,4.270308494567871,0.5190117955207825
0.3276972770690918,4.295783042907715,0.5225973725318909
0.297840416431427,4.297862529754639,0.523364782333374
0.26974281668663025,4.330742835998535,0.5276018977165222
0.3093402087688446,5.6101884841918945,0.6837117075920105
0.27252066135406494,5.662503719329834,0.6903576850891113
0.2336726188659668,5.67970085144043,0.6927582025527954
0.19386468827724457,5.673377513885498,0.6923233270645142
0.1564321666955948,5.748169898986816,0.701824426651001
0.1153576448559761,5.73360538482666,0.7001165151596069
0.07622264325618744,5.796302795410156,0.7077030539512634
0.03586931154131889,5.812201499938965,0.7096092700958252
-0.0045523205772042274,5.796798229217529,0.7077283263206482
-0.06790236383676529,8.770545959472656,1.0708428621292114
-0.12851613759994507,8.672918319702148,1.0590269565582275
-0.1880263388156891,8.636972427368164,1.0543893575668335
-0.2483203411102295,8.647180557250977,1.0550450086593628
-0.05763431265950203,1.615915298461914,0.19705745577812195
-0.1720477193593979,4.036797046661377,0.49205052852630615
-0.17918118834495544,3.6134023666381836,0.44025883078575134
-0.20169705152511597,3.5578815937042236,0.43333151936531067
-0.22638562321662903,3.5564470291137695,0.4329131841659546
-0.26521122455596924,3.7560157775878906,0.45675128698349
-0.2980725169181824,3.8430967330932617,0.46689823269844055
-0.32169926166534424,3.8062474727630615,0.46200481057167053
-0.34720468521118164,3.788511276245117,0.45944997668266296
-0.3689457178115845,3.7397754192352295,0.4531715214252472
-0.3940903842449188,3.7294974327087402,0.4515171945095062
-0.4123397767543793,3.6613008975982666,0.44261687994003296
-0.4356573522090912,3.643091917037964,0.439794659614563
-0.4548168182373047,3.59004807472229,0.43278810381889343
-0.4787622094154358,3.5792219638824463,0.43090537190437317
-0.500415027141571,3.5528724193573,0.42717936635017395
-0.5205577611923218,3.518728256225586,0.42251747846603394
-0.5458770990371704,3.522888660430908,0.42219802737236023
-0.5661324858665466,3.492335081100464,0.41772812604904175
-0.5836134552955627,3.4502639770507812,0.4119296669960022
-1.1214348077774048,6.3614821434021,0.7581076622009277
-1.1711950302124023,6.384339332580566,0.7594632506370544
-1.2270867824554443,6.437316417694092,0.7643846869468689
-1.2777202129364014,6.463394641876221,0.7656116485595703
-1.3318333625793457,6.500342845916748,0.768108606338501
-1.3865877389907837,6.540798664093018,0.7710596919059753
-1.4386754035949707,6.561673641204834,0.7716813087463379
-1.4757519960403442,6.513996124267578,0.7642773985862732
-1.5129824876785278,6.469934940338135,0.7572815418243408
-1.5431894063949585,6.399343013763428,0.7467287182807922
-0.6951170563697815,2.798994779586792,0.3256378769874573
-0.7064869999885559,2.7642791271209717,0.32064926624298096
-0.7257250547409058,2.7594664096832275,0.3191341459751129
-0.7429030537605286,2.747023820877075,0.31675463914871216
-0.7684084177017212,2.7643704414367676,0.3177233934402466
-1.7436046600341797,6.112277030944824,0.6999607682228088
-1.780569076538086,6.085868835449219,0.6944190263748169
-1.824363350868225,6.081434726715088,0.6913945078849792
-1.1702337265014648,3.8047449588775635,0.43096861243247986
-1.1808655261993408,3.744769811630249,0.4225936532020569
-1.2087359428405762,3.7443249225616455,0.4208126664161682
-1.2437463998794556,3.7658848762512207,0.4214176833629608
-1.2852818965911865,3.8055579662323,0.4240341782569885
-1.3267563581466675,3.840967893600464,0.4261077344417572
-1.3664476871490479,3.8685758113861084,0.42727896571159363
-1.380471110343933,3.8226394653320312,0.42025476694107056
-2.0836551189422607,5.651156425476074,0.6181036829948425
-2.11753511428833,5.626601696014404,0.6122649312019348
-2.1390440464019775,5.5690388679504395,0.6028590202331543
-2.183621406555176,5.568932056427002,0.5996297597885132
-2.241959810256958,5.600695610046387,0.5997719168663025
-2.3060083389282227,5.6508307456970215,0.6015197038650513
-2.3483285903930664,5.646567344665527,0.5974102020263672
-2.372684955596924,5.598947525024414,0.5887356400489807
-2.414823293685913,5.589947700500488,0.584034264087677
-2.4968152046203613,5.669311046600342,0.5884580016136169
-2.5747017860412598,5.741693496704102,0.5917883515357971
-2.540236711502075,5.565796375274658,0.5695387125015259
-2.5726332664489746,5.538627624511719,0.5626289248466492
-2.616270065307617,5.531676292419434,0.557630181312561
-2.6335647106170654,5.468000411987305,0.5468970537185669
-2.6629858016967773,5.437033176422119,0.5392439961433411
-2.6989030838012695,5.419912338256836,0.5329870581626892
-2.7127468585968018,5.356977939605713,0.5221735239028931
-2.7395050525665283,5.3177266120910645,0.5136002898216248
-2.745361566543579,5.240756034851074,0.5013726949691772
-2.4713637828826904,4.642143249511719,0.4395700991153717
-2.4556515216827393,4.540683746337891,0.42559486627578735
-1.1854604482650757,2.156257390975952,0.1999097466468811
-1.189131736755371,2.1277828216552734,0.19508607685565948
-2.5599210262298584,4.511346340179443,0.4087372422218323
-2.5743303298950195,4.467801094055176,0.3998369872570038
-2.608929395675659,4.457308292388916,0.3937693238258362
-2.6281914710998535,4.41940450668335,0.38521116971969604
-1.2481255531311035,2.0678694248199463,0.17770007252693176
-2.6717026233673096,4.36247444152832,0.36945831775665283
-2.6692614555358887,4.2913384437561035,0.35767102241516113
-2.9947266578674316,4.741011619567871,0.3887364864349365
-3.0084402561187744,4.696001052856445,0.3784339427947998
-3.0154869556427,4.641085624694824,0.36740073561668396
-3.03938889503479,4.607489109039307,0.35760390758514404
-3.057774066925049,4.567875862121582,0.34717246890068054
-3.0803256034851074,4.539231300354004,0.33767032623291016
-3.1112353801727295,4.518791675567627,0.32830536365509033
-3.1151998043060303,4.459784984588623,0.31596386432647705
-2.9179186820983887,4.122403621673584,0.2844415605068207
-2.859713077545166,3.982529878616333,0.2667049169540405
-2.881915330886841,3.9574785232543945,0.25670790672302246
-2.9203665256500244,3.958927869796753,0.24833321571350098
-3.023315668106079,4.230823993682861,-0.17943909764289856
-2.447767496109009,3.480377197265625,-0.15613070130348206
-2.4554710388183594,3.545990467071533,-0.16726566851139069
-2.3793699741363525,3.4889512062072754,-0.1721886843442917
-2.3070943355560303,3.4384710788726807,-0.1771238148212433
-2.2418053150177,3.392462968826294,-0.18151752650737762
-2.197371482849121,3.379183053970337,-0.18752816319465637
-2.1424720287323,3.349172353744507,-0.19232507050037384
-2.1397314071655273,3.396723508834839,-0.20112262666225433
-1.261960744857788,2.0358164310455322,-0.12413199990987778
-1.2325029373168945,2.0216195583343506,-0.12679244577884674
-2.048776626586914,3.4147586822509766,-0.21982455253601074
-2.0360536575317383,3.4491419792175293,-0.22757816314697266
-2.0104424953460693,3.463702917098999,-0.23402386903762817
-1.1987770795822144,2.0993764400482178,-0.14502112567424774
-1.1916100978851318,2.1211018562316895,-0.14965875446796417
-1.93876314163208,3.5119564533233643,-0.252966970205307
-1.9373221397399902,3.570078134536743,-0.26223814487457275
-1.9232600927352905,3.6037700176239014,-0.26963257789611816
-1.9082047939300537,3.6377503871917725,-0.2770502269268036
-2.475982904434204,4.804718017578125,-0.3722626566886902
-2.4516046047210693,4.842827320098877,-0.38152357935905457
-2.424466371536255,4.87329626083374,-0.3900441527366638
-2.3958892822265625,4.904170513153076,-0.39848437905311584
-2.366813898086548,4.934959411621094,-0.40693628787994385
-2.350269317626953,4.989675998687744,-0.41724076867103577
-1.5533610582351685,3.358137607574463,-0.28467094898223877
-1.5254302024841309,3.3619654178619385,-0.28876757621765137
-1.4979323148727417,3.365386486053467,-0.29275795817375183
-1.4804891347885132,3.389707326889038,-0.2984861433506012
-1.4567642211914062,3.399575710296631,-0.3029530942440033
-2.2132654190063477,5.268686294555664,-0.47482535243034363
-1.4161723852157593,3.441168785095215,-0.31363946199417114
-1.3947911262512207,3.4578962326049805,-0.31856003403663635
-1.3676990270614624,3.4599416255950928,-0.3221188485622406
-1.3401007652282715,3.4619994163513184,-0.3255111873149872
-1.3234539031982422,3.492993116378784,-0.3316153585910797
-2.052917242050171,5.53759765625,-0.5307879447937012
-2.023446798324585,5.57681131362915,-0.5395024418830872
-1.929246187210083,5.436450958251953,-0.5305584669113159
-1.6150239706039429,4.65580415725708,-0.4582067131996155
-1.5819013118743896,4.6666789054870605,-0.4631040096282959
-1.8835808038711548,5.68883752822876,-0.5692167282104492
-1.8663474321365356,5.771629810333252,-0.5820873975753784
-0.9792957305908203,3.1034512519836426,-0.3152858018875122
-0.9548665881156921,3.102616786956787,-0.31750187277793884
-0.8560164570808411,2.852020502090454,-0.2939407527446747
-0.7902779579162598,2.700955390930176,-0.28034111857414246
-0.7708684802055359,2.7063090801239014,-0.28274399042129517
-0.7496091723442078,2.7039685249328613,-0.2842591106891632
-0.7325552105903625,2.7164483070373535,-0.2873384356498718
-0.7174862623214722,2.736297369003296,-0.29121193289756775
-0.7030822038650513,2.7598459720611572,-0.29547226428985596
-0.6710402965545654,2.7155873775482178,-0.29231226444244385
-1.4936845302581787,6.233452320098877,-0.6745631098747253
-1.4606040716171265,6.288649082183838,-0.6841240525245667
-1.4261260032653809,6.339853286743164,-0.693321168422699
-1.3675810098648071,6.284708023071289,-0.6905769109725952
-1.3161375522613525,6.263482570648193,-0.6913545727729797
-1.2650665044784546,6.237892150878906,-0.6915996074676514
-1.2140328884124756,6.2080206871032715,-0.6913430690765381
-1.1613727807998657,6.166288375854492,-0.6897525191307068
-1.1096328496932983,6.128086090087891,-0.6879924535751343
-1.0212006568908691,5.879215240478516,-0.6624742746353149
-0.9423332214355469,5.659937381744385,-0.6400755047798157
-0.9530001878738403,5.980372905731201,-0.678763747215271
-0.9148412942886353,6.00954008102417,-0.6844512820243835
-0.8737815618515015,6.023195743560791,-0.6879293918609619
-0.8355268836021423,6.063582420349121,-0.6945436000823975
-0.637805700302124,4.8797993659973145,-0.5605466365814209
-0.7348147034645081,5.943077087402344,-0.6846569776535034
-0.6933681964874268,5.947791576385498,-0.6869426965713501
-0.6492177844047546,5.929127216339111,-0.6861896514892578
-0.604571521282196,5.90241813659668,-0.6845262050628662
-0.5579966306686401,5.856107711791992,-0.6806207299232483
-0.515179455280304,5.836439609527588,-0.6798021793365479
-0.47036945819854736,5.78944206237793,-0.6754227876663208
-0.2567717730998993,3.4592125415802,-0.4040916860103607
-0.23416216671466827,3.4840633869171143,-0.40754252672195435
-0.20999054610729218,3.4932899475097656,-0.40919753909111023
-0.30181726813316345,5.679658889770508,-0.6662569642066956
-0.26117050647735596,5.658285140991211,-0.6642536520957947
-0.22066131234169006,5.632761478424072,-0.6616621017456055
-0.18064549565315247,5.610827922821045,-0.6595205664634705
-0.14003635942935944,5.573110580444336,-0.6555572152137756
-0.1013297289609909,5.573879718780518,-0.6561417579650879
-0.06167159602046013,5.492984771728516,-0.6465615630149841
-0.019010398536920547,4.445835590362549,-0.5232548713684082
0.011809324845671654,4.414827346801758,-0.5195806622505188
0.05290164425969124,5.419372081756592,-0.637806236743927
0.09061270207166672,5.418881893157959,-0.6377276182174683
0.12792490422725677,5.402678489685059,-0.6352964043617249
0.16097687184810638,5.254374027252197,-0.6173773407936096
0.19882361590862274,5.288088798522949,-0.6208853721618652
0.18429410457611084,4.135523319244385,-0.4852289855480194
0.22693103551864624,4.393782615661621,-0.5150818228721619
0.25310200452804565,4.318624973297119,-0.5054975748062134
0.2729097306728363,4.162010669708252,-0.48644334077835083
0.3017856776714325,4.160123825073242,-0.48552343249320984
0.331949383020401,4.173503398895264,-0.4864044487476349
0.3580420911312103,4.132528305053711,-0.48079612851142883
0.39134538173675537,4.180332660675049,-0.48528289794921875
0.4078483581542969,4.054126262664795,-0.4696108102798462
0.4360440969467163,4.051344394683838,-0.46828439831733704
0.46333664655685425,4.04065465927124,-0.4660685062408447
0.4937005341053009,4.052877902984619,-0.4662626087665558
0.6298810839653015,4.888729572296143,-0.5607767105102539
0.6610740423202515,4.865265846252441,-0.5564728379249573
0.6960203647613525,4.868473052978516,-0.5552403926849365
0.7287795543670654,4.856068134307861,-0.5522524118423462
0.756953239440918,4.812747001647949,-0.5453997850418091
0.7864143252372742,4.7847065925598145,-0.5402429103851318
0.8273736238479614,4.8253583908081055,-0.5428562760353088
0.8622671365737915,4.8274245262146,-0.5411234498023987
0.8943918347358704,4.813968181610107,-0.5376767516136169
0.926114559173584,4.800393104553223,-0.5338134765625
0.9520960450172424,4.756050109863281,-0.5265257954597473
0.98499995470047,4.749677658081055,-0.5235136151313782
1.01401948928833,4.724040508270264,-0.5183961987495422
1.0400803089141846,4.686887264251709,-0.5119678378105164
1.074066162109375,4.687558650970459,-0.5093764662742615
1.1033174991607666,4.665171146392822,-0.5042612552642822
1.1320428848266602,4.6426615715026855,-0.499196320772171
1.1587276458740234,4.612409591674805,-0.4933353662490845
1.1906052827835083,4.604670524597168,-0.48971012234687805
1.2182754278182983,4.581748008728027,-0.48432472348213196
1.2493464946746826,4.569750785827637,-0.48007479310035706
1.2748700380325317,4.538880348205566,-0.4738995432853699
1.3043681383132935,4.522799015045166,-0.46930745244026184
1.3354028463363647,4.514157772064209,-0.4651990830898285
1.3550946712493896,4.468101501464844,-0.4572543203830719
1.384221076965332,4.451450824737549,-0.452292263507843
1.4128985404968262,4.4346923828125,-0.44738155603408813
1.4460138082504272,4.432615756988525,-0.44385749101638794
1.4677177667617798,4.397231101989746,-0.43683922290802
1.5003130435943604,4.394875526428223,-0.4331374168395996
1.2399240732192993,3.5511152744293213,-0.3471253514289856
1.2782087326049805,3.5792129039764404,-0.3469500243663788
1.302695631980896,3.570749044418335,-0.3430607318878174
1.5946598052978516,4.280396461486816,-0.40753698348999023
1.6325386762619019,4.291533946990967,-0.4048399031162262
1.6596683263778687,4.273220539093018,-0.39933446049690247
1.6867396831512451,4.254702091217041,-0.3936507999897003
1.712792992591858,4.236348628997803,-0.3879624307155609
1.7417643070220947,4.224979400634766,-0.38292133808135986
1.7637064456939697,4.195224285125732,-0.3761673867702484
1.7835516929626465,4.161882400512695,-0.36910590529441833
1.8184903860092163,4.164210319519043,-0.36499881744384766
1.8435401916503906,4.145119667053223,-0.3591002821922302
1.862842082977295,4.11130952835083,-0.3518435060977936
1.88168466091156,4.077457904815674,-0.3446318209171295
1.9125303030014038,4.072153091430664,-0.33970868587493896
1.9438670873641968,4.066391468048096,-0.3346693813800812
1.972169280052185,4.053207874298096,-0.32896748185157776
1.9969491958618164,4.032824993133545,-0.32268378138542175
2.015279769897461,4.00235652923584,-0.31549885869026184
2.0421929359436035,3.989145040512085,-0.3097045123577118
2.0699992179870605,3.9752509593963623,-0.30369696021080017
2.098059892654419,3.9609789848327637,-0.2975575625896454
2.113477945327759,3.9266867637634277,-0.2899491786956787
2.1399245262145996,3.912783622741699,-0.28385230898857117
2.119886636734009,3.812983989715576,-0.2714645266532898
2.153632164001465,3.8123879432678223,-0.26621201634407043
2.175527572631836,3.791386842727661,-0.2593967020511627
2.2013442516326904,3.776888847351074,-0.2530093193054199
2.2237257957458496,3.755126953125,-0.24602216482162476
2.2446725368499756,3.733968734741211,-0.23905038833618164
2.269336223602295,3.7194457054138184,-0.2325110137462616
2.30810809135437,3.723513603210449,-0.22668176889419556
2.3167026042938232,3.6817657947540283,-0.2181689739227295
2.3408162593841553,3.6668848991394043,-0.21128727495670319
2.3788018226623535,3.6706995964050293,-0.20514650642871857
2.395343780517578,3.6416642665863037,-0.19705979526042938
2.410792589187622,3.6131014823913574,-0.1889205276966095
2.448580026626587,3.6163113117218018,-0.18223293125629425
2.4377453327178955,3.548497200012207,-0.17188584804534912
2.469438314437866,3.5459253787994385,-0.16478164494037628
2.507347345352173,3.5483193397521973,-0.15734143555164337
2.5130374431610107,3.506307363510132,-0.1476980596780777
2.5242578983306885,3.4744861125946045,-0.13857483863830566
2.1706557273864746,2.944967269897461,-0.11029454320669174
2.7579779624938965,3.897801160812378,0.24709069728851318
2.7482104301452637,3.9422221183776855,0.2576436996459961
2.70949125289917,3.949442148208618,0.2656562030315399
2.691762924194336,3.989205837249756,0.2757917642593384
2.642070770263672,3.9749951362609863,0.28147268295288086
2.6161611080169678,4.000853538513184,0.28981316089630127
2.6109654903411865,4.059416770935059,0.30047833919525146
2.5782060623168945,4.070536136627197,0.3072124719619751
2.56406307220459,4.1156907081604,0.3165341317653656
2.5122504234313965,4.101329803466797,0.32109981775283813
2.4748682975769043,4.105279445648193,0.3266916573047638
2.4576730728149414,4.142284393310547,0.33483508229255676
2.4302074909210205,4.166958808898926,0.34181129932403564
2.406205415725708,4.198303699493408,0.3494056761264801
2.3729255199432373,4.207760810852051,0.35480910539627075
2.342766761779785,4.224124908447266,0.36072805523872375
2.257056951522827,4.141845703125,0.3579739034175873
2.226445198059082,4.157894611358643,0.3635770082473755
2.2039904594421387,4.186976432800293,0.3702131509780884
2.183084011077881,4.21937894821167,0.37704822421073914
2.1428322792053223,4.217674732208252,0.3806505501270294
2.120102643966675,4.250444412231445,0.3873853087425232
2.0971686840057373,4.278710842132568,0.39353394508361816
2.059892416000366,4.279048919677734,0.39719724655151367
2.0350427627563477,4.307713031768799,0.40319105982780457
2.0032238960266113,4.32216215133667,0.40786871314048767
1.9689743518829346,4.328893184661865,0.4117410480976105
2.0100085735321045,4.502048492431641,0.43150031566619873
1.9560703039169312,4.4659037590026855,0.43119388818740845
1.957988977432251,4.562184810638428,0.4435547888278961
1.9123876094818115,4.547316551208496,0.44511979818344116
1.898141860961914,4.603407382965088,0.4535377025604248
1.8718194961547852,4.630548477172852,0.4591369032859802
1.8387196063995361,4.64339017868042,0.46317192912101746
1.7846348285675049,4.605703353881836,0.4620339572429657
1.7648355960845947,4.65455436706543,0.46955209970474243
1.3532170057296753,3.645664691925049,0.36975961923599243
1.319758415222168,3.6328020095825195,0.3704304099082947
1.301723837852478,3.6637864112854004,0.37546506524086
1.269575834274292,3.6583127975463867,0.3766779601573944
1.6261544227600098,4.797482967376709,0.4962750971317291
1.6020488739013672,4.838005065917969,0.5027405619621277
1.570594072341919,4.85612678527832,0.5068992376327515
1.5317375659942627,4.8518757820129395,0.5086541771888733
1.4983692169189453,4.870092868804932,0.5125284194946289
1.468778133392334,4.899068355560303,0.5175386071205139
1.4284272193908691,4.890427112579346,0.518575131893158
1.4102998971939087,4.956004619598389,0.5274794697761536
1.3757646083831787,4.965385437011719,0.5304503440856934
1.3069987297058105,4.8509674072265625,0.5198668241500854
1.2697148323059082,4.852550506591797,0.5216407179832458
1.2425727844238281,4.891373157501221,0.5274280905723572
1.2176320552825928,4.937394142150879,0.5340020656585693
1.1849756240844727,4.9530510902404785,0.5373282432556152
1.1520602703094482,4.9685211181640625,0.5405872464179993
1.1185283660888672,4.987884044647217,0.5439968109130859
1.0895010232925415,5.025871276855469,0.5494545102119446
1.058550238609314,5.056057929992676,0.5540955662727356
1.0248197317123413,5.070695877075195,0.5570430159568787
0.9895022511482239,5.077474117279053,0.5591540336608887
2.1675198078155518,11.561599731445312,1.276013731956482
2.0667924880981445,11.473076820373535,1.2685245275497437
1.9489150047302246,11.276575088500977,1.249097466468811
1.8471933603286743,11.15553092956543,1.2380033731460571
1.7476954460144043,11.029633522033691,1.2263439893722534
1.638235092163086,10.834002494812012,1.2069590091705322
1.5504813194274902,10.76419734954834,1.2010066509246826
1.4481946229934692,10.582235336303711,1.1821798086166382
1.3610353469848633,10.495640754699707,1.174025058746338
1.263692021369934,10.311975479125977,1.1550205945968628
1.1843324899673462,10.254676818847656,1.1501737833023071
1.1004732847213745,10.158305168151855,1.1410008668899536
1.0257980823516846,10.130783081054688,1.1390360593795776
0.40649962425231934,4.317062854766846,0.4857446849346161
0.3761459290981293,4.319736480712891,0.4864327907562256
0.3428153991699219,4.283490180969238,0.4827567934989929
0.3119086027145386,4.277990341186523,0.48257046937942505
0.2852151095867157,4.3264594078063965,0.48849183320999146
0.3302980661392212,5.60701847076416,0.633432924747467
0.293274849653244,5.651783466339111,0.6386820077896118
0.2547712028026581,5.676914215087891,0.641745924949646
0.21408982574939728,5.670775413513184,0.641311526298523
0.17584840953350067,5.710874080657959,0.646133303642273
0.13625875115394592,5.719672203063965,0.6474477648735046
0.09743589907884598,5.778672695159912,0.6542441248893738
0.05726475641131401,5.786978244781494,0.6550784707069397
0.01605491153895855,5.729022026062012,0.6484432816505432
-0.03675350174307823,8.830267906188965,0.9993959069252014
-0.06674668192863464,6.004268169403076,0.6795431971549988
-0.07539442181587219,4.171905994415283,0.47217807173728943
-0.1040353924036026,4.155777454376221,0.47026434540748596
-0.13261736929416656,4.1472392082214355,0.46900904178619385
-0.061024490743875504,1.5630834102630615,0.17666612565517426
-0.18443813920021057,4.009347915649414,0.4529169797897339
-0.18802914023399353,3.550619125366211,0.4009069502353668
-0.21339410543441772,3.560887575149536,0.4018952548503876
-0.24064989387989044,3.5980992317199707,0.4058722257614136
-0.28738003969192505,3.8867347240448,0.43795979022979736
-0.3070181906223297,3.7957394123077393,0.4272741377353668
-0.3325467109680176,3.7858681678771973,0.42575162649154663
-0.35591432452201843,3.75262188911438,0.42162248492240906
-0.3768690228462219,3.699923276901245,0.4153363108634949
-0.3996344208717346,3.666372299194336,0.4111742377281189
-0.4266233444213867,3.6790683269500732,0.4119662344455719
-0.44622644782066345,3.6299121379852295,0.40585681796073914
-0.4711761176586151,3.626861810684204,0.40492933988571167
-0.48952072858810425,3.573596715927124,0.3984166979789734
-0.5126153230667114,3.5547711849212646,0.39576268196105957
-0.5285950303077698,3.4936413764953613,0.3884083330631256
-0.5567662715911865,3.516915798187256,0.3902089595794678
-0.5872179865837097,3.5514559745788574,0.3932622969150543
-0.5950788259506226,3.4518051147460938,0.3814869523048401
-1.1426095962524414,6.364151954650879,0.7020042538642883
-1.1947650909423828,6.394324779510498,0.7039797902107239
-1.2501280307769775,6.443333148956299,0.7080006003379822
-1.3048033714294434,6.488253593444824,0.7111373543739319
-1.357708215713501,6.521335124969482,0.7129861116409302
-1.4087378978729248,6.542592525482178,0.7135529518127441
-1.4550291299819946,6.5327653884887695,0.7106913328170776
-1.4917492866516113,6.48492956161499,0.7037703990936279
-1.5303624868392944,6.448297500610352,0.6979811191558838
-0.6837457418441772,2.7963814735412598,0.301751971244812
-0.7008806467056274,2.7842767238616943,0.2995235323905945
-0.7163179516792297,2.764448404312134,0.29646724462509155
-0.7355436682701111,2.759549379348755,0.29503005743026733
-0.7588703036308289,2.7694990634918213,0.2951885163784027
-0.7820723056793213,2.7793524265289307,0.2952321171760559
-1.1253604888916016,3.898012399673462,0.41251340508461
-1.145599365234375,3.8680481910705566,0.40779489278793335
-1.1676257848739624,3.8454577922821045,0.4038943946361542
-1.1909195184707642,3.8263447284698486,0.4003675580024719
-1.1963255405426025,3.7515294551849365,0.39106038212776184
-1.0624828338623047,3.255800247192383,0.3378947973251343
-1.0688055753707886,3.20072603225708,0.330674946308136
-1.0941394567489624,3.2047083377838135,0.3296157419681549
-1.3356369733810425,3.824939489364624,0.3916057348251343
-1.3753021955490112,3.852447986602783,0.39261919260025024
-1.4043341875076294,3.8505308628082275,0.39050090312957764
-1.4247552156448364,3.8267295360565186,0.3860412836074829
-1.4591476917266846,3.839027166366577,0.3852041959762573
-1.4742528200149536,3.8002026081085205,0.3792458772659302
-2.215282440185547,5.594789505004883,0.5552692413330078
-2.269882917404175,5.619494438171387,0.5545717477798462
-2.329627275466919,5.658631801605225,0.5549687147140503
-2.360525131225586,5.625213623046875,0.548194944858551
-2.39279842376709,5.595128536224365,0.541773796081543
-2.4319024085998535,5.57874059677124,0.5366300940513611
-2.4800634384155273,5.583554267883301,0.5334756970405579
-2.5252554416656494,5.585143089294434,0.5297102332115173
-2.5729405879974365,5.589582920074463,0.5261340141296387
-2.579741954803467,5.505410194396973,0.5142503380775452
-2.601355791091919,5.452661037445068,0.5053191781044006
-2.6233787536621094,5.4037065505981445,0.49670225381851196
-2.681511640548706,5.432132720947266,0.4950017035007477
-2.707583427429199,5.393601894378662,0.4871259927749634
-2.392514228820801,4.685133457183838,0.41923320293426514
-2.4216182231903076,4.661863327026367,0.4132257103919983
-2.4454598426818848,4.632279872894287,0.4064979553222656
-2.464888334274292,4.595954418182373,0.3991651237010956
-2.51450514793396,4.613897800445557,0.39644819498062134
-1.1820820569992065,2.1329345703125,0.1811791956424713
-2.557575225830078,4.5420660972595215,0.38131678104400635
-2.571807622909546,4.498655796051025,0.37306204438209534
-2.5977137088775635,4.475237846374512,0.3664531111717224
-2.609239101409912,4.423864841461182,0.357354074716568
-1.2538559436798096,2.0927557945251465,0.1666475087404251
-1.263405442237854,2.0781302452087402,0.1630573570728302
-2.6832923889160156,4.348865032196045,0.3360261917114258
-2.684621572494507,4.284303188323975,0.32561859488487244
-2.99141263961792,4.704320430755615,0.3514516055583954
-3.0052249431610107,4.659006118774414,0.34182068705558777
-3.0453085899353027,4.65213680267334,0.3348113000392914
-3.036638021469116,4.5696868896484375,0.32223597168922424
