X,Y,Z
1.1662495136260986,2.5794284343719482,0.2261040359735489
1.1599969863891602,2.616145372390747,0.23101888597011566
1.0988737344741821,2.5279624462127686,0.22486606240272522
2.5189614295959473,5.909035682678223,0.5293272137641907
2.492633581161499,5.961939811706543,0.5377471446990967
2.4807775020599365,6.0548415184021,0.5498378872871399
2.452502965927124,6.112057685852051,0.5584070682525635
2.4249470233917236,6.172793865203857,0.567373514175415
2.393981456756592,6.2219672203063965,0.5752318501472473
2.3614566326141357,6.267217636108398,0.5827594995498657
2.3298144340515137,6.320090293884277,0.5909878015518188
1.939609169960022,5.380976676940918,0.50569087266922
2.2716054916381836,6.447757720947266,0.6089828610420227
2.24130916595459,6.507330894470215,0.6176071166992188
2.2094643115997314,6.562961101531982,0.6258993148803711
2.174689769744873,6.615102291107178,0.6338999271392822
2.1411476135253906,6.674684524536133,0.6422396898269653
2.0766594409942627,6.637597560882568,0.641308069229126
2.0193686485290527,6.618275165557861,0.6420432329177856
1.9575979709625244,6.579639911651611,0.6408646702766418
1.9008592367172241,6.555394649505615,0.641080379486084
1.8436967134475708,6.534994602203369,0.6413208246231079
1.7843753099441528,6.502729415893555,0.6402860879898071
1.728808045387268,6.481177806854248,0.6403045058250427
1.6679415702819824,6.432534694671631,0.6375947594642639
0.8186391592025757,3.250124216079712,0.3232242465019226
1.55753755569458,6.375505447387695,0.6360383033752441
0.7971823811531067,3.3671281337738037,0.3368017077445984
1.4445910453796387,6.30181884765625,0.6320359706878662
1.3959652185440063,6.2925920486450195,0.6327984929084778
1.3333011865615845,6.2144856452941895,0.6266199946403503
1.297869324684143,6.265388488769531,0.6334978342056274
1.2360223531723022,6.18650484085083,0.6269174218177795
1.180989146232605,6.137664794921875,0.623250424861908
1.1345558166503906,6.130390644073486,0.6238187551498413
1.078761100769043,6.065249919891357,0.6184898614883423
1.0384140014648438,6.087845802307129,0.6221434473991394
0.9972928166389465,6.102383613586426,0.6249856352806091
0.9517335891723633,6.09375524520874,0.6250331401824951
0.8995015621185303,6.038661479949951,0.6203061938285828
0.8519136905670166,6.010073661804199,0.6183181405067444
0.8052312731742859,5.984978199005127,0.6167110800743103
0.7522532343864441,5.901620388031006,0.6090954542160034
0.6159060001373291,5.1156792640686035,0.52881920337677
0.5737544298171997,5.065738677978516,0.5241387486457825
0.5500260591506958,5.181609153747559,0.5366456508636475
0.4029056429862976,4.067774295806885,0.42171555757522583
0.3733791410923004,4.062711238861084,0.42164069414138794
0.35004061460494995,4.123209476470947,0.4283882975578308
0.3258530795574188,4.183579921722412,0.4351200759410858
0.29465213418006897,4.158584117889404,0.4327215850353241
0.26773256063461304,4.195399284362793,0.4367770254611969
0.23916219174861908,4.220429420471191,0.43963441252708435
0.38617023825645447,7.772575378417969,0.8101474642753601
0.3314456343650818,7.759464740753174,0.8093104362487793
0.27565473318099976,7.711032867431641,0.8047596216201782
0.22118382155895233,7.689448833465576,0.8025042414665222
0.1658882051706314,7.659732818603516,0.7994401454925537
0.11222029477357864,7.645147323608398,0.7979933619499207
0.05877501890063286,7.610759258270264,0.7945175766944885
0.005896505434066057,7.5798845291137695,0.7914454936981201
-0.046627212315797806,7.548647403717041,0.7883358597755432
-0.0999855026602745,7.54428768157959,0.787509560585022
-0.15185868740081787,7.520149230957031,0.7846653461456299
-0.20326989889144897,7.48788595199585,0.7810128927230835
-0.253842830657959,7.44362211227417,0.7761491537094116
-0.30516666173934937,7.433960437774658,0.7749328017234802
-0.3592401146888733,7.482153415679932,0.7797790765762329
-0.2992848753929138,5.435083389282227,0.5659154653549194
-0.3349595367908478,5.401933193206787,0.561981201171875
-0.37227141857147217,5.399563312530518,0.5612795352935791
-0.4068514108657837,5.358175754547119,0.5565493106842041
-0.44338682293891907,5.347550868988037,0.5550456643104553
-0.427855908870697,4.752260208129883,0.49291983246803284
-0.4489656686782837,4.629408836364746,0.4795158803462982
-0.47799137234687805,4.5992560386657715,0.47575172781944275
-0.5096691846847534,4.595952987670898,0.4747902750968933
-0.5397903919219971,4.576961994171143,0.47222742438316345
-0.5692766308784485,4.549992561340332,0.46885907649993896
-0.6009460687637329,4.546017169952393,0.4678955674171448
-0.6300089359283447,4.526517868041992,0.4650406241416931
-0.657748281955719,4.499136924743652,0.46139901876449585
-0.6869067549705505,4.483112812042236,0.4589501619338989
-0.7185497879981995,4.478282928466797,0.4576502740383148
-0.7496528625488281,4.4733123779296875,0.4563712179660797
-0.7766358256340027,4.445167064666748,0.4527377486228943
-0.8056028485298157,4.432270050048828,0.450361967086792
-0.8264967203140259,4.377169609069824,0.443732351064682
-0.8504117727279663,4.341062545776367,0.4390676021575928
-0.7425176501274109,3.65321683883667,0.3686375617980957
-0.7679467797279358,3.6480917930603027,0.3672914206981659
-0.9429028630256653,4.330366134643555,0.43495479226112366
-0.9723727703094482,4.324034690856934,0.43305668234825134
-1.0053149461746216,4.332650661468506,0.43267130851745605
-1.0300554037094116,4.303046226501465,0.42846304178237915
-1.0525270700454712,4.265766143798828,0.4235282838344574
-1.085979700088501,4.273612976074219,0.4231005907058716
-1.1133465766906738,4.258729934692383,0.42030131816864014
-1.142185091972351,4.251303672790527,0.4180987775325775
-1.1652560234069824,4.2210564613342285,0.41365429759025574
-1.1964092254638672,4.220636367797852,0.41215965151786804
-1.225723147392273,4.212435722351074,0.4099082946777344
-1.249417781829834,4.185396194458008,0.4058498740196228
-1.2777771949768066,4.177063465118408,0.4033931493759155
-1.3075920343399048,4.17214822769165,0.40121495723724365
-1.329877495765686,4.144915580749512,0.3969385027885437
-1.3611257076263428,4.143195152282715,0.3950825035572052
-1.385013222694397,4.119101047515869,0.3911128640174866
-1.4107333421707153,4.102387428283691,0.3877609670162201
-1.4305810928344727,4.071035385131836,0.3828839659690857
-1.4662903547286987,4.08339262008667,0.38210442662239075
-1.4810494184494019,4.0369062423706055,0.3758256733417511
-1.5146830081939697,4.041304111480713,0.37429001927375793
-1.5427134037017822,4.030957221984863,0.37137022614479065
-1.5697771310806274,4.02078104019165,0.36825692653656006
-1.5885863304138184,3.988548517227173,0.36311569809913635
-1.6275361776351929,4.00673246383667,0.3625774085521698
-1.6493844985961914,3.9812300205230713,0.35805895924568176
-1.6709120273590088,3.9556326866149902,0.3535565435886383
-1.7002676725387573,3.9518840312957764,0.35080572962760925
-1.7160418033599854,3.915625810623169,0.3451535999774933
-1.7395648956298828,3.89700984954834,0.34107157588005066
-1.766751766204834,3.885068416595459,0.3375377655029297
-1.7805589437484741,3.844761848449707,0.33153945207595825
-1.8027600049972534,3.8261094093322754,0.3272591233253479
-1.831979513168335,3.821164608001709,0.3241179287433624
-1.8515104055404663,3.794733762741089,0.31911712884902954
-1.8814563751220703,3.7890000343322754,0.3158455789089203
-1.896610975265503,3.7555954456329346,0.31019413471221924
-1.9356505870819092,3.7710206508636475,0.30848228931427
-1.9428189992904663,3.7237708568573,0.30162888765335083
-1.9765074253082275,3.7239983081817627,0.29847007989883423
-2.0022668838500977,3.7105484008789062,0.2942572832107544
-2.045293092727661,3.7318508625030518,0.292610764503479
-1.717170000076294,3.085303544998169,0.2391517609357834
-1.738631248474121,3.0735580921173096,0.2353024035692215
-0.839436948299408,1.459736704826355,0.11032065004110336
-0.852927029132843,1.4610718488693237,0.10894576460123062
-0.8664364218711853,1.4623117446899414,0.10754917562007904
-0.8765748143196106,1.4564045667648315,0.10553159564733505
-0.886707067489624,1.450404405593872,0.10350162535905838
-0.8962493538856506,1.4446759223937988,0.10140783339738846
-0.8973826169967651,1.4257190227508545,0.09841620922088623
-0.9031327366828918,1.4129860401153564,0.09576896578073502
-0.8893194794654846,1.371001958847046,0.09117478132247925
-0.8895244598388672,1.3523744344711304,0.08817283064126968
-0.9075334668159485,1.3593065738677979,0.08669939637184143
-2.4138548374176025,3.5620193481445312,0.22204498946666718
-1.3024694919586182,1.8695961236953735,0.11083849519491196
-1.3603788614273071,1.9309921264648438,-0.0757409855723381
-1.3500808477401733,1.94754159450531,-0.0803036093711853
-1.342551827430725,1.9667643308639526,-0.08478111028671265
-1.2358218431472778,1.8688338994979858,-0.08722874522209167
-1.2991355657577515,1.9951804876327515,-0.09642229229211807
-1.1730053424835205,1.830227255821228,-0.09138225764036179
-1.2113280296325684,1.9213038682937622,-0.09896453469991684
-1.1608190536499023,1.8698786497116089,-0.09905873984098434
-2.034996747970581,3.442566394805908,-0.19695459306240082
-0.8326683640480042,1.456167459487915,-0.08712047338485718
-1.7400695085525513,3.0939056873321533,-0.188966304063797
-1.7142698764801025,3.0990824699401855,-0.19310401380062103
-1.7046798467636108,3.135199785232544,-0.1990659534931183
-1.6431353092193604,3.075051784515381,-0.19884204864501953
-1.5907334089279175,3.0275213718414307,-0.19914510846138
-1.5549607276916504,3.0107131004333496,-0.20135916769504547
-1.5166571140289307,2.9906232357025146,-0.20328181982040405
-1.4638538360595703,2.938354969024658,-0.20281530916690826
-1.4278329610824585,2.916754961013794,-0.20429955422878265
-1.381695032119751,2.873891830444336,-0.20417068898677826
-1.3275114297866821,2.813098430633545,-0.20260605216026306
-1.2926932573318481,2.7904105186462402,-0.2036438286304474
-1.2534836530685425,2.7567036151885986,-0.2038089483976364
-1.2163801193237305,2.726165294647217,-0.2040315866470337
-1.1747912168502808,2.6846671104431152,-0.20330844819545746
-1.1449298858642578,2.6676557064056396,-0.20434564352035522
-1.1081188917160034,2.632276773452759,-0.20388929545879364
-1.0772098302841187,2.611170768737793,-0.20446814596652985
-1.048172116279602,2.593360185623169,-0.20515885949134827
-1.009600281715393,2.549842357635498,-0.20374412834644318
-0.9791017174720764,2.5239386558532715,-0.20364080369472504
-0.9503062963485718,2.5014164447784424,-0.2037387639284134
-0.9212016463279724,2.478872299194336,-0.2037341445684433
-0.8968074321746826,2.4669015407562256,-0.20453952252864838
-0.8665583729743958,2.436208963394165,-0.20371749997138977
-0.8418793082237244,2.419938087463379,-0.20407164096832275
-0.8158858418464661,2.3998801708221436,-0.2039509266614914
-0.7959970235824585,2.398169994354248,-0.20539359748363495
-0.7695375084877014,2.3738996982574463,-0.20483893156051636
-0.7435502409934998,2.3493518829345703,-0.2042238563299179
-0.727000892162323,2.354362726211548,-0.20609629154205322
-0.6956360340118408,2.3108670711517334,-0.2036232054233551
-0.6770516037940979,2.308114528656006,-0.20471221208572388
-0.6542460322380066,2.290250539779663,-0.2044554501771927
-0.6267867684364319,2.2533624172210693,-0.20245133340358734
-0.6108105182647705,2.2576076984405518,-0.20397992432117462
-0.592806339263916,2.254218578338623,-0.20481328666210175
-0.5711930394172668,2.235567569732666,-0.20424318313598633
-0.5534539818763733,2.2318713665008545,-0.2050461322069168
-0.5296292901039124,2.2015159130096436,-0.2033204734325409
-0.5122879147529602,2.197507381439209,-0.20390814542770386
-0.49160370230674744,2.17818546295166,-0.20307177305221558
-0.4730924665927887,2.1662397384643555,-0.20290297269821167
-0.45291614532470703,2.1465818881988525,-0.2020207792520523
-0.43940964341163635,2.1572208404541016,-0.20386730134487152
-0.42119163274765015,2.1448986530303955,-0.20348285138607025
-0.38949283957481384,2.0598092079162598,-0.19616469740867615
-0.3765435814857483,2.070026397705078,-0.1978960782289505
-0.3618720769882202,2.0725438594818115,-0.19891761243343353
-0.3485906422138214,2.0826218128204346,-0.20052245259284973
-0.33272185921669006,2.077258586883545,-0.20062494277954102
-0.31935060024261475,2.0871429443359375,-0.20220771431922913
-0.3048229515552521,2.089233160018921,-0.20304366946220398
-0.2868255376815796,2.068148136138916,-0.2016339749097824
-0.27082115411758423,2.0584774017333984,-0.20115256309509277
-0.25638920068740845,2.0602612495422363,-0.20179831981658936
-0.23929642140865326,2.0387682914733887,-0.20016632974147797
-0.22512567043304443,2.0403196811676025,-0.2007993906736374
-0.2093152105808258,2.0263102054595947,-0.19987846910953522
-0.19637209177017212,2.043182134628296,-0.20186926424503326
-0.1813770979642868,2.036717176437378,-0.20156002044677734
-0.16180092096328735,1.972021460533142,-0.1954837292432785
-0.1507149636745453,2.007941484451294,-0.199385404586792
-0.13542842864990234,1.9895108938217163,-0.197853222489357
-0.12129975855350494,1.9903955459594727,-0.1981208175420761
-0.10742176324129105,1.991166591644287,-0.19838358461856842
-0.09208022058010101,1.9607791900634766,-0.19554850459098816
-0.079047791659832,1.9768822193145752,-0.19735775887966156
-0.0649980753660202,1.9695963859558105,-0.19677819311618805
-0.05099935829639435,1.9700000286102295,-0.1968638002872467
-0.03738239035010338,1.9780722856521606,-0.197724848985672
-0.02353777550160885,1.9705027341842651,-0.1970316618680954
-0.009872930124402046,1.97061026096344,-0.1971151977777481
0.0037503656931221485,1.9395360946655273,-0.19400912523269653
0.017942655831575394,1.9938850402832031,-0.1993522346019745
0.03178877383470535,1.9937220811843872,-0.1992538869380951
0.04548976197838783,1.9856904745101929,-0.19837884604930878
0.057919759303331375,1.9387131929397583,-0.193624347448349
0.07283423095941544,1.9771250486373901,-0.1973176896572113
0.08623262494802475,1.9688318967819214,-0.19626940786838531
0.10153285413980484,1.9953750371932983,-0.19869770109653473
0.11294509470462799,1.9519606828689575,-0.19417425990104675
0.12803436815738678,1.9744287729263306,-0.19621604681015015
0.14116869866847992,1.965775966644287,-0.19507059454917908
0.15418590605258942,1.9570436477661133,-0.19385461509227753
0.17231206595897675,2.006303310394287,-0.1983790546655655
0.18697431683540344,2.0128443241119385,-0.19868411123752594
0.2009628266096115,2.0115411281585693,-0.19822320342063904
0.20952044427394867,1.959903359413147,-0.19270728528499603
0.21777255833148956,1.9121156930923462,-0.18754519522190094
0.23497161269187927,1.9414728879928589,-0.1899534910917282
0.2484750896692276,1.9398510456085205,-0.18933828175067902
0.26769623160362244,1.9805197715759277,-0.19285018742084503
0.2797372043132782,1.9671465158462524,-0.1909755915403366
0.28528621792793274,1.9114009141921997,-0.18497762084007263
0.3035537898540497,1.9401541948318481,-0.18716177344322205
0.3195626139640808,1.953420877456665,-0.18785415589809418
0.3357706367969513,1.966558814048767,-0.18853411078453064
0.3479742407798767,1.9566266536712646,-0.18685875833034515
0.3777461349964142,2.042229652404785,-0.19426968693733215
0.388954758644104,2.0243797302246094,-0.19181875884532928
0.41623327136039734,2.0865139961242676,-0.19692012667655945
0.4244566261768341,2.0531885623931885,-0.193007692694664
0.44348058104515076,2.0731472969055176,-0.193975567817688
0.45775991678237915,2.0701515674591064,-0.19279488921165466
0.49031350016593933,2.146681547164917,-0.19898861646652222
0.5037397742271423,2.135693311691284,-0.197028249502182
0.5277348756790161,2.170072317123413,-0.19921617209911346
0.5464120507240295,2.18162202835083,-0.19918957352638245
0.5652724504470825,2.1930179595947266,-0.19914332032203674
0.5875054001808167,2.2154910564422607,-0.20007769763469696
0.6032015681266785,2.2114033699035645,-0.19858935475349426
0.6268592476844788,2.237304449081421,-0.1997142881155014
0.6443321704864502,2.2405807971954346,-0.19875375926494598
0.6663569808006287,2.258634567260742,-0.1990908831357956
0.6820787787437439,2.2540833950042725,-0.19741778075695038
0.710732102394104,2.2902376651763916,-0.19927406311035156
0.7381638288497925,2.322587490081787,-0.20063647627830505
0.7564303874969482,2.3250539302825928,-0.19939719140529633
0.7762150168418884,2.3310015201568604,-0.19843417406082153
0.8050379753112793,2.362543821334839,-0.1996173858642578
0.823910117149353,2.3644473552703857,-0.19822382926940918
0.8533785343170166,2.395531177520752,-0.19914989173412323
0.8817608952522278,2.422741174697876,-0.19973720610141754
0.8932287096977234,2.4021029472351074,-0.1963447481393814
0.921046257019043,2.425114870071411,-0.19651959836483002
0.9586514234542847,2.4734561443328857,-0.19857902824878693
0.9843326210975647,2.488694667816162,-0.19789844751358032
1.0190728902816772,2.525351047515869,-0.19887438416481018
1.058913230895996,2.572418212890625,-0.20059411227703094
1.0855522155761719,2.5868656635284424,-0.19964636862277985
1.1091580390930176,2.5939981937408447,-0.1980724185705185
1.1381676197052002,2.6113967895507812,-0.19718776643276215
1.1500340700149536,2.5893547534942627,-0.19332996010780334
1.1710268259048462,2.5886952877044678,-0.1910451501607895
1.1803115606307983,2.5632457733154297,-0.18688569962978363
1.209336757659912,2.5800561904907227,-0.1857856810092926
1.241073727607727,2.5997588634490967,-0.1847553700208664
1.3731350898742676,2.8262829780578613,-0.19820044934749603
1.442186951637268,2.918588399887085,-0.201860710978508
1.4917516708374023,2.968186616897583,-0.202389195561409
1.5195292234420776,2.9718408584594727,-0.19964411854743958
1.4193944931030273,2.7297656536102295,-0.18059390783309937
1.4342797994613647,2.713386058807373,-0.17662763595581055
1.426872968673706,2.6556901931762695,-0.17003600299358368
1.445345401763916,2.645906686782837,-0.1665038764476776
1.4500069618225098,2.612391710281372,-0.16148065030574799
1.4270983934402466,2.5315608978271484,-0.15361961722373962
1.4253911972045898,2.4878785610198975,-0.1479864865541458
1.4545173645019531,2.4982974529266357,-0.14560042321681976
1.459140419960022,2.468653440475464,-0.14084887504577637
1.437424659729004,2.39550518989563,-0.13369618356227875
1.3911468982696533,2.282332420349121,-0.12439161539077759
1.363706111907959,2.203209161758423,-0.11710775643587112
1.3698153495788574,2.181183338165283,-0.11301596462726593
1.3848326206207275,2.1718626022338867,-0.10945061594247818
1.4039101600646973,2.1690633296966553,-0.10617140680551529
1.4094091653823853,2.1470165252685547,-0.10194487124681473
1.4134595394134521,2.121116876602173,-0.09736849367618561
1.4301636219024658,2.114777088165283,-0.09369157999753952
1.4327211380004883,2.089586019515991,-0.08920331299304962
1.4425468444824219,2.0734784603118896,-0.08492816984653473
1.4474443197250366,2.051140546798706,-0.08036457747220993
1.4517112970352173,2.0291078090667725,-0.0757635310292244
1.4658478498458862,2.0190789699554443,-0.07137292623519897
1.457878828048706,1.9815237522125244,-0.06607813388109207
2.079167127609253,2.932072401046753,0.15213817358016968
2.0570943355560303,2.9472861289978027,0.15811198949813843
2.052353858947754,2.988222599029541,0.1653224527835846
3.1787357330322266,4.699256896972656,0.2673424780368805
3.1426889896392822,4.722956657409668,0.2757547199726105
3.1204326152801514,4.765219688415527,0.2849807143211365
3.0997540950775146,4.806112766265869,0.29380789399147034
1.6279162168502808,2.5659103393554688,0.1601598560810089
1.620773196220398,2.5978004932403564,0.16544950008392334
1.5984551906585693,2.6022024154663086,0.16875925660133362
2.995439291000366,4.956755638122559,0.32707634568214417
2.965832233428955,4.992217540740967,0.33493801951408386
2.955777645111084,5.056539058685303,0.34449389576911926
2.8672308921813965,4.985729217529297,0.3448072373867035
2.783936023712158,4.925066947937012,0.34538137912750244
2.720588445663452,4.897562503814697,0.3481493890285492
2.6619668006896973,4.871588706970215,0.35066330432891846
2.5981955528259277,4.83479642868042,0.35231345891952515
2.530569076538086,4.79533052444458,0.3535064458847046
2.480541944503784,4.785910129547119,0.356781542301178
2.4134716987609863,4.736745834350586,0.35679858922958374
2.3576793670654297,4.707796573638916,0.35826945304870605
2.3161873817443848,4.710625171661377,0.3619022071361542
1.2309688329696655,2.5515222549438477,0.1978961080312729
1.2128547430038452,2.5599935054779053,0.20032353699207306
1.1833994388580322,2.543504238128662,0.2007691115140915
1.173174262046814,2.569483518600464,0.20449158549308777
1.1574326753616333,2.5849709510803223,0.20733574032783508
1.151160478591919,2.62166166305542,0.211893692612648
2.0724120140075684,4.811975955963135,0.39182594418525696
2.053895950317383,4.861893177032471,0.3987770080566406
2.025926351547241,4.894383907318115,0.4040866196155548
2.004786729812622,4.944816589355469,0.41090527176856995
1.9608383178710938,4.9369611740112305,0.41284963488578796
2.4029459953308105,6.177165508270264,0.5198027491569519
2.362372398376465,6.200747966766357,0.5249670743942261
2.2983007431030273,6.166275978088379,0.5248651504516602
2.2614660263061523,6.2043914794921875,0.5309597253799438
2.2644896507263184,6.3519415855407715,0.5464490652084351
2.12842059135437,6.10645055770874,0.5280941724777222
2.061889886856079,6.050797939300537,0.52597576379776
1.987471342086792,5.972854137420654,0.5214980244636536
1.9359288215637207,5.960806369781494,0.5227553248405457
1.9040902853012085,6.007509708404541,0.5291617512702942
1.8878370523452759,6.1060991287231445,0.5402080416679382
1.8733351230621338,6.2119598388671875,0.5519494414329529
1.82892644405365,6.224891185760498,0.5551863312721252
1.7884432077407837,6.252554416656494,0.5596886277198792
1.7634892463684082,6.336142063140869,0.5692457556724548
1.7355469465255737,6.408102512359619,0.577776312828064
1.6990056037902832,6.453822135925293,0.5840340852737427
0.8359555006027222,3.268481731414795,0.29676491022109985
1.5895284414291382,6.404987335205078,0.5832334160804749
0.7982822060585022,3.3176679611206055,0.30298912525177
1.4765410423278809,6.331644535064697,0.5799294710159302
1.4171209335327148,6.277177810668945,0.5766472816467285
1.3750571012496948,6.294254302978516,0.5799216628074646
1.3192020654678345,6.250336647033691,0.577228307723999
1.2569546699523926,6.17166805267334,0.5712465643882751
1.2115646600723267,6.172615051269531,0.572644829750061
1.1540096998214722,6.108236789703369,0.5679923892021179
1.1087125539779663,6.100617408752441,0.568600594997406
1.066095232963562,6.1080241203308105,0.5705789923667908
1.0170369148254395,6.080740928649902,0.5689789652824402
0.9727200865745544,6.079957485198975,0.5698804259300232
0.9208024144172668,6.032804012298584,0.5664685964584351
0.8703964948654175,5.981184482574463,0.5626152157783508
0.8228264451026917,5.944579124450684,0.5601861476898193
0.7781650424003601,5.92692232131958,0.5594115853309631
0.7392034530639648,5.955316066741943,0.5627279877662659
0.5869230628013611,5.017756462097168,0.4746953248977661
0.5650926828384399,5.149299621582031,0.48774370551109314
0.5344482660293579,5.203303813934326,0.4934767782688141
0.3944936990737915,4.122861385345459,0.39151695370674133
0.3615494966506958,4.078973770141602,0.38773271441459656
0.3427492082118988,4.201517581939697,0.3996306359767914
0.3104117512702942,4.172788143157959,0.39717015624046326
0.2799772322177887,4.155407428741455,0.39579981565475464
0.25368112325668335,4.199904918670654,0.4003429412841797
0.41592445969581604,7.7856316566467285,0.7427424788475037
0.3602558970451355,7.757205486297607,0.7403861284255981
0.30391278862953186,7.728450298309326,0.737772524356842
0.24959152936935425,7.718690395355225,0.7370054125785828
0.19500906765460968,7.68911075592041,0.734380304813385
0.1408681422472,7.651368141174316,0.7310085296630859
0.08748392015695572,7.632688522338867,0.7294913530349731
0.0333755724132061,7.609780311584473,0.7273138165473938
-0.019426746293902397,7.570962905883789,0.7233954668045044
-0.07179877907037735,7.543445110321045,0.7205934524536133
-0.12385320663452148,7.519455432891846,0.718164324760437
-0.1750311702489853,7.471781253814697,0.7135089635848999
-0.2269694209098816,7.47040319442749,0.713309645652771
-0.278720498085022,7.441458702087402,0.7102267146110535
-0.33095699548721313,7.454957962036133,0.7109808921813965
-0.2781250774860382,5.417569160461426,0.5163111090660095
-0.3152551054954529,5.407795429229736,0.5150406360626221
-0.3528258204460144,5.405524730682373,0.5145096778869629
-0.3893722891807556,5.379673004150391,0.5117552876472473
-0.42475879192352295,5.353658199310303,0.5088119506835938
-0.4606856405735016,5.339062213897705,0.5068042278289795
-0.4289166033267975,4.600131034851074,0.4361475706100464
-0.46268242597579956,4.616474628448486,0.43719956278800964
-0.4932152032852173,4.5938310623168945,0.4345705211162567
-0.5233247876167297,4.574915409088135,0.4323272705078125
-0.5539348125457764,4.563564300537109,0.43064451217651367
-0.5843088030815125,4.552035331726074,0.4288310408592224
-0.6145038604736328,4.540309906005859,0.4270228445529938
-0.6453544497489929,4.528274059295654,0.42519089579582214
-0.6727718710899353,4.496856212615967,0.4215739965438843
-0.7046478986740112,4.496011257171631,0.4208461046218872
-0.7324662208557129,4.471975803375244,0.4177730083465576
-0.759126603603363,4.4439802169799805,0.4142548143863678
-0.7909327745437622,4.446459770202637,0.4135987460613251
-0.8179959654808044,4.417956829071045,0.41005921363830566
-0.8391103148460388,4.362634181976318,0.40407735109329224
-0.7362042665481567,3.6891801357269287,0.3409977853298187
-0.752782940864563,3.6422693729400635,0.3357789218425751
-0.7833088040351868,3.6638081073760986,0.3368448317050934
-0.9624049067497253,4.3536248207092285,0.39916959404945374
-0.9822099208831787,4.301476001739502,0.39332115650177
-1.0138745307922363,4.302270889282227,0.3923407793045044
-1.0474175214767456,4.310401439666748,0.39201605319976807
-1.072890043258667,4.288266658782959,0.38869327306747437
-1.1025288105010986,4.280921459197998,0.3867098391056061
-1.1297111511230469,4.265954971313477,0.3840767443180084
-1.1531857252120972,4.235652446746826,0.38006672263145447
-1.178390622138977,4.212723731994629,0.37674808502197266
-1.2115509510040283,4.219693183898926,0.3759937584400177
-1.23505437374115,4.192791938781738,0.372069388628006
-1.2588598728179932,4.169641971588135,0.3685343861579895
-1.287557601928711,4.161068439483643,0.3662814497947693
-1.3211764097213745,4.167054653167725,0.3653080463409424
-1.345321774482727,4.143153190612793,0.3617321848869324
-1.3687925338745117,4.1192731857299805,0.35791486501693726
-1.3990607261657715,4.117531776428223,0.3560671806335449
-1.4218897819519043,4.093437671661377,0.3522944152355194
-1.445123553276062,4.068989276885986,0.34847936034202576
-1.473436951637268,4.0590410232543945,0.345926970243454
-1.5009500980377197,4.0491766929626465,0.3432367146015167
-1.531296730041504,4.046363830566406,0.34104856848716736
-1.5528665781021118,4.021673679351807,0.33706316351890564
-1.580869436264038,4.010988712310791,0.3342045247554779
-1.6087979078292847,4.000105857849121,0.3313457667827606
-1.627148985862732,3.9676742553710938,0.3265992999076843
-1.6631312370300293,3.9783236980438232,0.32527339458465576
-1.6866838932037354,3.9601783752441406,0.32163533568382263
-1.7111642360687256,3.941426992416382,0.31788158416748047
-1.7322790622711182,3.9154133796691895,0.31357237696647644
-1.7507624626159668,3.8860878944396973,0.3089023232460022
-1.7737858295440674,3.867327928543091,0.30498796701431274
-1.7997446060180664,3.855577230453491,0.30166202783584595
-1.8165476322174072,3.8220877647399902,0.2965738773345947
-1.8499422073364258,3.8236258029937744,0.29422274231910706
-1.868394374847412,3.797551393508911,0.28958651423454285
-1.89739990234375,3.7921369075775146,0.2864793837070465
-1.900333046913147,3.7341809272766113,0.2793979346752167
-1.9389063119888306,3.745328903198242,0.27746087312698364
-1.953471064567566,3.7116236686706543,0.27213895320892334
-1.988909125328064,3.719581365585327,0.26979097723960876
-2.0062460899353027,3.6928043365478516,0.2648916244506836
-1.7081321477890015,3.0918002128601074,0.21913835406303406
-1.7255719900131226,3.0734031200408936,0.21521860361099243
-0.8419181108474731,1.47694993019104,0.10211409628391266
-0.8516355752944946,1.4714852571487427,0.10041402280330658
-0.8658642768859863,1.472335934638977,0.09906168282032013
-0.872162938117981,1.4596583843231201,0.09676720201969147
-0.8735515475273132,1.4407345056533813,0.09406422823667526
-0.8953595161437988,1.454956293106079,0.09349284321069717
-0.897244930267334,1.4355534315109253,0.0906778946518898
-0.8901700377464294,1.4032533168792725,0.08707058429718018
-0.8993537425994873,1.3975069522857666,0.08509402722120285
-0.8960767388343811,1.3718581199645996,0.0818658396601677
-0.8991279602050781,1.3559606075286865,0.07921729981899261
-0.9730648398399353,1.4474632740020752,0.08269285410642624
-2.4048891067504883,3.5270485877990723,0.19673973321914673
-1.246059775352478,1.800010323524475,0.09777314215898514
-1.2126717567443848,1.7283064126968384,0.09133494645357132
-1.279124140739441,1.830741286277771,-0.06825833767652512
-1.3039209842681885,1.8941811323165894,-0.07390551269054413
-1.486162781715393,2.195049524307251,-0.0894700363278389
-1.214861512184143,1.822200894355774,-0.07717733085155487
-1.1975206136703491,1.824175477027893,-0.08006232231855392
-1.2769430875778198,1.9772684574127197,-0.08977270871400833
-1.1854485273361206,1.8642266988754272,-0.0872688889503479
-1.1055241823196411,1.766831398010254,-0.08519629389047623
-1.1822596788406372,1.9211726188659668,-0.09526188671588898
-2.127246856689453,3.628958225250244,-0.19359511137008667
-0.8720765709877014,1.537332534790039,-0.08562656491994858
-1.7253742218017578,3.0939462184906006,-0.17579294741153717
-1.7815062999725342,3.249901533126831,-0.1882370561361313
-1.7235578298568726,3.1968002319335938,-0.18852180242538452
-1.6400697231292725,3.095221996307373,-0.18579672276973724
-1.6623488664627075,3.1934309005737305,-0.19493445754051208
-1.628864049911499,3.1841392517089844,-0.19749917089939117
-1.5873425006866455,3.1568610668182373,-0.19883088767528534
-1.528417706489563,3.0944929122924805,-0.19778326153755188
-1.4885001182556152,3.070380449295044,-0.199101060628891
-1.4383018016815186,3.0207338333129883,-0.1985592097043991
-1.4105560779571533,3.0163626670837402,-0.20091168582439423
-1.3677093982696533,2.9801368713378906,-0.20101583003997803
-1.3140573501586914,2.9186606407165527,-0.19930808246135712
-1.2730144262313843,2.8812692165374756,-0.19908589124679565
-1.2401704788208008,2.861395835876465,-0.2000400722026825
-1.1968681812286377,2.8161563873291016,-0.19903630018234253
-1.1735960245132446,2.817298173904419,-0.20124323666095734
-1.1389373540878296,2.789241313934326,-0.20130519568920135
-1.1063662767410278,2.764385938644409,-0.2015381157398224
-1.063589334487915,2.7140753269195557,-0.1998162716627121
-1.042640209197998,2.717841386795044,-0.20194581151008606
-1.0150915384292603,2.7031140327453613,-0.20267073810100555
-0.9747297167778015,2.651430368423462,-0.2005462795495987
-0.952149510383606,2.647035837173462,-0.2019304633140564
-0.9251229166984558,2.63167142868042,-0.20239192247390747
-0.8911237120628357,2.5938334465026855,-0.20106492936611176
-0.8618930578231812,2.5665783882141113,-0.2004815638065338
-0.8391369581222534,2.55755877494812,-0.20130543410778046
-0.8138489723205566,2.541041135787964,-0.20140832662582397
-0.7907665967941284,2.531853675842285,-0.20208105444908142
-0.7581902742385864,2.4887731075286865,-0.19998273253440857
-0.7386151552200317,2.4863879680633545,-0.20112201571464539
-0.7211827039718628,2.491363048553467,-0.202815443277359
-0.6929255127906799,2.458805799484253,-0.2013312578201294
-0.6662163734436035,2.4297282695770264,-0.2001069337129593
-0.6449304223060608,2.419222116470337,-0.20040155947208405
-0.6280483603477478,2.423534631729126,-0.20190513134002686
-0.6014498472213745,2.390026807785034,-0.2001451998949051
-0.5817298889160156,2.382770299911499,-0.20052117109298706
-0.5577578544616699,2.3563907146453857,-0.19927489757537842
-0.5445478558540344,2.3753461837768555,-0.2018708884716034
-0.5212729573249817,2.348562479019165,-0.2005658894777298
-0.5014712810516357,2.3368520736694336,-0.20037712156772614
-0.4818330407142639,2.3249869346618652,-0.20016959309577942
-0.46172094345092773,2.30912709236145,-0.19961120188236237
-0.44532322883605957,2.3122503757476807,-0.20070777833461761
-0.42490699887275696,2.292252540588379,-0.1997523009777069
-0.4073833227157593,2.287447452545166,-0.19998286664485931
-0.38994842767715454,2.2825095653533936,-0.20020738244056702
-0.3689863383769989,2.2543728351593018,-0.19838947057724
-0.34999459981918335,2.2376294136047363,-0.1975797414779663
-0.3263213634490967,2.186065196990967,-0.19361098110675812
-0.318629652261734,2.242177724838257,-0.19907733798027039
-0.29975754022598267,2.221160888671875,-0.19771204888820648
-0.28628289699554443,2.2385690212249756,-0.19977013766765594
-0.2707327604293823,2.2404415607452393,-0.20045432448387146
-0.25133568048477173,2.2113208770751953,-0.19829720258712769
-0.2366945743560791,2.2207159996032715,-0.19950009882450104
-0.21885189414024353,2.1990413665771484,-0.19791893661022186
-0.20354919135570526,2.200465679168701,-0.19842064380645752
-0.18624882400035858,2.1785247325897217,-0.19682106375694275
-0.172002375125885,2.1952686309814453,-0.19863460958003998
-0.15526920557022095,2.176985025405884,-0.1972006857395172
-0.1400482952594757,2.177988290786743,-0.19752147793769836
-0.12510018050670624,2.182765483856201,-0.1981937140226364
-0.10989675670862198,2.1835548877716064,-0.19851388037204742
-0.09324342012405396,2.157052755355835,-0.19625863432884216
-0.07790014892816544,2.1498630046844482,-0.1956922709941864
-0.06336299329996109,2.1658952236175537,-0.19724948704242706
-0.04775821045041084,2.1429359912872314,-0.19526472687721252
-0.03309094160795212,2.158762216567993,-0.1968230903148651
-0.01772317662835121,2.1511597633361816,-0.19614514708518982
-0.002759743481874466,2.1590144634246826,-0.1968173086643219
0.012312174774706364,2.166764974594116,-0.1974892020225525
0.02698148787021637,2.135511875152588,-0.19461596012115479
0.04241705313324928,2.166391611099243,-0.19741463661193848
0.05622792989015579,2.1193926334381104,-0.1930154263973236
0.07196707278490067,2.1422905921936035,-0.194924458861351
0.08747262507677078,2.157306671142578,-0.19612549245357513
0.10173198580741882,2.1411221027374268,-0.19449923932552338
0.11831027269363403,2.1714587211608887,-0.19710734486579895
0.13383501768112183,2.178382635116577,-0.1974814236164093
0.1481335163116455,2.161895275115967,-0.19567587971687317
0.1631363034248352,2.1608502864837646,-0.19528475403785706
0.17974956333637238,2.179086923599243,-0.19664260745048523
0.19560271501541138,2.1855688095092773,-0.19694533944129944
0.21075595915317535,2.184206008911133,-0.196433424949646
0.22692199051380157,2.190460681915283,-0.19655320048332214
0.24039292335510254,2.1734163761138916,-0.19459983706474304
0.25733137130737305,2.1871986389160156,-0.19541442394256592
0.2735101878643036,2.1931283473968506,-0.1955324411392212
0.28970327973365784,2.1989595890045166,-0.19552278518676758
0.3083665072917938,2.2200615406036377,-0.19681736826896667
0.3282153606414795,2.248745918273926,-0.19878901541233063
0.3438625633716583,2.246474266052246,-0.19802236557006836
0.35826292634010315,2.2364084720611572,-0.19658014178276062
0.37499159574508667,2.2416346073150635,-0.19635973870754242
0.39044636487960815,2.239075183868408,-0.1954353004693985
0.4082925319671631,2.247840404510498,-0.19549062848091125
0.4325897991657257,2.290921211242676,-0.1985306292772293
0.44103267788887024,2.2497427463531494,-0.19427579641342163
0.4673596918582916,2.3001503944396973,-0.19777652621269226
0.4751598536968231,2.258885145187378,-0.19338911771774292
0.49934834241867065,2.293614149093628,-0.19549660384655
0.5101812481880188,2.267390251159668,-0.19242267310619354
0.5347424745559692,2.301806688308716,-0.19448041915893555
0.5532570481300354,2.3095481395721436,-0.19413837790489197
0.5747210383415222,2.328479051589966,-0.1947302669286728
0.5949784517288208,2.339571714401245,-0.1946333795785904
0.6171984076499939,2.3580780029296875,-0.19515842199325562
0.6385754942893982,2.372663974761963,-0.19529815018177032
0.6568953990936279,2.3758630752563477,-0.19440196454524994
0.6816890835762024,2.4013943672180176,-0.19532260298728943
0.6986762285232544,2.3966357707977295,-0.19373713433742523
0.7265175580978394,2.429149866104126,-0.1951751559972763
0.7511990070343018,2.450296401977539,-0.19558432698249817
0.7772631645202637,2.474973201751709,-0.19620844721794128
0.7895069718360901,2.454871892929077,-0.19327446818351746
0.8325076103210449,2.5270471572875977,-0.19753751158714294
0.8500945568084717,2.521329164505005,-0.19569236040115356
0.8748731017112732,2.537729024887085,-0.19543541967868805
0.8999338746070862,2.5539019107818604,-0.19514164328575134
0.9347979426383972,2.5954062938690186,-0.1967238485813141
0.9582699537277222,2.6036040782928467,-0.1957438439130783
0.9929152131080627,2.6407716274261475,-0.19681641459465027
1.0108495950698853,2.634125232696533,-0.19457577168941498
1.041648030281067,2.6599693298339844,-0.19471068680286407
1.0804252624511719,2.7034764289855957,-0.19605807960033417
1.1035691499710083,2.7069156169891357,-0.19445264339447021
1.143139362335205,2.7498183250427246,-0.1955140233039856
1.1753981113433838,2.774505376815796,-0.1952657252550125
1.1328879594802856,2.6232757568359375,-0.18266794085502625
1.1480252742767334,2.6083431243896484,-0.17968007922172546
1.1624865531921387,2.5935635566711426,-0.17663441598415375
1.1721590757369995,2.5679688453674316,-0.17283260822296143
1.1898971796035767,2.5599727630615234,-0.17022058367729187
1.222738265991211,2.583505868911743,-0.16967013478279114
1.296056866645813,2.6912784576416016,-0.1744813323020935
1.50108802318573,3.0644426345825195,-0.19605758786201477
1.543408751487732,3.095947027206421,-0.19530460238456726
1.6020140647888184,3.1583685874938965,-0.1964222937822342
1.6233339309692383,3.1476831436157227,-0.19287019968032837
1.4324538707733154,2.73276686668396,-0.16490861773490906
1.4292415380477905,2.6817097663879395,-0.15924805402755737
1.4516218900680542,2.678727865219116,-0.15645354986190796
1.4698069095611572,2.6689836978912354,-0.15316782891750336
1.4760684967041016,2.6389193534851074,-0.14878442883491516
1.453967571258545,2.557504415512085,-0.1414710134267807
1.463802456855774,2.534059524536133,-0.1374501883983612
1.443030834197998,2.460541009902954,-0.13077044486999512
1.3540695905685425,2.2730472087860107,-0.1182061955332756
1.3456122875213623,2.2236626148223877,-0.1130489632487297
1.3603932857513428,2.2148051261901855,-0.1099797859787941
1.3666225671768188,2.1927433013916016,-0.10626526921987534
1.381864070892334,2.18332576751709,-0.10301895439624786
1.3884227275848389,2.160778760910034,-0.09911268204450607
1.3939193487167358,2.1387691497802734,-0.09530559927225113
1.4064842462539673,2.12599778175354,-0.09176564961671829
1.4078296422958374,2.0970983505249023,-0.08752736449241638
1.43009352684021,2.101036310195923,-0.08467039465904236
1.4270826578140259,2.0653746128082275,-0.07996327430009842
1.4498023986816406,2.0687289237976074,-0.07681188732385635
1.4585905075073242,2.0531039237976074,-0.072911836206913
1.4591439962387085,2.0240347385406494,-0.06831645965576172
1.4719815254211426,2.014845848083496,-0.06442567706108093
1.4761370420455933,1.992525339126587,-0.05989936366677284
2.0903825759887695,2.925004005432129,0.133347287774086
2.0684196949005127,2.9403176307678223,0.1389366239309311
2.055026054382324,2.9684436321258545,0.14495642483234406
2.5906238555908203,3.7982325553894043,0.19098049402236938
3.1420371532440186,4.682919979095459,0.24206237494945526
3.111807107925415,4.712029457092285,0.2498438060283661
3.1015145778656006,4.7697062492370605,0.2590184807777405
3.100724458694458,4.848755359649658,0.26922035217285156
1.6353130340576172,2.5990121364593506,0.14733682572841644
1.596529245376587,2.577030658721924,0.14892756938934326
3.0268032550811768,4.967345237731934,0.29235127568244934
2.9806082248687744,4.976627349853516,0.2981782853603363
2.9755048751831055,5.047359943389893,0.3072662949562073
2.9395952224731445,5.067987442016602,0.31332018971443176
2.8204355239868164,4.947166442871094,0.3103601932525635
2.7671120166778564,4.936631202697754,0.3140639662742615
2.6979920864105225,4.894384860992432,0.3155842125415802
2.6274051666259766,4.8481831550598145,0.3165869414806366
2.571053981781006,4.829422950744629,0.31920358538627625
2.521606683731079,4.819919109344482,0.32228484749794006
2.436173915863037,4.736533164978027,0.32021912932395935
2.378824234008789,4.708559036254883,0.3217821419239044
2.3266777992248535,4.690758228302002,0.3238104581832886
1.2444218397140503,2.5551581382751465,0.17812328040599823
1.2265589237213135,2.5636227130889893,0.18038462102413177
1.201918601989746,2.557889938354492,0.18163393437862396
1.1863750219345093,2.573570489883423,0.1842859536409378
1.1639063358306885,2.5750999450683594,0.1859619915485382
1.158458948135376,2.6115550994873047,0.19008634984493256
1.1231293678283691,2.580101490020752,0.18926070630550385
2.0608885288238525,4.828161716461182,0.35675951838493347
2.0377001762390137,4.871541500091553,0.36246538162231445
2.0122175216674805,4.911344051361084,0.3679727613925934
1.9894797801971436,4.953948497772217,0.37361225485801697
2.419992446899414,6.14949893951416,0.4668211340904236
2.3699750900268555,6.151938438415527,0.46979230642318726
1.9912694692611694,5.282761573791504,0.4057634770870209
2.2235593795776367,6.031641483306885,0.4659823179244995
1.9434645175933838,5.387070178985596,0.4184983968734741
2.0744450092315674,5.877785682678223,0.4591505527496338
2.068999767303467,5.999068260192871,0.47092321515083313
2.008221387863159,5.961901664733887,0.4702509343624115
1.9587656259536743,5.957565784454346,0.4721807539463043
1.9076515436172485,5.941152095794678,0.4730673134326935
1.8813248872756958,6.0023674964904785,0.4801650941371918
1.8567895889282227,6.074952602386475,0.48797422647476196
1.8319731950759888,6.1513590812683105,0.49604713916778564
1.7921087741851807,6.17907190322876,0.5002410411834717
1.7599347829818726,6.232597827911377,0.5065420866012573
1.7309002876281738,6.29704475402832,0.5137534737586975
1.7036288976669312,6.372797012329102,0.5218003392219543
1.6717720031738281,6.437353610992432,0.5287436246871948
0.82045978307724,3.2546701431274414,0.26817792654037476
1.5507993698120117,6.3429365158081055,0.5243236422538757
0.7995505332946777,3.3717989921569824,0.27960091829299927
1.4569745063781738,6.340757846832275,0.5274727940559387
1.402526617050171,6.308976650238037,0.5261679887771606
1.3444887399673462,6.257721900939941,0.5232065320014954
1.2976402044296265,6.2594733238220215,0.5247097015380859
1.2349445819854736,6.172746181488037,0.5187499523162842
1.1808912754058838,6.123684406280518,0.5159480571746826
1.14724862575531,6.181395053863525,0.5220462083816528
1.085674524307251,6.089585781097412,0.5152577757835388
1.0476810932159424,6.131642818450928,0.5198290944099426
0.9963652491569519,6.08878231048584,0.5172006487846375
0.9491400122642517,6.064670562744141,0.5161665678024292
0.8994235992431641,6.0209503173828125,0.5134748816490173
0.8473498225212097,5.957625865936279,0.5088922381401062
0.8029927015304565,5.9518818855285645,0.5090936422348022
0.7634357213973999,5.976604461669922,0.5119157433509827
0.6200376152992249,5.139309406280518,0.4408212900161743
0.569783091545105,5.015793323516846,0.43085166811943054
0.5493205785751343,5.155006408691406,0.4434725046157837
0.40801239013671875,4.101370811462402,0.3531689941883087
0.37619510293006897,4.077006816864014,0.3513661026954651
0.3518984615802765,4.129910945892334,0.35623612999916077
0.3282643258571625,4.198178291320801,0.362455815076828
0.29844507575035095,4.192553997039795,0.3623181879520416
0.2670181095600128,4.159529209136963,0.35982590913772583
0.24072881042957306,4.219580173492432,0.36516454815864563
0.3883545994758606,7.762076377868652,0.6719678640365601
0.33369016647338867,7.756785869598389,0.6717764139175415
0.27873918414115906,7.731654167175293,0.6698963046073914
0.22412073612213135,7.702242374420166,0.6676748991012573
0.16879849135875702,7.664685249328613,0.664783239364624
0.11504027992486954,7.6384382247924805,0.6623996496200562
0.0617307610809803,7.631274223327637,0.6616881489753723
0.00856197439134121,7.584822654724121,0.657602846622467
-0.0440601147711277,7.569135665893555,0.6562169790267944
-0.09725477546453476,7.541398525238037,0.653818666934967
-0.14927473664283752,7.524982452392578,0.6524268388748169
-0.20021629333496094,7.477126121520996,0.6478725075721741
-0.2516815662384033,7.463932991027832,0.646355926990509
-0.3034478724002838,7.462051868438721,0.6458505392074585
-0.35591039061546326,7.471465587615967,0.6463525295257568
-0.2970868945121765,5.428679943084717,0.46942436695098877
-0.3343556523323059,5.418747425079346,0.46836331486701965
-0.3702283799648285,5.393070697784424,0.4656396806240082
-0.40634870529174805,5.3749189376831055,0.463591605424881
-0.4428761899471283,5.364283561706543,0.46221596002578735
-0.4762795865535736,5.3106865882873535,0.45715606212615967
-0.22736647725105286,2.3514866828918457,0.20223885774612427
-0.478572279214859,4.614587783813477,0.3964961767196655
-0.5068840384483337,4.580316543579102,0.392928808927536
-0.5374753475189209,4.569067478179932,0.39136022329330444
-0.5695042610168457,4.56526517868042,0.39043793082237244
-0.5991923213005066,4.545838356018066,0.3882054388523102
-0.6264499425888062,4.51080322265625,0.38466542959213257
-0.6588151454925537,4.514140605926514,0.38434934616088867
-0.6885802745819092,4.5019211769104,0.38251227140426636
-0.7168601155281067,4.4778971672058105,0.37968239188194275
-0.7476438283920288,4.472960472106934,0.3785026967525482
-0.7746978402137756,4.4447479248046875,0.375367671251297
-0.8055216670036316,4.439364910125732,0.374183714389801
-0.8267493844032288,4.384079456329346,0.36870595812797546
-0.8566249012947083,4.378459930419922,0.36727795004844666
-0.7437950968742371,3.666670560836792,0.3067695200443268
-0.7674348950386047,3.6539406776428223,0.3049239218235016
-0.9358658790588379,4.30681037902832,0.3584917485713959
-0.9742996692657471,4.338312149047852,0.3602086305618286
-1.0039812326431274,4.331673622131348,0.3585917353630066
-1.032110571861267,4.317193508148193,0.35624516010284424
-1.057725191116333,4.295089244842529,0.3533113896846771
-1.083666443824768,4.27269172668457,0.35035598278045654
-1.1152899265289307,4.2727370262146,0.349258154630661
-1.1348388195037842,4.227419376373291,0.34445786476135254
-1.1660188436508179,4.227166652679443,0.34309685230255127
-1.1914653778076172,4.208080768585205,0.3402463495731354
-1.2158178091049194,4.185047149658203,0.33709144592285156
-1.2449113130569458,4.176644325256348,0.33511075377464294
-1.2693928480148315,4.153139591217041,0.3319392204284668
-1.293602466583252,4.129508972167969,0.3286190629005432
-1.3214643001556396,4.120850563049316,0.3264402747154236
-1.356554627418518,4.134210586547852,0.32601267099380493
-1.38020658493042,4.1101179122924805,0.32260608673095703
-1.4036643505096436,4.085868835449219,0.31920960545539856
-1.4343581199645996,4.083632946014404,0.3174959421157837
-1.4569804668426514,4.059255123138428,0.31388425827026367
-1.4868801832199097,4.056885719299316,0.3120230436325073
