X,Y,Z
0.5692978501319885,5.139953136444092,1.181731939315796
0.5338050723075867,5.151040077209473,1.1851118803024292
0.39362043142318726,4.0779571533203125,0.9389276504516602
0.36673474311828613,4.103097915649414,0.9454740285873413
0.34316709637641907,4.165960788726807,0.9607610702514648
0.31364017724990845,4.16035270690918,0.9603124260902405
0.2824641466140747,4.131855010986328,0.9541953802108765
0.2579171061515808,4.2057647705078125,0.9715403318405151
0.4194210171699524,7.741954803466797,1.789014458656311
0.36478275060653687,7.733001232147217,1.7876276969909668
0.3097071051597595,7.704643249511719,1.7818355560302734
0.254881352186203,7.6682868003845215,1.7742713689804077
0.20078623294830322,7.6429595947265625,1.7693392038345337
0.14609761536121368,7.621330261230469,1.7641932964324951
0.09261121600866318,7.599318027496338,1.7589693069458008
0.039488762617111206,7.5693206787109375,1.7519835233688354
-0.013128932565450668,7.542758941650391,1.7458776235580444
-0.065342016518116,7.512026786804199,1.7388904094696045
-0.11786075681447983,7.47711706161499,1.731022834777832
-0.16959184408187866,7.468548774719238,1.7290905714035034
-0.22020629048347473,7.4293999671936035,1.7192267179489136
-0.27139922976493835,7.420333385467529,1.7164117097854614
-0.32512444257736206,7.471752166748047,1.7276662588119507
-0.27280521392822266,5.405453681945801,1.249480128288269
-0.30976784229278564,5.380767822265625,1.2434258460998535
-0.3476640582084656,5.386258602142334,1.244412899017334
-0.3833598494529724,5.361199855804443,1.23801851272583
-0.41792598366737366,5.328429222106934,1.2294507026672363
-0.45114871859550476,5.284049034118652,1.2182742357254028
-0.42626070976257324,4.610069751739502,1.0621025562286377
-0.4578739106655121,4.603522777557373,1.059875249862671
-0.48664796352386475,4.570248126983643,1.0515495538711548
-0.5192232131958008,4.574636936187744,1.051944613456726
-0.5488740801811218,4.556254863739014,1.0466222763061523
-0.5768450498580933,4.522556304931641,1.037625789642334
-0.607865035533905,4.5189528465271,1.0356148481369019
-0.6369352340698242,4.500021457672119,1.030136227607727
-0.668220043182373,4.495947360992432,1.0281046628952026
-0.6989443898200989,4.487882137298584,1.0252094268798828
-0.7269908785820007,4.460745334625244,1.0179312229156494
-0.7524287700653076,4.426208972930908,1.0084148645401
-0.7840217351913452,4.429067611694336,1.0074764490127563
-0.8115984201431274,4.409196376800537,1.0014151334762573
-0.8343244791030884,4.362868309020996,0.989391565322876
-0.7266523241996765,3.6618399620056152,0.8291886448860168
-0.7464636564254761,3.6272244453430176,0.8201510310173035
-0.9144883751869202,4.2940874099731445,0.9692192077636719
-0.9552395343780518,4.340641975402832,0.9777281880378723
-0.979808509349823,4.312427997589111,0.9694236516952515
-1.0111461877822876,4.313766002655029,0.9678055047988892
-1.0399656295776367,4.299819469451904,0.9627406597137451
-1.0662670135498047,4.278384208679199,0.9560897946357727
-1.0941660404205322,4.264212608337402,0.9510336518287659
-1.1172714233398438,4.235396385192871,0.9421908259391785
-1.1460298299789429,4.22857141494751,0.9382963180541992
-1.1752945184707642,4.22141170501709,0.9343265891075134
-1.1994900703430176,4.195618152618408,0.9262696504592896
-1.2267005443572998,4.180659770965576,0.9206572771072388
-1.2560077905654907,4.1728291511535645,0.9166601300239563
-1.2821649312973022,4.1578450202941895,0.9105926752090454
-1.3108327388763428,4.149906158447266,0.9059815406799316
-1.334266185760498,4.127343654632568,0.8982779383659363
-1.360545039176941,4.111703395843506,0.8920699954032898
-1.3942049741744995,4.117586135864258,0.8905530571937561
-1.4155285358428955,4.087018013000488,0.8811970353126526
-1.4381663799285889,4.063954830169678,0.8730411529541016
-1.466078281402588,4.0550947189331055,0.8677980899810791
-1.4960544109344482,4.053398609161377,0.8641862273216248
-1.5243120193481445,4.04399299621582,0.8588539958000183
-1.547247290611267,4.019994258880615,0.8504475951194763
-1.578328013420105,4.017265319824219,0.8465891480445862
-1.6016550064086914,3.996877670288086,0.8384348750114441
-1.6256906986236572,3.980098247528076,0.8311247229576111
-1.6496464014053345,3.963136672973633,0.8238171339035034
-1.6775903701782227,3.9526515007019043,0.8177403807640076
-1.6993684768676758,3.9278697967529297,0.8087607026100159
-1.7239948511123657,3.9100327491760254,0.8009988069534302
-1.740812063217163,3.878657341003418,0.7902271151542664
-1.7764341831207275,3.88914155960083,0.7880197763442993
-1.8001371622085571,3.871108055114746,0.779918372631073
-1.8275303840637207,3.8596255779266357,0.7730885744094849
-1.8686785697937012,3.8754444122314453,0.7716420292854309
-1.8912662267684937,3.8573551177978516,0.7629846930503845
-1.8999258279800415,3.8115909099578857,0.7489481568336487
-1.9399619102478027,3.827368974685669,0.7469301819801331
-1.9600335359573364,3.8013088703155518,0.736589789390564
-1.9762498140335083,3.768313407897949,0.7249900102615356
-2.001896619796753,3.756305456161499,0.7168977856636047
-2.0195796489715576,3.7308266162872314,0.7063659429550171
-1.6904231309890747,3.073317766189575,0.5770544409751892
-1.7254526615142822,3.086064100265503,0.5744307637214661
-0.8383093476295471,1.475546956062317,0.27221331000328064
-0.8328354954719543,1.4437706470489502,0.2637566030025482
-0.8619053363800049,1.4721425771713257,0.26633337140083313
-0.8604954481124878,1.446756362915039,0.25899505615234375
-0.8788249492645264,1.4544485807418823,0.25758036971092224
-0.8805437088012695,1.435991644859314,0.25140711665153503
-0.8942789435386658,1.4372752904891968,0.24862053990364075
-0.9083817005157471,1.4382600784301758,0.24566751718521118
-0.8936110138893127,1.3933638334274292,0.23486776649951935
-0.8987938165664673,1.3814997673034668,0.22963424026966095
-0.9035617113113403,1.3698095083236694,0.2244148701429367
-0.9520719051361084,1.4219791889190674,0.22924308478832245
-2.3818180561065674,3.5043540000915527,0.555620014667511
-1.3293139934539795,1.9034318923950195,0.29110264778137207
-1.3551595211029053,2.150362014770508,-0.2144089788198471
-1.3192888498306274,2.1260740756988525,-0.21912933886051178
-1.1912670135498047,1.98379647731781,-0.2177770584821701
-1.1612166166305542,1.9647042751312256,-0.22185377776622772
-0.8558748960494995,1.471608281135559,-0.17074652016162872
-0.8449000716209412,1.4773248434066772,-0.17596113681793213
-1.0055270195007324,1.7875078916549683,-0.21825897693634033
-0.9774773120880127,1.7668274641036987,-0.22098806500434875
-0.918071985244751,1.687977910041809,-0.21600641310214996
-0.9055708646774292,1.69399094581604,-0.22163207828998566
-0.8772422075271606,1.6687772274017334,-0.2229199856519699
-0.8331868052482605,1.6123080253601074,-0.2197803109884262
-0.812337338924408,1.60049569606781,-0.2225595861673355
-0.7834094762802124,1.5709714889526367,-0.22261913120746613
-0.7534288763999939,1.5375733375549316,-0.22188100218772888
-0.7389163970947266,1.5353357791900635,-0.22549544274806976
-0.7111276388168335,1.5050203800201416,-0.22485841810703278
-0.6937922239303589,1.4953827857971191,-0.22712762653827667
-0.668529212474823,1.4680067300796509,-0.2266290932893753
-0.6452846527099609,1.4439077377319336,-0.22637148201465607
-0.6254838705062866,1.4266669750213623,-0.2270595282316208
-0.5984878540039062,1.391419768333435,-0.22469943761825562
-0.5885880589485168,1.3950165510177612,-0.22851668298244476
-0.5724332332611084,1.3843986988067627,-0.22995586693286896
0.60129714012146,1.3821741342544556,-0.2211296409368515
0.6313863396644592,1.4244564771652222,-0.22458763420581818
0.6508508324623108,1.441790223121643,-0.22391875088214874
0.6771488189697266,1.472951054573059,-0.22524023056030273
0.6892579793930054,1.4722368717193604,-0.2215677946805954
0.7164368033409119,1.502862572669983,-0.22242371737957
0.7437616586685181,1.5333411693572998,-0.2231259047985077
0.7699723839759827,1.5599911212921143,-0.22306378185749054
0.7810410261154175,1.5551421642303467,-0.21839141845703125
0.8059817552566528,1.5779324769973755,-0.21749818325042725
0.8436766266822815,1.6246122121810913,-0.21967950463294983
0.8806989192962646,1.6672266721725464,-0.22088390588760376
0.916419267654419,1.7060531377792358,-0.2213871031999588
0.9560675024986267,1.7515010833740234,-0.22246351838111877
0.9794091582298279,1.765954852104187,-0.2194029539823532
1.018668293952942,1.807030200958252,-0.21929895877838135
1.0683088302612305,1.8644715547561646,-0.22076435387134552
1.1103745698928833,1.9082359075546265,-0.22035326063632965
1.1651997566223145,1.9714808464050293,-0.22173739969730377
1.203229308128357,2.003915548324585,-0.2192067950963974
1.2716586589813232,2.08603835105896,-0.22169862687587738
1.312698483467102,2.1209819316864014,-0.21864113211631775
1.3443282842636108,2.1387507915496826,-0.2134096771478653
1.3738504648208618,2.1530938148498535,-0.20767492055892944
1.3840819597244263,2.1380178928375244,-0.19906063377857208
1.3798060417175293,2.0997118949890137,-0.18810513615608215
1.3990720510482788,2.0970427989959717,-0.1802063137292862
1.764644742012024,2.6080355644226074,-0.214694544672966
1.8047871589660645,2.6287176609039307,-0.20641855895519257
1.907784104347229,2.7384791374206543,-0.20434390008449554
1.9167600870132446,2.7139716148376465,-0.19184526801109314
1.3951129913330078,1.9466487169265747,-0.12930828332901
1.4611202478408813,2.010241985321045,-0.1248917505145073
1.4741686582565308,2.0012497901916504,-0.11562758684158325
1.5823198556900024,2.2402498722076416,0.355282723903656
1.5652384757995605,2.2507331371307373,0.36456847190856934
1.5426117181777954,2.2554259300231934,0.3727357089519501
1.534310221672058,2.2783427238464355,0.38340991735458374
1.500407338142395,2.2623908519744873,0.38724392652511597
1.495046854019165,2.292287826538086,0.3986642062664032
1.5380038022994995,2.3965864181518555,0.42310595512390137
1.5949428081512451,2.523806095123291,0.4518062472343445
1.5999075174331665,2.5739145278930664,0.4670203924179077
3.014437675476074,4.9327826499938965,0.9064206480979919
3.00958251953125,5.005245208740234,0.9306283593177795
2.9813995361328125,5.037387847900391,0.9471932649612427
2.9531257152557373,5.0737104415893555,0.964218020439148
2.939840793609619,5.1409807205200195,0.987191379070282
2.9053432941436768,5.166831970214844,1.0017942190170288
2.8888394832611084,5.222035884857178,1.0218569040298462
2.850641965866089,5.240485191345215,1.0346001386642456
2.843158721923828,5.320739269256592,1.0591531991958618
2.814389705657959,5.36389684677124,1.0766407251358032
2.7865872383117676,5.401993274688721,1.092553973197937
2.7705392837524414,5.463921070098877,1.113442301750183
2.757211208343506,5.537064552307129,1.1362271308898926
1.2260507345199585,2.5085768699645996,0.5182225704193115
1.207016110420227,2.5167243480682373,0.5233767628669739
1.189070224761963,2.5242438316345215,0.5282203555107117
1.174296498298645,2.538592576980591,0.5345288515090942
1.1522915363311768,2.5392584800720215,0.5376837849617004
1.1488064527511597,2.581895589828491,0.5496921539306641
2.5795717239379883,5.913052558898926,1.2656892538070679
2.547375202178955,5.954007625579834,1.281132698059082
2.516998767852783,5.998008728027344,1.297231912612915
2.4922633171081543,6.060102939605713,1.3168894052505493
2.4644033908843994,6.119006633758545,1.3355478048324585
2.4343345165252686,6.174246788024902,1.3535668849945068
2.406012773513794,6.232546806335449,1.3722708225250244
2.3795790672302246,6.293877124786377,1.391632318496704
2.3430097103118896,6.330031394958496,1.4055520296096802
2.3185226917266846,6.406346797943115,1.4275246858596802
2.286729574203491,6.46455717086792,1.4456148147583008
2.252411127090454,6.519162654876709,1.4631025791168213
2.2259106636047363,6.590965270996094,1.4843429327011108
2.1901957988739014,6.637263774871826,1.4999765157699585
2.145324945449829,6.658101558685303,1.5096946954727173
2.0749692916870117,6.602697849273682,1.5013482570648193
2.016979694366455,6.587026119232178,1.5021294355392456
1.9529714584350586,6.544936180114746,1.4967973232269287
1.8910046815872192,6.501947402954102,1.491142988204956
1.8349343538284302,6.476780891418457,1.4895904064178467
1.783029556274414,6.466009616851807,1.4911249876022339
1.7194814682006836,6.414761543273926,1.4825613498687744
1.666550874710083,6.403713703155518,1.4833794832229614
1.6167324781417847,6.399407386779785,1.4857463836669922
0.8077290654182434,3.2934417724609375,0.7663551568984985
1.502312183380127,6.31502628326416,1.472808837890625
1.4563382863998413,6.316683769226074,1.4765831232070923
1.3985497951507568,6.2740254402160645,1.469083547592163
1.3447157144546509,6.241880416870117,1.4640393257141113
1.2937394380569458,6.220479488372803,1.461562156677246
1.2388097047805786,6.172392845153809,1.4528002738952637
1.1913328170776367,6.15745210647583,1.4518661499023438
1.140573501586914,6.127315998077393,1.4474422931671143
1.0938739776611328,6.115629196166992,1.446709156036377
1.0400424003601074,6.062472820281982,1.4358705282211304
0.998119592666626,6.07643461227417,1.4409862756729126
0.9439426064491272,6.011167049407959,1.427354097366333
0.9023608565330505,6.024456977844238,1.4324368238449097
0.8571081757545471,6.007249355316162,1.430298924446106
0.8105341196060181,5.978443145751953,1.425330638885498
0.762424886226654,5.938235759735107,1.416825532913208
0.6065199375152588,5.003386974334717,1.1947450637817383
0.5849095582962036,5.127928733825684,1.2255364656448364
0.5573444366455078,5.214615821838379,1.247390866279602
0.16387471556663513,1.6409907341003418,0.39291098713874817
0.3794003427028656,4.085940837860107,0.9792824983596802
0.35699227452278137,4.160118579864502,0.9977719187736511
0.3269076347351074,4.15093994140625,0.9959564805030823
0.2967515289783478,4.1453657150268555,0.9950608611106873
0.26938238739967346,4.17366361618042,1.0023401975631714
0.4455549120903015,7.73989200592041,1.8597842454910278
0.39124590158462524,7.7348175048828125,1.8596400022506714
0.3359619379043579,7.702797889709473,1.8530992269515991
0.28010934591293335,7.674431324005127,1.846606969833374
0.22583135962486267,7.653310298919678,1.841593623161316
0.17211860418319702,7.643198013305664,1.8393186330795288
0.11790928244590759,7.590938091278076,1.826988697052002
0.06496727466583252,7.568678379058838,1.8219634294509888
0.011439810506999493,7.542252540588379,1.8160287141799927
-0.04079921171069145,7.511658668518066,1.8091684579849243
-0.09257334470748901,7.480972766876221,1.8011970520019531
-0.14421480894088745,7.465133190155029,1.7968271970748901
-0.19554106891155243,7.445140361785889,1.7915468215942383
-0.2462185025215149,7.413407325744629,1.7835302352905273
-0.29926177859306335,7.426833152770996,1.786460518836975
-0.25426074862480164,5.379809379577637,1.2939159870147705
-0.2924651801586151,5.39323616027832,1.296929121017456
-0.33022886514663696,5.398990631103516,1.2974025011062622
-0.363956093788147,5.343842506408691,1.2833096981048584
-0.40154653787612915,5.341475486755371,1.2819494009017944
-0.4379960894584656,5.331308841705322,1.2787907123565674
-0.4098886549472809,4.5980682373046875,1.10234534740448
-0.4411299526691437,4.587820053100586,1.0993739366531372
-0.4728567600250244,4.584995746612549,1.0979654788970947
-0.5049471259117126,4.582025527954102,1.0960744619369507
-0.5328932404518127,4.548691749572754,1.0870013236999512
-0.5642034411430359,4.545355319976807,1.0851536989212036
-0.5928443670272827,4.51915168762207,1.0778932571411133
-0.6221891641616821,4.5002970695495605,1.0724459886550903
-0.6529704332351685,4.488698959350586,1.0687686204910278
-0.6810555458068848,4.4658379554748535,1.0620037317276
-0.7128272652626038,4.469178676605225,1.0612677335739136
-0.7409791946411133,4.449774742126465,1.055180549621582
-0.7690001130104065,4.430174350738525,1.04910147190094
-0.7958382368087769,4.402841091156006,1.0412349700927734
-0.8228352069854736,4.375257968902588,1.0333523750305176
-0.7154563665390015,3.6640918254852295,0.8643003702163696
-0.7412583827972412,3.663470983505249,0.862515389919281
-0.7624028921127319,3.6403114795684814,0.8554708361625671
-0.9371293187141418,4.327789306640625,1.0151809453964233
-0.9693149924278259,4.329263687133789,1.0136632919311523
-0.9959806799888611,4.308325290679932,1.006976842880249
-1.0259846448898315,4.302029132843018,1.0037651062011719
-1.0537512302398682,4.2882866859436035,0.9985232949256897
-1.0772624015808105,4.259748935699463,0.9895547032356262
-1.1085774898529053,4.260480880737305,0.9874028563499451
-1.1338082551956177,4.2389421463012695,0.980158269405365
-1.1614198684692383,4.224454402923584,0.9745563268661499
-1.188929557800293,4.209769248962402,0.9689611196517944
-1.215059518814087,4.19130277633667,0.9624643325805664
-1.2418032884597778,4.176538467407227,0.9562495350837708
-1.274628758430481,4.183620452880859,0.9551202654838562
-1.3007397651672363,4.168600082397461,0.9489884376525879
-1.325310230255127,4.145872116088867,0.9410731196403503
-1.3520004749298096,4.130252361297607,0.9348319172859192
-1.3814467191696167,4.121553421020508,0.9301638603210449
-1.3994251489639282,4.084342002868652,0.9185356497764587
-1.4270466566085815,4.0759196281433105,0.9134359955787659
-1.452041745185852,4.060105323791504,0.9067274928092957
-1.4778863191604614,4.043807029724121,0.8998500108718872
-1.5090055465698242,4.041639804840088,0.8961522579193115
-1.5379055738449097,4.0319294929504395,0.8907477259635925
-1.559563159942627,4.008462429046631,0.8818052411079407
-1.586617350578308,3.999102830886841,0.8760197162628174
-1.6122958660125732,3.985961437225342,0.8694330453872681
-1.6418094635009766,3.979353427886963,0.8641726970672607
-1.6688456535339355,3.96526837348938,0.8572630286216736
-1.6872998476028442,3.9337780475616455,0.8465404510498047
-1.692275047302246,3.8745381832122803,0.8295401930809021
-1.7307618856430054,3.8924615383148193,0.8291275501251221
-1.7544068098068237,3.874845027923584,0.8210530877113342
-1.7919831275939941,3.884437084197998,0.8185674548149109
-1.8064231872558594,3.845278024673462,0.8059402108192444
-1.8324421644210815,3.8344390392303467,0.7988117933273315
-1.8682143688201904,3.844268798828125,0.795918345451355
-1.9010670185089111,3.846787452697754,0.7914502024650574
-1.9254640340805054,3.827641248703003,0.7822131514549255
-1.9527019262313843,3.8153862953186035,0.7745258212089539
-1.957424283027649,3.7626311779022217,0.7583381533622742
-1.9934152364730835,3.7714200019836426,0.7544411420822144
-2.015263557434082,3.752673387527466,0.7449997663497925
-2.0456104278564453,3.7466747760772705,0.7378342151641846
-1.7100918292999268,3.080369710922241,0.6016215682029724
-1.7307852506637573,3.0702016353607178,0.5943769812583923
-0.8382460474967957,1.4648107290267944,0.281033992767334
-0.8521714806556702,1.4663691520690918,0.2786880135536194
-0.8587504029273987,1.4542938470840454,0.27364981174468994
-0.8612002730369568,1.435604453086853,0.26731690764427185
-0.8827595710754395,1.4503411054611206,0.2671099007129669
-0.8640356063842773,1.3991491794586182,0.2548103928565979
-0.8740667104721069,1.393646240234375,0.2507220506668091
-0.908912181854248,1.4271941184997559,0.2535798251628876
-0.9016942381858826,1.3958660364151,0.24465429782867432
-0.9108824133872986,1.3906242847442627,0.2404315322637558
-0.9080370664596558,1.3654911518096924,0.23252253234386444
-0.9068866968154907,1.3437488079071045,0.2252635359764099
-2.4366705417633057,3.5619966983795166,0.5873023867607117
-1.2802311182022095,1.8451969623565674,0.29885363578796387
-1.2998425960540771,2.078446626663208,-0.2160595953464508
-1.1782214641571045,1.9460601806640625,-0.21582995355129242
-1.1383934020996094,1.9102100133895874,-0.21815142035484314
-0.8381454944610596,1.4540717601776123,-0.17562447488307953
-0.8679012060165405,1.5303733348846436,-0.18959379196166992
-0.9723015427589417,1.7426975965499878,-0.22123773396015167
-0.9388307929039001,1.7116389274597168,-0.22248566150665283
-0.8802476525306702,1.6323137283325195,-0.21703658998012543
-0.8647329211235046,1.6310651302337646,-0.2216724306344986
-0.8367254734039307,1.6056207418441772,-0.222815603017807
-0.8001524209976196,1.5626980066299438,-0.2212960124015808
-0.7749533653259277,1.5400108098983765,-0.2223401665687561
-0.7587913274765015,1.5343745946884155,-0.22571724653244019
-0.7405967712402344,1.5253151655197144,-0.22855447232723236
-0.712745726108551,1.49504816532135,-0.22801537811756134
-0.6889550089836121,1.4713631868362427,-0.22821438312530518
-0.6703557372093201,1.4579834938049316,-0.22989676892757416
-0.6438358426094055,1.426900029182434,-0.22859208285808563
-0.6272136569023132,1.4167197942733765,-0.2305138111114502
-0.5999993681907654,1.381579875946045,-0.22825366258621216
-0.5840351581573486,1.3709746599197388,-0.22984802722930908
0.5867317318916321,1.3618370294570923,-0.22615423798561096
0.6247990131378174,1.3970441818237305,-0.22520272433757782
0.6461129188537598,1.4177736043930054,-0.22499088943004608
0.6657971739768982,1.434920310974121,-0.2241058051586151
0.6889990568161011,1.4588937759399414,-0.22415338456630707
0.7177762985229492,1.493016004562378,-0.22553516924381256
0.7318016886711121,1.4955021142959595,-0.2220129668712616
0.7665718197822571,1.5395039319992065,-0.22439183294773102
0.7895064949989319,1.5590280294418335,-0.22307856380939484
0.8076714873313904,1.5678635835647583,-0.22004777193069458
0.8422093987464905,1.6074235439300537,-0.22116506099700928
0.8824645280838013,1.6570543050765991,-0.22336064279079437
0.9142682552337646,1.6891437768936157,-0.22291652858257294
0.9452393651008606,1.717213749885559,-0.22152195870876312
0.9857528805732727,1.7620794773101807,-0.22213366627693176
1.0247303247451782,1.803272008895874,-0.22197438776493073
1.066485047340393,1.847278356552124,-0.22178032994270325
1.1248530149459839,1.9175105094909668,-0.22425706684589386
1.1621487140655518,1.950454592704773,-0.22189782559871674
1.2177146673202515,2.0131282806396484,-0.22267447412014008
1.282932996749878,2.0880846977233887,-0.22405046224594116
1.3201723098754883,2.1161959171295166,-0.22001473605632782
1.346962809562683,2.1277523040771484,-0.21407541632652283
1.3768157958984375,2.141866445541382,-0.20788195729255676
1.3962265253067017,2.1393847465515137,-0.19997678697109222
1.3869211673736572,2.0950045585632324,-0.18826338648796082
1.3926279544830322,2.073221206665039,-0.17857307195663452
1.778328537940979,2.6082186698913574,-0.21455425024032593
1.9111911058425903,2.7637789249420166,-0.21639330685138702
1.925584316253662,2.7451772689819336,-0.20378094911575317
1.935890793800354,2.719700574874878,-0.19031567871570587
1.4196215867996216,1.9675748348236084,-0.12924955785274506
1.4631212949752808,1.999265432357788,-0.12222645431756973
1.472147822380066,1.9835039377212524,-0.1119014099240303
2.1573703289031982,3.0312910079956055,0.49884098768234253
2.081430196762085,2.9736804962158203,0.5002253651618958
2.039552927017212,2.958338499069214,0.5073657035827637
1.5332545042037964,2.2581138610839844,0.39443936944007874
1.515073299407959,2.2688121795654297,0.4032047390937805
1.497757911682129,2.2787961959838867,0.41150909662246704
1.4935280084609985,2.3077502250671387,0.42309969663619995
1.5108957290649414,2.37311053276062,0.44123366475105286
1.58624267578125,2.5338876247406006,0.4775541126728058
3.050403356552124,4.9499969482421875,0.9444755911827087
3.030604600906372,4.995354652404785,0.9646100997924805
2.9912264347076416,5.01611852645874,0.979655385017395
2.969496488571167,5.0663323402404785,1.0002939701080322
2.947913885116577,5.111758232116699,1.0194318294525146
2.9319515228271484,5.166900634765625,1.0405652523040771
2.907785654067993,5.213069438934326,1.0595256090164185
2.881561756134033,5.259925365447998,1.0786924362182617
2.858820676803589,5.308966636657715,1.0979554653167725
2.83518648147583,5.353823184967041,1.1161646842956543
2.8106143474578857,5.398805618286133,1.134397029876709
2.7799501419067383,5.43799352645874,1.1508206129074097
2.773916006088257,5.528755187988281,1.178512454032898
2.742412805557251,5.563348770141602,1.1938621997833252
1.2318376302719116,2.5433897972106934,0.5494033694267273
1.2001750469207764,2.523454427719116,0.5485481023788452
1.1843751668930054,2.5382986068725586,0.5549744963645935
1.1652277708053589,2.5460684299468994,0.5598942637443542
1.1716288328170776,2.609377384185791,0.577042281627655
2.5885605812072754,5.874197006225586,1.3061035871505737
2.566113233566284,5.935924053192139,1.3268377780914307
2.527693271636963,5.966770172119141,1.3399977684020996
2.505073070526123,6.036200046539307,1.3619685173034668
2.474714517593384,6.087730407714844,1.3800179958343506
2.4485020637512207,6.145523548126221,1.3993635177612305
2.4174208641052246,6.192527770996094,1.4163986444473267
2.3925576210021973,6.261447906494141,1.4378416538238525
2.3569176197052,6.305501461029053,1.4534403085708618
2.3277575969696045,6.371123790740967,1.4742615222930908
2.29411244392395,6.417775630950928,1.4905134439468384
2.268932342529297,6.48938512802124,1.5126887559890747
2.2365877628326416,6.542897701263428,1.530794620513916
2.2067573070526123,6.611480712890625,1.5514733791351318
2.1716384887695312,6.669307708740234,1.569864273071289
2.1009488105773926,6.6140851974487305,1.561620831489563
2.038578748703003,6.575939655303955,1.5572285652160645
1.9823598861694336,6.555496692657471,1.5570465326309204
1.9253690242767334,6.530982494354248,1.5558654069900513
1.8664497137069702,6.502936363220215,1.5528395175933838
1.801989197731018,6.456291675567627,1.5454723834991455
1.7441520690917969,6.427237033843994,1.5422722101211548
1.6932402849197388,6.415733337402344,1.5431987047195435
0.8345182538032532,3.2535030841827393,0.784478485584259
1.5782968997955322,6.3362135887146,1.531549334526062
0.7994876503944397,3.311734437942505,0.8020188808441162
1.4698667526245117,6.285547733306885,1.5249875783920288
1.4196109771728516,6.272475242614746,1.5246621370315552
1.3696568012237549,6.255136489868164,1.5233004093170166
1.3211573362350464,6.241064071655273,1.5227640867233276
1.254725456237793,6.141147136688232,1.501343011856079
1.203952670097351,6.111538887023926,1.496538758277893
1.1602907180786133,6.119039058685303,1.5003749132156372
1.1179442405700684,6.13369607925415,1.5060449838638306
1.0561014413833618,6.035821914672852,1.484113097190857
1.0201174020767212,6.083425521850586,1.4980088472366333
0.9709835052490234,6.04826545715332,1.491562008857727
0.9218845367431641,6.008967876434326,1.484131932258606
0.8782101273536682,6.0071611404418945,1.4850125312805176
0.8308619856834412,5.978750705718994,1.4793548583984375
0.7808563709259033,5.931246280670166,1.4690486192703247
0.6314300298690796,5.070188045501709,1.2570481300354004
0.5868105888366699,4.994804859161377,1.2396554946899414
0.5703313946723938,5.164076328277588,1.283068299293518
0.5295600891113281,5.122168064117432,1.273841142654419
0.3899202048778534,4.049753665924072,1.0076422691345215
0.3659180998802185,4.108803749084473,1.022904872894287
0.342252641916275,4.175224781036377,1.0400606393814087
0.3100369870662689,4.1356353759765625,1.0308563709259033
0.28173133730888367,4.144972324371338,1.033892273902893
0.2558981478214264,4.195728302001953,1.0473185777664185
0.41688185930252075,7.7397236824035645,1.9327523708343506
0.3612329959869385,7.711940765380859,1.926091194152832
0.30683985352516174,7.702692985534668,1.9241513013839722
0.25147438049316406,7.65897274017334,1.9136909246444702
0.19759619235992432,7.637584686279297,1.908896565437317
0.1431901752948761,7.619621753692627,1.9050593376159668
0.08982077986001968,7.589898586273193,1.8983592987060547
0.036878883838653564,7.552448272705078,1.888866662979126
-0.01568462885916233,7.533659934997559,1.8837881088256836
-0.06788177043199539,7.50313663482666,1.8758690357208252
-0.12070228159427643,7.487398624420166,1.8717362880706787
-0.17197217047214508,7.4561543464660645,1.8638231754302979
-0.22292785346508026,7.428349018096924,1.8568596839904785
-0.2739257216453552,7.411557674407959,1.8527387380599976
-0.32801222801208496,7.474193572998047,1.8674569129943848
-0.27427932620048523,5.397798538208008,1.34793221950531
-0.3118005096912384,5.3884477615356445,1.3449221849441528
-0.34820112586021423,5.371299743652344,1.340043067932129
-0.3849855661392212,5.3614630699157715,1.3370540142059326
-0.4193311929702759,5.3211350440979,1.3265290260314941
-0.44949713349342346,5.239048957824707,1.3056433200836182
-0.4263107478618622,4.590686798095703,1.1429587602615356
-0.4587387442588806,4.5956010818481445,1.1431496143341064
-0.48757681250572205,4.566355228424072,1.1349031925201416
-0.5183917284011841,4.5557451248168945,1.1313433647155762
-0.548226535320282,4.537389278411865,1.1259174346923828
-0.5774545073509216,4.51124382019043,1.1186052560806274
-0.6097129583358765,4.515111923217773,1.1186197996139526
-0.638581395149231,4.496381759643555,1.1125192642211914
-0.6682873368263245,4.484976291656494,1.1082931756973267
-0.6990889310836792,4.48086404800415,1.1059216260910034
-0.7289172410964966,4.465174198150635,1.1007111072540283
-0.7561790943145752,4.438126564025879,1.0927844047546387
-0.7844266891479492,4.418385982513428,1.0867202281951904
-0.8120784163475037,4.398614406585693,1.0803221464157104
-0.8392723202705383,4.378787517547607,1.073621392250061
-0.7233413457870483,3.6397743225097656,0.8909411430358887
-0.750289797782898,3.6427037715911865,0.8901804089546204
-0.9270718097686768,4.347766876220703,1.060762643814087
-0.9533475041389465,4.323379039764404,1.0531527996063232
-0.9818108081817627,4.3099565505981445,1.0482779741287231
-1.0147337913513184,4.318838596343994,1.048201322555542
-1.041138768196106,4.297822952270508,1.0408227443695068
-1.063092589378357,4.261995315551758,1.0299690961837769
-1.0925980806350708,4.255432605743408,1.0262199640274048
-1.1223000288009644,4.248607635498047,1.0224398374557495
-1.1480168104171753,4.226871013641357,1.015125036239624
-1.1776762008666992,4.219696998596191,1.0109866857528687
-1.2041934728622437,4.205334663391113,1.0048608779907227
-1.2273955345153809,4.179826736450195,0.9961299300193787
-1.2593145370483398,4.183302879333496,0.994336724281311
-1.2874799966812134,4.1718034744262695,0.9889694452285767
-1.3149378299713135,4.1563239097595215,0.9826663732528687
-1.34388267993927,4.148148059844971,0.9780440330505371
-1.3695454597473145,4.132908344268799,0.9712744951248169
-1.385314702987671,4.088594913482666,0.9577450752258301
-1.415565848350525,4.087472915649414,0.9543948173522949
-1.4468510150909424,4.085819244384766,0.9508457779884338
-1.468300461769104,4.055052757263184,0.9405245184898376
-1.491360068321228,4.031576156616211,0.9319287538528442
-1.5212877988815308,4.029867649078369,0.9278424382209778
-1.5485119819641113,4.020806312561035,0.9220991134643555
-1.5730478763580322,4.004385471343994,0.914695143699646
-1.601764440536499,3.994375467300415,0.9086076617240906
-1.6270363330841064,3.977248191833496,0.9010179042816162
-1.6575957536697388,3.974283218383789,0.896491527557373
-1.6798746585845947,3.9539096355438232,0.8876492381095886
-1.7004303932189941,3.9298877716064453,0.8780547380447388
-1.7310172319412231,3.9263715744018555,0.8729287385940552
-1.7666054964065552,3.9329895973205566,0.8700301051139832
-1.7800959348678589,3.8905253410339355,0.8563268184661865
-1.8130227327346802,3.8937604427337646,0.852289617061615
-1.8227330446243286,3.848433256149292,0.8375260829925537
-1.862320899963379,3.865096092224121,0.8362144231796265
-1.8830523490905762,3.8396098613739014,0.8256024122238159
-1.9000474214553833,3.807150363922119,0.8135849237442017
-1.9402958154678345,3.822918653488159,0.8116454482078552
-1.9659096002578735,3.811511278152466,0.8036192059516907
-1.9843515157699585,3.7862966060638428,0.7927308678627014
-1.986251711845398,3.7262399196624756,0.774286687374115
-2.0164966583251953,3.720451831817627,0.7672657370567322
-1.6879483461380005,3.0648722648620605,0.6270506978034973
-1.7215372323989868,3.0785062313079834,0.6245452165603638
-0.8397043347358704,1.4789897203445435,0.2974967062473297
-0.8428061008453369,1.4602470397949219,0.2909703552722931
-0.8532917499542236,1.4548943042755127,0.28719842433929443
-0.8631215691566467,1.449844479560852,0.2833363115787506
-0.8807588815689087,1.457998275756836,0.2819988429546356
-0.8868306279182434,1.4460608959197998,0.27666017413139343
-0.8932909369468689,1.4338123798370361,0.27114662528038025
-0.8907860517501831,1.408847689628601,0.26325806975364685
-0.8917254209518433,1.390730619430542,0.2566320598125458
-0.8927905559539795,1.3724517822265625,0.2499305009841919
-0.9069761037826538,1.3732171058654785,0.24652209877967834
-0.9618088006973267,1.4350546598434448,0.2537422478199005
-2.387932300567627,3.5146892070770264,0.6118177771568298
-1.2953195571899414,1.8518424034118652,0.31133365631103516
-1.5515598058700562,2.1886844635009766,0.36102741956710815
-1.3074396848678589,2.0735981464385986,-0.21680891513824463
-1.2794499397277832,2.0626559257507324,-0.22330288589000702
-1.1750253438949585,1.9250986576080322,-0.21533158421516418
-1.132980227470398,1.886069416999817,-0.2175847440958023
-0.8628261685371399,1.4844717979431152,-0.1813628375530243
-0.844446063041687,1.476458191871643,-0.18517383933067322
-0.9535908699035645,1.6950199604034424,-0.21804432570934296
-0.9331958889961243,1.6877950429916382,-0.222601979970932
-0.8968521356582642,1.6494098901748657,-0.22263528406620026
-0.8631212711334229,1.6139473915100098,-0.2227327525615692
-0.831409215927124,1.58171808719635,-0.22302399575710297
-0.7948477864265442,1.5388222932815552,-0.22155390679836273
-0.7713778018951416,1.5196201801300049,-0.2232314795255661
-0.756991446018219,1.5174425840377808,-0.22724252939224243
-0.7288214564323425,1.4874420166015625,-0.22693929076194763
-0.7045608758926392,1.4640729427337646,-0.22745344042778015
-0.6791881918907166,1.4368830919265747,-0.2271573692560196
-0.659019410610199,1.4199943542480469,-0.2283257246017456
-0.6452320218086243,1.417093276977539,-0.2317042052745819
-0.6145026683807373,1.3751564025878906,-0.22845785319805145
-0.5953636765480042,1.3575984239578247,-0.22906002402305603
0.6262378692626953,1.3872480392456055,-0.22821609675884247
0.6407933831214905,1.394043207168579,-0.22572097182273865
0.6638309359550476,1.4181435108184814,-0.22587670385837555
0.690744936466217,1.4489130973815918,-0.2268642783164978
0.7075816988945007,1.4586975574493408,-0.22444993257522583
0.7177601456642151,1.4544214010238647,-0.2198336273431778
0.7576764822006226,1.5087932348251343,-0.22383981943130493
0.7842408418655396,1.5351428985595703,-0.22343750298023224
0.8091788291931152,1.557897686958313,-0.22231779992580414
0.8383668661117554,1.5871168375015259,-0.22183839976787567
0.8698495030403137,1.61942720413208,-0.22158662974834442
0.910937488079071,1.668514370918274,-0.22335666418075562
0.9468936920166016,1.7070711851119995,-0.22340847551822662
0.9798699617385864,1.7383360862731934,-0.22215582430362701
1.0156843662261963,1.7723866701126099,-0.220841646194458
1.065077543258667,1.8298836946487427,-0.22220897674560547
1.109293818473816,1.8768268823623657,-0.22192244231700897
1.1826833486557007,1.9696769714355469,-0.22635704278945923
1.2167303562164307,1.9953665733337402,-0.222641721367836
1.2857977151870728,2.0770373344421387,-0.22463557124137878
1.3313679695129395,2.1182632446289062,-0.22170165181159973
1.3548188209533691,2.122709035873413,-0.2145663946866989
1.3734015226364136,2.1208600997924805,-0.20673082768917084
1.392210602760315,2.11871600151062,-0.19870257377624512
1.3902602195739746,2.0834739208221436,-0.1872016191482544
1.7603720426559448,2.600724458694458,-0.2235637754201889
1.7691361904144287,2.576826333999634,-0.2112773060798645
1.9634909629821777,2.8177895545959473,-0.21918678283691406
1.9441131353378296,2.7513792514801025,-0.20238980650901794
1.9538638591766357,2.7262253761291504,-0.18844488263130188
1.452297329902649,1.9970647096633911,-0.12881892919540405
1.4536820650100708,1.97248375415802,-0.11806192249059677
2.105076313018799,2.9826467037200928,0.5197399258613586
2.0033624172210693,2.881742477416992,0.5122710466384888
1.5285170078277588,2.2355868816375732,0.40493491291999817
1.506792664527893,2.2393414974212646,0.41277754306793213
1.4968470335006714,2.25834059715271,0.42301106452941895
1.4916592836380005,2.2878754138946533,0.43504178524017334
1.4817320108413696,2.3110597133636475,0.44589632749557495
1.4525771141052246,2.300715923309326,0.449727863073349
1.4719736576080322,2.3688712120056152,0.4690774083137512
1.4552651643753052,2.3821773529052734,0.47732076048851013
1.5357860326766968,2.5568721294403076,0.5182440876960754
1.4879382848739624,2.5167009830474854,0.5154932737350464
1.4619700908660889,2.512606620788574,0.5199998617172241
1.4134804010391235,2.472538471221924,0.5166603326797485
1.37169349193573,2.44179105758667,0.515032947063446
1.3614141941070557,2.4637699127197266,0.5241844654083252
1.3473178148269653,2.4789063930511475,0.5319185853004456
2.8472299575805664,5.330599308013916,1.152963638305664
2.8197524547576904,5.376999378204346,1.1720530986785889
2.795140027999878,5.425899505615234,1.1914935111999512
2.7735540866851807,5.477272033691406,1.2112401723861694
2.75994610786438,5.545684337615967,1.2349382638931274
1.2388616800308228,2.535827159881592,0.5682455897331238
1.2060344219207764,2.516469717025757,0.5674571394920349
1.1841413974761963,2.5172271728515625,0.5710421800613403
1.1790223121643066,2.552248954772949,0.5823319554328918
1.1608011722564697,2.5594429969787598,0.5873426198959351
1.1573048830032349,2.60182523727417,0.6001326441764832
2.5748910903930664,5.9051432609558105,1.3688660860061646
2.545184373855591,5.957055568695068,1.387857437133789
2.5176072120666504,6.007802486419678,1.4063050746917725
2.4966840744018555,6.076065540313721,1.4290210008621216
2.4640512466430664,6.119937419891357,1.4457061290740967
2.431159734725952,6.167727470397949,1.4628640413284302
2.4009742736816406,6.226280212402344,1.482834815979004
2.3709499835968018,6.280374526977539,1.5016118288040161
2.3423027992248535,6.337662696838379,1.5212126970291138
2.3064792156219482,6.376903533935547,1.53662109375
2.282743215560913,6.456101417541504,1.5609354972839355
2.2529964447021484,6.524880409240723,1.5827529430389404
2.214674711227417,6.568032264709473,1.598417043685913
2.1906964778900146,6.650196552276611,1.6235448122024536
2.1391496658325195,6.648921489715576,1.6283937692642212
2.0728418827056885,6.600101470947266,1.6216274499893188
2.00848388671875,6.562460422515869,1.6166695356369019
1.95305335521698,6.549620151519775,1.6176345348358154
1.885125994682312,6.492551326751709,1.6077077388763428
1.8329914808273315,6.482054233551025,1.6092108488082886
1.7753342390060425,6.44911003112793,1.6051530838012695
1.7171756029129028,6.412042617797852,1.6000958681106567
0.8418874144554138,3.23714542388916,0.809563398361206
1.600692629814148,6.341297626495361,1.589005470275879
0.8067722916603088,3.2954273223876953,0.8274359703063965
1.4948437213897705,6.297968864440918,1.5845372676849365
1.44732666015625,6.292110443115234,1.5862882137298584
1.3958848714828491,6.271240234375,1.5843682289123535
1.3443243503570557,6.246313095092773,1.5809814929962158
1.287227749824524,6.195271015167236,1.570334553718567
1.23688805103302,6.173486709594727,1.5671510696411133
1.1877154111862183,6.155018329620361,1.5648640394210815
1.1356950998306274,6.117496013641357,1.55776846408844
1.0902960300445557,6.109289646148682,1.5581510066986084
1.0393102169036865,6.0671491622924805,1.549928069114685
0.9913848638534546,6.043613433837891,1.5456011295318604
0.9443194270133972,6.0235066413879395,1.5420575141906738
0.8985610604286194,6.014369487762451,1.5414175987243652
0.8519122004508972,5.989764213562012,1.5368365049362183
0.8045549988746643,5.953505992889404,1.5293022394180298
0.7629632949829102,5.95819616317749,1.5323516130447388
0.6008729934692383,4.966989994049072,1.2788687944412231
0.584563672542572,5.1361083984375,1.3232183456420898
0.5532324314117432,5.192387104034424,1.3386136293411255
0.17106688022613525,1.720604658126831,0.44389063119888306
0.37585511803627014,4.068564414978027,1.0504138469696045
0.35497260093688965,4.157411098480225,1.0742003917694092
0.3239550292491913,4.1330180168151855,1.0687931776046753
0.29540231823921204,4.146234512329102,1.0728727579116821
0.26873862743377686,4.185760974884033,1.0833643674850464
0.4422743618488312,7.736599445343018,2.0029826164245605
0.38696402311325073,7.716495037078857,1.998458743095398
0.33223414421081543,7.69598913192749,1.9939199686050415
0.2771155834197998,7.678901672363281,1.9903733730316162
0.22328540682792664,7.66517972946167,1.9877771139144897
0.16881558299064636,7.621023178100586,1.976646065711975
0.11528315395116806,7.595531463623047,1.9698518514633179
0.06233155354857445,7.596132755279541,1.9699208736419678
0.008386765606701374,7.528304576873779,1.952340841293335
-0.043845903128385544,7.516820430755615,1.9494670629501343
-0.09567699581384659,7.486069679260254,1.9416903257369995
-0.1470234990119934,7.44740104675293,1.9319512844085693
-0.19826705753803253,7.431272506713867,1.9272981882095337
-0.2483595460653305,7.388449192047119,1.9153612852096558
-0.30336061120033264,7.458609104156494,1.932790994644165
-0.25672346353530884,5.390377521514893,1.3963663578033447
-0.29420366883277893,5.388680458068848,1.3955214023590088
-0.3300457000732422,5.360299110412598,1.3878347873687744
-0.36680054664611816,5.350545406341553,1.385040283203125
-0.40215617418289185,5.318053245544434,1.3757095336914062
-0.43886446952819824,5.315591812133789,1.374002456665039
-0.40978920459747314,4.5781168937683105,1.1825095415115356
-0.44253820180892944,4.586850643157959,1.1839518547058105
-0.47320038080215454,4.572759628295898,1.1795566082000732
-0.5047023892402649,4.562164783477783,1.1761102676391602
-0.5337663888931274,4.536375522613525,1.1688207387924194
-0.565845251083374,4.54066276550293,1.1686232089996338
-0.5930832624435425,4.507214546203613,1.158689260482788
-0.6229527592658997,4.496104717254639,1.154565691947937
-0.6513069868087769,4.469707012176514,1.1465486288070679
-0.6846736669540405,4.4806084632873535,1.1481719017028809
-0.7116974592208862,4.45012092590332,1.1392455101013184
-0.7413483262062073,4.438179016113281,1.1350619792938232
-0.7717295289039612,4.433741569519043,1.13215172290802
-0.7993836402893066,4.414181232452393,1.1254388093948364
-0.8217062950134277,4.36456823348999,1.1111117601394653
-0.7138345837593079,3.6527600288391113,0.9285474419593811
-0.7393600940704346,3.648303270339966,0.9260914325714111
-0.7663732767105103,3.6510956287384033,0.9255201816558838
-0.9388396739959717,4.324525356292725,1.0944575071334839
-0.9688729643821716,4.318820953369141,1.0907999277114868
-0.996622622013092,4.305622100830078,1.0853437185287476
-1.0190008878707886,4.270085334777832,1.0743221044540405
-1.0470024347305298,4.256407260894775,1.0688250064849854
-1.0804553031921387,4.264617919921875,1.0688731670379639
-1.1011888980865479,4.221017360687256,1.0559636354446411
-1.1378408670425415,4.243789196014404,1.0591195821762085
-1.1626453399658203,4.222371578216553,1.0511926412582397
-1.1893230676651,4.208102703094482,1.0451033115386963
-1.2205103635787964,4.2081522941589355,1.042582631111145
-1.2461296319961548,4.185883045196533,1.034511923789978
-1.273206353187561,4.170858860015869,1.0283399820327759
-1.300758719444275,4.159512519836426,1.022787094116211
-1.3242864608764648,4.137332439422607,1.0142542123794556
-1.352307915687561,4.129474639892578,1.0092899799346924
-1.3738629817962646,4.099524974822998,0.9988996982574463
-1.4026902914047241,4.091000080108643,0.9937717914581299
-1.436503529548645,4.096641540527344,0.9921236634254456
-1.4598453044891357,4.073486804962158,0.9833425283432007
-1.4874544143676758,4.0648603439331055,0.9776473045349121
-1.5096341371536255,4.041771411895752,0.9685366749763489
-1.5296363830566406,4.011168003082275,0.9576004147529602
-1.557911992073059,4.00167179107666,0.9517273902893066
-1.5917608737945557,4.006150245666504,0.9492126107215881
-1.6166948080062866,3.989361047744751,0.9414545893669128
-1.6363168954849243,3.962221384048462,0.9308976531028748
-1.6709210872650146,3.9700024127960205,0.928515613079071
-1.6907668113708496,3.942349433898926,0.91787189245224
-1.718692421913147,3.9318158626556396,0.9111645817756653
-1.7465488910675049,3.9210751056671143,0.9044550061225891
-1.7702399492263794,3.9036612510681152,0.8958234786987305
-1.7970116138458252,3.8930840492248535,0.8885195851325989
-1.8166998624801636,3.8686656951904297,0.8782080411911011
-1.8539793491363525,3.8781158924102783,0.8753731846809387
-1.8648158311843872,3.8320868015289307,0.8600509762763977
-1.901818871498108,3.8412346839904785,0.8570067882537842
-1.924613118171692,3.823099374771118,0.8473471999168396
-1.9502943754196167,3.8118319511413574,0.839353084564209
-1.9839935302734375,3.8135294914245605,0.8340160250663757
-1.9825295209884644,3.7468433380126953,0.8136975169181824
-2.0089964866638184,3.7345590591430664,0.8052101135253906
-2.037686347961426,3.729631185531616,0.7978430986404419
-1.7201794385910034,3.099639654159546,0.6577412486076355
-1.7268178462982178,3.0623345375061035,0.644396960735321
-0.8332726955413818,1.4540549516677856,0.30334004759788513
-0.847244381904602,1.45564866065979,0.30094993114471436
-0.8569304347038269,1.4507644176483154,0.2970852851867676
-0.8747237920761108,1.4588950872421265,0.29580628871917725
-0.8852072954177856,1.453410267829895,0.29159072041511536
-0.8916094899177551,1.4412837028503418,0.28606846928596497
-0.8889163136482239,1.4165699481964111,0.2779245972633362
-0.902442216873169,1.4179714918136597,0.2749350965023041
-0.9001328349113464,1.3928605318069458,0.2665536105632782
-0.9017335772514343,1.3742749691009521,0.25951677560806274
-0.9066594243049622,1.3626368045806885,0.25368061661720276
-0.9199572801589966,1.3638803958892822,0.2502262592315674
-2.4116618633270264,3.5229060649871826,0.6359106302261353
-1.3080642223358154,1.8823312520980835,0.3339692950248718
-1.3070452213287354,1.8560006618499756,0.3234192430973053
-18.14120864868164,27.678926467895508,-2.687196731567383
-1.3105628490447998,2.062375783920288,-0.21645647287368774
-1.2658416032791138,2.025221347808838,-0.22051241993904114
-1.131753921508789,1.8685261011123657,-0.21711775660514832
-1.103804588317871,1.8526883125305176,-0.221921905875206
-0.8288747072219849,1.414182424545288,-0.17435866594314575
-0.8457018136978149,1.4665859937667847,-0.18587271869182587
-0.8559573292732239,1.5091813802719116,-0.19634631276130676
-0.931620180606842,1.6706345081329346,-0.2229299545288086
-0.8878687620162964,1.6186540126800537,-0.2211865335702896
-0.8614467978477478,1.5969001054763794,-0.2232944220304489
-0.8221603631973267,1.551150918006897,-0.2218654602766037
-0.7910834550857544,1.5185394287109375,-0.22190743684768677
-0.7695832848548889,1.5027111768722534,-0.22413253784179688
-0.7586307525634766,1.507485270500183,-0.2293524593114853
-0.7235028743743896,1.4636765718460083,-0.2270250767469406
-0.6941417455673218,1.4299023151397705,-0.2260020524263382
-0.6739158034324646,1.4131362438201904,-0.22738997638225555
-0.6504971981048584,1.389257788658142,-0.2274612933397293
-0.6290361285209656,1.3686593770980835,-0.22791846096515656
-0.6160222291946411,1.3653655052185059,-0.23111222684383392
0.6212190389633179,1.3634434938430786,-0.22853468358516693
0.6374077200889587,1.3737257719039917,-0.2265280783176422
0.6618813872337341,1.401396632194519,-0.2272205650806427
0.6751006841659546,1.4043930768966675,-0.22379426658153534
