X,Y,Z
-2.9844114780426025,4.789477348327637,0.6071960926055908
-2.9876084327697754,4.724656105041504,0.5903483033180237
-2.999443531036377,4.677036762237549,0.5756410956382751
-3.037564754486084,4.66769552230835,0.5653124451637268
-3.0298750400543213,4.585864543914795,0.5459523797035217
-3.0820324420928955,4.599296569824219,0.5375424027442932
-3.098482370376587,4.561450481414795,0.5232478976249695
-3.106342315673828,4.505724906921387,0.5060925483703613
-3.139169692993164,4.489134311676025,0.4932399392127991
-2.8505568504333496,4.022753715515137,0.43190765380859375
-2.908116102218628,4.045220375061035,0.42314794659614563
-2.9127044677734375,3.9952189922332764,0.4065449833869934
-2.926152467727661,3.9625396728515625,0.3916736841201782
-2.9940590858459473,4.1908392906188965,-0.2437019646167755
-2.441128730773926,3.4723730087280273,-0.2145126312971115
-2.449071168899536,3.537358522415161,-0.2304951399564743
-2.370448350906372,3.4769670963287354,-0.237869530916214
-2.2851977348327637,3.406651735305786,-0.24404777586460114
-2.226653575897217,3.3698673248291016,-0.25140294432640076
-2.1651270389556885,3.330103635787964,-0.25839123129844666
-2.1611006259918213,3.3782174587249756,-0.27188706398010254
-2.193222999572754,3.4815962314605713,-0.2896287441253662
-1.2541176080703735,2.0232231616973877,-0.17373348772525787
-1.249079942703247,2.0486457347869873,-0.18135303258895874
-2.1299967765808105,3.549732208251953,-0.3232234716415405
-2.0744693279266357,3.513883113861084,-0.3286210894584656
-2.521242141723633,4.343015193939209,-0.4167846143245697
-1.1929562091827393,2.0886359214782715,-0.20531471073627472
-1.1894866228103638,2.116880416870117,-0.21294242143630981
-2.5690112113952637,4.652232646942139,-0.4786878824234009
-2.5462682247161865,4.690032482147217,-0.4929623007774353
-2.524000406265259,4.727264404296875,-0.5070196390151978
-2.4968199729919434,4.757965087890625,-0.5203712582588196
-2.4671130180358887,4.785253524780273,-0.5333786606788635
-2.446418285369873,4.829428672790527,-0.5482315421104431
-2.419208288192749,4.859175682067871,-0.5612819790840149
-2.39054799079895,4.889321327209473,-0.5742714405059814
-1.6001954078674316,3.333184242248535,-0.3979440927505493
-1.5732959508895874,3.3364810943603516,-0.40458428859710693
-1.5462958812713623,3.3396189212799072,-0.41115590929985046
-1.5215818881988525,3.3500287532806396,-0.41860634088516235
-1.5036534070968628,3.3741977214813232,-0.4276890456676483
-1.4953727722167969,3.419349193572998,-0.43939343094825745
-1.493986964225769,3.4824256896972656,-0.4535091519355774
-1.4597924947738647,3.470738172531128,-0.4578153192996979
-1.4343794584274292,3.480365753173828,-0.4649968445301056
-1.4184885025024414,3.511035203933716,-0.4748455584049225
-0.9641955494880676,2.435594320297241,-0.3333283066749573
-0.9354272484779358,2.4129371643066406,-0.33398890495300293
-0.918062686920166,2.4189584255218506,-0.3385837972164154
-0.9061217308044434,2.439343214035034,-0.3452136516571045
-0.870373010635376,2.394099235534668,-0.34241119027137756
-0.8636100888252258,2.4288270473480225,-0.3508610129356384
-0.8589150905609131,2.4708738327026367,-0.36048391461372375
-0.8365318179130554,2.461575984954834,-0.36260664463043213
-0.8261923789978027,2.488889455795288,-0.3702123761177063
-0.8131883144378662,2.5088274478912354,-0.3764823079109192
-0.8034188747406006,2.5397562980651855,-0.3844776451587677
-0.7877799272537231,2.5521228313446045,-0.389683336019516
-0.7676063776016235,2.5495681762695312,-0.39261916279792786
-0.7604154348373413,2.5914156436920166,-0.40223342180252075
-0.7480488419532776,2.618516206741333,-0.40962740778923035
-0.7450665831565857,2.678938865661621,-0.4222778081893921
-0.7343102693557739,2.713301420211792,-0.43092605471611023
-0.7200846076011658,2.736466646194458,-0.4377295672893524
-0.695907711982727,2.722214698791504,-0.4383752644062042
-0.6744418144226074,2.7190661430358887,-0.44085097312927246
-0.6581137776374817,2.7343883514404297,-0.44626423716545105
-0.6424710154533386,2.7533681392669678,-0.4522988796234131
-0.6298490166664124,2.787386417388916,-0.46051836013793945
-0.6151530742645264,2.8138091564178467,-0.46755269169807434
-0.5982580184936523,2.8326544761657715,-0.47342273592948914
-0.593075692653656,2.9079697132110596,-0.48878350853919983
-0.5592527389526367,2.843477249145508,-0.4803961515426636
-0.8583329319953918,4.531487464904785,-0.7692965269088745
-0.8279269933700562,4.544189453125,-0.77519690990448
-0.7856776118278503,4.492243766784668,-0.7701159715652466
-0.7358120679855347,4.386727809906006,-0.7555178999900818
-0.6922511458396912,4.3112874031066895,-0.7454673647880554
-0.6521182060241699,4.250698089599609,-0.7379222512245178
-0.6107043027877808,4.174534320831299,-0.7276027202606201
-0.5747097730636597,4.132385730743408,-0.72320556640625
-0.5362330079078674,4.063289165496826,-0.7134659290313721
-0.5006086826324463,4.00917911529541,-0.7061766386032104
-0.47351354360580444,4.01973295211792,-0.7102769613265991
-0.3518952429294586,3.17742919921875,-0.5632385611534119
-0.3281382918357849,3.16414475440979,-0.5625308156013489
-0.3078773617744446,3.1890709400177,-0.5682802796363831
-0.2849142253398895,3.183189630508423,-0.5685523152351379
-0.2658918797969818,3.223130464553833,-0.5770464539527893
-0.24664179980754852,3.2667837142944336,-0.5862659215927124
-0.226490318775177,3.3065669536590576,-0.5943647027015686
-0.20351333916187286,3.315561532974243,-0.5968750715255737
-0.18229949474334717,3.3512468338012695,-0.6042152643203735
-0.15968801081180573,3.3675920963287354,-0.6081116199493408
-0.13688071072101593,3.383816719055176,-0.6118212342262268
-0.11925042420625687,3.561312675476074,-0.6443214416503906
-0.09270265698432922,3.5120139122009277,-0.6358426809310913
-0.06754572689533234,3.4740445613861084,-0.6294265389442444
-0.04314018040895462,3.4512720108032227,-0.6257852911949158
-0.01912751980125904,3.4437952041625977,-0.6244255900382996
0.00477655278518796,3.4323277473449707,-0.6222618222236633
0.02902105264365673,3.4322218894958496,-0.6221874356269836
0.05330134183168411,3.458852529525757,-0.6269908547401428
0.0780075341463089,3.489189624786377,-0.6322916746139526
0.10245314985513687,3.49637508392334,-0.6329830884933472
0.12772619724273682,3.5225956439971924,-0.6371446251869202
0.15425461530685425,3.5678350925445557,-0.6447638869285583
0.18148690462112427,3.6051769256591797,-0.6509649753570557
0.20811720192432404,3.63092041015625,-0.6545521020889282
0.23338301479816437,3.6296334266662598,-0.6531678438186646
0.26192185282707214,3.6741931438446045,-0.6600514650344849
0.2880333662033081,3.680203676223755,-0.6600277423858643
0.3140658438205719,3.6783664226531982,-0.6583943367004395
0.3434613347053528,3.7185893058776855,-0.6638821363449097
0.3700363337993622,3.7241368293762207,-0.6631863713264465
0.4020238220691681,3.7792181968688965,-0.671312689781189
0.4282923936843872,3.7767040729522705,-0.6692149043083191
0.45958197116851807,3.812251091003418,-0.6733060479164124
0.48700764775276184,3.8170888423919678,-0.6718968152999878
0.5212583541870117,3.871305465698242,-0.6791686415672302
0.5536167621612549,3.9061813354492188,-0.683022141456604
0.5892897844314575,3.95987868309021,-0.689929187297821
0.6208351254463196,3.9790611267089844,-0.6903071999549866
0.6565208435058594,4.0246710777282715,-0.6953032612800598
0.7059578895568848,4.145895481109619,-0.7132536768913269
0.7517353892326355,4.236314296722412,-0.7257808446884155
0.790306031703949,4.280971527099609,-0.7298277020454407
0.8302417397499084,4.3291096687316895,-0.7343252301216125
0.8767312169075012,4.403268337249756,-0.7430882453918457
0.9175590872764587,4.446900367736816,-0.7466884851455688
0.9686616659164429,4.535480976104736,-0.7574710845947266
1.013454556465149,4.5897908210754395,-0.7620348930358887
1.053044080734253,4.617391109466553,-0.7621086835861206
1.0876295566558838,4.618228912353516,-0.7576573491096497
1.119921088218689,4.611421585083008,-0.7520565986633301
1.1500660181045532,4.597047328948975,-0.744656503200531
1.1781364679336548,4.5749921798706055,-0.7360678315162659
1.2100833654403687,4.567640781402588,-0.729869544506073
1.2375378608703613,4.54127836227417,-0.7205914855003357
1.26918363571167,4.533567905426025,-0.7140761017799377
1.2985278367996216,4.518268585205078,-0.7061876058578491
1.3190438747406006,4.473102569580078,-0.6937071681022644
1.0930873155593872,3.6139872074127197,-0.5560698509216309
1.1142218112945557,3.5922067165374756,-0.5481780171394348
1.1414718627929688,3.592637538909912,-0.5434924364089966
1.1640204191207886,3.5781402587890625,-0.5365696549415588
1.1842173337936401,3.556079387664795,-0.5285218954086304
1.2116730213165283,3.5558605194091797,-0.5237512588500977
1.228663682937622,3.5263521671295166,-0.5143854022026062
1.2586828470230103,3.5330989360809326,-0.5102338790893555
1.2807494401931763,3.5178189277648926,-0.5029482841491699
1.2987403869628906,3.4914581775665283,-0.4941132366657257
1.3243532180786133,3.4868710041046143,-0.4882054924964905
1.3512299060821533,3.4857630729675293,-0.4827002286911011
1.3631027936935425,3.444580078125,-0.47156772017478943
1.3873413801193237,3.435786724090576,-0.46498340368270874
1.4112600088119507,3.426933765411377,-0.4582875967025757
1.425846815109253,3.3965749740600586,-0.44866102933883667
1.4494004249572754,3.3874850273132324,-0.4418601393699646
1.4736409187316895,3.3779213428497314,-0.4348403811454773
1.8265342712402344,4.109517574310303,-0.5219956636428833
1.8515416383743286,4.090882778167725,-0.5124772787094116
1.8765431642532349,4.07200813293457,-0.5029343366622925
1.9019025564193726,4.052731990814209,-0.49325358867645264
1.9339081048965454,4.047260284423828,-0.485068678855896
1.958177089691162,4.0280070304870605,-0.4752618968486786
1.9825100898742676,4.008480072021484,-0.4654044508934021
2.0107476711273193,3.9954545497894287,-0.45617422461509705
2.033104419708252,3.9720823764801025,-0.4457234740257263
2.053008556365967,3.9453468322753906,-0.4348791837692261
2.07350754737854,3.918071985244751,-0.42379552125930786
2.101086378097534,3.9043784141540527,-0.4142304062843323
2.1315157413482666,3.8977317810058594,-0.40532833337783813
2.157892942428589,3.884185791015625,-0.395682156085968
2.1409971714019775,3.792062520980835,-0.37796029448509216
2.1680920124053955,3.77762770652771,-0.3679223358631134
2.201409101486206,3.777298927307129,-0.35932403802871704
2.2072718143463135,3.7296388149261475,-0.3462096154689789
2.2295169830322266,3.708240270614624,-0.33533862233161926
2.2670066356658936,3.7137677669525146,-0.3268522322177887
2.279947280883789,3.6792736053466797,-0.31468895077705383
2.3014771938323975,3.6575419902801514,-0.3034527897834778
2.3394076824188232,3.662060499191284,-0.29426470398902893
2.3552258014678955,3.634194850921631,-0.28245577216148376
2.3759005069732666,3.6122350692749023,-0.27082937955856323
2.418780565261841,3.6220905780792236,-0.26112204790115356
2.416309356689453,3.568162679672241,-0.2470335215330124
2.4538912773132324,3.5716512203216553,-0.236578568816185
2.4964327812194824,3.5809481143951416,-0.22604167461395264
2.483642101287842,3.5144078731536865,-0.2108057141304016
2.5173051357269287,3.510357141494751,-0.1985783725976944
2.573049783706665,3.538209915161133,-0.18790055811405182
2.5727458000183105,3.490739107131958,-0.17309725284576416
2.7858099937438965,3.9459657669067383,0.4541775584220886
2.7484230995178223,3.951624870300293,0.4659651219844818
2.722913980484009,3.9771149158477783,0.4798045754432678
2.677713394165039,3.9780008792877197,0.49068742990493774
2.649160385131836,3.995617389678955,0.5023989677429199
2.6408932209014893,4.046077728271484,0.5181348323822021
2.615563154220581,4.074853420257568,0.5309889316558838
2.5790979862213135,4.082819938659668,0.5407035946846008
2.5493810176849365,4.100006103515625,0.551479697227478
2.513779878616333,4.11143159866333,0.5609786510467529
2.4918649196624756,4.1459736824035645,0.5736409425735474
2.477996349334717,4.189029693603516,0.5869743824005127
2.4441287517547607,4.198563098907471,0.5955994725227356
2.41909122467041,4.229552745819092,0.6070559024810791
2.382935047149658,4.2397894859313965,0.6154499650001526
2.360238790512085,4.268913745880127,0.6261519193649292
2.2651965618133545,4.165128707885742,0.6172040700912476
2.23371958732605,4.180877685546875,0.6253883242607117
2.212280750274658,4.217264175415039,0.6368043422698975
2.178225040435791,4.22506046295166,0.643592357635498
2.158850908279419,4.2598724365234375,0.6544196009635925
2.1278226375579834,4.274301528930664,0.6619125008583069
2.1025774478912354,4.302866458892822,0.6714174747467041
2.0699193477630615,4.317506313323975,0.6788686513900757
2.049318790435791,4.3518877029418945,0.6891244649887085
2.015312910079956,4.358116626739502,0.6949779391288757
1.9800505638122559,4.3647003173828125,0.7005019783973694
2.0198493003845215,4.540639400482178,0.7332966327667236
1.9802069664001465,4.540121078491211,0.7377434372901917
1.9567359685897827,4.574438571929932,0.7477788329124451
1.931962490081787,4.6048455238342285,0.7571712732315063
1.895349383354187,4.610678195953369,0.7621235251426697
1.8613163232803345,4.623523712158203,0.7681535482406616
1.8385611772537231,4.664824962615967,0.7789719700813293
1.8135453462600708,4.698452949523926,0.788474440574646
1.7955015897750854,4.749803066253662,0.8009786009788513
1.744009256362915,4.714570045471191,0.7986063361167908
1.3198356628417969,3.649003267288208,0.6206867098808289
1.3072611093521118,3.697852373123169,0.6316287517547607
1.2728962898254395,3.684650421142578,0.6319934129714966
1.6330506801605225,4.836093425750732,0.8328506350517273
1.6038963794708252,4.86118745803833,0.8405541777610779
1.5566884279251099,4.835228443145752,0.8388667702674866
1.5376474857330322,4.897085666656494,0.852467954158783
1.50370192527771,4.914844989776611,0.8585177659988403
1.464887261390686,4.9096856117248535,0.8604475855827332
1.44235098361969,4.959702491760254,0.8721047639846802
1.4241042137145996,5.028275966644287,0.8869311213493347
1.3857507705688477,5.030281066894531,0.8896567821502686
1.3245880603790283,4.94644021987915,0.8771944642066956
1.276889681816101,4.910540580749512,0.8732417225837708
1.2557346820831299,4.970916271209717,0.8863584995269775
1.2227444648742676,4.986373424530029,0.8915414810180664
1.1875255107879639,4.994231700897217,0.895155668258667
1.155979037284851,5.020787239074707,0.9017804861068726
1.1193325519561768,5.028487205505371,0.905103862285614
1.0931605100631714,5.080885410308838,0.9164935946464539
1.0576788187026978,5.08781099319458,0.9197021126747131
1.0222084522247314,5.094476222991943,0.9229051470756531
0.9908057451248169,5.123632431030273,0.93003910779953
1.6923367977142334,9.103533744812012,1.6550538539886475
1.6146719455718994,9.04258918762207,1.6465765237808228
1.553634762763977,9.07194709777832,1.6546063423156738
1.4847484827041626,9.047595024108887,1.6528671979904175
1.4228342771530151,9.064501762390137,1.6587376594543457
1.352743148803711,9.03554630279541,1.6562378406524658
1.2865707874298096,9.02906322479248,1.6567906141281128
1.2227197885513306,9.03731918334961,1.6601251363754272
1.154320478439331,9.010830879211426,1.6571557521820068
1.0903924703598022,9.010444641113281,1.659035563468933
1.02585768699646,9.001948356628418,1.6594915390014648
0.9621205925941467,9.008371353149414,1.6628093719482422
0.8966832756996155,8.991507530212402,1.6610000133514404
0.403272807598114,4.353234767913818,0.8046872019767761
0.3713640570640564,4.340461730957031,0.8028782606124878
0.3391023576259613,4.319794178009033,0.7996426224708557
0.31068652868270874,4.352550029754639,0.8063431978225708
0.28182530403137207,4.377420425415039,0.8116203546524048
0.32436466217041016,5.652209281921387,1.0486780405044556
0.2868427038192749,5.696429252624512,1.057108998298645
0.24722009897232056,5.705862522125244,1.0591386556625366
0.2073853313922882,5.730393886566162,1.064030408859253
0.17010200023651123,5.819882392883301,1.081034541130066
0.13030119240283966,5.851528167724609,1.0873550176620483
0.0897233635187149,5.856017589569092,1.088683843612671
0.04879503697156906,5.8296122550964355,1.0837115049362183
0.007504960522055626,5.856719017028809,1.0885794162750244
-0.05052455887198448,8.909793853759766,1.655875325202942
-0.11168894171714783,8.847820281982422,1.6442639827728271
-0.17089062929153442,8.723990440368652,1.6212376356124878
-0.2304123193025589,8.676552772521973,1.612486481666565
-0.28807389736175537,8.59422492980957,1.5970196723937988
-0.3311082422733307,8.158577919006348,1.5151901245117188
-0.3835480511188507,8.068069458007812,1.4976011514663696
-0.19584527611732483,3.593585968017578,0.6667287945747375
-0.21984857320785522,3.5769033432006836,0.6633515357971191
-0.5368244647979736,7.844396591186523,1.4542267322540283
-0.5910999774932861,7.825304985046387,1.4502010345458984
-0.5487863421440125,6.653738498687744,1.2320570945739746
-0.5952975749969482,6.657792568206787,1.231635570526123
-0.6271514892578125,6.508558750152588,1.202938437461853
-0.6630445122718811,6.416504859924316,1.1849019527435303
-0.7110000252723694,6.4348978996276855,1.187305212020874
-0.7557588219642639,6.4301276206970215,1.1855062246322632
-0.791777491569519,6.35646915435791,1.1708414554595947
-0.8289952874183655,6.301810264587402,1.1591671705245972
-0.8670109510421753,6.258363246917725,1.1496343612670898
-0.9107688665390015,6.252616882324219,1.1470649242401123
-0.9599450826644897,6.284609794616699,1.1514774560928345
-1.010356068611145,6.319998264312744,1.1565450429916382
-1.064401388168335,6.373963356018066,1.1650478839874268
-1.1166777610778809,6.416350841522217,1.1707452535629272
-1.16598641872406,6.439458847045898,1.1728459596633911
-1.2186452150344849,6.473384857177734,1.17690908908844
-1.276496171951294,6.533404350280762,1.1857606172561646
-1.3303900957107544,6.566460609436035,1.1897186040878296
-1.3887556791305542,6.617909908294678,1.1970356702804565
-1.4383115768432617,6.62772798538208,1.1963993310928345
-1.4749916791915894,6.577106475830078,1.1844772100448608
-1.5093324184417725,6.522714138031006,1.1720188856124878
-0.6716116070747375,2.8148152828216553,0.5046376585960388
-0.686621904373169,2.7917234897613525,0.49937233328819275
-0.7042081952095032,2.779740810394287,0.49612733721733093
-0.7237171530723572,2.7750909328460693,0.49407830834388733
-0.7385832667350769,2.7556254863739014,0.48921680450439453
-0.7705626487731934,2.7992007732391357,0.49555525183677673
-1.7457340955734253,6.177815914154053,1.0906331539154053
-1.7770692110061646,6.125674247741699,1.078361988067627
-1.8074212074279785,6.0694804191589355,1.0654191970825195
-1.8392683267593384,6.0245819091796875,1.0543642044067383
-1.8731296062469482,5.990914344787598,1.0448334217071533
-1.9019190073013306,5.9423723220825195,1.0327918529510498
-1.9363127946853638,5.911959648132324,1.0239660739898682
-1.9636425971984863,5.85518741607666,1.0105000734329224
-1.9971235990524292,5.8203935623168945,1.0009746551513672
-2.020551919937134,5.760233402252197,0.9868707060813904
-2.0542140007019043,5.733004570007324,0.9781124591827393
-2.0848915576934814,5.698346138000488,0.9681628942489624
-2.111694812774658,5.652488708496094,0.956335723400116
-2.1464858055114746,5.623958587646484,0.9473490118980408
-2.1886725425720215,5.617042541503906,0.9421295523643494
-2.2538082599639893,5.671375274658203,0.9466394186019897
-2.3165340423583984,5.718101978302002,0.949677050113678
-2.3505122661590576,5.692872047424316,0.9407650232315063
-2.37288236618042,5.634570598602295,0.9262166023254395
-2.4093620777130127,5.611875534057617,0.9176624417304993
-2.486825942993164,5.684809684753418,0.9244747757911682
-2.512294292449951,5.641078472137451,0.9118765592575073
-2.556382656097412,5.639504432678223,0.9061550498008728
-2.561807155609131,5.549090385437012,0.8860079646110535
-2.617327928543091,5.56720495223999,0.883236289024353
-2.6211018562316895,5.476863384246826,0.8632350564002991
-2.6474878787994385,5.439724922180176,0.8512720465660095
-2.6769204139709473,5.409392356872559,0.8404511213302612
-2.7180919647216797,5.398889064788818,0.8324890732765198
-2.7454891204833984,5.360332489013672,0.8201974034309387
-2.7557919025421143,5.291056156158447,0.8031761050224304
-2.776303768157959,5.246725082397461,0.7896365523338318
-1.1515430212020874,2.1423356533050537,0.31963878870010376
-1.1738401651382446,2.1484744548797607,0.31762024760246277
-1.1987216472625732,2.157503843307495,0.31589144468307495
-2.5067355632781982,4.441598892211914,0.643818199634552
-2.591963529586792,4.5237321853637695,0.6489230990409851
-2.569674015045166,4.417039394378662,0.6268543601036072
-1.247126579284668,2.109921455383301,0.2960287630558014
-1.2539421319961548,2.088451623916626,0.28951892256736755
-2.912614107131958,4.781295299530029,0.654595673084259
-2.970458984375,4.8064446449279785,0.6497081518173218
-3.0045111179351807,4.786801815032959,0.6380399465560913
-3.0022690296173096,4.7116780281066895,0.6190052628517151
-3.046063184738159,4.712815761566162,0.6095877885818481
-3.0474274158477783,4.64858341217041,0.5917855501174927
-3.065410614013672,4.605724811553955,0.5761606693267822
-3.0878002643585205,4.573590278625488,0.561766505241394
-3.0909264087677,4.516626358032227,0.5442948341369629
-3.140253782272339,4.5220489501953125,0.533488929271698
-2.858135461807251,4.056600093841553,0.4680308997631073
-2.8703250885009766,4.020796775817871,0.4531334340572357
-2.897249460220337,4.00293493270874,0.43972867727279663
-2.939077854156494,4.0028791427612305,0.42752063274383545
-2.933936834335327,3.945260524749756,0.4089994430541992
-2.4503490924835205,3.456329584121704,-0.2138470858335495
-2.432556390762329,3.4870262145996094,-0.2286624014377594
-2.8597021102905273,4.162795543670654,-0.287412166595459
-2.8419313430786133,4.202123641967773,-0.3043418526649475
-2.835782051086426,4.2614426612854,-0.32268646359443665
-2.8203165531158447,4.303231239318848,-0.33901214599609375
-1.2865711450576782,1.9943209886550903,-0.1631353795528412
-1.2756478786468506,2.0099997520446777,-0.17043805122375488
-1.2631944417953491,2.0218889713287354,-0.1771802455186844
-1.264731764793396,2.0570268630981445,-0.18593497574329376
-2.133906602859497,3.5285840034484863,-0.32860302925109863
-2.062859296798706,3.465797185897827,-0.3317488729953766
-2.0496156215667725,3.4997453689575195,-0.3439497649669647
-2.607450008392334,4.529243469238281,-0.45679107308387756
-1.207761287689209,2.1328353881835938,-0.22031666338443756
-2.578399419784546,4.628001689910889,-0.4890616834163666
-2.548037528991699,4.6523003578186035,-0.5025139451026917
-2.5174975395202637,4.676347255706787,-0.5159542560577393
-2.4946646690368652,4.713583946228027,-0.5307313203811646
-2.47861647605896,4.764495372772217,-0.5469647645950317
-2.4488704204559326,4.791522026062012,-0.5604857206344604
-2.4282381534576416,4.835381507873535,-0.5758888125419617
-2.40096116065979,4.8648834228515625,-0.5894805788993835
-2.3821206092834473,4.915844440460205,-0.6058251261711121
-1.5775480270385742,3.3157498836517334,-0.4153062105178833
-1.5637075901031494,3.3470284938812256,-0.4258153736591339
-1.530267596244812,3.335857391357422,-0.4308949112892151
-1.51240873336792,3.3600211143493652,-0.4403804540634155
-1.4942134618759155,3.3841054439544678,-0.4499151110649109
-1.4959375858306885,3.4542596340179443,-0.4656946659088135
-1.4714792966842651,3.463719606399536,-0.4732956290245056
-1.4374992847442627,3.4517745971679688,-0.4777165949344635
-0.9631620049476624,2.3599648475646973,-0.33074429631233215
-0.9392318725585938,2.3480565547943115,-0.3331034183502197
-0.9138671159744263,2.3324086666107178,-0.3349379599094391
-0.905403196811676,2.3599283695220947,-0.34273695945739746
-0.8952171206474304,2.3838067054748535,-0.350083589553833
-0.8890185952186584,2.4184422492980957,-0.35904037952423096
-0.8771885633468628,2.4385077953338623,-0.36590954661369324
-0.856880247592926,2.436825752258301,-0.36942458152770996
-0.8494730591773987,2.47145938873291,-0.37839776277542114
-0.8368934988975525,2.49137020111084,-0.38515913486480713
-0.8217556476593018,2.503840923309326,-0.3908025026321411
-0.8051590919494629,2.5126044750213623,-0.39572203159332275
-0.7892513275146484,2.5250558853149414,-0.40122419595718384
-0.7781092524528503,2.552063465118408,-0.40902307629585266
-0.7645190954208374,2.5715949535369873,-0.4156760573387146
-0.7570761442184448,2.6133244037628174,-0.4258759021759033
-0.7562813758850098,2.681108236312866,-0.44029489159584045
-0.7413261532783508,2.700603723526001,-0.44689685106277466
-0.71009361743927,2.66041898727417,-0.44362935423851013
-0.7097925543785095,2.735578775405884,-0.45954620838165283
-0.6819713115692139,2.7062430381774902,-0.4576607346534729
-0.7031218409538269,2.8750741481781006,-0.4894588589668274
-0.6944696307182312,2.9280030727386475,-0.501772940158844
-0.6752777099609375,2.939690589904785,-0.50716233253479
-0.6645746231079102,2.9888508319854736,-0.5186992287635803
-0.9308070540428162,4.329244136810303,-0.7556377649307251
-0.8792718648910522,4.23297119140625,-0.7430605292320251
-0.8277468681335449,4.128660202026367,-0.7288792133331299
-0.7815865874290466,4.0466837882995605,-0.7182814478874207
-0.7299917936325073,3.9264707565307617,-0.7003079056739807
-0.6977461576461792,3.904235363006592,-0.6997102499008179
-0.6599948406219482,3.8476312160491943,-0.6929116249084473
-0.6262173056602478,3.809680938720703,-0.6894099116325378
-0.4695451855659485,2.989210605621338,-0.5431099534034729
-0.4474344253540039,2.984342098236084,-0.5443815588951111
-0.42983120679855347,3.0097427368164062,-0.5512052774429321
-0.41349199414253235,3.0464515686035156,-0.5601636171340942
-0.39516812562942505,3.0716917514801025,-0.5667544603347778
-0.3764718770980835,3.096860408782959,-0.5731631517410278
-0.356230765581131,3.1143083572387695,-0.5782210826873779
-0.3381989896297455,3.150679349899292,-0.586817741394043
-0.3169881999492645,3.1602070331573486,-0.5903717875480652
-0.2970571219921112,3.184974431991577,-0.596322774887085
-0.27481609582901,3.1866579055786133,-0.5979903340339661
-0.25224417448043823,3.188206434249878,-0.5996819138526917
-0.23006018996238708,3.1895711421966553,-0.60134357213974
-0.2088806927204132,3.2061822414398193,-0.6054736375808716
-0.18836824595928192,3.238008737564087,-0.6123513579368591
-0.1658279001712799,3.239034652709961,-0.6134430766105652
-0.14336177706718445,3.2514209747314453,-0.616737425327301
-0.11973289400339127,3.225318670272827,-0.612564742565155
-0.09771434217691422,3.2413272857666016,-0.6159601807594299
-0.07494501769542694,3.2341649532318115,-0.614983081817627
-0.05220596119761467,3.2191689014434814,-0.612542450428009
-0.029235517606139183,3.1963422298431396,-0.6086438298225403
-0.007064598612487316,3.2194979190826416,-0.6129972338676453
0.007265876047313213,1.5272455215454102,-0.29072582721710205
0.03695429861545563,3.1579430103302,-0.6010415554046631
0.05921798199415207,3.1729815006256104,-0.6038291454315186
0.08166619390249252,3.1879055500030518,-0.60639488697052
0.10371669381856918,3.1720499992370605,-0.6027187705039978
0.1263713240623474,3.186732769012451,-0.6048863530158997
0.14742325246334076,3.1629176139831543,-0.5997775197029114
0.1706143319606781,3.1849541664123535,-0.6033926606178284
0.19413289427757263,3.2069239616394043,-0.6064525842666626
0.2157498598098755,3.1904122829437256,-0.6021851301193237
0.24077215790748596,3.227374315261841,-0.6080513596534729
0.2641832232475281,3.237356185913086,-0.6088442802429199
0.28736817836761475,3.243398427963257,-0.6086408495903015
0.31575146317481995,3.3028550148010254,-0.6181229948997498
0.3375423550605774,3.2856369018554688,-0.6132331490516663
0.36671316623687744,3.3408496379852295,-0.6218969821929932
0.39087486267089844,3.346223831176758,-0.6212729215621948
0.4169830083847046,3.366788148880005,-0.6228742003440857
0.4478846490383148,3.421445608139038,-0.6307607293128967
0.47736915946006775,3.4567618370056152,-0.6350113749504089
0.503656268119812,3.469066619873047,-0.6350683569908142
0.5329951047897339,3.500244617462158,-0.6382272839546204
0.565763533115387,3.550226926803589,-0.6445260643959045
0.6012012362480164,3.6113085746765137,-0.6527717113494873
0.6264150738716125,3.607649087905884,-0.6492865085601807
0.6677926182746887,3.6908252239227295,-0.6612484455108643
0.7027285695075989,3.735985279083252,-0.6658539772033691
0.7316863536834717,3.746857166290283,-0.664320707321167
0.7830410003662109,3.8669021129608154,-0.6820399761199951
0.8329753875732422,3.971374988555908,-0.6968267560005188
0.8717041015625,4.015174388885498,-0.7003348469734192
0.9105890989303589,4.0587639808654785,-0.7036439180374146
0.9675709009170532,4.177066326141357,-0.7197479605674744
1.019212007522583,4.264805316925049,-0.7303719520568848
1.0757787227630615,4.367069721221924,-0.7430898547172546
1.1152350902557373,4.394046306610107,-0.742392897605896
1.1682254076004028,4.47304105758667,-0.7504705786705017
1.2075687646865845,4.4956207275390625,-0.748948872089386
1.2431771755218506,4.502999305725098,-0.7448786497116089
1.2786831855773926,4.510260581970215,-0.7402179837226868
1.3084213733673096,4.494871139526367,-0.7317610383033752
1.3354536294937134,4.471963882446289,-0.7222086787223816
1.3600324392318726,4.441478729248047,-0.7115037441253662
1.386336088180542,4.418338775634766,-0.7017166018486023
1.4110891819000244,4.391410827636719,-0.6912409663200378
1.4446747303009033,4.389825344085693,-0.6846634149551392
1.1905491352081299,3.534625768661499,-0.5462413430213928
1.2228020429611206,3.549112558364868,-0.5432920455932617
1.237148404121399,3.5123538970947266,-0.5323183536529541
1.2641654014587402,3.5119261741638184,-0.526904284954071
1.2942153215408325,3.5184450149536133,-0.5224564075469971
1.3138976097106934,3.4956159591674805,-0.5135253071784973
1.3339158296585083,3.4765982627868652,-0.5050621628761292
1.355165958404541,3.461049795150757,-0.49715083837509155
1.3737376928329468,3.438039779663086,-0.4881443977355957
1.397946834564209,3.4292497634887695,-0.48119330406188965
1.4220349788665771,3.4203507900238037,-0.4738926887512207
1.4456218481063843,3.4114370346069336,-0.46672365069389343
1.4665353298187256,3.395050287246704,-0.4584506154060364
1.4904810190200806,3.385589361190796,-0.4511300027370453
1.4916518926620483,3.326643228530884,-0.4371323883533478
1.5439916849136353,3.380584716796875,-0.4378395974636078
1.8933484554290771,4.070807933807373,-0.5195320248603821
1.9120979309082031,4.037463665008545,-0.5075711011886597
1.9465529918670654,4.039385795593262,-0.4999002516269684
1.977645993232727,4.034067630767822,-0.4913026690483093
1.987379789352417,3.9827804565429688,-0.4768575429916382
2.0189425945281982,3.9767394065856934,-0.4680119454860687
2.049622058868408,3.9709038734436035,-0.45904305577278137
2.0694961547851562,3.9441568851470947,-0.4476846158504486
2.0863308906555176,3.9099950790405273,-0.4353013038635254
2.091356039047241,3.8554139137268066,-0.42077723145484924
2.144273281097412,3.8896331787109375,-0.4157010614871979
2.127239942550659,3.797823429107666,-0.39730000495910645
2.157886028289795,3.7905218601226807,-0.38767486810684204
2.1683149337768555,3.749689817428589,-0.37463507056236267
2.193598747253418,3.7359707355499268,-0.36436334252357483
2.2400801181793213,3.7547430992126465,-0.3567145764827728
2.2462053298950195,3.7066397666931152,-0.34277990460395813
2.2669711112976074,3.685814142227173,-0.3314511179924011
2.3127214908599854,3.7042582035064697,-0.32343846559524536
2.318002223968506,3.65588116645813,-0.30925971269607544
2.3430016040802,3.640864133834839,-0.2978188097476959
2.384406089782715,3.652095317840576,-0.28856605291366577
2.3928723335266113,3.6101250648498535,-0.27459239959716797
2.4084272384643555,3.5818724632263184,-0.261789470911026
2.4452085494995117,3.5860724449157715,-0.25130560994148254
2.457622528076172,3.5500376224517822,-0.23704370856285095
2.4902310371398926,3.547147512435913,-0.22524873912334442
2.5318078994750977,3.5567739009857178,-0.21393850445747375
2.5339436531066895,3.5080275535583496,-0.19840863347053528
2.556514024734497,3.492356777191162,-0.18486657738685608
2.186915874481201,2.946040630340576,-0.1446041315793991
2.810575008392334,3.9498956203460693,0.47596821188926697
2.760470390319824,3.9406776428222656,0.48698630928993225
2.7406067848205566,3.9717116355895996,0.5022382140159607
2.715454339981079,4.001303195953369,0.5170918703079224
2.698148250579834,4.039355754852295,0.5325623154640198
2.654282331466675,4.03419828414917,0.5418058633804321
2.6137242317199707,4.040459632873535,0.5523106455802917
2.590787649154663,4.071981430053711,0.5659604668617249
2.5637874603271484,4.092082977294922,0.5773670673370361
2.5537984371185303,4.142401695251465,0.5929538011550903
2.509636402130127,4.1405792236328125,0.6008793711662292
2.486166000366211,4.171234130859375,0.613365888595581
2.448605537414551,4.173973083496094,0.6212961673736572
2.4329872131347656,4.217450141906738,0.6350756287574768
2.3968355655670166,4.2277350425720215,0.6437490582466125
2.3730127811431885,4.257457256317139,0.655200183391571
2.2808303833007812,4.1610565185546875,0.6469486355781555
2.250321865081787,4.17628812789917,0.6555843949317932
2.222238302230835,4.198724269866943,0.6651171445846558
2.201350450515747,4.234550476074219,0.6767956614494324
2.167861223220825,4.241839408874512,0.683614194393158
2.1407535076141357,4.262935161590576,0.6927980184555054
2.105381488800049,4.270666599273682,0.6992363333702087
2.0901224613189697,4.319877624511719,0.7125329971313477
2.0635879039764404,4.344225883483887,0.7216699123382568
2.036085367202759,4.364510536193848,0.7300416827201843
1.996862530708313,4.360175609588623,0.73421311378479
1.9780114889144897,4.405705451965332,0.7464913725852966
2.0104637145996094,4.5675129890441895,0.7786213159561157
1.9927548170089722,4.616155624389648,0.7915446162223816
1.9450855255126953,4.593419551849365,0.7921687960624695
1.9242287874221802,4.634478569030762,0.8037388324737549
1.8922181129455566,4.654858112335205,0.8113663196563721
1.8520805835723877,4.653284072875977,0.8151326179504395
1.8099370002746582,4.643948554992676,0.8174730539321899
1.780043363571167,4.662696838378906,0.8246647119522095
1.7553699016571045,4.695682048797607,0.8344390392303467
1.3396925926208496,3.66544246673584,0.6541032195091248
1.3180625438690186,3.6888842582702637,0.6609396934509277
1.2885427474975586,3.6903793811798096,0.6638844609260559
1.6394537687301636,4.802734851837158,0.8673757910728455
1.6130427122116089,4.835068225860596,0.8766395449638367
1.5804924964904785,4.852950096130371,0.8832220435142517
1.5650289058685303,4.925777912139893,0.899387538433075
1.53834068775177,4.965527534484863,0.9096150994300842
1.504793405532837,4.982949733734131,0.9157965183258057
2.6725142002105713,9.077263832092285,1.6736338138580322
1.41264009475708,4.924157619476318,0.9108399152755737
2.504747152328491,8.974275588989258,1.6648966073989868
1.3564447164535522,4.998151779174805,0.9296348690986633
1.291956901550293,4.899241924285889,0.9136135578155518
1.27033269405365,4.959723472595215,0.927311360836029
1.2338154315948486,4.960282802581787,0.9298223853111267
1.1967178583145142,4.960712432861328,0.9323923587799072
1.1728991270065308,5.017035007476807,0.9451220631599426
1.1386668682098389,5.032167911529541,0.9498545527458191
1.1025805473327637,5.03956937789917,0.95318204164505
1.0746641159057617,5.084234237670898,0.9636058211326599
1.0431530475616455,5.113681316375732,0.9712147116661072
1.0059080123901367,5.112687587738037,0.9730645418167114
1.6745785474777222,8.838603973388672,1.6853110790252686
1.610265851020813,8.841875076293945,1.6884135007858276
1.5445705652236938,8.837132453918457,1.6900683641433716
1.4767757654190063,8.824481964111328,1.6903278827667236
1.416452169418335,8.841291427612305,1.696210503578186
1.3460934162139893,8.793195724487305,1.6897081136703491
1.2824671268463135,8.786367416381836,1.69105863571167
1.220294713973999,8.794591903686523,1.694312334060669
1.1489781141281128,8.741641998291016,1.6858850717544556
1.0871341228485107,8.748926162719727,1.6891158819198608
1.0201315879821777,8.706164360046387,1.6827369928359985
0.9691908955574036,8.80013656616211,1.7028675079345703
0.9035172462463379,8.764087677001953,1.6979340314865112
0.8461098074913025,8.811741828918457,1.7084470987319946
0.38677313923835754,4.355099678039551,0.8448874354362488
0.3574025332927704,4.372804641723633,0.8488644957542419
0.3244744837284088,4.344410419464111,0.8439304828643799
0.2968706488609314,4.384627342224121,0.8523622751235962
0.34351107478141785,5.657144546508789,1.1005897521972656
0.30343884229660034,5.659212112426758,1.1017378568649292
0.2662097215652466,5.710881233215332,1.1119768619537354
0.22888030111789703,5.777627468109131,1.125210165977478
0.18875600397586823,5.786642551422119,1.127258062362671
0.1496327668428421,5.833703517913818,1.1367743015289307
0.10819312930107117,5.826838970184326,1.1358470916748047
0.06768044829368591,5.827342510223389,1.1364035606384277
0.027234086766839027,5.862171173095703,1.1431679725646973
-0.02017582766711712,8.72246265411377,1.7005910873413086
-0.08122866600751877,8.760514259338379,1.707735538482666
-0.14260466396808624,8.717615127563477,1.6991794109344482
-0.20486381649971008,8.789307594299316,1.7130452394485474
-0.2611505687236786,8.626771926879883,1.681342363357544
-0.1766282320022583,4.743465423583984,0.9244603514671326
-0.3596929609775543,8.14385986328125,1.5861896276474
-0.18477897346019745,3.6150131225585938,0.7036991715431213
-0.20869126915931702,3.586945056915283,0.697864830493927
-0.2330978661775589,3.5778746604919434,0.6957692503929138
-0.5664547681808472,7.8525261878967285,1.5263830423355103
-0.5281187295913696,6.674993515014648,1.2970002889633179
-0.5743374824523926,6.6714863777160645,1.2954028844833374
-0.612926721572876,6.579857349395752,1.2763270139694214
-0.64150071144104,6.407928466796875,1.241804838180542
-0.6848122477531433,6.396102428436279,1.2384024858474731
-0.7345135807991028,6.437294960021973,1.2453076839447021
-0.7737476825714111,6.3867058753967285,1.2345175743103027
-0.8125321865081787,6.3319926261901855,1.2229728698730469
-0.8487371802330017,6.273568153381348,1.2099754810333252
-0.888572633266449,6.245319366455078,1.2028728723526
-0.9371252655982971,6.277541160583496,1.207470178604126
-0.9864445924758911,6.309353351593018,1.2120167016983032
-1.0391716957092285,6.35198974609375,1.2186424732208252
-1.0931282043457031,6.401880264282227,1.2267193794250488
-1.1425981521606445,6.425058364868164,1.2292252779006958
-1.1956442594528198,6.466860771179199,1.2349351644515991
-1.2514156103134155,6.519568920135498,1.2427510023117065
-1.3058581352233887,6.560500621795654,1.248335838317871
-1.3617408275604248,6.596932411193848,1.2530162334442139
-1.419738531112671,6.644349098205566,1.2598522901535034
-1.4591867923736572,6.60509729385376,1.2501262426376343
-1.4948551654815674,6.554663181304932,1.2376773357391357
-1.522794485092163,6.474131107330322,1.2196569442749023
-0.6765456795692444,2.789608955383301,0.5243183970451355
-0.6940498948097229,2.7777624130249023,0.5209043622016907
-0.7191119194030762,2.795576810836792,0.5230697393417358
-0.7385842800140381,2.7908756732940674,0.5210364460945129
-0.7534770369529724,2.7713966369628906,0.515920102596283
-0.7746516466140747,2.7739827632904053,0.5149076581001282
-1.7627711296081543,6.151909828186035,1.1387035846710205
-1.796704888343811,6.111006259918213,1.127910852432251
-1.8305367231369019,6.069809436798096,1.1171207427978516
-1.8650152683258057,6.032101631164551,1.1070563793182373
-1.8927273750305176,5.976151466369629,1.0929497480392456
-1.9212874174118042,5.927674770355225,1.0803117752075195
-1.9504878520965576,5.882720947265625,1.0684095621109009
-1.9765206575393677,5.826357364654541,1.054434895515442
-2.0110507011413574,5.795248985290527,1.045089602470398
-2.0438923835754395,5.7603278160095215,1.035104751586914
-2.070323944091797,5.711136341094971,1.021862506866455
-2.102196216583252,5.680125713348389,1.0120370388031006
-2.1269333362579346,5.63090705871582,0.9990543723106384
-2.1691043376922607,5.624261856079102,0.9935423731803894
-2.2324647903442383,5.671103477478027,0.9974755048751831
-2.289458990097046,5.699496269226074,0.9977802038192749
-2.346644163131714,5.731712818145752,0.9983721971511841
-2.3658013343811035,5.670851707458496,0.9827893376350403
-2.3955442905426025,5.634530067443848,0.9714673757553101
-2.461237668991089,5.67906379699707,0.9739598631858826
-2.559617280960083,5.79326868057251,0.9881775975227356
-2.5303828716278076,5.6260247230529785,0.9538970589637756
-2.543971538543701,5.557681560516357,0.9365972876548767
-2.581409454345703,5.54180383682251,0.9282053709030151
-2.6022582054138184,5.486518859863281,0.9130347967147827
-2.641563653945923,5.469176769256592,0.904168963432312
-2.68701171875,5.470027923583984,0.8979372382164001
-2.700984477996826,5.408535957336426,0.8814106583595276
-4.835653305053711,9.52524471282959,1.5408966541290283
-2.716708183288574,5.260471820831299,0.8443560600280762
-2.779003620147705,5.2905964851379395,0.842521607875824
-2.8204758167266846,5.283366680145264,0.8340595364570618
-1.165802001953125,2.1499850749969482,0.33644580841064453
-1.1859543323516846,2.152853012084961,0.33385995030403137
-2.4931697845458984,4.452282905578613,0.6838768720626831
-5.595973968505859,9.835049629211426,1.4958921670913696
-5.70657205581665,9.877530097961426,1.4863708019256592
-5.838357448577881,9.956375122070312,1.4823620319366455
-1.237553596496582,2.077584743499756,0.3057921230792999
-2.925929546356201,4.835367679595947,0.7033766508102417
-2.947580575942993,4.801111221313477,0.6896306276321411
-2.9836173057556152,4.789594650268555,0.6790067553520203
-3.012725353240967,4.763865947723389,0.666004478931427
-3.0381550788879395,4.730968475341797,0.6518608331680298
-3.0288894176483154,4.650849342346191,0.6309719085693359
-3.061265230178833,4.635921955108643,0.6190592050552368
-3.0749921798706055,4.586611747741699,0.6016384363174438
-3.084912061691284,4.534792900085449,0.5840282440185547
-3.103032112121582,4.500555992126465,0.5685368180274963
-2.9239370822906494,4.18192720413208,0.5174522399902344
-2.8503453731536865,4.016744613647461,0.48586103320121765
-2.883451223373413,4.009077548980713,0.4731909930706024
-2.9235708713531494,4.010473251342773,0.46133655309677124
-2.938286781311035,3.972439765930176,0.44395020604133606
-2.966719388961792,4.156687259674072,-0.2572299540042877
-2.4414000511169434,3.4713282585144043,-0.22791582345962524
-2.878657102584839,4.159144401550293,-0.2886580228805542
-2.861253023147583,4.198324203491211,-0.30628934502601624
-2.8523707389831543,4.2502121925354,-0.32458561658859253
-2.8155159950256348,4.264129638671875,-0.3400985300540924
-2.8033993244171143,4.312750816345215,-0.35783305764198303
-2.752985715866089,4.302275657653809,-0.37026679515838623
-1.2637362480163574,2.0075223445892334,-0.17893974483013153
-1.2637310028076172,2.039072036743164,-0.1876368373632431
-1.2489535808563232,2.047541856765747,-0.19423404335975647
-2.1163253784179688,3.5284738540649414,-0.3448261022567749
-2.0315277576446533,3.4419915676116943,-0.34565091133117676
-2.628368377685547,4.525231838226318,-0.4663548469543457
-2.614043951034546,4.576946258544922,-0.4835895299911499
-2.5976643562316895,4.624997138977051,-0.5004591345787048
-2.564220905303955,4.642149448394775,-0.513938844203949
-2.5376861095428467,4.672929286956787,-0.5287192463874817
-2.5140836238861084,4.710599899291992,-0.5443626046180725
-2.4912800788879395,4.747541904449463,-0.5596487522125244
-2.4699177742004395,4.787781715393066,-0.5753626823425293
-2.441190242767334,4.818336009979248,-0.5900586843490601
-2.4129765033721924,4.8483076095581055,-0.6045200228691101
-2.3989336490631104,4.905601501464844,-0.6222825646400452
-1.5925288200378418,3.315730094909668,-0.4276914596557617
-1.574839472770691,3.340245485305786,-0.437884122133255
-1.5409512519836426,3.32930326461792,-0.44333142042160034
-1.52337646484375,3.3533241748809814,-0.4534296989440918
-1.5056151151657104,3.3772318363189697,-0.4633535146713257
-1.020006537437439,2.3325250148773193,-0.32458311319351196
-1.0078932046890259,2.3496787548065186,-0.33149462938308716
-0.9777433276176453,2.3238556385040283,-0.3322697579860687
-0.9431008696556091,2.2871956825256348,-0.33133193850517273
-0.9323846101760864,2.307555675506592,-0.33849120140075684
-0.9244365096092224,2.3349974155426025,-0.3467295169830322
-0.9135127663612366,2.355146884918213,-0.3539244830608368
-0.9090151190757751,2.393406391143799,-0.3638262450695038
-0.8914717435836792,2.399226665496826,-0.3688657879829407
-0.8796309232711792,2.419292688369751,-0.3760308027267456
-0.8599543571472168,2.417393684387207,-0.3797709345817566
-0.855482280254364,2.4591684341430664,-0.39031094312667847
-0.8403971195220947,2.4717743396759033,-0.39618805050849915
-0.8249138593673706,2.484351873397827,-0.4021608531475067
-0.8132891654968262,2.507716655731201,-0.40984705090522766
-0.8024924993515015,2.534729480743408,-0.4181140959262848
-0.7889431118965149,2.554391860961914,-0.4250521957874298
-0.7773954272270203,2.5813539028167725,-0.43327608704566956
-0.7636223435401917,2.6007864475250244,-0.44025179743766785
-0.7503216862678528,2.623934030532837,-0.4479612708091736
-0.7503538727760315,2.695277690887451,-0.4636692702770233
-0.7272520661354065,2.6848950386047363,-0.4654088616371155
-0.7171885967254639,2.7227210998535156,-0.47553372383117676
-0.7076030969619751,2.764237642288208,-0.48641565442085266
-0.7425042986869812,2.988948106765747,-0.5296229124069214
-0.7168657779693604,2.974642038345337,-0.5306075215339661
-0.6994109749794006,2.9938371181488037,-0.5375785231590271
-0.6859877705574036,3.031675338745117,-0.5479778051376343
-0.6662838459014893,3.043196201324463,-0.5534568428993225
-0.7844623327255249,3.7092790603637695,-0.6785284876823425
-0.7398637533187866,3.6234471797943115,-0.666623592376709
-0.5644698143005371,2.865950107574463,-0.530264675617218
-0.5487005710601807,2.8918232917785645,-0.5380252003669739
-0.5311381816864014,2.9101290702819824,-0.5440378189086914
-0.5149967074394226,2.9397196769714355,-0.5522679686546326
-0.49316439032554626,2.9350674152374268,-0.5540549755096436
-0.4775431156158447,2.968158721923828,-0.563011646270752
-0.46494749188423157,3.0240066051483154,-0.5759591460227966
-0.4437650442123413,3.026657819747925,-0.5787349343299866
-0.42330202460289,3.036797523498535,-0.5830122828483582
-0.4026111662387848,3.0429470539093018,-0.5865181088447571
-0.3832731544971466,3.0604171752929688,-0.5920075178146362
-0.36099299788475037,3.0549685955047607,-0.5927603840827942
-0.3405015170574188,3.064605951309204,-0.5964693427085876
-0.3175349533557892,3.051215648651123,-0.5957187414169312
-0.2973802089691162,3.0682172775268555,-0.6009436249732971
-0.2708171606063843,3.0126218795776367,-0.5913410782814026
-0.24791684746742249,2.991199254989624,-0.5884391665458679
-0.22474823892116547,2.9619648456573486,-0.5840055346488953
-0.2017582207918167,2.9287354946136475,-0.5787817239761353
-0.1791161298751831,2.8992505073547363,-0.573946475982666
-0.15850888192653656,2.8925812244415283,-0.5734075903892517
-0.13836924731731415,2.893420934677124,-0.574383020401001
-0.11791280657052994,2.8864638805389404,-0.5738362669944763
-0.09758240729570389,2.8793885707855225,-0.5731536149978638
-0.07667367160320282,2.860780715942383,-0.5697330832481384
-0.05691462755203247,2.8688290119171143,-0.571643054485321
-0.036970652639865875,2.8690788745880127,-0.5720271468162537
