X,Y,Z
-1.4590646028518677,2.227635622024536,-0.16379132866859436
-1.4548617601394653,2.257734537124634,-0.17227688431739807
-1.4341553449630737,2.2611916065216064,-0.17856651544570923
-1.4362441301345825,2.300778388977051,-0.1876787394285202
-1.4149070978164673,2.3042705059051514,-0.1937982439994812
-1.4141969680786133,2.3406405448913574,-0.20258671045303345
-1.405517816543579,2.3634493350982666,-0.21013568341732025
-1.3918488025665283,2.379976511001587,-0.21714261174201965
-1.3740358352661133,2.3897106647491455,-0.22358423471450806
-1.349461555480957,2.3852250576019287,-0.2283744215965271
-1.3357763290405273,2.401242971420288,-0.2350824624300003
-1.3292155265808105,2.4309253692626953,-0.24318692088127136
-1.304552674293518,2.4260029792785645,-0.2476591318845749
-1.2796424627304077,2.42104434967041,-0.252108633518219
-1.2582969665527344,2.4228460788726807,-0.2570943236351013
-1.2406973838806152,2.431302309036255,-0.2627391219139099
-1.213057279586792,2.4185473918914795,-0.26593759655952454
-1.2024279832839966,2.44059419631958,-0.272896945476532
-1.1944400072097778,2.4698188304901123,-0.28078094124794006
-1.183421015739441,2.4917209148406982,-0.28774386644363403
-1.1707409620285034,2.5099520683288574,-0.2942819893360138
-1.1783719062805176,2.5742578506469727,-0.30623987317085266
-1.169187068939209,2.6033613681793213,-0.3141520619392395
-1.1554162502288818,2.621595859527588,-0.3207121193408966
-1.1319653987884521,2.6184723377227783,-0.32471010088920593
-1.1176306009292603,2.636638641357422,-0.33112943172454834
-1.1015815734863281,2.6511447429656982,-0.3371385931968689
-1.0857195854187012,2.665416717529297,-0.34308308362960815
-1.0754834413528442,2.6939854621887207,-0.35090166330337524
-1.0669790506362915,2.730041980743408,-0.35968679189682007
-1.1026912927627563,2.8818206787109375,-0.3839205801486969
-1.2019965648651123,3.208214044570923,-0.4320182204246521
-1.1954431533813477,3.2594704627990723,-0.4435858726501465
-1.199601173400879,3.343757152557373,-0.45955848693847656
-1.1842625141143799,3.3771820068359375,-0.46877720952033997
-1.1704102754592896,3.4139981269836426,-0.4784422218799591
-1.1586555242538452,3.4580752849578857,-0.48921722173690796
-1.1388217210769653,3.480189085006714,-0.49669408798217773
-1.1174720525741577,3.4985251426696777,-0.5036466717720032
-1.1037877798080444,3.5426313877105713,-0.5144268274307251
-1.0721958875656128,3.527292013168335,-0.5165040493011475
-1.0582855939865112,3.571103096008301,-0.5270498394966125
-1.024382472038269,3.548048496246338,-0.5276265144348145
-0.9668185114860535,3.4390883445739746,-0.5152875185012817
-0.9447165131568909,3.452528238296509,-0.5211592316627502
-0.9010830521583557,3.3875317573547363,-0.5150781869888306
-0.8683818578720093,3.359503746032715,-0.5141943097114563
-0.8276569247245789,3.2974681854248047,-0.5080292224884033
-0.7944507598876953,3.2612764835357666,-0.505732536315918
-0.7564650177955627,3.2022435665130615,-0.4998127520084381
-0.7213605642318726,3.1543331146240234,-0.49519017338752747
-0.6923950910568237,3.1286392211914062,-0.4939488470554352
-0.663140058517456,3.098904609680176,-0.4920215904712677
-0.6352598071098328,3.07267689704895,-0.4905996322631836
-0.6084540486335754,3.0500593185424805,-0.48947054147720337
-0.576450765132904,3.0008044242858887,-0.4839065968990326
-0.5476759076118469,2.9625816345214844,-0.4800289273262024
-0.5188587307929993,2.92030668258667,-0.47544318437576294
-0.4971220791339874,2.9158194065093994,-0.47691091895103455
-0.47102072834968567,2.8846030235290527,-0.473663330078125
-0.44920817017555237,2.8798835277557373,-0.47479450702667236
-0.42228198051452637,2.836810350418091,-0.46954721212387085
-0.39924678206443787,2.81640887260437,-0.4680284261703491
-0.3806014657020569,2.8264431953430176,-0.47124722599983215
-0.3554571270942688,2.78667950630188,-0.46606093645095825
-0.3369005620479584,2.7964420318603516,-0.4691610336303711
-0.31444767117500305,2.775481700897217,-0.4671449065208435
-0.295896977186203,2.7849864959716797,-0.4701155126094818
-0.27415385842323303,2.763754367828369,-0.4675956964492798
-0.2527218461036682,2.742358684539795,-0.46505311131477356
-0.23068585991859436,2.7092857360839844,-0.46052634716033936
-0.2126811146736145,2.725980043411255,-0.46449413895606995
-0.1942233145236969,2.734912395477295,-0.4667789041996002
-0.17318496108055115,2.705305814743042,-0.46241495013237
-0.1547822654247284,2.7139837741851807,-0.4646107256412506
-0.13628844916820526,2.722534656524658,-0.4668104648590088
-0.1150411069393158,2.677143096923828,-0.45964306592941284
-0.09750896692276001,2.708584785461426,-0.46536117792129517
-0.07844862341880798,2.7014260292053223,-0.464472234249115
-0.060320962220430374,2.7326223850250244,-0.47020387649536133
-0.041202519088983536,2.7252020835876465,-0.46931615471839905
-0.021910034120082855,2.7254130840301514,-0.4693872034549713
-0.002954209456220269,2.740901470184326,-0.47201845049858093
0.01612667553126812,2.744708776473999,-0.47266069054603577
0.035331372171640396,2.752232313156128,-0.47396573424339294
0.05448739230632782,2.7519469261169434,-0.4738079011440277
0.07363735139369965,2.7515830993652344,-0.4733305275440216
0.09362992644309998,2.766467332839966,-0.4754903316497803
0.11113277822732925,2.723517417907715,-0.4677436351776123
0.1331649273633957,2.7881381511688232,-0.47849178314208984
0.15460695326328278,2.8257391452789307,-0.4842236638069153
0.17635735869407654,2.8593521118164062,-0.48917654156684875
0.1960388571023941,2.850520372390747,-0.4868701100349426
0.21701522171497345,2.864614725112915,-0.4885145127773285
0.2382110059261322,2.8785786628723145,-0.4900093674659729
0.25890302658081055,2.8847718238830566,-0.48986393213272095
0.2815472483634949,2.909986734390259,-0.49295809864997864
0.3077089786529541,2.961815595626831,-0.5005309581756592
0.3338155150413513,3.0096347332000732,-0.5074306130409241
0.35649532079696655,3.0228710174560547,-0.5081059336662292
0.3822547495365143,3.0588951110839844,-0.5125118494033813
0.4110530614852905,3.1138150691986084,-0.5200574994087219
0.4353059232234955,3.126436233520508,-0.5204865336418152
0.46433812379837036,3.173281192779541,-0.5264750123023987
0.494599312543869,3.223750352859497,-0.5326945781707764
0.5261704325675964,3.2777724266052246,-0.5394559502601624
0.5566551685333252,3.3201048374176025,-0.544247031211853
0.5884451866149902,3.365974187850952,-0.5495799779891968
0.6163920164108276,3.3850228786468506,-0.550044059753418
0.6506540775299072,3.4380486011505127,-0.5559676289558411
0.6864522695541382,3.4945545196533203,-0.562386155128479
0.7208667993545532,3.539377212524414,-0.5668545365333557
0.7622466087341309,3.614157199859619,-0.5758423805236816
0.795978307723999,3.64704966545105,-0.5777323246002197
0.8620592355728149,3.8228600025177,-0.6021480560302734
0.9054098725318909,3.88887095451355,-0.6090484857559204
0.961449146270752,4.003300666809082,-0.6233899593353271
1.0198650360107422,4.1210432052612305,-0.6375421285629272
1.0632665157318115,4.1707024574279785,-0.6409379839897156
1.1129132509231567,4.242485523223877,-0.6476837992668152
1.1566627025604248,4.28765344619751,-0.6502518057823181
1.1947178840637207,4.310171604156494,-0.649025559425354
1.2256486415863037,4.30639123916626,-0.6436358094215393
1.248460054397583,4.272541046142578,-0.6337190270423889
1.2784017324447632,4.264562606811523,-0.6277372241020203
1.3059154748916626,4.249018669128418,-0.6205592155456543
1.3330048322677612,4.233415603637695,-0.6130993962287903
1.3444973230361938,4.16974401473999,-0.5987841486930847
1.1387007236480713,3.4478743076324463,-0.49079394340515137
1.1740424633026123,3.473554849624634,-0.49016422033309937
1.1942613124847412,3.4551587104797363,-0.4829845726490021
1.220726728439331,3.454899311065674,-0.4783642292022705
1.2448153495788574,3.4470784664154053,-0.4726713001728058
1.260929822921753,3.417226791381836,-0.463985413312912
1.284986972808838,3.409061908721924,-0.45800691843032837
1.3112655878067017,3.408144950866699,-0.45302507281303406
1.3292349576950073,3.3853132724761963,-0.44513168931007385
1.3588041067123413,3.391063690185547,-0.44095200300216675
1.3764878511428833,3.367971420288086,-0.4328995943069458
1.3970742225646973,3.3518950939178467,-0.4256143867969513
1.423306941986084,3.350069999694824,-0.42021799087524414
1.4499104022979736,3.3479020595550537,-0.41470256447792053
1.479367971420288,3.3527705669403076,-0.4099462628364563
1.5230172872543335,3.389392137527466,-0.4088856875896454
1.5338605642318726,3.3511829376220703,-0.3986547291278839
1.5541764497756958,3.3340489864349365,-0.3909878134727478
1.5939364433288574,3.359084129333496,-0.3881579637527466
1.594948410987854,3.3034005165100098,-0.37595391273498535
1.6365708112716675,3.3314719200134277,-0.3732661008834839
1.6204190254211426,3.2405033111572266,-0.35711395740509033
1.6198115348815918,3.184976100921631,-0.3451312184333801
1.6682655811309814,3.2264397144317627,-0.3436157703399658
1.7213338613510132,3.274108648300171,-0.3424714207649231
1.7278549671173096,3.231802225112915,-0.3317692279815674
1.753546953201294,3.2275593280792236,-0.3249461352825165
1.7287400960922241,3.130979299545288,-0.30887532234191895
1.742966651916504,3.1059799194335938,-0.29999542236328125
1.7819435596466064,3.1249136924743652,-0.2952616214752197
1.3619762659072876,2.3520150184631348,-0.21723118424415588
1.2990200519561768,2.2089271545410156,-0.1992335170507431
0.9551515579223633,1.5982292890548706,-0.1404912918806076
0.9659579396247864,1.59208345413208,-0.13632650673389435
0.9725121259689331,1.5792955160140991,-0.13160964846611023
0.9897369146347046,1.5827219486236572,-0.12807795405387878
1.0005676746368408,1.5762473344802856,-0.1236942708492279
1.0111970901489258,1.5697942972183228,-0.11923995614051819
1.0155959129333496,1.553335189819336,-0.1139746829867363
1.0370464324951172,1.5628849267959595,-0.11052011698484421
1.0472924709320068,1.5563596487045288,-0.10588616132736206
1.0513502359390259,1.5397950410842896,-0.1004127711057663
2.5529544353485107,3.684360980987549,-0.22929726541042328
2.57244873046875,3.6619629859924316,-0.21710757911205292
2.60231614112854,3.651113271713257,-0.20491838455200195
2.61287260055542,3.6154074668884277,-0.19119907915592194
2.6110451221466064,3.5642952919006348,-0.17669355869293213
2.670715093612671,3.593687057495117,-0.16520535945892334
2.6435959339141846,3.7165608406066895,0.39724498987197876
2.616391658782959,3.734410285949707,0.4097602069377899
2.599851369857788,3.7729358673095703,0.42438676953315735
1.0457018613815308,1.541445016860962,0.1773322969675064
1.0603736639022827,1.5872796773910522,0.1864270269870758
1.0436466932296753,1.5884883403778076,0.19027169048786163
1.0357401371002197,1.602376103401184,0.19554449617862701
1.011812686920166,1.589514970779419,0.19729575514793396
0.9995273351669312,1.5967601537704468,0.2013719379901886
0.9953062534332275,1.6171447038650513,0.20713606476783752
0.9797747731208801,1.6170449256896973,0.21004469692707062
0.9677234292030334,1.6237914562225342,0.21383275091648102
0.9395619630813599,1.6038851737976074,0.2139335572719574
1.3437962532043457,2.3332622051239014,0.3150883913040161
1.8225594758987427,3.2161223888397217,0.43932220339775085
1.7555603981018066,3.150557279586792,0.43511298298835754
1.7609920501708984,3.217536211013794,0.44911113381385803
1.7717585563659668,3.294603109359741,0.4645730257034302
1.7556698322296143,3.319890022277832,0.4726109206676483
2.3751697540283203,4.569278240203857,0.6564805507659912
2.3407769203186035,4.5858306884765625,0.6645443439483643
2.3022258281707764,4.595452308654785,0.671726644039154
2.2762300968170166,4.624535083770752,0.6814172863960266
2.240161895751953,4.632394313812256,0.6879668831825256
2.212661027908325,4.661654949188232,0.697338342666626
2.174639940261841,4.669893264770508,0.7035011649131775
2.1433305740356445,4.691776752471924,0.7117178440093994
2.1096699237823486,4.7059526443481445,0.7186654806137085
2.0795748233795166,4.726737976074219,0.7265763282775879
2.0507636070251465,4.755168914794922,0.7352145910263062
1.7552013397216797,4.152989864349365,0.6458495855331421
1.7248176336288452,4.164833068847656,0.6514185070991516
1.6949983835220337,4.176204681396484,0.6568683385848999
1.6656360626220703,4.187159061431885,0.6622200608253479
1.629312515258789,4.184060096740723,0.6648854613304138
1.6068644523620605,4.216763019561768,0.6732755303382874
1.57060968875885,4.213125228881836,0.6758962869644165
1.5484468936920166,4.245222568511963,0.6842154860496521
1.521239995956421,4.262482643127441,0.690143883228302
1.4930462837219238,4.279897689819336,0.695783793926239
1.459330677986145,4.282647132873535,0.6989383101463318
1.4330066442489624,4.307094097137451,0.7056718468666077
1.3971219062805176,4.3019328117370605,0.7075690031051636
1.373895287513733,4.333013534545898,0.7153922319412231
1.3466938734054565,4.352985382080078,0.7213169932365417
1.314043402671814,4.358301639556885,0.7244566082954407
1.2857327461242676,4.378174781799316,0.730057954788208
1.2583073377609253,4.401556491851807,0.736292839050293
1.2269704341888428,4.409773826599121,0.7400003671646118
1.200149655342102,4.432517051696777,0.7461497783660889
1.170647382736206,4.447800636291504,0.7508072853088379
1.1424919366836548,4.470495223999023,0.7565141320228577
1.1121681928634644,4.485537052154541,0.7609772682189941
1.0814043283462524,4.500433444976807,0.7654786109924316
1.0464634895324707,4.492331504821777,0.766029417514801
1.0210165977478027,4.525307655334473,0.7736270427703857
0.986464262008667,4.520660877227783,0.7744715809822083
0.9557518362998962,4.5346832275390625,0.7783614993095398
0.7808658480644226,3.8427212238311768,0.6609029173851013
0.7513996958732605,3.836442232131958,0.6611322164535522
0.7203291058540344,3.8185153007507324,0.6593552827835083
0.8360282778739929,4.607390403747559,0.7971886992454529
0.8048224449157715,4.6203742027282715,0.800739586353302
0.7752335667610168,4.648492813110352,0.806768536567688
0.7434650659561157,4.661121368408203,0.8101367354393005
0.7122372388839722,4.677322864532471,0.8141677379608154
0.6818298101425171,4.6970601081848145,0.8188442587852478
0.6501285433769226,4.708970546722412,0.822202205657959
0.6175167560577393,4.720807075500488,0.8253353238105774
0.5860483050346375,4.740070343017578,0.8294879198074341
0.5534478425979614,4.751476764678955,0.832310676574707
0.5232248902320862,4.785609722137451,0.8391630053520203
0.491067111492157,4.8003621101379395,0.8426533341407776
0.45768725872039795,4.803400993347168,0.8441289067268372
0.42493873834609985,4.821617126464844,0.8482038974761963
0.39297592639923096,4.847329616546631,0.8531538844108582
0.3594832718372345,4.857484340667725,0.855411171913147
0.3269495964050293,4.882758617401123,0.8603753447532654
0.2933216691017151,4.89244270324707,0.8626353740692139
0.2588810920715332,4.898075580596924,0.8642334342002869
0.22591117024421692,4.922653675079346,0.8692081570625305
0.19241812825202942,4.947105884552002,0.8736719489097595
0.15808363258838654,4.955963611602783,0.875347375869751
0.12426497787237167,4.987654209136963,0.8810993432998657
0.08905286341905594,4.999892234802246,0.8834629058837891
0.05452585220336914,5.023412227630615,0.8878608345985413
0.01955980435013771,5.031306266784668,0.8895419239997864
-0.015458639711141586,5.039009094238281,0.8909302949905396
-0.05073925852775574,5.0619072914123535,0.894730269908905
-0.08670049160718918,5.069164276123047,0.8958039283752441
-0.12242116779088974,5.087716102600098,0.898919939994812
-0.15876193344593048,5.117550849914551,0.9040717482566833
-0.19470472633838654,5.124058246612549,0.9051454663276672
-0.23032893240451813,5.122640609741211,0.9048072695732117
-0.2673906087875366,5.1518168449401855,0.9093271493911743
-0.3052743077278137,5.17685079574585,0.9131425619125366
-0.2872161865234375,4.357098579406738,0.7680845856666565
-0.3115583062171936,4.274558067321777,0.7531157732009888
-0.3419091999530792,4.280090808868408,0.7537065148353577
-0.3750164806842804,4.316072940826416,0.7596919536590576
-0.3995707631111145,4.2522406578063965,0.7477625608444214
-0.4246376156806946,4.207493782043457,0.7390952110290527
-0.44662973284721375,4.139644622802734,0.7264246940612793
-0.4716587960720062,4.10609769821167,0.7198249697685242
-0.4950736165046692,4.0609130859375,0.7112266421318054
-0.516891598701477,4.00408935546875,0.7006286978721619
-0.5414743423461914,3.9777743816375732,0.6952511668205261
-0.5627169609069824,3.932347297668457,0.686272919178009
-0.582833468914032,3.88299822807312,0.6766637563705444
-0.6028969883918762,3.8373563289642334,0.6677545309066772
-0.6199820041656494,3.7725071907043457,0.6555340886116028
-0.6455397605895996,3.7645907402038574,0.6532689332962036
-0.6676377654075623,3.737551689147949,0.6476878523826599
-0.684709906578064,3.6878201961517334,0.637808620929718
-0.7019017934799194,3.6417973041534424,0.6286280155181885
-0.7207218408584595,3.6070432662963867,0.621447741985321
-0.7343567609786987,3.545651912689209,0.6097019910812378
-0.7509780526161194,3.503117799758911,0.6012699007987976
-0.7695432901382446,3.471801519393921,0.5948126912117004
-0.7932481169700623,3.466850996017456,0.5925424695014954
-0.8098171949386597,3.431746244430542,0.585110604763031
-0.8281210064888,3.4039785861968994,0.5789576768875122
-0.8440636992454529,3.3686721324920654,0.571580171585083
-0.8646523952484131,3.3518967628479004,0.567374587059021
-0.8801379799842834,3.316354274749756,0.560034453868866
-0.898673415184021,3.2958319187164307,0.5549476146697998
-0.9110276103019714,3.2528600692749023,0.5460382103919983
-0.9256668090820312,3.221081018447876,0.5390923619270325
-0.9478101134300232,3.2150721549987793,0.536478579044342
-0.9613088369369507,3.179276466369629,0.528911292552948
-0.9766379594802856,3.150810956954956,0.5226150751113892
-0.9925090074539185,3.126101493835449,0.516613245010376
-1.0088930130004883,3.105107545852661,0.5112741589546204
-1.02257239818573,3.0767126083374023,0.5047644972801208
-1.0338788032531738,3.040813446044922,0.49703824520111084
-1.051315188407898,3.0230512619018555,0.4923039972782135
-1.0722512006759644,3.016176462173462,0.48930808901786804
-1.0876257419586182,2.9947690963745117,0.48367592692375183
-1.1051025390625,2.980645179748535,0.4792938530445099
-1.114262342453003,2.944727659225464,0.4714515805244446
-1.1139861345291138,2.883312702178955,0.4595305919647217
-1.1313337087631226,2.868760108947754,0.45514532923698425
-1.1367661952972412,2.825542688369751,0.44600966572761536
-1.1527836322784424,2.811236619949341,0.4414277672767639
-1.1343741416931152,2.7147862911224365,0.42404672503471375
-1.133405327796936,2.66117000579834,0.413425087928772
-1.145919680595398,2.6394808292388916,0.40779635310173035
-1.1503410339355469,2.6000797748565674,0.39934930205345154
-1.1852104663848877,2.631669759750366,0.4016834497451782
-1.1899173259735107,2.596083402633667,0.39377179741859436
-1.233828067779541,2.644558906555176,0.39854952692985535
-1.245726466178894,2.6224231719970703,0.3925953805446625
-1.257413625717163,2.600240468978882,0.38655057549476624
-1.267859935760498,2.578507423400879,0.3804863691329956
-1.3144381046295166,2.629492998123169,0.3851199448108673
-1.3201664686203003,2.5968515872955322,0.3773960769176483
-1.3010951280593872,2.515812873840332,0.36268389225006104
-1.311103105545044,2.493723154067993,0.35646358132362366
-1.3242671489715576,2.4785988330841064,0.35109275579452515
-1.3332797288894653,2.4567408561706543,0.3448689579963684
-1.3392733335494995,2.42757511138916,0.3374938368797302
-1.350722312927246,2.408519983291626,0.3315609395503998
-1.3628392219543457,2.3933982849121094,0.3259889483451843
-1.3750417232513428,2.3780903816223145,0.32035553455352783
-1.3755450248718262,2.3425064086914062,0.3120027184486389
-1.3919986486434937,2.333413600921631,0.30712834000587463
-1.4236143827438354,2.351297378540039,0.30562061071395874
-1.410463571548462,2.296295166015625,0.2946239113807678
-1.4467709064483643,2.3201663494110107,0.2935693562030792
-1.442416787147522,2.2777085304260254,0.28400546312332153
-1.4575480222702026,2.2687313556671143,0.2785578966140747
-1.4850387573242188,2.279384136199951,0.27545398473739624
-1.4470832347869873,2.188751220703125,0.26000842452049255
-1.495163917541504,2.227492332458496,0.2597547471523285
-1.4941614866256714,2.1960060596466064,0.2511895000934601
-1.504106044769287,2.1804471015930176,0.24443212151527405
-1.515161156654358,2.164015054702759,0.2371758669614792
-1.4977463483810425,2.1103460788726807,0.22586216032505035
-1.5047179460525513,2.0917091369628906,0.21828606724739075
-1.5103267431259155,2.0691442489624023,0.20990897715091705
-1.5281919240951538,2.0663888454437256,0.20345938205718994
-1.4917300939559937,2.089590549468994,-0.12189804017543793
-1.4890472888946533,2.119677782058716,-0.13131648302078247
-1.4978958368301392,2.165311336517334,-0.14149422943592072
-1.4863841533660889,2.182155132293701,-0.1496851146221161
-1.4479786157608032,2.1604979038238525,-0.15515775978565216
-1.4626812934875488,2.215747594833374,-0.16570371389389038
-1.4628863334655762,2.2523207664489746,-0.17516520619392395
-1.4459587335586548,2.2626454830169678,-0.1825026273727417
-1.4299038648605347,2.272258758544922,-0.18942736089229584
-1.4273598194122314,2.305405378341675,-0.19837307929992676
-1.4141606092453003,2.3220415115356445,-0.20595236122608185
-1.4094597101211548,2.3515748977661133,-0.21452027559280396
-1.3882746696472168,2.3544912338256836,-0.22058118879795074
-1.3590538501739502,2.3438880443573,-0.22530558705329895
-1.3538897037506104,2.3731799125671387,-0.23364858329296112
-1.3367723226547241,2.382232427597046,-0.24000218510627747
-1.3188176155090332,2.3915624618530273,-0.24645797908306122
-1.2903610467910767,2.3798775672912598,-0.25050485134124756
-1.2735470533370972,2.3882808685302734,-0.2565019726753235
-1.2488298416137695,2.383108377456665,-0.2609649896621704
-1.227776050567627,2.3846287727355957,-0.26612186431884766
-1.2210614681243896,2.4135794639587402,-0.2743068337440491
-1.2037959098815918,2.4215822219848633,-0.28003019094467163
-1.1929116249084473,2.4436044692993164,-0.2873435616493225
-1.1852549314498901,2.4725232124328613,-0.29551559686660767
-1.1776750087738037,2.501246452331543,-0.30364400148391724
-1.1808292865753174,2.554781198501587,-0.31485891342163086
-1.179526448249817,2.6016204357147217,-0.3254442811012268
-1.146651268005371,2.5773940086364746,-0.3270229697227478
-1.1455618143081665,2.6238107681274414,-0.3375084400177002
-1.1130080223083496,2.5991528034210205,-0.3387683033943176
-1.1107772588729858,2.645728588104248,-0.34929341077804565
-1.0974315404891968,2.6673429012298584,-0.35667118430137634
-1.1597239971160889,2.8756110668182373,-0.3892630636692047
-1.242993712425232,3.1461825370788574,-0.43089184165000916
-1.2468554973602295,3.222871780395508,-0.4464511275291443
-1.252654790878296,3.306891918182373,-0.46322348713874817
-1.2343086004257202,3.3294219970703125,-0.471572607755661
-1.2131863832473755,3.344557285308838,-0.4786372482776642
-1.1943796873092651,3.3668947219848633,-0.48670557141304016
-1.1818265914916992,3.407341957092285,-0.4974498450756073
-1.1653326749801636,3.43666934967041,-0.5066129565238953
-1.13814377784729,3.4367516040802,-0.5114019513130188
-1.118408441543579,3.4586424827575684,-0.519250214099884
-1.0717045068740845,3.3955979347229004,-0.5142902135848999
-1.038739562034607,3.3726539611816406,-0.5152456760406494
-0.9915752410888672,3.301362991333008,-0.5085755586624146
-0.9496410489082336,3.2445228099823,-0.5037497878074646
-0.9155877828598022,3.2133803367614746,-0.5028846859931946
-0.8692364692687988,3.133397340774536,-0.4941447079181671
-0.834119439125061,3.090242385864258,-0.4910326898097992
-0.80043625831604,3.0506017208099365,-0.4880615770816803
-0.7625898122787476,2.9919559955596924,-0.4819558560848236
-0.7263621687889099,2.936737060546875,-0.4763188064098358
-0.6994584798812866,2.914858102798462,-0.4759554862976074
-0.6850355863571167,2.9454216957092285,-0.48386234045028687
-0.6405102014541626,2.8442559242248535,-0.4700024127960205
-0.6155880689620972,2.825517416000366,-0.4696505069732666
-0.5891357660293579,2.7990739345550537,-0.4680226445198059
-0.5626117587089539,2.7686104774475098,-0.46544966101646423
-0.5357422828674316,2.734189987182617,-0.46194973587989807
-0.5093837976455688,2.699540853500366,-0.45837047696113586
-0.48295271396636963,2.6608622074127197,-0.4540499448776245
-0.45874038338661194,2.6333980560302734,-0.45161351561546326
-0.43897590041160583,2.6285550594329834,-0.4526408910751343
-0.4174988269805908,2.6121554374694824,-0.4516795575618744
-0.3910832703113556,2.561330795288086,-0.44473177194595337
-0.3720724880695343,2.555989980697632,-0.4456573724746704
-0.35017016530036926,2.5315358638763428,-0.4429967701435089
-0.3324533700942993,2.5336050987243652,-0.4448135197162628
-0.31375712156295776,2.527913808822632,-0.4452867805957794
-0.29700449109077454,2.537365674972534,-0.4484443664550781
-0.2742568254470825,2.4931859970092773,-0.44201594591140747
-0.25682055950164795,2.494800329208374,-0.4433819651603699
-0.24199847877025604,2.5269463062286377,-0.4502294659614563
-0.2216886579990387,2.4976773262023926,-0.4461318254470825
-0.20244380831718445,2.475919008255005,-0.44337186217308044
-0.18376217782497406,2.4579174518585205,-0.44093024730682373
-0.16847586631774902,2.4858264923095703,-0.44666439294815063
-0.14947104454040527,2.4637632369995117,-0.4434553384780884
-0.13397613167762756,2.495290756225586,-0.44990304112434387
-0.11624938249588013,2.48834490776062,-0.44927963614463806
-0.09800408035516739,2.465959310531616,-0.44560369849205017
-0.08070572465658188,2.4626526832580566,-0.4453929364681244
-0.06289441883563995,2.447702646255493,-0.4431014358997345
-0.046014197170734406,2.4556801319122314,-0.4449738562107086
-0.029068393632769585,2.467456340789795,-0.44714459776878357
-0.011905654333531857,2.4637467861175537,-0.4464934468269348
0.0052314139902591705,2.463761806488037,-0.4465387761592865
0.022799819707870483,2.475184917449951,-0.44867509603500366
0.04001295566558838,2.4749953746795654,-0.44851502776145935
0.05830778554081917,2.520841598510742,-0.4564688205718994
0.07493015378713608,2.489710569381714,-0.4505033791065216
0.09336082637310028,2.519932985305786,-0.455662339925766
0.11088252067565918,2.5192956924438477,-0.4552591145038605
0.12946705520153046,2.5339620113372803,-0.4571697413921356
0.14819028973579407,2.552345037460327,-0.4597746431827545
0.1659276932477951,2.551407814025879,-0.458916038274765
0.1869935244321823,2.596367120742798,-0.4663220942020416
0.2062360942363739,2.6105399131774902,-0.4679519236087799
0.22731894254684448,2.6399118900299072,-0.47207963466644287
0.2460205852985382,2.6423380374908447,-0.47141581773757935
0.2682361304759979,2.679075241088867,-0.47687768936157227
0.2901727259159088,2.7079923152923584,-0.4808947443962097
0.31072837114334106,2.721525192260742,-0.48176735639572144
0.33416351675987244,2.7539658546447754,-0.4859538674354553
0.357237845659256,2.782437801361084,-0.4894550144672394
0.3797128200531006,2.8030967712402344,-0.49157464504241943
0.3992195725440979,2.8007726669311523,-0.4893622398376465
0.4237992465496063,2.832608222961426,-0.4929640293121338
0.45217713713645935,2.883214235305786,-0.4997611343860626
0.4766802191734314,2.9070074558258057,-0.5019040703773499
0.5092911720275879,2.976182460784912,-0.5117289423942566
0.5381200909614563,3.0185813903808594,-0.5165316462516785
0.5647303462028503,3.0455856323242188,-0.5186654329299927
0.5983721613883972,3.106412649154663,-0.5264992713928223
0.6378391981124878,3.189535617828369,-0.5379671454429626
0.6717557311058044,3.2422420978546143,-0.5438567399978638
0.7039662003517151,3.283358335494995,-0.5476607084274292
0.7510420680046082,3.388178586959839,-0.5619614720344543
0.779032826423645,3.4022915363311768,-0.5611142516136169
0.8191676735877991,3.4649405479431152,-0.5679419636726379
0.8669915795326233,3.557359218597412,-0.5793107151985168
0.9227151870727539,3.6755118370056152,-0.5946638584136963
0.9783630967140198,3.785588264465332,-0.6084600687026978
1.0256545543670654,3.8578052520751953,-0.6159539818763733
1.0763208866119385,3.9370248317718506,-0.6238888502120972
1.1276392936706543,4.015876293182373,-0.6316787004470825
1.1963378190994263,4.149862289428711,-0.647874653339386
1.2440712451934814,4.20529317855835,-0.6515768766403198
1.2957960367202759,4.271487712860107,-0.6564397811889648
1.3213609457015991,4.248505115509033,-0.6473544239997864
1.34390389919281,4.2181077003479,-0.6372951865196228
1.380666971206665,4.231645584106445,-0.6338703632354736
1.4052377939224243,4.208280086517334,-0.6247286796569824
1.4218475818634033,4.16288948059082,-0.612201988697052
1.4341259002685547,4.10646390914917,-0.5981866717338562
1.2317450046539307,3.4482998847961426,-0.4973614811897278
1.253227710723877,3.4331796169281006,-0.49025899171829224
1.274295449256897,3.418041467666626,-0.48297491669654846
1.300721526145935,3.4172420501708984,-0.4777402877807617
1.3190966844558716,3.394453763961792,-0.4693959653377533
1.3404576778411865,3.378628969192505,-0.4619447588920593
1.3637726306915283,3.3701770305633545,-0.45539548993110657
1.3870296478271484,3.361553430557251,-0.4488447308540344
1.4075555801391602,3.3454813957214355,-0.4412549138069153
1.4340964555740356,3.3435068130493164,-0.43552565574645996
1.4574801921844482,3.334285020828247,-0.4285421371459961
1.4803589582443237,3.3250668048858643,-0.4216892421245575
1.500430941581726,3.3084185123443604,-0.41381144523620605
1.5416229963302612,3.3373987674713135,-0.41156673431396484
1.5777074098587036,3.3557400703430176,-0.4077310562133789
1.6011321544647217,3.345526933670044,-0.40027928352355957
1.6109434366226196,3.3071680068969727,-0.38951370120048523
1.6151535511016846,3.2583518028259277,-0.37760743498802185
1.6198564767837524,3.2134108543395996,-0.36619874835014343
1.6329009532928467,3.1858129501342773,-0.35687822103500366
1.6589664220809937,3.1819348335266113,-0.3500373065471649
1.6979438066482544,3.2018282413482666,-0.34559187293052673
1.741886019706726,3.2320902347564697,-0.3421735167503357
1.7491223812103271,3.1935722827911377,-0.33140552043914795
1.7356042861938477,3.1174144744873047,-0.31678327918052673
1.7568949460983276,3.106262445449829,-0.30887049436569214
1.8072607517242432,3.145550012588501,-0.30573350191116333
1.3404446840286255,2.296466827392578,-0.21795852482318878
0.9553207755088806,1.6110270023345947,-0.14914102852344513
0.9561116099357605,1.588268756866455,-0.14327627420425415
0.9709621667861938,1.5887609720230103,-0.13950027525424957
0.9782257676124573,1.5755341053009033,-0.13431879878044128
0.9950541853904724,1.5791752338409424,-0.13063135743141174
1.0055583715438843,1.572877287864685,-0.126100093126297
1.0166159868240356,1.566131591796875,-0.12130782753229141
1.0272117853164673,1.559566855430603,-0.11652860045433044
1.0355185270309448,1.5497329235076904,-0.11143792420625687
1.037567377090454,1.5299036502838135,-0.10551118850708008
1.0633172988891602,1.5457179546356201,-0.10198281705379486
2.5596232414245605,3.6700851917266846,-0.23109638690948486
2.594345808029175,3.665560722351074,-0.21884627640247345
2.6142563819885254,3.64255428314209,-0.2052549421787262
2.60387921333313,3.57855486869812,-0.1894427090883255
2.64943528175354,3.5894358158111572,-0.17684543132781982
2.6286141872406006,3.723677635192871,0.428766667842865
2.5943689346313477,3.7366018295288086,0.4413769245147705
2.5586001873016357,3.7409310340881348,0.4518616199493408
1.0565378665924072,1.5700631141662598,0.19375698268413544
1.048393964767456,1.5842242240905762,0.19950099289417267
1.0496734380722046,1.610689640045166,0.2065177857875824
1.0293867588043213,1.6047308444976807,0.20929859578609467
1.012740969657898,1.605538010597229,0.21283884346485138
1.0005195140838623,1.6126106977462769,0.21712931990623474
0.9849826693534851,1.6125181913375854,0.2202407866716385
0.9686865210533142,1.6127777099609375,0.22325560450553894
0.9759753942489624,1.6530293226242065,0.23184263706207275
1.3514971733093262,2.3266994953155518,0.33031436800956726
1.8634846210479736,3.2611827850341797,0.468530535697937
1.794952630996704,3.19655442237854,0.464240163564682
1.7630702257156372,3.1955676078796387,0.46907728910446167
1.7824499607086182,3.2855656147003174,0.4871290326118469
1.7518882751464844,3.2834556102752686,0.491546630859375
2.391848564147949,4.564581394195557,0.6895905137062073
2.3609683513641357,4.588037967681885,0.699224054813385
2.320219039916992,4.5901594161987305,0.7054903507232666
2.2912049293518066,4.612114906311035,0.7146003842353821
2.264643907546997,4.641207218170166,0.724690318107605
2.229297161102295,4.65706205368042,0.7325324416160583
2.1977291107177734,4.679372787475586,0.7413477897644043
2.1642558574676514,4.693777084350586,0.7487244606018066
2.13427996635437,4.7148051261901855,0.7571410536766052
2.093656301498413,4.714949131011963,0.7618728876113892
2.058640480041504,4.7292351722717285,0.7687171101570129
1.9820071458816528,4.647555828094482,0.7599896192550659
1.7344950437545776,4.147343158721924,0.6820154786109924
1.7052980661392212,4.158501625061035,0.6876721978187561
1.6809537410736084,4.184151649475098,0.6954677700996399
1.6473076343536377,4.188337326049805,0.699561357498169
1.618754267692566,4.20682954788208,0.7061358094215393
1.59421968460083,4.231823921203613,0.713692307472229
1.567103385925293,4.249307632446289,0.719994306564331
1.5393792390823364,4.2667975425720215,0.7261479496955872
1.5056419372558594,4.2698516845703125,0.7295429110527039
1.4788825511932373,4.294702529907227,0.7367615103721619
1.4503575563430786,4.311767101287842,0.7426077723503113
1.4213123321533203,4.324715614318848,0.7477095127105713
1.387401819229126,4.322797775268555,0.7502769231796265
1.3618890047073364,4.350391387939453,0.7575359344482422
1.321900725364685,4.333808422088623,0.7571161389350891
1.2981657981872559,4.368418216705322,0.7656354308128357
1.2736895084381104,4.398994445800781,0.7734545469284058
1.2407532930374146,4.399709224700928,0.7760481834411621
1.2117812633514404,4.415092468261719,0.7811638712882996
1.1858932971954346,4.445426940917969,0.7885222434997559
1.1532766819000244,4.453383445739746,0.7919977903366089
1.1268439292907715,4.483354568481445,0.7994019389152527
1.0935938358306885,4.483063697814941,0.8014025092124939
1.0622683763504028,4.48999547958374,0.8047237992286682
1.0384087562561035,4.530540466308594,0.8139499425888062
1.0037935972213745,4.529941558837891,0.8154532313346863
0.969776451587677,4.528972625732422,0.8169006109237671
0.9389383792877197,4.542816638946533,0.8210616111755371
0.7657626271247864,3.839674472808838,0.6953819394111633
0.738964855670929,3.844503402709961,0.6976915001869202
0.8499442338943481,4.597945690155029,0.8360538482666016
0.8212830424308777,4.6261820793151855,0.8424009084701538
0.7896823883056641,4.639076232910156,0.8460049629211426
0.7597944736480713,4.663135051727295,0.8516950607299805
0.7271071672439575,4.667941093444824,0.8538980484008789
0.6962396502494812,4.687779903411865,0.858914852142334
0.6667336821556091,4.714962959289551,0.8652608394622803
0.632350742816925,4.711643695831299,0.8654890060424805
0.6018694043159485,4.7385783195495605,0.8713220953941345
0.5701766014099121,4.757676601409912,0.8757637143135071
0.5376473069190979,4.76889705657959,0.8787958025932312
0.5067410469055176,4.799022674560547,0.8853703737258911
0.4733325242996216,4.802133560180664,0.8869938254356384
0.44034647941589355,4.812771797180176,0.8895676732063293
0.40909990668296814,4.846180438995361,0.8962617516517639
0.3750356137752533,4.8487443923950195,0.8972987532615662
0.34202587604522705,4.874094009399414,0.9026098251342773
0.30858156085014343,4.88383150100708,0.9050625562667847
0.27658191323280334,4.920180797576904,0.9124954342842102
0.24188919365406036,4.914170265197754,0.911864697933197
0.2084849774837494,4.938687801361084,0.916559100151062
0.1738663613796234,4.955320358276367,0.9198398590087891
0.1398521065711975,4.979371547698975,0.9245414137840271
0.10527316480875015,4.98398494720459,0.9256789684295654
0.07079989463090897,4.999878883361816,0.9289577603340149
0.03622107952833176,5.0308942794799805,0.93509441614151
0.0006109846872277558,5.0310587882995605,0.9349092841148376
-0.03459205850958824,5.054020404815674,0.938991367816925
-0.07006192952394485,5.072895050048828,0.9423581957817078
-0.10534041374921799,5.072322368621826,0.9421577453613281
-0.1411956548690796,5.094540596008301,0.9462360739707947
-0.17715586721897125,5.108826160430908,0.9488862752914429
-0.21382546424865723,5.12290096282959,0.9511871933937073
-0.25043508410453796,5.144471645355225,0.9546117782592773
-0.2879357635974884,5.177289009094238,0.9601638317108154
-0.27463215589523315,4.3894453048706055,0.8136350512504578
-0.29954275488853455,4.307094573974609,0.7979974150657654
-0.3282949924468994,4.282018184661865,0.7930124998092651
-0.3618762493133545,4.325712203979492,0.8007563352584839
-0.3882720470428467,4.285083770751953,0.7924184203147888
-0.4141239821910858,4.2442946434021,0.784102737903595
-0.4373873174190521,4.184248924255371,0.772284984588623
-0.4621901214122772,4.139286994934082,0.7632899284362793
-0.48375168442726135,4.075143337249756,0.7508202791213989
-0.5020008087158203,3.991837978363037,0.7348791360855103
-0.5305456519126892,3.9961769580841064,0.7347640991210938
-0.5510365962982178,3.9432687759399414,0.7240081429481506
-0.5730147361755371,3.9016001224517822,0.7153539061546326
-0.5933863520622253,3.856079578399658,0.7060648202896118
-0.6165493726730347,3.8293845653533936,0.7002604007720947
-0.6342698335647583,3.7722208499908447,0.6889359951019287
-0.654348611831665,3.7339866161346436,0.680959165096283
-0.6757478713989258,3.707097053527832,0.6747860908508301
-0.6958150267601013,3.672452211380005,0.6672296524047852
-0.7142588496208191,3.634006977081299,0.659057080745697
-0.7286803126335144,3.5765721797943115,0.6474853157997131
-0.7495623826980591,3.552961826324463,0.642087459564209
-0.7627190947532654,3.4954211711883545,0.6305694580078125
-0.780998170375824,3.4642133712768555,0.6234351992607117
-0.8028043508529663,3.4517462253570557,0.6197447776794434
-0.8208881616592407,3.4241702556610107,0.6133826375007629
-0.8334903120994568,3.3739936351776123,0.6030046939849854
-0.8541545271873474,3.357327461242676,0.598657488822937
-0.8741098046302795,3.336697578430176,0.5936171412467957
-0.8927560448646545,3.3162899017333984,0.5882824063301086
-0.9029833674430847,3.266079902648926,0.5777116417884827
-0.9230822324752808,3.252920150756836,0.5737476944923401
-0.9358384013175964,3.2136576175689697,0.565202534198761
-0.9520591497421265,3.185255289077759,0.558575451374054
-0.9720318913459778,3.1716294288635254,0.5546011924743652
-0.9888690114021301,3.15079665184021,0.5490185618400574
-0.9948590397834778,3.096851110458374,0.5377293229103088
-1.0109957456588745,3.075908899307251,0.5322334170341492
-1.0302362442016602,3.061915874481201,0.5278998017311096
-1.044156551361084,3.0332648754119873,0.5210965871810913
-1.0536731481552124,2.9937331676483154,0.5124014019966125
-1.0686689615249634,2.9725863933563232,0.5066328048706055
-1.1033376455307007,3.005695343017578,0.5101193785667419
-1.1168972253799438,2.98065447807312,0.5037383437156677
-1.1215345859527588,2.9299681186676025,0.4929841458797455
-1.1237690448760986,2.8758742809295654,0.48178303241729736
-1.1376298666000366,2.854388475418091,0.47589537501335144
-1.1509567499160767,2.8329732418060303,0.4699462354183197
-1.144842267036438,2.765115976333618,0.4563771188259125
-1.1326302289962769,2.6829075813293457,0.44047826528549194
-1.1300848722457886,2.6257829666137695,0.42881831526756287
-1.1544904708862305,2.6326076984405518,0.4275711476802826
-1.1689410209655762,2.618366003036499,0.42270147800445557
-1.186471700668335,2.611069440841675,0.4189755916595459
-1.2207844257354736,2.6384823322296143,0.42071646451950073
-1.2426050901412964,2.637458562850952,0.4178638756275177
-1.2727079391479492,2.6537575721740723,0.41769757866859436
-1.2649505138397217,2.5937180519104004,0.4053228199481964
-1.2994171380996704,2.6205291748046875,0.40655815601348877
-1.2861590385437012,2.54995059967041,0.3926256597042084
-1.2953296899795532,2.524237632751465,0.3856493830680847
-1.3056666851043701,2.5021157264709473,0.379204660654068
-1.3150391578674316,2.480360269546509,0.3726750910282135
-1.3278498649597168,2.465397357940674,0.36720943450927734
-1.337430715560913,2.4432461261749268,0.3605921268463135
-1.3436613082885742,2.413951873779297,0.3528538644313812
-1.3541916608810425,2.3954057693481445,0.3466298580169678
-1.3661375045776367,2.3803672790527344,0.3408829867839813
-1.3742607831954956,2.358443260192871,0.33414408564567566
-1.3909244537353516,2.349371910095215,0.3290614187717438
-1.3992986679077148,2.327033758163452,0.32199910283088684
-1.4266607761383057,2.338390588760376,0.3195284903049469
-1.4093846082687378,2.276841640472412,0.3071420192718506
-1.4420362710952759,2.2938144207000732,0.30510589480400085
-1.4452130794525146,2.264971971511841,0.29689547419548035
-1.4644217491149902,2.262606382369995,0.2919961214065552
-1.470963478088379,2.240537166595459,0.2845498025417328
-1.4803656339645386,2.22111439704895,0.2772078812122345
-1.4863532781600952,2.1991353034973145,0.2694709300994873
-1.4961183071136475,2.1838324069976807,0.2625579535961151
-1.5159944295883179,2.180363416671753,0.2565810978412628
-1.4950376749038696,2.119866132736206,0.24392171204090118
-1.5040438175201416,2.1046903133392334,0.23653537034988403
-1.5069488286972046,2.079418659210205,0.22770926356315613
-1.521131992340088,2.0698633193969727,0.22034557163715363
-1.5248262882232666,2.048536777496338,0.21168093383312225
-1.512853741645813,2.1363136768341064,-0.13255149126052856
-1.4809774160385132,2.124788999557495,-0.13970275223255157
-1.4989410638809204,2.182957410812378,-0.15099169313907623
-1.4906684160232544,2.206871271133423,-0.16025973856449127
-1.4788177013397217,2.223615884780884,-0.16862863302230835
-1.4370434284210205,2.1945507526397705,-0.17321062088012695
-1.4541645050048828,2.2571699619293213,-0.1850869357585907
-1.4337064027786255,2.2603836059570312,-0.19190339744091034
-1.4397021532058716,2.3066020011901855,-0.20245333015918732
-1.4061052799224854,2.29010009765625,-0.20740777254104614
-1.3976041078567505,2.3128716945648193,-0.21566273272037506
-1.4008142948150635,2.355679988861084,-0.22580933570861816
-1.3635590076446533,2.3317792415618896,-0.2295527160167694
-1.3579063415527344,2.3613598346710205,-0.2384902536869049
-1.3335120677947998,2.3566806316375732,-0.2437300831079483
-1.3198583126068115,2.3725712299346924,-0.2510423958301544
-1.2986310720443726,2.374692678451538,-0.2568921446800232
-1.261519432067871,2.345477819442749,-0.2590530216693878
-1.2442454099655151,2.3539845943450928,-0.2653588056564331
-1.2394611835479736,2.386498212814331,-0.2743125855922699
-1.2222424745559692,2.394653797149658,-0.28043124079704285
-1.2087454795837402,2.4094796180725098,-0.28727105259895325
-1.2014299631118774,2.4384193420410156,-0.2957761287689209
-1.196780800819397,2.474501848220825,-0.30534806847572327
-1.18252432346344,2.4892098903656006,-0.31213146448135376
-1.1762958765029907,2.521423101425171,-0.32113659381866455
-1.1805789470672607,2.578526735305786,-0.33336877822875977
-1.1650522947311401,2.5933115482330322,-0.3402460515499115
-1.1763955354690552,2.668135166168213,-0.3550434112548828
-1.1216000318527222,2.593961715698242,-0.3500310480594635
-1.1663392782211304,2.7511074542999268,-0.37617889046669006
-1.283266544342041,3.0878047943115234,-0.4277404546737671
-1.289238452911377,3.1640264987945557,-0.4438227117061615
-1.2810591459274292,3.208156108856201,-0.4555114805698395
-1.2688285112380981,3.245344400405884,-0.4662967920303345
-1.2607429027557373,3.293177366256714,-0.4786423444747925
-1.2429088354110718,3.315531015396118,-0.4873102903366089
-1.219346046447754,3.323314905166626,-0.49377238750457764
-1.2059544324874878,3.360152006149292,-0.5044385194778442
-1.1827592849731445,3.3715131282806396,-0.5114366412162781
-1.1477090120315552,3.3458940982818604,-0.5126364231109619
-1.1007028818130493,3.283356189727783,-0.5079624652862549
-1.0532052516937256,3.2167890071868896,-0.5022498369216919
-1.0149438381195068,3.175503730773926,-0.5003373622894287
-0.9703548550605774,3.1117541790008545,-0.4947563707828522
-0.9349806904792786,3.0733232498168945,-0.49294620752334595
-0.8923302888870239,3.0087637901306152,-0.486490935087204
-0.8506181240081787,2.9437930583953857,-0.4798150360584259
-0.8172948360443115,2.9043869972229004,-0.4771604537963867
-0.7815542817115784,2.8535044193267822,-0.47250595688819885
-0.7480565309524536,2.8099095821380615,-0.4687057137489319
-0.7107296586036682,2.747272491455078,-0.461500346660614
-0.6884986758232117,2.740338087081909,-0.46356919407844543
-0.6546742916107178,2.684523820877075,-0.45728418231010437
-0.6340067386627197,2.6809427738189697,-0.4596252739429474
-0.6018638014793396,2.628490686416626,-0.4534352123737335
-0.5850051641464233,2.6395981311798096,-0.4581298232078552
-0.5463504791259766,2.5489132404327393,-0.4450708329677582
-0.5269268155097961,2.5445849895477295,-0.4469028413295746
-0.4992353022098541,2.498650550842285,-0.4411153793334961
-0.48136812448501587,2.5016465187072754,-0.44398343563079834
-0.45401817560195923,2.451493740081787,-0.4373469352722168
-0.43278738856315613,2.43139910697937,-0.4360242784023285
-0.4150606393814087,2.430161476135254,-0.4377056658267975
-0.39302197098731995,2.4022347927093506,-0.43454796075820923
-0.3770795166492462,2.4121477603912354,-0.43826812505722046
-0.3557310402393341,2.3838818073272705,-0.43501168489456177
-0.3342117369174957,2.351686477661133,-0.43077990412712097
-0.3157125413417816,2.3383917808532715,-0.4298277497291565
-0.2983905076980591,2.332580089569092,-0.4302574694156647
-0.2793567478656769,2.3113813400268555,-0.4278469383716583
-0.25644248723983765,2.2557272911071777,-0.4189712405204773
-0.23825041949748993,2.23429274559021,-0.4160667061805725
-0.22263649106025696,2.2356510162353516,-0.41741707921028137
-0.20775733888149261,2.24454402923584,-0.420195996761322
-0.19212761521339417,2.245682716369629,-0.42154619097709656
-0.17558306455612183,2.239137649536133,-0.42115518450737
-0.16106943786144257,2.255446195602417,-0.4249868392944336
-0.14485636353492737,2.2486724853515625,-0.42449241876602173
-0.12967780232429504,2.257110118865967,-0.4268873333930969
-0.1139804944396019,2.2578086853027344,-0.4276707172393799
-0.09832832217216492,2.266125202178955,-0.42966702580451965
-0.08202285319566727,2.2513110637664795,-0.42728933691978455
-0.06634572148323059,2.2517266273498535,-0.4278208613395691
-0.05083940550684929,2.2597062587738037,-0.42981186509132385
-0.03486504778265953,2.244636297225952,-0.4270022213459015
-0.018958497792482376,2.2448060512542725,-0.4271124303340912
-0.003378899535164237,2.2678873538970947,-0.4316023886203766
0.01231112889945507,2.252485990524292,-0.42878982424736023
0.0281840693205595,2.2677221298217773,-0.43156352639198303
0.04395400360226631,2.2675323486328125,-0.4312426447868347
0.059924766421318054,2.2749054431915283,-0.4323800206184387
0.07626327127218246,2.282158136367798,-0.43350985646247864
0.09259727597236633,2.293154001235962,-0.43528711795806885
0.1092657595872879,2.3079326152801514,-0.4374404847621918
0.1257101148366928,2.314926862716675,-0.4381338357925415
0.1418229043483734,2.3141396045684814,-0.4373721480369568
0.16081663966178894,2.35152268409729,-0.44382622838020325
