X,Y,Z
1.0436053276062012,2.6463427543640137,-0.24791154265403748
1.056251883506775,2.6248362064361572,-0.2434745579957962
1.0741798877716064,2.617844581604004,-0.24029073119163513
1.090786099433899,2.607048749923706,-0.23669679462909698
1.1055773496627808,2.5926401615142822,-0.23282411694526672
1.1174538135528564,2.570864677429199,-0.22827357053756714
1.1287803649902344,2.5491814613342285,-0.2236921638250351
1.13002610206604,2.506265640258789,-0.21726173162460327
1.1424992084503174,2.4880454540252686,-0.21297070384025574
1.156578779220581,2.473224401473999,-0.20897555351257324
1.1635252237319946,2.4443931579589844,-0.20378519594669342
1.176619529724121,2.4297478199005127,-0.1997738629579544
1.1930928230285645,2.421983003616333,-0.19633138179779053
1.1998062133789062,2.3928306102752686,-0.19105781614780426
1.216158390045166,2.38484263420105,-0.1875094771385193
1.2249963283538818,2.3630495071411133,-0.1828639656305313
1.2410000562667847,2.354959726333618,-0.17927874624729156
1.253726601600647,2.3396472930908203,-0.17507530748844147
1.267670750617981,2.3279592990875244,-0.17111410200595856
1.2796911001205444,2.312741756439209,-0.16684436798095703
1.2916468381881714,2.2974154949188232,-0.16257578134536743
1.3037749528884888,2.281848669052124,-0.15823791921138763
1.3150044679641724,2.266650438308716,-0.15390075743198395
1.3261003494262695,2.251389265060425,-0.1495828479528427
1.3420525789260864,2.2421875,-0.14546366035938263
1.353195071220398,2.2266182899475098,-0.14096668362617493
1.3638070821762085,2.2112276554107666,-0.13649176061153412
1.3788812160491943,2.2021145820617676,-0.13230769336223602
1.3940327167510986,2.1928088665008545,-0.12802039086818695
1.4001797437667847,2.1705892086029053,-0.12292953580617905
1.4104642868041992,2.154841661453247,-0.11821828782558441
1.4253766536712646,2.1452510356903076,-0.1136975958943367
1.4393137693405151,2.136160373687744,-0.10919295251369476
1.4579360485076904,2.133188247680664,-0.10489317774772644
1.4438644647598267,2.0815064907073975,-0.09800094366073608
1.461685299873352,2.0788004398345947,-0.09356601536273956
1.4665870666503906,2.056413412094116,-0.08804886043071747
1.4458938837051392,1.999388337135315,-0.0810205414891243
1.4608349800109863,1.9935367107391357,-0.07616711407899857
1.4723225831985474,1.980407476425171,-0.07056227326393127
1.4580883979797363,2.04984974861145,0.14188635349273682
1.476501226425171,2.1080868244171143,0.15047307312488556
1.4695749282836914,2.131526470184326,0.15647371113300323
1.4572124481201172,2.1490461826324463,0.16204605996608734
1.4418905973434448,2.159003973007202,0.16667740046977997
1.4257065057754517,2.169370412826538,0.17123109102249146
1.4170948266983032,2.193220376968384,0.17690928280353546
1.4097877740859985,2.2160770893096924,0.1822134405374527
1.3852602243423462,2.2127811908721924,0.1852695196866989
1.3765062093734741,2.2362098693847656,0.19051800668239594
1.3600515127182007,2.2459139823913574,0.19450342655181885
1.3518601655960083,2.2686710357666016,0.19956611096858978
1.334622859954834,2.278520107269287,0.20334646105766296
1.3211967945098877,2.294983386993408,0.20773737132549286
1.3106939792633057,2.314110517501831,0.21220488846302032
1.2941539287567139,2.3230793476104736,0.21569706499576569
1.283925175666809,2.3461897373199463,0.22046709060668945
1.2663578987121582,2.355393171310425,0.2239123433828354
1.2606656551361084,2.38458251953125,0.22914068400859833
1.2472453117370605,2.400092601776123,0.23304729163646698
1.2293431758880615,2.409003257751465,0.23621073365211487
1.2215287685394287,2.4387974739074707,0.24149399995803833
1.219623327255249,2.4785337448120117,0.24767957627773285
1.212408423423767,2.5077178478240967,0.25283560156822205
1.2039034366607666,2.5373711585998535,0.25792768597602844
1.1851497888565063,2.5458827018737793,0.26089128851890564
1.1730716228485107,2.5682826042175293,0.26527315378189087
1.1595011949539185,2.5869290828704834,0.26926082372665405
1.144142985343933,2.601966381072998,0.2727823853492737
1.1249957084655762,2.6100189685821533,0.27547571063041687
1.111864686012268,2.632244348526001,0.2796877324581146
1.0900943279266357,2.6326422691345215,0.2815474569797516
1.0771889686584473,2.6544554233551025,0.2857123017311096
1.0667270421981812,2.6835203170776367,0.29053494334220886
1.0443156957626343,2.6837193965911865,0.2921757102012634
1.0330449342727661,2.712777614593506,0.29698070883750916
1.017852783203125,2.7306976318359375,0.30055856704711914
1.0037144422531128,2.7522103786468506,0.3045683801174164
0.9787864685058594,2.744431257247925,0.3051939010620117
0.9550127387046814,2.7402143478393555,0.3061334788799286
0.9351068735122681,2.7468295097351074,0.3082936406135559
0.9130896925926208,2.7458033561706543,0.30958080291748047
0.8863620758056641,2.7298195362091064,0.30918020009994507
0.8822898268699646,2.7839207649230957,0.3166331946849823
0.8885642886161804,2.8753271102905273,0.3282644748687744
0.887965977191925,2.9483602046966553,0.3378807306289673
0.866800844669342,2.9544246196746826,0.33986201882362366
0.8515006303787231,2.9788432121276855,0.34394484758377075
0.8344841599464417,2.9995479583740234,0.34765344858169556
0.8169909715652466,3.0202479362487793,0.3511228561401367
0.7972877621650696,3.0333352088928223,0.3537265956401825
0.7774083018302917,3.0463008880615234,0.3563411831855774
0.759705126285553,3.066560745239258,0.3598122000694275
0.7415713667869568,3.086761474609375,0.3633144795894623
0.7259926199913025,3.118171215057373,0.36804381012916565
0.7088450789451599,3.1458113193511963,0.3722040355205536
0.6962954998016357,3.196108818054199,0.3790837228298187
0.6775040626525879,3.219794273376465,0.3828437328338623
0.6577697396278381,3.2395424842834473,0.3861595690250397
0.6396772861480713,3.266709804534912,0.3903734087944031
0.6180347800254822,3.2786130905151367,0.39259424805641174
0.5947628021240234,3.282768487930298,0.3938112258911133
0.5761143565177917,3.313511610031128,0.3982435166835785
0.5535288453102112,3.3250744342803955,0.4004097282886505
0.534006655216217,3.3516886234283447,0.40439072251319885
0.5129730105400085,3.3705191612243652,0.4074612855911255
0.4964301288127899,3.4238312244415283,0.41449499130249023
0.480648398399353,3.488617181777954,0.4229045808315277
0.4575435221195221,3.5072476863861084,0.4257625639438629
0.43380072712898254,3.517960548400879,0.42767155170440674
0.4115321636199951,3.540038824081421,0.43098145723342896
0.3860302269458771,3.5349903106689453,0.43101173639297485
0.366699755191803,3.591538667678833,0.4382960796356201
0.3436247408390045,3.6171107292175293,0.44178637862205505
0.32008397579193115,3.646435499191284,0.4457695186138153
0.29980558156967163,3.7142131328582764,0.4544777274131775
0.276836633682251,3.754793882369995,0.45988836884498596
0.2532777488231659,3.7952334880828857,0.4653140902519226
0.22721941769123077,3.8045997619628906,0.46668198704719543
0.20158541202545166,3.833177089691162,0.4703793227672577
0.1761445701122284,3.8654353618621826,0.4745517671108246
0.15079310536384583,3.90914249420166,0.48015671968460083
0.12631386518478394,3.9953038692474365,0.4910067021846771
0.09901920706033707,4.01541805267334,0.493770569562912
0.07122590392827988,4.054769039154053,0.49865803122520447
0.04314061254262924,4.0706706047058105,0.5005922317504883
0.014879436232149601,4.098008632659912,0.5039569735527039
-0.013928678818047047,4.175549507141113,0.5135205984115601
-0.04373110830783844,4.249007701873779,0.5226083993911743
-0.07416722178459167,4.267970085144043,0.5250216722488403
-0.10475631803274155,4.3061370849609375,0.5295761823654175
-0.1336750090122223,4.274348258972168,0.5254131555557251
-0.16482305526733398,4.312103271484375,0.5298237800598145
-0.2005261778831482,4.43871545791626,0.545169472694397
-0.23481297492980957,4.503081798553467,0.5528873801231384
-0.27013006806373596,4.5594096183776855,0.5596373677253723
-0.30868566036224365,4.6619553565979,0.5718663930892944
-0.3462638258934021,4.733282566070557,0.5800726413726807
-0.4170965552330017,5.206279277801514,0.6374706625938416
-0.45171409845352173,5.187930583953857,0.6346880793571472
-0.4898289442062378,5.200161933898926,0.6356656551361084
-0.24284996092319489,2.3996849060058594,0.29311543703079224
-0.5852400660514832,5.40900993347168,0.6600289940834045
-0.4715665578842163,4.095188140869141,0.4990158677101135
-0.643073558807373,5.266067028045654,0.6408271789550781
-0.68189936876297,5.276991844177246,0.641303539276123
-0.7163870930671692,5.256932735443115,0.6380529999732971
-0.7484831213951111,5.221283912658691,0.632946789264679
-0.7816694974899292,5.196994304656982,0.6290974617004395
-0.8214661478996277,5.218557834625244,0.6305369138717651
-0.8521139621734619,5.1784868240356445,0.6245418787002563
-0.8862510323524475,5.165099620819092,0.6218225955963135
-0.9063389301300049,5.0712199211120605,0.6094496250152588
-0.9444674849510193,5.080257892608643,0.6094849705696106
-0.9692366719245911,5.020519256591797,0.6011448502540588
-1.0240386724472046,5.116766452789307,0.6112114191055298
-1.0445959568023682,5.037618160247803,0.6003210544586182
-1.092843770980835,5.095118999481201,0.6057690382003784
-1.1012873649597168,4.96645975112915,0.5891076326370239
-1.1358215808868408,4.958940029144287,0.5868734121322632
-1.1726549863815308,4.962610244750977,0.585784375667572
-1.1931911706924438,4.89813232421875,0.5764480233192444
-1.210426926612854,4.826211452484131,0.5663343071937561
-1.22096848487854,4.731715202331543,0.5536463856697083
-1.249893069267273,4.708396911621094,0.5493126511573792
-1.282593011856079,4.699893951416016,0.5467415452003479
-1.3089221715927124,4.668776035308838,0.5412734746932983
-1.3362427949905396,4.645208835601807,0.5366469621658325
-1.365501046180725,4.628931045532227,0.5328961610794067
-1.1048786640167236,3.6534881591796875,0.41912537813186646
-1.130289912223816,3.6459760665893555,0.41677868366241455
-1.1512887477874756,3.6233792304992676,0.41267937421798706
-1.479540467262268,4.5502543449401855,0.5160441398620605
-1.5077533721923828,4.533170223236084,0.5119287967681885
-1.5746163129806519,4.6298956871032715,0.5206388831138611
-1.6436940431594849,4.725653171539307,0.5291032791137695
-1.66627836227417,4.685161590576172,0.522282063961029
-1.6709327697753906,4.597208499908447,0.5099769234657288
-1.6937607526779175,4.564407825469971,0.5037769675254822
-1.7107166051864624,4.516966819763184,0.49601662158966064
-1.7472100257873535,4.520063400268555,0.4938003718852997
-1.7758790254592896,4.500945568084717,0.48912638425827026
-1.8523213863372803,4.600623607635498,0.4971519112586975
-1.8771946430206299,4.574189186096191,0.4913376271724701
-1.8792979717254639,4.4938249588012695,0.4798058569431305
-1.9158464670181274,4.4957275390625,0.47707676887512207
-1.9471278190612793,4.482731342315674,0.4727013409137726
-1.9564404487609863,4.419682502746582,0.462951123714447
-1.9921759366989136,4.421237468719482,0.45983749628067017
-2.015047550201416,4.394229412078857,0.45377352833747864
-2.0546021461486816,4.402122974395752,0.45127201080322266
-4.404460906982422,9.268133163452148,0.9428771138191223
-2.0768375396728516,4.293499946594238,0.43327197432518005
-2.134493827819824,4.33946418762207,0.43424245715141296
-2.1580073833465576,4.315273284912109,0.4281746745109558
-2.191089391708374,4.3078179359436035,0.4236644208431244
-2.2140445709228516,4.2790656089782715,0.41700854897499084
-2.2317092418670654,4.2440409660339355,0.4095633327960968
-2.252812385559082,4.215765953063965,0.40269699692726135
-2.2771623134613037,4.194329261779785,0.39654964208602905
-2.227520704269409,4.035635948181152,0.37738415598869324
-2.2549521923065186,4.020899295806885,0.37173792719841003
-2.2813165187835693,4.006527900695801,0.3659968376159668
-2.308028221130371,3.9917311668395996,0.3601582646369934
-2.339825391769409,3.982762098312378,0.35464462637901306
-2.367006540298462,3.9672164916992188,0.34846511483192444
-2.384763717651367,3.9389092922210693,0.3410532474517822
-2.4144577980041504,3.930462121963501,0.335388720035553
-2.4382858276367188,3.907121181488037,0.32800546288490295
-2.464482069015503,3.891214370727539,0.32124942541122437
-2.4811346530914307,3.862659454345703,0.3133845925331116
-2.5067553520202637,3.8466436862945557,0.30640703439712524
-2.5143625736236572,3.8002617359161377,0.2967456877231598
-2.5999488830566406,3.8749823570251465,0.2961543798446655
-2.0655572414398193,3.036773920059204,0.22710852324962616
-2.0447092056274414,2.9617316722869873,0.21613548696041107
-2.063936471939087,2.9488277435302734,0.20972883701324463
-2.073519706726074,2.9234421253204346,0.20243731141090393
-2.0986876487731934,2.9155328273773193,0.1957271844148636
-1.0896553993225098,1.4938236474990845,0.09708751738071442
-1.1083794832229614,1.4996726512908936,0.09415978193283081
-2.0718815326690674,2.9046003818511963,-0.13316689431667328
-2.051557779312134,2.9233641624450684,-0.14174821972846985
-2.465761423110962,3.5666966438293457,-0.18149058520793915
-2.4519975185394287,3.6040427684783936,-0.19185049831867218
-2.438159227371216,3.641132116317749,-0.20208537578582764
-2.4035563468933105,3.644895315170288,-0.21003930270671844
-2.3754608631134033,3.662748336791992,-0.21890868246555328
-2.3445968627929688,3.672820806503296,-0.2268785983324051
-2.3264832496643066,3.7022545337677,-0.235810786485672
-2.290524959564209,3.705756902694702,-0.2430722862482071
-2.2677342891693115,3.7283596992492676,-0.25134971737861633
-2.236675977706909,3.737461566925049,-0.2586245536804199
-2.2128498554229736,3.7601373195648193,-0.26669102907180786
-2.1815311908721924,3.7688534259796143,-0.27365732192993164
-2.1627840995788574,3.797071695327759,-0.2818313539028168
-2.134772539138794,3.8123536109924316,-0.2890094220638275
-2.1061177253723145,3.827699899673462,-0.2963142991065979
-2.0754406452178955,3.835026264190674,-0.30262067914009094
-2.0551483631134033,3.8630621433258057,-0.31051334738731384
-2.0321872234344482,3.887834310531616,-0.3181402087211609
-2.0041141510009766,3.9018290042877197,-0.32482171058654785
-1.9743901491165161,3.9120354652404785,-0.33115968108177185
-1.9510265588760376,3.936236619949341,-0.33849212527275085
-1.9188095331192017,3.942824602127075,-0.3443228602409363
-1.8891334533691406,3.952265739440918,-0.3502504527568817
-1.8827927112579346,4.010727405548096,-0.3605038523674011
-1.8537018299102783,4.023705005645752,-0.3665882349014282
-1.8272137641906738,4.04378080368042,-0.3734332323074341
-1.7987123727798462,4.055988788604736,-0.37935546040534973
-1.7731812000274658,4.0751543045043945,-0.38588643074035645
-1.7437485456466675,4.087288856506348,-0.39162516593933105
-1.727739691734314,4.131510257720947,-0.40049484372138977
-1.7040150165557861,4.157614707946777,-0.40764862298965454
-1.6747280359268188,4.168947219848633,-0.4132421314716339
-1.6504104137420654,4.194817066192627,-0.420114129781723
-1.6202126741409302,4.206026077270508,-0.4255543351173401
-1.590562343597412,4.216787338256836,-0.43088170886039734
-1.5631685256958008,4.2347564697265625,-0.4370163083076477
-1.5328255891799927,4.2453107833862305,-0.4420652389526367
-1.5024096965789795,4.255642890930176,-0.44711366295814514
-1.4697426557540894,4.258286476135254,-0.45132380723953247
-1.444921612739563,4.28265905380249,-0.45781949162483215
-1.178138017654419,3.5764265060424805,-0.38544923067092896
-1.1549983024597168,3.5917117595672607,-0.3901250958442688
-1.120178461074829,3.5697407722473145,-0.39074209332466125
-1.104252815246582,3.6067981719970703,-0.3978002965450287
-1.0699188709259033,3.5843050479888916,-0.39819660782814026
-1.0443772077560425,3.5914394855499268,-0.40170300006866455
-1.0225934982299805,3.6134495735168457,-0.4069504737854004
-0.9972476363182068,3.620135545730591,-0.4104163348674774
-0.9760207533836365,3.641605854034424,-0.415574312210083
-0.9522426128387451,3.655557632446289,-0.4196070432662964
-0.9263947010040283,3.661829710006714,-0.4227694272994995
-0.903825581073761,3.6830835342407227,-0.4277290105819702
-0.8780820369720459,3.6889405250549316,-0.430867999792099
-0.8556550741195679,3.709789276123047,-0.4356369078159332
-0.8277336359024048,3.7078359127044678,-0.43756192922592163
-0.805613100528717,3.732222557067871,-0.4426240026950836
-0.780571699142456,3.7451281547546387,-0.4463823139667511
-0.754431426525116,3.7501473426818848,-0.4491793215274811
-0.7309942841529846,3.770297050476074,-0.4534815847873688
-0.704433023929596,3.775057077407837,-0.4559146761894226
-0.6792408227920532,3.7872586250305176,-0.4592706859111786
-0.6562948822975159,3.8146183490753174,-0.46452072262763977
-0.6321499943733215,3.8341329097747803,-0.46871858835220337
-0.6051995158195496,3.8382298946380615,-0.47075527906417847
-0.5822619199752808,3.8689775466918945,-0.4760947525501251
-0.5562983751296997,3.8803789615631104,-0.4790835976600647
-0.5308674573898315,3.8993356227874756,-0.4830609858036041
-0.5085909366607666,3.941175937652588,-0.4896262288093567
-0.4809650182723999,3.944439649581909,-0.49125906825065613
-0.4533507525920868,3.947504997253418,-0.4928898811340332
-0.4295862913131714,3.9850502014160156,-0.49885502457618713
-0.4026332199573517,3.995450496673584,-0.5014584064483643
-0.37571194767951965,4.01348352432251,-0.5046719312667847
-0.3503442704677582,4.046749591827393,-0.5097675323486328
-0.32084229588508606,4.033491611480713,-0.5090307593345642
-0.2939191162586212,4.050933361053467,-0.5121887922286987
-0.2667563855648041,4.068204402923584,-0.5152828693389893
-0.23649512231349945,4.046689510345459,-0.5130901336669922
-0.2098744958639145,4.079107761383057,-0.5177521109580994
-0.18074767291545868,4.064892292022705,-0.516522228717804
-0.1530918926000595,4.081445693969727,-0.519225001335144
-0.12374512106180191,4.051358222961426,-0.5158182978630066
-0.09484592080116272,4.044353008270264,-0.5150896310806274
-0.06617160141468048,4.013887882232666,-0.511393666267395
-0.038069989532232285,3.994845151901245,-0.5091751217842102
-0.010193517431616783,3.9717323780059814,-0.506460428237915
0.017188258469104767,3.917466878890991,-0.49948713183403015
0.04478337988257408,3.9056501388549805,-0.49779120087623596
0.07001455873250961,3.800665855407715,-0.4842531383037567
0.09585237503051758,3.7768707275390625,-0.481088250875473
0.12186368554830551,3.76839280128479,-0.47989869117736816
0.14651437103748322,3.7288124561309814,-0.47436293959617615
0.1720503270626068,3.7200448513031006,-0.4727330505847931
0.1964881718158722,3.6839914321899414,-0.46765565872192383
0.22070154547691345,3.659407138824463,-0.4640727639198303
0.2391069531440735,3.5534732341766357,-0.45014798641204834
0.262559711933136,3.536402940750122,-0.44716593623161316
0.28613027930259705,3.5230376720428467,-0.4446791410446167
0.3096512258052826,3.5056161880493164,-0.44169315695762634
0.332565575838089,3.4880714416503906,-0.43873196840286255
0.35165929794311523,3.4356963634490967,-0.431266188621521
0.3737785816192627,3.417936325073242,-0.42795318365097046
0.3965647220611572,3.4077346324920654,-0.4256143569946289
0.413971483707428,3.3511581420898438,-0.41750359535217285
0.4307212233543396,3.298393726348877,-0.40993693470954895
0.4503980278968811,3.2724809646606445,-0.4054946303367615
0.46800312399864197,3.2349629402160645,-0.3995383381843567
0.49441805481910706,3.2586944103240967,-0.4011690020561218
0.5175124406814575,3.255319595336914,-0.3994380235671997
0.5402108430862427,3.2518386840820312,-0.3977349102497101
0.5613948702812195,3.24062442779541,-0.3947701156139374
0.5824190974235535,3.2292773723602295,-0.39180925488471985
0.5955016016960144,3.175845146179199,-0.38378503918647766
0.6131884455680847,3.1490111351013184,-0.3790198564529419
0.6323840022087097,3.129638433456421,-0.3750650882720947
0.6516117453575134,3.1140758991241455,-0.3714081645011902
0.6665498614311218,3.0794317722320557,-0.3655170798301697
0.6862214207649231,3.067425489425659,-0.36234408617019653
0.7058318257331848,3.0552754402160645,-0.3591742217540741
0.7237321734428406,3.035421371459961,-0.3548988699913025
0.7427989840507507,3.023116111755371,-0.3514751195907593
0.7598018646240234,3.0031673908233643,-0.3471965789794922
0.7778043150901794,2.98681640625,-0.343343049287796
0.7945871949195862,2.9666147232055664,-0.3390590250492096
0.8174034953117371,2.9687881469726562,-0.3370789587497711
0.8335990309715271,2.948457956314087,-0.33260294795036316
0.829102635383606,2.857140064239502,-0.3201967775821686
0.821317195892334,2.7585206031799316,-0.30710333585739136
0.823390543460846,2.697343587875366,-0.2981741726398468
0.8596134781837463,2.7474567890167236,-0.30142536759376526
0.8784889578819275,2.741792917251587,-0.2985607385635376
0.8927562236785889,2.721142530441284,-0.2940579354763031
0.9117287993431091,2.7151591777801514,-0.29113996028900146
0.9088802933692932,2.646677255630493,-0.28140971064567566
0.9089972376823425,2.5893502235412598,-0.2729814648628235
0.9456047415733337,2.634425640106201,-0.2752992808818817
0.9921202659606934,2.704720973968506,-0.2801668345928192
1.0079783201217651,2.6908867359161377,-0.27614107728004456
1.0208039283752441,2.669739246368408,-0.27135220170021057
1.0334452390670776,2.6485133171081543,-0.26658812165260315
1.0493844747543335,2.6342082023620605,-0.2624594271183014
1.067583680152893,2.627223253250122,-0.25905394554138184
1.082483172416687,2.6130409240722656,-0.2548728883266449
1.095724105834961,2.5951874256134033,-0.2503647208213806
1.1138149499893188,2.5878148078918457,-0.24682343006134033
1.116438627243042,2.544586420059204,-0.23982465267181396
1.1273317337036133,2.523074150085449,-0.23489603400230408
1.138000249862671,2.501516342163086,-0.23000366985797882
1.1521177291870117,2.4868016242980957,-0.2257044017314911
1.1544647216796875,2.447355270385742,-0.21918253600597382
1.1679280996322632,2.4326579570770264,-0.21479684114456177
1.184380292892456,2.4250147342681885,-0.21110449731349945
1.1942740678787231,2.4031004905700684,-0.20611873269081116
1.207410454750061,2.388125419616699,-0.20172381401062012
1.2199115753173828,2.3733296394348145,-0.197300523519516
1.2286573648452759,2.3515613079071045,-0.1923343688249588
1.2435028553009033,2.3396596908569336,-0.18803586065769196
1.2614034414291382,2.3348045349121094,-0.18433581292629242
1.271401286125183,2.3163607120513916,-0.17953594028949738
1.283233642578125,2.3012144565582275,-0.17499640583992004
1.29548978805542,2.285693407058716,-0.17033182084560394
1.311187982559204,2.2770376205444336,-0.16609540581703186
1.3184783458709717,2.255077600479126,-0.16096681356430054
1.3299795389175415,2.2395503520965576,-0.15622608363628387
1.349467158317566,2.2372756004333496,-0.15233856439590454
1.364263653755188,2.228577136993408,-0.14798185229301453
1.375320553779602,2.212885618209839,-0.1430666148662567
1.3865947723388672,2.196911334991455,-0.13806714117527008
1.3968472480773926,2.181431293487549,-0.133097842335701
1.4111354351043701,2.172489643096924,-0.128542959690094
1.4219821691513062,2.1563467979431152,-0.12332122772932053
1.4321010112762451,2.140531539916992,-0.11806367337703705
1.445993185043335,2.131432294845581,-0.11326351761817932
1.4498409032821655,2.1054351329803467,-0.10726619511842728
1.4546347856521606,2.083367347717285,-0.1015293076634407
1.45926034450531,2.061274528503418,-0.09577374905347824
1.4349892139434814,1.9973242282867432,-0.08783508092164993
1.4522814750671387,1.9946802854537964,-0.08279996365308762
1.4657397270202637,1.9850389957427979,-0.07715582102537155
1.4836212396621704,2.102337121963501,0.1605454832315445
1.477258324623108,2.1254098415374756,0.16697214543819427
1.4605271816253662,2.1365091800689697,0.17241880297660828
1.453171968460083,2.159907341003418,0.17868782579898834
1.4287627935409546,2.1570518016815186,0.18248987197875977
1.4205520153045654,2.1806769371032715,0.18846504390239716
1.4086732864379883,2.1972248554229736,0.19368301331996918
1.3970881700515747,2.2134323120117188,0.19871491193771362
1.3798197507858276,2.223832845687866,0.20319890975952148
1.367101788520813,2.240403175354004,0.2081516534090042
1.3553131818771362,2.256263017654419,0.21284617483615875
1.3424803018569946,2.272587776184082,0.21751438081264496
1.329116702079773,2.2890491485595703,0.2221856713294983
1.317922830581665,2.3085827827453613,0.22711658477783203
1.3016966581344604,2.3174009323120117,0.23085945844650269
1.288097620010376,2.333514928817749,0.2352011501789093
1.2742713689804077,2.349578380584717,0.23955920338630676
1.2609409093856812,2.365218162536621,0.24379979074001312
1.2548118829727173,2.39449143409729,0.249467134475708
1.240582823753357,2.4102931022644043,0.25357291102409363
1.2348377704620361,2.443423271179199,0.25953409075737
1.227384328842163,2.472893476486206,0.2651057243347168
1.2202346324920654,2.502060890197754,0.2706092298030853
1.2118563652038574,2.531662940979004,0.27613380551338196
1.1930891275405884,2.540217876434326,0.27927377820014954
1.1807657480239868,2.5627505779266357,0.2839779853820801
1.1643339395523071,2.574190616607666,0.2873704731464386
1.1462856531143188,2.5819435119628906,0.29036086797714233
1.1303963661193848,2.5970969200134277,0.2940029501914978
1.1170722246170044,2.6194300651550293,0.29852184653282166
1.1039594411849976,2.6415083408355713,0.3030005395412445
1.0824884176254272,2.6416714191436768,0.30491113662719727
1.0725067853927612,2.670555353164673,0.3101227283477783
1.0529731512069702,2.678018093109131,0.3126939535140991
1.0455923080444336,2.7180793285369873,0.3191393315792084
1.025912880897522,2.7252652645111084,0.3217153549194336
1.0094887018203735,2.739373207092285,0.32507482171058655
0.9954792261123657,2.7607131004333496,0.3292890787124634
0.9676491618156433,2.745633125305176,0.3289716839790344
0.9498610496520996,2.75976824760437,0.3321897089481354
0.9187068343162537,2.7331955432891846,0.3304823338985443
0.908074140548706,2.765087127685547,0.33580195903778076
0.8780800104141235,2.7378389835357666,0.33395177125930786
0.8827464580535889,2.821584463119507,0.3454626202583313
0.8948253989219666,2.9353508949279785,0.3607456088066101
0.8780543804168701,2.956343412399292,0.36467888951301575
0.8604117035865784,2.9733874797821045,0.36812618374824524
0.8417524099349976,2.986530065536499,0.37110209465026855
0.8247532248497009,3.0071158409118652,0.3749157190322876
0.805158793926239,3.0202229022979736,0.3776654005050659
0.7869670987129211,3.0408074855804443,0.38139867782592773
0.7652282118797302,3.0461223125457764,0.38321682810783386
0.7512892484664917,3.0813021659851074,0.38879653811454773
0.7360347509384155,3.1126492023468018,0.393931120634079
0.7191063165664673,3.1402688026428223,0.3983992636203766
0.7063544988632202,3.1906230449676514,0.4057486355304718
0.6876308917999268,3.2143330574035645,0.40973377227783203
0.6664513945579529,3.2265079021453857,0.41226866841316223
0.6469471454620361,3.246086597442627,0.41576406359672546
0.6286541819572449,3.2731621265411377,0.42024511098861694
0.606353759765625,3.2850804328918457,0.42253202199935913
0.5863551497459412,3.308223009109497,0.42627736926078796
0.5641448497772217,3.319777488708496,0.4285561740398407
0.5432876944541931,3.3387928009033203,0.43181684613227844
0.524783730506897,3.372959613800049,0.4370620846748352
0.5053554177284241,3.4070982933044434,0.4423094391822815
0.48618006706237793,3.4449777603149414,0.4477790296077728
0.46902966499328613,3.501955509185791,0.4557686746120453
0.4457395374774933,3.51658034324646,0.4582798480987549
0.42202985286712646,3.52717661857605,0.4602866470813751
0.39743903279304504,3.5299012660980225,0.46128708124160767
0.3772205710411072,3.578735589981079,0.4683106243610382
0.3543265163898468,3.604339838027954,0.47201940417289734
0.33210763335227966,3.641371726989746,0.4772546589374542
0.31100794672966003,3.6975643634796143,0.4850345849990845
0.2896313965320587,3.7574820518493652,0.49333667755126953
0.2641324996948242,3.774796962738037,0.49608394503593445
0.23957113921642303,3.8035097122192383,0.5003333687782288
0.2142912745475769,3.828244209289551,0.503750205039978
0.18863601982593536,3.852811336517334,0.5071719884872437
0.16268908977508545,3.8772037029266357,0.5105976462364197
0.1385117769241333,3.9749739170074463,0.5237232446670532
0.11183890700340271,4.010632038116455,0.5286939740180969
0.0844336748123169,4.034493923187256,0.5321393609046936
0.0567130409181118,4.0659589767456055,0.5362609028816223
0.028568770736455917,4.0933637619018555,0.5398347973823547
-0.00044658788829110563,4.1554274559021,0.548005223274231
-0.0299227312207222,4.228903293609619,0.5577077269554138
-0.0595613457262516,4.244082450866699,0.5597493648529053
-0.08998160064220428,4.286155700683594,0.5653660893440247
-0.11996032297611237,4.293209552764893,0.5660881400108337
-0.1507851928472519,4.3232927322387695,0.5697636008262634
-0.1834523230791092,4.372476100921631,0.5759734511375427
-0.22041460871696472,4.506541728973389,0.5933869481086731
-0.25670313835144043,4.59389591217041,0.6046664714813232
-0.3278000056743622,5.21437931060791,0.6861168146133423
-0.3668743968009949,5.254584789276123,0.690937340259552
-0.4017542600631714,5.224973201751709,0.6863835453987122
-0.43848246335983276,5.229921817779541,0.686417281627655
-0.4718511700630188,5.1960320472717285,0.6813881397247314
-0.5165711045265198,5.281427383422852,0.6920264959335327
-0.5685555934906006,5.424238681793213,0.7101973295211792
-0.6028327941894531,5.385621547698975,0.7044072151184082
-0.6283754706382751,5.285383701324463,0.6903367638587952
-0.6588586568832397,5.235013008117676,0.6828377842903137
-0.6968975067138672,5.245910167694092,0.6833668351173401
-0.7273430824279785,5.198941230773926,0.6763880252838135
-0.7663925886154175,5.209189414978027,0.6768729090690613
-0.7965180277824402,5.165680885314941,0.6702648401260376
-0.8319479823112488,5.160345077514648,0.668324887752533
-0.8685742616653442,5.162416458129883,0.6673758029937744
-0.8999152779579163,5.133692741394043,0.6624804139137268
-0.9341107606887817,5.119955062866211,0.6595431566238403
-0.9689033627510071,5.105852127075195,0.6565706729888916
-0.9855238199234009,5.004223823547363,0.6422700881958008
-1.021201252937317,5.005280017852783,0.6408783793449402
-1.0617945194244385,5.028826713562012,0.6423825025558472
-1.0927859544754028,5.006618499755859,0.6380694508552551
-1.1459760665893555,5.078513145446777,0.6457126140594482
-1.1557801961898804,4.961233139038086,0.6293623447418213
-1.1872481107711792,4.942162036895752,0.6253635883331299
-1.215226173400879,4.911750793457031,0.6197010278701782
-1.2026609182357788,4.723362922668457,0.5942096710205078
-1.2372727394104004,4.722777366638184,0.5924053192138672
-1.2659753561019897,4.699447154998779,0.5877740979194641
-1.2945067882537842,4.675917625427246,0.5831522345542908
-1.3201297521591187,4.644929885864258,0.5773962140083313
-1.353664755821228,4.643735885620117,0.575206458568573
-1.3989406824111938,4.6792988777160645,0.5775353312492371
-1.1171108484268188,3.6462795734405518,0.4484516680240631
-1.1436387300491333,3.6424243450164795,0.44637322425842285
-1.486171007156372,4.6209211349487305,0.5642700791358948
-1.4943557977676392,4.5411601066589355,0.552196741104126
-1.5279638767242432,4.538588523864746,0.5494998693466187
-1.595152497291565,4.635037899017334,0.5588010549545288
-1.6296372413635254,4.631701469421387,0.5559865832328796
-1.6514480113983154,4.591430187225342,0.5487441420555115
-1.6776105165481567,4.565857887268066,0.5431388020515442
-1.7137255668640137,4.569494724273682,0.5408280491828918
-1.7796964645385742,4.648788928985596,0.5473811030387878
-1.7886484861373901,4.579202651977539,0.5364312529563904
-1.8104959726333618,4.5418500900268555,0.5292601585388184
-1.8697787523269653,4.598027229309082,0.5329232215881348
-1.8751978874206543,4.524951934814453,0.5213121771812439
-1.8878213167190552,4.469667434692383,0.51179039478302
-1.9086077213287354,4.435979843139648,0.5048502683639526
-1.9380888938903809,4.419467926025391,0.4997747242450714
-1.98947274684906,4.452494144439697,0.5002720355987549
-2.015953302383423,4.432588577270508,0.49449458718299866
-2.0557925701141357,4.44052791595459,0.49177736043930054
-2.0756566524505615,4.406066417694092,0.48442158102989197
-2.0710902214050293,4.318417549133301,0.47117993235588074
-2.0974509716033936,4.297588348388672,0.4652479588985443
-2.1396584510803223,4.312061786651611,0.462898850440979
-2.1651716232299805,4.291184425354004,0.45668214559555054
-2.16581130027771,4.221624851226807,0.44534027576446533
-2.1917760372161865,4.200021266937256,0.43900012969970703
-2.2565739154815674,4.2544355392456055,0.4403929114341736
-2.284606695175171,4.240056037902832,0.434499591588974
-2.2079381942749023,4.034348964691162,0.4092179238796234
-2.2404141426086426,4.025928020477295,0.4038245379924774
-2.2681872844696045,4.010950565338135,0.39777904748916626
-2.294463872909546,3.9965851306915283,0.39162036776542664
-2.3245654106140137,3.988767623901367,0.3861120641231537
-2.3481554985046387,3.9665069580078125,0.3789636492729187
-2.3801629543304443,3.957115650177002,0.37284305691719055
-2.405916929244995,3.942143201828003,0.36609402298927307
-2.4274961948394775,3.9203569889068604,0.35873156785964966
-2.450486183166504,3.8974812030792236,0.3509681522846222
-2.4727957248687744,3.874776840209961,0.34310978651046753
-2.4981625080108643,3.8591256141662598,0.335667222738266
-2.5234687328338623,3.8432695865631104,0.3282104730606079
-2.608736038208008,3.913686752319336,0.3275725543498993
-2.625302791595459,3.884471893310547,0.3183080554008484
-2.0707011222839355,3.0226058959960938,0.24231472611427307
-2.0541863441467285,2.9540443420410156,0.23096781969070435
-2.073596715927124,2.9409890174865723,0.22401940822601318
-2.0921666622161865,2.9283316135406494,0.21706493198871613
-1.0733375549316406,1.4808632135391235,0.10643713176250458
-1.09901762008667,1.4961988925933838,0.10403984785079956
-1.1130633354187012,1.4957917928695679,0.10042710602283478
-2.0563294887542725,2.9055371284484863,-0.14411506056785583
-2.085141897201538,2.994532346725464,-0.15676425397396088
-2.4436025619506836,3.562232732772827,-0.19537264108657837
-2.4466724395751953,3.6256558895111084,-0.20792828500270844
-2.415431499481201,3.636617422103882,-0.21717174351215363
-2.3937039375305176,3.6597275733947754,-0.22670505940914154
-2.361830234527588,3.6705269813537598,-0.23547756671905518
-2.3434433937072754,3.7001962661743164,-0.2451951950788498
-2.30820631980896,3.703326463699341,-0.25301826000213623
-2.2723400592803955,3.7065675258636475,-0.2606499493122101
-2.257506847381592,3.7423763275146484,-0.2703787684440613
-2.2269392013549805,3.750993013381958,-0.2779456079006195
-2.203014373779297,3.7735214233398438,-0.28650400042533875
-2.1710188388824463,3.7824151515960693,-0.2940652072429657
-2.1443631649017334,3.7969913482666016,-0.30169978737831116
-2.1202266216278076,3.8188273906707764,-0.3098640441894531
-2.0919694900512695,3.8337557315826416,-0.3174917697906494
-2.0648136138916016,3.847839832305908,-0.32479313015937805
-2.0404396057128906,3.869004964828491,-0.3327288329601288
-2.0156409740448,3.8901336193084717,-0.3405250310897827
-1.9803451299667358,3.890122413635254,-0.3464140295982361
-1.9599573612213135,3.917239189147949,-0.3545544743537903
-1.943619966506958,3.9551351070404053,-0.3636307120323181
-1.9023935794830322,3.944255828857422,-0.3683042824268341
-1.8858542442321777,3.9817306995391846,-0.3772978186607361
-1.857848882675171,3.994246482849121,-0.3838900327682495
-1.8385242223739624,4.0282301902771,-0.3924221396446228
-1.809272050857544,4.040817737579346,-0.39890986680984497
-1.786873698234558,4.067144393920898,-0.4066700041294098
-1.7670156955718994,4.100592613220215,-0.4152301847934723
-1.7253272533416748,4.083930015563965,-0.41842740774154663
-1.707769751548767,4.124365329742432,-0.4274964928627014
-1.6887956857681274,4.1609296798706055,-0.4361609220504761
-1.6567580699920654,4.164793014526367,-0.4413902461528778
-1.6347557306289673,4.1978912353515625,-0.44958096742630005
-1.6073782444000244,4.2161478996276855,-0.45615091919898987
-1.3057345151901245,3.4986724853515625,-0.38230782747268677
-1.2531893253326416,3.43058180809021,-0.37853682041168213
-1.2260816097259521,3.431626558303833,-0.3821202516555786
-1.2036194801330566,3.4473042488098145,-0.38737544417381287
-1.1766036748886108,3.4479236602783203,-0.39087116718292236
-1.154891848564148,3.462960720062256,-0.3959731161594391
-1.1351704597473145,3.4853413105010986,-0.4017953872680664
-1.115003228187561,3.507678508758545,-0.4075465798377991
-1.0941656827926636,3.530014991760254,-0.41339731216430664
-1.0784580707550049,3.566830635070801,-0.42089033126831055
-1.0490260124206543,3.5589487552642822,-0.42306584119796753
-1.0333901643753052,3.5994296073913574,-0.4307865798473358
-1.0120091438293457,3.621169328689575,-0.43632522225379944
-0.9905986189842224,3.6427204608917236,-0.4418611526489258
-0.9646528363227844,3.649217367172241,-0.4456412196159363
-0.9388778209686279,3.655513048171997,-0.4490770995616913
-0.9167275428771973,3.6767053604125977,-0.45431873202323914
-0.8889117240905762,3.675130605697632,-0.4567692279815674
-0.8667661547660828,3.6959331035614014,-0.4619990885257721
-0.8404014110565186,3.7016055583953857,-0.46528634428977966
-0.8159186840057373,3.714641571044922,-0.46923190355300903
-0.7881028652191162,3.712338447570801,-0.4712604284286499
-0.7675139307975769,3.7439732551574707,-0.4776192307472229
-0.7428808212280273,3.756460189819336,-0.4815693199634552
-0.7160316705703735,3.761322259902954,-0.48428189754486084
-0.6909245848655701,3.7735607624053955,-0.48785290122032166
-0.6657412052154541,3.7856192588806152,-0.4914282560348511
-0.6431837677955627,3.8127591609954834,-0.49698778986930847
-0.6152997612953186,3.809183359146118,-0.498487651348114
-0.591607928276062,3.8361666202545166,-0.5036951899528503
-0.5680320858955383,3.862936019897461,-0.5088911056518555
-0.5399416089057922,3.8588547706604004,-0.510046660900116
-0.5187230110168457,3.9044597148895264,-0.5177997946739197
-0.4924328625202179,3.915415048599243,-0.5207371115684509
-0.46504178643226624,3.9185328483581543,-0.5224615335464478
-0.4422991871833801,3.967689037322998,-0.5303892493247986
-0.416655033826828,3.989696979522705,-0.5347082018852234
-0.38959944248199463,3.9999759197235107,-0.5374905467033386
-0.3623245060443878,4.010138511657715,-0.5398308038711548
-0.33427494764328003,4.01240348815918,-0.5410953760147095
-0.3107491135597229,4.0801262855529785,-0.5512464046478271
-0.28344959020614624,4.097462177276611,-0.5546149015426636
-0.25731492042541504,4.137814998626709,-0.5610126256942749
-0.2342384308576584,4.2437567710876465,-0.5759497284889221
-0.20276665687561035,4.206516742706299,-0.5714917778968811
-0.16692964732646942,4.060776710510254,-0.5523033142089844
-0.13922937214374542,4.07720947265625,-0.5551674962043762
-0.11115594953298569,4.0896220207214355,-0.5572259426116943
-0.08246875554323196,4.078655242919922,-0.555883526802063
-0.05523966625332832,4.168110370635986,-0.5682584643363953
-0.02447192557156086,3.9593639373779297,-0.5400024652481079
0.003071635263040662,3.959406614303589,-0.5402345657348633
0.03019639663398266,3.9051308631896973,-0.5326557755470276
0.05647794529795647,3.8468124866485596,-0.5244773030281067
0.08214914053678513,3.79605770111084,-0.5173611044883728
0.10827194154262543,3.7876930236816406,-0.5160506963729858
0.1333947330713272,3.740459442138672,-0.509405255317688
0.1586860865354538,3.7240748405456543,-0.5065704584121704
0.18276819586753845,3.688190221786499,-0.501116156578064
0.20663891732692719,3.6560115814208984,-0.49619823694229126
0.22887460887432098,3.6043620109558105,-0.48867273330688477
0.25163087248802185,3.5641610622406006,-0.4825375974178314
0.2730623781681061,3.520026683807373,-0.47566306591033936
0.29555317759513855,3.4950506687164307,-0.4714159667491913
0.31912216544151306,3.4853525161743164,-0.46925997734069824
0.33839303255081177,3.4331109523773193,-0.4614124298095703
0.3601784110069275,3.4077250957489014,-0.4568878710269928
0.3785804808139801,3.359175443649292,-0.4492020010948181
0.4045851230621338,3.3797433376312256,-0.4507899880409241
0.41788098216056824,3.2963650226593018,-0.4385480582714081
0.4408213496208191,3.2935729026794434,-0.43706342577934265
0.4597291052341461,3.259949207305908,-0.43110892176628113
0.4783327579498291,3.2301077842712402,-0.4257288873195648
0.5007550120353699,3.2269489765167236,-0.4238947331905365
0.521967351436615,3.215977907180786,-0.4210548400878906
0.5365448594093323,3.1666908264160156,-0.4131024479866028
0.5571027994155884,3.155552387237549,-0.40994465351104736
0.5730085968971252,3.117535352706909,-0.40330827236175537
0.5801365971565247,3.037621259689331,-0.39135196805000305
0.5990628004074097,3.0223636627197266,-0.38778579235076904
0.6184495687484741,3.0108423233032227,-0.384478360414505
0.6344367265701294,2.9840471744537354,-0.3791760206222534
0.6662846803665161,3.029031276702881,-0.3829614222049713
0.6830857992172241,3.005718946456909,-0.37813305854797363
0.7137247920036316,3.0427308082580566,-0.380848228931427
0.7228624820709229,2.989075183868408,-0.3719865381717682
0.7472079396247864,2.9994101524353027,-0.371133029460907
0.7664449214935303,2.986889123916626,-0.36741283535957336
0.7873107194900513,2.9817960262298584,-0.36465176939964294
0.8059212565422058,2.969137668609619,-0.36081308126449585
0.8243173360824585,2.956394672393799,-0.356882244348526
0.8222848773002625,2.8726515769958496,-0.34446650743484497
0.8043375611305237,2.7367851734161377,-0.3259250819683075
0.7998673319816589,2.653412103652954,-0.3138250410556793
0.8375769853591919,2.7112514972686768,-0.3182471692562103
0.8702407479286194,2.7502074241638184,-0.32037460803985596
0.877338707447052,2.707526922225952,-0.3129763901233673
0.9014816880226135,2.716320753097534,-0.3115015923976898
0.9152243137359619,2.6956934928894043,-0.306561678647995
0.8993456959724426,2.5906362533569336,-0.29208067059516907
0.9054681658744812,2.5517919063568115,-0.285205215215683
0.9484538435935974,2.6151528358459473,-0.289691686630249
0.9949544668197632,2.6853854656219482,-0.29474079608917236
1.0109002590179443,2.671510934829712,-0.29032671451568604
1.0291850566864014,2.664905071258545,-0.2867734134197235
1.0420184135437012,2.6435940265655518,-0.2816210985183716
1.0546492338180542,2.6222100257873535,-0.27648231387138367
1.0754750967025757,2.6225359439849854,-0.2735040783882141
1.090673565864563,2.6082189083099365,-0.26895755529403687
1.1010915040969849,2.5831000804901123,-0.2633489966392517
1.1160658597946167,2.5685718059539795,-0.25882768630981445
1.1209728717803955,2.532827615737915,-0.25210219621658325
1.1350030899047852,2.5184216499328613,-0.24753950536251068
1.1412969827651978,2.486023187637329,-0.24116383492946625
1.155396580696106,2.4712913036346436,-0.23656116425991058
1.1622124910354614,2.442636728286743,-0.2305738776922226
1.171979308128357,2.421050786972046,-0.22529640793800354
1.1886296272277832,2.4132909774780273,-0.22128614783287048
1.2023084163665771,2.3981757164001465,-0.21650832891464233
1.2149862051010132,2.383409023284912,-0.21176888048648834
1.2238729000091553,2.3616888523101807,-0.20644228160381317
1.2347182035446167,2.34320068359375,-0.20136046409606934
1.2529131174087524,2.3383049964904785,-0.19740796089172363
1.266753911972046,2.3267602920532227,-0.1928347796201706
1.2788681983947754,2.311579942703247,-0.18792462348937988
1.2872991561889648,2.2893855571746826,-0.18241870403289795
1.3068509101867676,2.2876126766204834,-0.1785186380147934
1.310353398323059,2.258955478668213,-0.17252245545387268
1.3256133794784546,2.250373363494873,-0.1680469512939453
1.3416578769683838,2.241194009780884,-0.1633216142654419
1.3484898805618286,2.2191951274871826,-0.15772323310375214
1.371408224105835,2.223778247833252,-0.15401425957679749
1.378589153289795,2.201282024383545,-0.14824499189853668
1.393424391746521,2.1922450065612793,-0.14337964355945587
1.4038394689559937,2.1766316890716553,-0.1380176991224289
1.4187672138214111,2.167247772216797,-0.1329524964094162
1.4248210191726685,2.1448721885681152,-0.1270301640033722
1.4388060569763184,2.1358139514923096,-0.12191823124885559
1.4423495531082153,2.1101293563842773,-0.11568993330001831
1.4523136615753174,2.094088554382324,-0.10983381420373917
1.4612985849380493,2.0785701274871826,-0.1041259691119194
1.4530011415481567,2.036898612976074,-0.0968400165438652
1.4411355257034302,1.9928182363510132,-0.08954285830259323
1.4610575437545776,1.9930506944656372,-0.08419458568096161
1.47457754611969,1.983320951461792,-0.07802707701921463
1.4519309997558594,2.0427842140197754,0.16631248593330383
1.4754583835601807,2.1067988872528076,0.17649133503437042
1.4633443355560303,2.1242120265960693,0.1828107386827469
1.4515148401260376,2.1412456035614014,0.18897201120853424
1.444951057434082,2.163978099822998,0.19532813131809235
1.4281463623046875,2.174633741378784,0.20051144063472748
1.415587067604065,2.1916277408599854,0.20627786219120026
1.4000979661941528,2.2011067867279053,0.21100808680057526
1.3915839195251465,2.2244367599487305,0.21697498857975006
1.3704054355621338,2.2279508113861084,0.2210175096988678
1.366588830947876,2.257200241088867,0.2273833006620407
1.3498477935791016,2.2668070793151855,0.23176953196525574
1.3325785398483276,2.276564121246338,0.23603202402591705
1.3213597536087036,2.2961320877075195,0.24128247797489166
1.309020757675171,2.3117146492004395,0.2459605485200882
1.3033887147903442,2.341219425201416,0.2520638108253479
1.2817074060440063,2.343869924545288,0.2552947998046875
1.2753952741622925,2.3734076023101807,0.2613846957683563
1.2586767673492432,2.3819100856781006,0.2650572955608368
1.2448781728744507,2.3975110054016113,0.26943808794021606
1.2339937686920166,2.4201927185058594,0.2745642364025116
1.2312421798706055,2.460350751876831,0.28177809715270996
1.2276816368103027,2.4964241981506348,0.28839802742004395
1.2200816869735718,2.5256645679473877,0.2942468225955963
1.201366901397705,2.5342330932617188,0.2975614070892334
1.1907800436019897,2.560267925262451,0.30295923352241516
1.1706942319869995,2.5648608207702637,0.30578792095184326
1.1571019887924194,2.5834059715270996,0.31028345227241516
1.1383689641952515,2.5913450717926025,0.31335702538490295
1.1253935098648071,2.613557815551758,0.3180958926677704
1.10910964012146,2.6285688877105713,0.32199475169181824
1.0963973999023438,2.6503472328186035,0.32667452096939087
1.0833368301391602,2.6721067428588867,0.33140021562576294
1.066861629486084,2.6867358684539795,0.3350602388381958
1.0472240447998047,2.694110870361328,0.33778250217437744
1.0371642112731934,2.7267308235168457,0.34370729327201843
1.0151572227478027,2.7263879776000977,0.3454471528530121
1.0036773681640625,2.7550759315490723,0.35090646147727966
0.9812533855438232,2.7545909881591797,0.35247254371643066
0.9663243293762207,2.775982618331909,0.356775164604187
0.934882402420044,2.749582529067993,0.3549458384513855
0.9128698110580444,2.7484958171844482,0.3563448190689087
0.8885015249252319,2.7398681640625,0.3567737638950348
0.8866497278213501,2.8012282848358154,0.3662278652191162
0.8927057385444641,2.892458200454712,0.3795115053653717
0.8829493522644043,2.935659646987915,0.38657259941101074
0.8683730959892273,2.963951826095581,0.3917110860347748
0.8487340211868286,2.973381519317627,0.39434799551963806
0.8337804675102234,3.001453399658203,0.39951691031455994
0.8142883777618408,3.0145697593688965,0.40244436264038086
0.7985464334487915,3.0425610542297363,0.407354474067688
0.778587281703949,3.0554680824279785,0.4102792739868164
0.7588239908218384,3.068162441253662,0.4131835997104645
0.7415362000465393,3.0920474529266357,0.4176312983036041
