X,Y,Z
1.3689216375350952,10.436630249023438,0.4385491907596588
1.281943440437317,10.337522506713867,0.4349486231803894
1.2000539302825928,10.26872444152832,0.4326345920562744
1.106155276298523,10.086858749389648,0.42556875944137573
1.0295180082321167,10.032159805297852,0.423861563205719
0.4096653163433075,4.2852396965026855,0.18131394684314728
0.3785799443721771,4.276332855224609,0.18107610940933228
0.34605512022972107,4.2477521896362305,0.18001264333724976
0.31687381863594055,4.265672206878662,0.18093109130859375
0.2882634997367859,4.283336162567139,0.181844562292099
0.2615377902984619,4.335869312286377,0.18424975872039795
0.2277679294347763,4.271326541900635,0.181636780500412
0.1999206840991974,4.315692901611328,0.1835654377937317
0.1681898981332779,4.289700984954834,0.18251147866249084
0.13747529685497284,4.267362594604492,0.18162035942077637
0.10912349075078964,4.318929195404053,0.18388362228870392
0.07787515223026276,4.253243923187256,0.18116332590579987
0.04938095062971115,4.351243495941162,0.18533378839492798
0.018693948164582253,4.382707118988037,0.18662486970424652
-0.011916924268007278,4.4178571701049805,0.18808221817016602
-0.040034219622612,4.148394584655762,0.17658190429210663
-0.06777448207139969,4.0816802978515625,0.17372258007526398
-0.09633558243513107,4.08891487121582,0.17401933670043945
-0.9096696972846985,6.071566104888916,0.2526871860027313
-0.5128284692764282,3.269744634628296,0.1357661485671997
-0.5390515327453613,3.2892754077911377,0.1362660527229309
-0.5578970313072205,3.2623953819274902,0.13484668731689453
-0.5730041861534119,3.2161943912506104,0.13264083862304688
-0.5871192812919617,3.166044235229492,0.13026344776153564
-0.6036018133163452,3.135146379470825,0.12861958146095276
-0.6265662908554077,3.138620615005493,0.12839414179325104
-0.6386016011238098,3.08840274810791,0.1259816735982895
-0.6584373116493225,3.0762741565704346,0.12513022124767303
-0.6802036166191101,3.071556806564331,0.1245809867978096
-0.6960495114326477,3.0440099239349365,0.12305602431297302
-0.7167537808418274,3.03922700881958,0.12242769449949265
-0.7005808353424072,2.8825812339782715,0.11570858210325241
-0.6987048983573914,2.7906010150909424,0.11161846667528152
-0.7096933722496033,2.7515854835510254,0.10966004431247711
-0.729714035987854,2.750406503677368,0.10920760035514832
-0.7473579049110413,2.741645574569702,0.10839800536632538
-0.7712293863296509,2.7553253173828125,0.10847817361354828
-0.7943949699401855,2.7650110721588135,0.10839677602052689
-0.9011379480361938,3.055140972137451,0.11924752593040466
-0.9415368437767029,3.1123597621917725,0.12096060812473297
-0.9741201996803284,3.143239736557007,0.12155699729919434
-0.9976717233657837,3.144069194793701,0.12098139524459839
-1.0298033952713013,3.1706855297088623,0.12139328569173813
-1.0620754957199097,3.192985773086548,0.12160609662532806
-1.0930562019348145,3.2114272117614746,0.12167812138795853
-1.1251376867294312,3.2334506511688232,0.1218186765909195
-1.1625927686691284,3.269972562789917,0.12247481942176819
-1.480452299118042,4.07669734954834,0.15179438889026642
-1.4965423345565796,4.033411979675293,0.14927180111408234
-1.5291557312011719,4.0337371826171875,0.14836081862449646
-1.5521847009658813,4.012426376342773,0.14660532772541046
-1.5704187154769897,3.9802041053771973,0.14443808794021606
-1.6000142097473145,3.9768667221069336,0.1433267593383789
-2.2903807163238525,5.580090045928955,0.19966432452201843
-2.349515914916992,5.610588073730469,0.19928230345249176
-2.37495493888855,5.565999507904053,0.19615888595581055
-2.4043660163879395,5.532153606414795,0.19341987371444702
-2.4623613357543945,5.5622124671936035,0.19289550185203552
-2.510572910308838,5.566402912139893,0.19142478704452515
-2.55928111076355,5.5700459480285645,0.18988190591335297
-1.5114103555679321,3.2327768802642822,0.10919974744319916
-1.5294748544692993,3.215669870376587,0.1076207384467125
-1.5413533449172974,3.1840312480926514,0.10553254932165146
-1.5600602626800537,3.166250705718994,0.10390415787696838
-1.5711532831192017,3.1346240043640137,0.1017739549279213
-1.5989378690719604,3.1381285190582275,0.10079265385866165
-1.6344529390335083,3.1550474166870117,0.10020913183689117
-1.663653016090393,3.157461643218994,0.09911949932575226
-1.7366571426391602,3.2425312995910645,0.10055895149707794
-1.797119140625,3.303128719329834,0.1011432558298111
-1.1903032064437866,2.152942419052124,0.06505034863948822
-1.1899280548095703,2.1174209117889404,0.06309252977371216
-1.9167053699493408,3.3573286533355713,0.0986100509762764
-1.9385243654251099,3.3448309898376465,0.09678848087787628
-1.9647136926651,3.3386342525482178,0.09511740505695343
-1.2547039985656738,2.098050594329834,0.05877206474542618
-1.2686561346054077,2.0896780490875244,0.05753597617149353
-2.0358798503875732,3.3050620555877686,0.0893932655453682
-2.5158910751342773,4.0229716300964355,0.10674819350242615
-2.5520801544189453,4.018697738647461,0.10450861603021622
-2.55713152885437,3.969175338745117,0.10103317350149155
-2.555299758911133,3.9099080562591553,0.09735023975372314
-2.46580171585083,3.7163994312286377,0.09032534807920456
-2.4179399013519287,3.5934395790100098,0.0851663127541542
-2.421046018600464,3.5489373207092285,0.08193231374025345
-2.4372708797454834,3.5188918113708496,0.07882122695446014
-2.4420385360717773,3.477534770965576,0.07550419867038727
-2.477916955947876,3.480926752090454,0.07310649007558823
-2.5935513973236084,3.590313196182251,0.0726209431886673
-2.696560859680176,3.6844940185546875,0.07162852585315704
-2.7651095390319824,3.726227045059204,0.06928380578756332
-2.4587390422821045,3.466099262237549,-0.057072896510362625
-2.440824270248413,3.497753858566284,-0.060412537306547165
-2.8648951053619385,4.168466091156006,-0.07507053017616272
-2.8382389545440674,4.196033477783203,-0.07859041541814804
-2.8433754444122314,4.272481441497803,-0.08297456800937653
-2.8113720417022705,4.288877487182617,-0.08601755648851395
-2.807016372680664,4.352209091186523,-0.09001105278730392
-2.1134324073791504,3.3307456970214844,-0.07091303914785385
-2.0856523513793945,3.338956356048584,-0.07301490008831024
-1.2636178731918335,2.0564146041870117,-0.04611022770404816
-1.2442973852157593,2.059011220932007,-0.04729050025343895
-2.012576103210449,3.383361577987671,-0.07943087816238403
-1.9920940399169922,3.404466152191162,-0.08162689208984375
-1.9663435220718384,3.419353723526001,-0.08369187265634537
-1.1844948530197144,2.0938682556152344,-0.05222400650382042
-1.1850076913833618,2.1293749809265137,-0.05407852306962013
-1.9057410955429077,3.484543800354004,-0.0900261327624321
-1.837751865386963,3.4191863536834717,-0.08981940895318985
-1.6839543581008911,3.1869213581085205,-0.08505313098430634
-1.6126636266708374,3.1051955223083496,-0.08412422239780426
-1.5899028778076172,3.116868495941162,-0.08566145598888397
-1.5674914121627808,3.1281578540802,-0.08716952800750732
-1.5456743240356445,3.1389546394348145,-0.08863241970539093
-1.5296443700790405,3.164113759994507,-0.09050007909536362
-1.5032269954681396,3.1680662631988525,-0.09172163158655167
-2.319774866104126,4.980401992797852,-0.14589768648147583
-2.2526488304138184,4.925308704376221,-0.14592044055461884
-2.203301191329956,4.909024238586426,-0.1470249742269516
-2.1772022247314453,4.946203231811523,-0.1496855467557907
-2.13800311088562,4.95470666885376,-0.1515035629272461
-2.1034867763519287,4.969398498535156,-0.15344519913196564
-1.6090232133865356,3.876838445663452,-0.12085338681936264
-1.5781044960021973,3.8810532093048096,-0.1220652163028717
-1.552956461906433,3.899545192718506,-0.12373363971710205
-1.532308578491211,3.928622245788574,-0.12573477625846863
-1.5076708793640137,3.946458578109741,-0.12736916542053223
-1.4903208017349243,3.9863646030426025,-0.1296510249376297
-1.4616185426712036,3.996934175491333,-0.1309787780046463
-1.438520908355713,4.021852493286133,-0.13277262449264526
-1.4100202322006226,4.03188943862915,-0.1340843141078949
-1.386710286140442,4.056431770324707,-0.1358409821987152
-1.3601490259170532,4.073607921600342,-0.1372930407524109
-1.3345887660980225,4.094333171844482,-0.13887673616409302
-1.3000448942184448,4.084911823272705,-0.1394217312335968
-0.9712799787521362,3.1282668113708496,-0.10744363069534302
-0.9491732716560364,3.1350159645080566,-0.10828933864831924
-0.8207775354385376,2.782191276550293,-0.09662394970655441
-0.790213406085968,2.7504031658172607,-0.09603732079267502
-0.7658178806304932,2.737006664276123,-0.09607591480016708
-0.7467525601387024,2.7422454357147217,-0.09677044302225113
-0.7280126810073853,2.751295804977417,-0.09754479676485062
-0.7142786383628845,2.7790627479553223,-0.09897025674581528
-0.6804375648498535,2.7272040843963623,-0.0975574180483818
-1.2677291631698608,5.236058235168457,-0.18813125789165497
-1.2463926076889038,5.309329986572266,-0.19160912930965424
-1.215056300163269,5.3485822677612305,-0.1937490701675415
-1.1787996292114258,5.364647388458252,-0.19503764808177948
-1.1563032865524292,5.445352554321289,-0.19869400560855865
-1.1286039352416992,5.502939224243164,-0.2015218436717987
-1.1395589113235474,5.759532928466797,-0.21168701350688934
-1.1770715713500977,6.18168306350708,-0.2278854101896286
-1.1347630023956299,6.19749116897583,-0.22913551330566406
-1.0742584466934204,6.109164237976074,-0.2265338897705078
-0.9655398726463318,5.723825931549072,-0.21286895871162415
-0.9388586282730103,5.811283588409424,-0.2167629599571228
-0.935457170009613,6.064716339111328,-0.22674289345741272
-0.6889020204544067,4.6846466064453125,-0.17552758753299713
-0.6608972549438477,4.724134922027588,-0.17739899456501007
-0.6382404565811157,4.805994987487793,-0.18087702989578247
-0.589642345905304,4.690239906311035,-0.17692266404628754
-0.5719659328460693,4.822154998779297,-0.18221771717071533
-0.5240829586982727,4.705840110778809,-0.17809736728668213
-0.5711551308631897,5.874337196350098,-0.22302313148975372
-0.5222048759460449,5.788732528686523,-0.22013285756111145
-0.48120924830436707,5.784434795379639,-0.2202589213848114
-0.24182088673114777,3.504748582839966,-0.13371294736862183
-0.2188270390033722,3.5297176837921143,-0.13480447232723236
-0.1921631544828415,3.4921696186065674,-0.1335136443376541
-0.27426499128341675,5.707991123199463,-0.21843378245830536
-0.23433226346969604,5.725391864776611,-0.21916329860687256
-0.1923912614583969,5.668365478515625,-0.21705284714698792
-0.1527293622493744,5.661757946014404,-0.21688252687454224
-0.11243950575590134,5.615847110748291,-0.21521608531475067
-0.0527472086250782,4.035752773284912,-0.15473590791225433
-0.024654652923345566,4.1140923500061035,-0.1576942503452301
0.003994215279817581,4.1414899826049805,-0.15869835019111633
0.032404690980911255,4.090621471405029,-0.15671122074127197
0.06268206238746643,4.215193271636963,-0.16145238280296326
0.09137088805437088,4.18734073638916,-0.16036230325698853
0.15539947152137756,5.403966903686523,-0.20682893693447113
0.19254924356937408,5.375438690185547,-0.20555894076824188
0.17996230721473694,4.207929611206055,-0.16078360378742218
0.21252024173736572,4.272858619689941,-0.1631406992673874
0.2994755804538727,5.280647277832031,-0.2014753669500351
0.26940596103668213,4.2305521965026855,-0.16125167906284332
0.2997470498085022,4.236349582672119,-0.1612224578857422
0.32846763730049133,4.226401329040527,-0.1606060266494751
0.35846003890037537,4.231810569763184,-0.16058024764060974
0.47200262546539307,5.146597862243652,-0.19502022862434387
0.5077482461929321,5.143209934234619,-0.19461585581302643
0.47690078616142273,4.506800174713135,-0.17017194628715515
0.5163202881813049,4.577117443084717,-0.17247280478477478
0.5535668134689331,4.619961261749268,-0.17373648285865784
0.5939725637435913,4.681859016418457,-0.17571571469306946
0.6731352210044861,5.025847434997559,-0.18825991451740265
0.7061764597892761,5.005568504333496,-0.18699605762958527
0.7377563714981079,4.9813079833984375,-0.18557806313037872
0.7672404050827026,4.945277690887451,-0.18373550474643707
0.8016202449798584,4.939846992492676,-0.18303655087947845
0.8320490717887878,4.9110846519470215,-0.18148425221443176
0.8618444800376892,4.882189750671387,-0.17985495924949646
0.89384925365448,4.864555835723877,-0.17859387397766113
0.9243131279945374,4.842994213104248,-0.17721126973628998
0.9579434990882874,4.836484432220459,-0.17638298869132996
0.9852476716041565,4.799149036407471,-0.17444269359111786
1.0134928226470947,4.76935338973999,-0.17272034287452698
1.045013666152954,4.754587173461914,-0.17147229611873627
1.0758373737335205,4.7397356033325195,-0.1702432632446289
1.1059479713439941,4.720807075500488,-0.16887155175209045
1.1350549459457397,4.697864532470703,-0.1673656404018402
1.1636446714401245,4.67480993270874,-0.16581803560256958
1.188315987586975,4.636404037475586,-0.16365961730480194
1.2199162244796753,4.628227233886719,-0.1625949740409851
1.2498557567596436,4.612180709838867,-0.16125208139419556
1.2766876220703125,4.584603786468506,-0.1595134139060974
1.30608069896698,4.568235397338867,-0.15812599658966064
1.337702751159668,4.559117317199707,-0.1569153517484665
1.3664366006851196,4.542475700378418,-0.15547087788581848
1.3909759521484375,4.510555267333984,-0.15350040793418884
1.4176048040390015,4.485921859741211,-0.15178945660591125
1.4483486413955688,4.476133346557617,-0.1505316197872162
1.4718681573867798,4.443828582763672,-0.1484624445438385
1.4994772672653198,4.426388263702393,-0.14692088961601257
1.5212870836257935,4.390069007873535,-0.14474259316921234
1.2766427993774414,3.602903127670288,-0.11799293011426926
1.3011282682418823,3.594170331954956,-0.11685482412576675
1.6029303073883057,4.336087703704834,-0.13992910087108612
1.6246920824050903,4.302994728088379,-0.13779614865779877
1.6574113368988037,4.298914432525635,-0.1365988701581955
1.6843425035476685,4.280088901519775,-0.13492698967456818
1.7000575065612793,4.2360758781433105,-0.1324029415845871
1.7389482259750366,4.249853610992432,-0.13169188797473907
1.7611744403839111,4.21959114074707,-0.12957610189914703
1.7981257438659668,4.2252516746521,-0.12857890129089355
1.8159019947052002,4.187914848327637,-0.12623770534992218
1.84393310546875,4.17569637298584,-0.12463817745447159
1.865755319595337,4.148919582366943,-0.12260166555643082
1.891843318939209,4.128550052642822,-0.12070954591035843
1.9235379695892334,4.122546672821045,-0.11924979835748672
1.947657823562622,4.102611541748047,-0.11735211312770844
1.9716262817382812,4.082523822784424,-0.1154584288597107
1.9964591264724731,4.06178617477417,-0.11350545287132263
2.021547794342041,4.040677070617676,-0.11152125895023346
2.044755697250366,4.020271301269531,-0.10954165458679199
2.067781925201416,3.99973464012146,-0.10756821185350418
2.0990090370178223,3.992311716079712,-0.10589247941970825
2.1192543506622314,3.96394681930542,-0.10365911573171616
2.1453490257263184,3.949934244155884,-0.1017606258392334
2.166149616241455,3.925239086151123,-0.09956831485033035
2.193357229232788,3.9101510047912598,-0.09757419675588608
2.2124245166778564,3.8814728260040283,-0.09524120390415192
2.241738796234131,3.873692512512207,-0.09340588003396988
2.263510227203369,3.852003335952759,-0.09121468663215637
2.2907357215881348,3.835925579071045,-0.08905599266290665
2.3163504600524902,3.8205618858337402,-0.08692192286252975
2.3371050357818604,3.798781394958496,-0.08463358879089355
2.3671627044677734,3.7893872261047363,-0.0825362578034401
2.393037796020508,3.773149251937866,-0.08025868982076645
2.417764186859131,3.757401466369629,-0.07794735580682755
2.4343035221099854,3.7281112670898438,-0.07532858848571777
2.4687697887420654,3.724184989929199,-0.07314305752515793
2.4925920963287354,3.7083301544189453,-0.07070137560367584
2.503924608230591,3.67240571975708,-0.0678180456161499
2.5296266078948975,3.6547980308532715,-0.06513933837413788
2.557180404663086,3.645164966583252,-0.0626441165804863
2.5770483016967773,3.6216089725494385,-0.05977106839418411
2.592041492462158,3.5916898250579834,-0.05671554058790207
2.628371000289917,3.594308376312256,-0.05416295677423477
2.1854023933410645,2.9455466270446777,-0.042020540684461594
2.5612096786499023,3.5849525928497314,0.057960353791713715
2.5478057861328125,3.623131513595581,0.061108291149139404
2.5116653442382812,3.6292471885681152,0.06362038105726242
2.490553617477417,3.6531808376312256,0.06626920402050018
2.4711697101593018,3.6850998401641846,0.06904762983322144
2.453084707260132,3.7158520221710205,0.07169671356678009
2.4431710243225098,3.759650707244873,0.07457335293292999
2.4419376850128174,3.820802927017212,0.07777610421180725
2.441476583480835,3.8811686038970947,0.08090510964393616
2.447005271911621,3.951334238052368,0.08422407507896423
2.4294323921203613,3.9895777702331543,0.08685050159692764
2.3957395553588867,4.000751495361328,0.08887651562690735
2.3678195476531982,4.0172929763793945,0.09091360121965408
2.334315299987793,4.027782440185547,0.09277462214231491
2.3080737590789795,4.051822185516357,0.09494053572416306
2.2853517532348633,4.078072547912598,0.09707237780094147
2.254241466522217,4.090847015380859,0.09889492392539978
2.2294929027557373,4.117671012878418,0.10098187625408173
2.2066211700439453,4.14763069152832,0.10314469784498215
2.184969186782837,4.176671981811523,0.10522741824388504
2.158963918685913,4.198914527893066,0.10712894797325134
2.131028890609741,4.221867084503174,0.10902940481901169
2.0967752933502197,4.230225086212158,0.11052408814430237
2.07414174079895,4.258707523345947,0.11249542981386185
2.0474984645843506,4.280198574066162,0.11427688598632812
2.016146659851074,4.295013904571533,0.11581969261169434
1.9781867265701294,4.295396327972412,0.11697449535131454
1.9572733640670776,4.330650329589844,0.1190553680062294
1.9349470138549805,4.36199951171875,0.12102413922548294
1.9095187187194824,4.390190124511719,0.1228359043598175
1.8714077472686768,4.389555931091309,0.12383942306041718
1.8733021020889282,4.4819655418396,0.12746524810791016
1.8459243774414062,4.505932807922363,0.12916913628578186
1.8227061033248901,4.540592193603516,0.1311410814523697
1.7926660776138306,4.5608906745910645,0.1326591968536377
1.77640962600708,4.617449760437012,0.13525046408176422
1.7441990375518799,4.62967586517334,0.1365228146314621
1.3304572105407715,3.608720302581787,0.10714231431484222
1.3060489892959595,3.621748924255371,0.10818953067064285
1.2760415077209473,3.6199841499328613,0.10877680033445358
1.6125391721725464,4.681148052215576,0.14148937165737152
1.6023566722869873,4.758828639984131,0.14465641975402832
1.584484577178955,4.818236827850342,0.14730936288833618
1.5572257041931152,4.851693153381348,0.14907188713550568
1.515396237373352,4.8403449058532715,0.1494448482990265
1.489941954612732,4.880876541137695,0.15142478048801422
1.4403575658798218,4.838699817657471,0.15082472562789917
1.4295092821121216,4.927317142486572,0.1543128788471222
1.3863952159881592,4.911197185516357,0.1544603556394577
1.33889639377594,4.875759124755859,0.15396228432655334
1.284969687461853,4.8134765625,0.15260879695415497
1.257301926612854,4.844955921173096,0.1542150229215622
1.2254846096038818,4.86112642288208,0.15534444153308868
1.197039008140564,4.896322727203369,0.15702533721923828
1.1693440675735474,4.935091018676758,0.15877510607242584
1.1341723203659058,4.943267345428467,0.15955185890197754
1.1047184467315674,4.973907947540283,0.16105370223522186
1.073392391204834,4.996711254119873,0.16231152415275574
1.0393575429916382,5.011852741241455,0.16330276429653168
1.003852128982544,5.019063949584961,0.1639522761106491
0.9697740077972412,5.033690452575684,0.16485290229320526
2.127031087875366,11.47421646118164,0.3767528831958771
2.0245747566223145,11.361845016479492,0.3740321695804596
1.9124187231063843,11.191140174865723,0.3694012463092804
1.809418797492981,11.057910919189453,0.3656982183456421
1.7047685384750366,10.900651931762695,0.36116698384284973
1.6046295166015625,10.757939338684082,0.3571165204048157
1.5105737447738647,10.633514404296875,0.35366109013557434
1.4165836572647095,10.504605293273926,0.3500675559043884
1.3278560638427734,10.394158363342285,0.34697777032852173
1.2394229173660278,10.275290489196777,0.3434561491012573
1.1561474800109863,10.186746597290039,0.3409557044506073
1.0675511360168457,10.03150463104248,0.3362251818180084
0.9992333054542542,10.054208755493164,0.33746638894081116
0.397634893655777,4.311307907104492,0.1449243128299713
0.3631509244441986,4.263408184051514,0.14343273639678955
0.330791175365448,4.234707832336426,0.14256925880908966
0.3038330078125,4.275860786437988,0.14406481385231018
0.27627697587013245,4.31293249130249,0.1454310417175293
0.2433488667011261,4.2718963623046875,0.1441720724105835
0.21651944518089294,4.331969261169434,0.14631056785583496
0.18410931527614594,4.2826666831970215,0.14466819167137146
0.14986957609653473,4.162898063659668,0.14065144956111908
0.12149997055530548,4.187254428863525,0.14151041209697723
0.0929376408457756,4.238747596740723,0.14329485595226288
0.06287740170955658,4.204157829284668,0.14217554032802582
0.034734636545181274,4.345033645629883,0.14693954586982727
0.004406577441841364,4.321747303009033,0.1461024433374405
-0.02578442357480526,4.3372907638549805,0.14658525586128235
-0.4910666346549988,3.2069923877716064,0.10572554171085358
-0.5196304321289062,3.242047071456909,0.10661136358976364
-0.5405661463737488,3.230717897415161,0.10597920417785645
-0.5589346885681152,3.203826665878296,0.10484117269515991
-0.5742266178131104,3.1614603996276855,0.10320595651865005
-0.603305995464325,3.195794105529785,0.1040569394826889
-0.6191257238388062,3.1609601974487305,0.10260720551013947
-0.6442074775695801,3.171896457672119,0.10264397412538528
-0.6660166382789612,3.1674036979675293,0.10218825191259384
-0.6863143444061279,3.1550917625427246,0.10148334503173828
-0.6953701376914978,3.093123435974121,0.09919199347496033
-0.7253193855285645,3.126347780227661,0.0999034196138382
-0.7396734356880188,3.0908918380737305,0.09840589016675949
-0.6887489557266235,2.793898820877075,0.08862930536270142
-0.7081241011619568,2.7890660762786865,0.08815247565507889
-0.7235684394836426,2.768975257873535,0.08719851076602936
-0.7405717372894287,2.7564070224761963,0.08645856380462646
-0.7575103640556335,2.7437171936035156,0.08567603677511215
-0.7803754210472107,2.7535550594329834,0.08560653030872345
-0.8189762234687805,2.8156094551086426,0.08714701235294342
-0.943483293056488,3.161566972732544,0.09741787612438202
-0.965358555316925,3.1549761295318604,0.09676948189735413
-0.9905624985694885,3.159454107284546,0.09640177339315414
-1.026250958442688,3.197309732437134,0.09705661237239838
-1.0481003522872925,3.1902360916137695,0.0963398888707161
-1.0777323246002197,3.205096483230591,0.09627819806337357
-1.0999380350112915,3.197566032409668,0.09554220736026764
-1.1357065439224243,3.2306253910064697,0.0959492102265358
-1.1657590866088867,3.244832992553711,0.09577912092208862
-1.1986111402511597,3.2661619186401367,0.09581805765628815
-1.2390817403793335,3.305316686630249,0.09635934233665466
-1.267561674118042,3.3112552165985107,0.09592051059007645
-1.302533745765686,3.3354380130767822,0.09594805538654327
-1.3541717529296875,3.3990492820739746,0.09708112478256226
-2.2622454166412354,5.567592620849609,0.15787731111049652
-2.320312976837158,5.598680019378662,0.15759269893169403
-2.3648955821990967,5.597001075744629,0.1563548892736435
-2.3898818492889404,5.552431106567383,0.15385761857032776
-2.4260101318359375,5.532524585723877,0.15203583240509033
-2.5038702487945557,5.6048712730407715,0.1527201235294342
-2.544511318206787,5.590878486633301,0.15102103352546692
-2.5330593585968018,5.467272758483887,0.1463361531496048
-1.515315055847168,3.2143990993499756,0.08522289991378784
-1.5304899215698242,3.189913749694824,0.08374334126710892
-1.5457597970962524,3.1651971340179443,0.0822552964091301
-1.5675358772277832,3.15449857711792,0.08113039284944534
-1.5883315801620483,3.144108295440674,0.07998310774564743
-1.6090809106826782,3.1335690021514893,0.07883457839488983
-1.648713231086731,3.1570539474487305,0.07849806547164917
-1.6801317930221558,3.162604808807373,0.077680803835392
-1.7843600511550903,3.306173801422119,0.08018974214792252
-1.8886016607284546,3.445115804672241,0.08249372988939285
-1.2012872695922852,2.1561636924743652,0.05092927813529968
-1.1931804418563843,2.1069862842559814,0.04906953126192093
-1.9432270526885986,3.378709554672241,0.07749339193105698
-1.9494715929031372,3.3390138149261475,0.0754142627120018
-1.9964118003845215,3.3658039569854736,0.07476485520601273
-1.2456387281417847,2.0673763751983643,0.04513837769627571
-1.2590569257736206,2.059252977371216,0.04416537657380104
-2.0554862022399902,3.3117868900299072,0.06970199197530746
-2.3740458488464355,3.766721248626709,0.07771151512861252
-2.3420019149780273,3.662193775177002,0.0740039274096489
-2.348320484161377,3.620997667312622,0.07161729782819748
-2.3687632083892822,3.598348379135132,0.06950099021196365
-2.38703989982605,3.5722053050994873,0.06726086884737015
-2.4054043292999268,3.550471067428589,0.06513418257236481
-2.4204742908477783,3.521311044692993,0.06278351694345474
-2.4352383613586426,3.4921247959136963,0.06038786098361015
-2.4436001777648926,3.457657814025879,0.05790269747376442
-2.533484697341919,3.5327491760253906,0.05701620504260063
-2.604762554168701,3.5824923515319824,0.05560814216732979
-2.694585084915161,3.657158851623535,0.0544414184987545
-2.936417579650879,4.109157085418701,-0.051670752465724945
-2.4630980491638184,3.5014445781707764,-0.04623287543654442
-2.432438611984253,3.5132832527160645,-0.048499442636966705
-2.7840492725372314,4.08204984664917,-0.05861454829573631
-2.752866744995117,4.103106498718262,-0.061158351600170135
-2.7190513610839844,4.116197109222412,-0.06345321238040924
-2.697465419769287,4.14898681640625,-0.0660257562994957
-2.7333779335021973,4.274509429931641,-0.07008223980665207
-2.1079585552215576,3.348346710205078,-0.056395068764686584
-2.079963445663452,3.356593132019043,-0.05798756331205368
-1.2723512649536133,2.0878961086273193,-0.03695285692811012
-2.0162765979766846,3.363335132598877,-0.06090139225125313
-2.0045480728149414,3.3975470066070557,-0.06284396350383759
-1.9753425121307373,3.4055535793304443,-0.06428489834070206
-1.2151732444763184,2.1306090354919434,-0.04100766032934189
-1.21176278591156,2.159444570541382,-0.04232340678572655
-1.8900277614593506,3.426806926727295,-0.0683589056134224
-1.885177493095398,3.478393793106079,-0.07056216895580292
-1.7521551847457886,3.2882559299468994,-0.06776530295610428
-1.642231822013855,3.134284019470215,-0.06558152288198471
-1.5978730916976929,3.1044857501983643,-0.0658971294760704
-1.57469642162323,3.1162803173065186,-0.06710103154182434
-1.559841275215149,3.141169786453247,-0.06853476166725159
-1.537877082824707,3.151956558227539,-0.06966274231672287
-1.518280267715454,3.170081615447998,-0.07090966403484344
-1.5018000602722168,3.195166826248169,-0.07232252508401871
-2.156952381134033,4.673598766326904,-0.10698001086711884
-2.127007007598877,4.695842742919922,-0.10870184749364853
-2.099242925643921,4.72538423538208,-0.11052200198173523
-2.064931869506836,4.740443229675293,-0.11201021075248718
-2.0346286296844482,4.761988639831543,-0.11362460255622864
-2.0196175575256348,4.819193363189697,-0.11609382182359695
-1.5885920524597168,3.8691067695617676,-0.09405467659235
-1.5606741905212402,3.880425214767456,-0.09514586627483368
-1.5445250272750854,3.9204530715942383,-0.0969403088092804
-1.52141535282135,3.9420130252838135,-0.09827491641044617
-1.4991722106933594,3.96720290184021,-0.0996902734041214
-1.4728113412857056,3.9853665828704834,-0.10089962929487228
-1.4467847347259521,4.003168106079102,-0.10209449380636215
-1.4240304231643677,4.027865886688232,-0.10345248878002167
-1.3959962129592896,4.037642955780029,-0.10443238168954849
-1.3723565340042114,4.062205791473389,-0.10574721544981003
-1.3476613759994507,4.0868916511535645,-0.10706610977649689
-1.3161866664886475,4.0889081954956055,-0.10778236389160156
-0.9821698069572449,3.125612497329712,-0.08288836479187012
-0.960374653339386,3.1323599815368652,-0.0835689976811409
-0.9290524125099182,3.109185218811035,-0.08338106423616409
-0.7998960018157959,2.7482824325561523,-0.07408495247364044
-0.7758872509002686,2.7389116287231445,-0.07421796768903732
-0.7557527422904968,2.7404708862304688,-0.07463673502206802
-0.7366033792495728,2.745666027069092,-0.07514740526676178
-0.7170555591583252,2.7508232593536377,-0.07561136037111282
-0.7061185836791992,2.7899043560028076,-0.077015221118927
-1.4896266460418701,6.067554473876953,-0.16822189092636108
-1.4528696537017822,6.10051965713501,-0.16985231637954712
-1.4357043504714966,6.220826625823975,-0.17391067743301392
-1.4205527305603027,6.3603835105896,-0.17843444645404816
-1.358168125152588,6.29010534286499,-0.17708519101142883
-1.308527946472168,6.276663303375244,-0.17733865976333618
-1.2679100036621094,6.300902366638184,-0.1786496937274933
-1.21575927734375,6.267400741577148,-0.17830513417720795
-1.167181372642517,6.252777099609375,-0.17837359011173248
-1.1127221584320068,6.203180313110352,-0.17744630575180054
-1.036620855331421,6.026235580444336,-0.172871932387352
-0.9393905401229858,5.698102951049805,-0.16391491889953613
-0.9477483034133911,6.009189605712891,-0.17334802448749542
-0.9187839031219482,6.104504585266113,-0.17646075785160065
-0.6708243489265442,4.680698871612549,-0.1355879157781601
-0.6505414247512817,4.782082557678223,-0.13882604241371155
-0.4389985501766205,3.4039740562438965,-0.09903206676244736
-0.5674808621406555,4.654979705810547,-0.13572518527507782
-0.11933916062116623,3.9339749813079834,-0.11621899902820587
-0.0925845131278038,3.985466718673706,-0.11776981502771378
-0.06478951126337051,3.9782040119171143,-0.11758981645107269
-0.037755269557237625,4.044930934906006,-0.11960318684577942
-0.009659205563366413,4.0450968742370605,-0.11956214904785156
0.018797066062688828,4.115348815917969,-0.12159175425767899
0.06391581147909164,5.493326663970947,-0.1622498780488968
0.07758968323469162,4.17324161529541,-0.12322460860013962
0.10701307654380798,4.188215255737305,-0.1236371099948883
0.1766946166753769,5.436171531677246,-0.16036725044250488
0.21242062747478485,5.384100437164307,-0.15867795050144196
0.2479754239320755,5.343498229980469,-0.15733680129051208
0.2281848043203354,4.265495777130127,-0.1254841536283493
0.2608886659145355,4.314477920532227,-0.12682048976421356
0.2863641679286957,4.246341228485107,-0.12469194829463959
0.31515055894851685,4.23647928237915,-0.12420430034399033
0.3438142240047455,4.226421356201172,-0.12371760606765747
0.3790917694568634,4.286132335662842,-0.1252732276916504
0.4920026361942291,5.1540727615356445,-0.1504199504852295
0.5170387029647827,5.045665740966797,-0.14704681932926178
0.4974825084209442,4.545164108276367,-0.13217763602733612
0.5373761653900146,4.615328788757324,-0.13393154740333557
0.5731591582298279,4.638575077056885,-0.1343184858560562
0.6190251708030701,4.739029884338379,-0.13694311678409576
0.69187992811203,5.0247392654418945,-0.14490430057048798
0.7232248187065125,4.996666431427002,-0.14373363554477692
0.7546363472938538,4.972288608551025,-0.1426420956850052
0.786989152431488,4.951472282409668,-0.14165517687797546
0.8187741041183472,4.930499076843262,-0.14067654311656952
0.8490176200866699,4.901620864868164,-0.13948160409927368
0.8814374804496765,4.887976169586182,-0.13867799937725067
0.9113364815711975,4.862646579742432,-0.13748078048229218
0.9401840567588806,4.833303928375244,-0.13618071377277374
0.9726238250732422,4.818933010101318,-0.13529978692531586
1.0029218196868896,4.796781063079834,-0.13421471416950226
1.0311778783798218,4.766837120056152,-0.13289956748485565
1.0620768070220947,4.752066612243652,-0.13194850087165833
1.0919442176818848,4.7332916259765625,-0.13089458644390106
1.1232988834381104,4.717942237854004,-0.12993083894252777
1.152340054512024,4.69487190246582,-0.12876810133457184
1.1791118383407593,4.6640777587890625,-0.12739014625549316
1.2089163064956665,4.648395538330078,-0.12635184824466705
1.2345272302627563,4.617433547973633,-0.12490805238485336
1.2647457122802734,4.601171970367432,-0.1238558441400528
1.2946383953094482,4.584758758544922,-0.12281059473752975
1.3253170251846313,4.57194185256958,-0.12185800820589066
1.347477674484253,4.532902717590332,-0.12014001607894897
1.3760358095169067,4.516175746917725,-0.11902371048927307
1.405303955078125,4.498997211456299,-0.11788424849510193
1.4341715574264526,4.48170280456543,-0.11675472557544708
1.4602864980697632,4.456852436065674,-0.11541801691055298
1.4854700565338135,4.432076930999756,-0.11403227597475052
1.5154856443405151,4.421928882598877,-0.11302971094846725
1.2643907070159912,3.607987403869629,-0.09161058813333511
1.2872565984725952,3.591618537902832,-0.09056933969259262
1.3172738552093506,3.597379684448242,-0.0900716707110405
1.616390585899353,4.323674201965332,-0.10744406282901764
1.642783761024475,4.30538272857666,-0.10618015378713608
1.6697578430175781,4.286640644073486,-0.10489177703857422
1.6928014755249023,4.256613731384277,-0.10332120954990387
1.7156909704208374,4.23061466217041,-0.10182902216911316
1.7500333786010742,4.233460426330566,-0.10102353990077972
1.7802690267562866,4.225100517272949,-0.09994147717952728
1.812697410583496,4.219820499420166,-0.09891358762979507
1.8281558752059937,4.174832820892334,-0.09693459421396255
1.8592454195022583,4.169661998748779,-0.0958714485168457
1.8838905096054077,4.150036811828613,-0.0944802463054657
1.9125863313674927,4.1369194984436035,-0.09321080148220062
1.9313322305679321,4.102344989776611,-0.09146321564912796
1.959161639213562,4.0891571044921875,-0.09013935923576355
1.9829342365264893,4.069023132324219,-0.0886799767613411
2.0072755813598633,4.0483832359313965,-0.08718889206647873
2.0388944149017334,4.0413312911987305,-0.08597829937934875
2.058858871459961,4.013676166534424,-0.08429550379514694
2.08902907371521,4.00689697265625,-0.08304213732481003
2.109417200088501,3.978557586669922,-0.08129765838384628
2.133300542831421,3.956960678100586,-0.07969749718904495
2.154040575027466,3.9323835372924805,-0.07803573459386826
2.1855647563934326,3.9283926486968994,-0.07678229361772537
2.2123470306396484,3.9134020805358887,-0.07526935636997223
2.2380576133728027,3.8942811489105225,-0.07363682240247726
2.2596981525421143,3.8727519512176514,-0.0719471126794815
2.2850241661071777,3.85789155960083,-0.07038559019565582
2.311695098876953,3.8419997692108154,-0.06873458623886108
2.329535961151123,3.812941312789917,-0.06684935092926025
2.3546509742736816,3.7975122928619385,-0.06517529487609863
2.3759517669677734,3.7750236988067627,-0.06336010992527008
2.406362295150757,3.765014886856079,-0.0617065392434597
2.430612564086914,3.749433755874634,-0.05995015427470207
2.4466118812561035,3.7203564643859863,-0.0579562671482563
2.477245330810547,3.709456443786621,-0.05613073334097862
2.492414951324463,3.680455207824707,-0.05404942110180855
2.5252325534820557,3.677013635635376,-0.05230530723929405
2.5462472438812256,3.653003215789795,-0.05015910789370537
2.5647716522216797,3.6304876804351807,-0.04805795103311539
2.584611177444458,3.606811761856079,-0.04582354798913002
2.608811855316162,3.58937406539917,-0.04360341280698776
2.2049458026885986,2.994346857070923,-0.03468666970729828
2.5574429035186768,3.6070196628570557,0.043278783559799194
2.530763864517212,3.625762462615967,0.045360028743743896
2.4921326637268066,3.6287293434143066,0.0471920371055603
2.4729273319244385,3.655975580215454,0.04922094568610191
2.4494388103485107,3.68111515045166,0.051172591745853424
2.426670789718628,3.7054805755615234,0.053055282682180405
2.404925584793091,3.7289047241210938,0.054855480790138245
2.3766207695007324,3.746983051300049,0.05654185265302658
2.3486979007720947,3.76452374458313,0.05819755047559738
2.322467088699341,3.780738353729248,0.05974593386054039
2.3064064979553223,3.817939043045044,0.06160514056682587
2.286039352416992,3.848327398300171,0.0633518323302269
2.2631051540374756,3.87088680267334,0.06490523368120193
2.256073236465454,3.924600124359131,0.06699793040752411
2.242173910140991,3.968461036682129,0.06890387088060379
2.246035099029541,4.042383670806885,0.07131244987249374
2.2291078567504883,4.078444957733154,0.07304927706718445
2.219554901123047,4.132460594177246,0.0750865489244461
2.1921041011810303,4.155895709991455,0.07659566402435303
2.170067310333252,4.185027122497559,0.0781484991312027
2.144446611404419,4.206958770751953,0.07956664264202118
2.1205766201019287,4.236495018005371,0.08107967674732208
2.0791094303131104,4.230879783630371,0.08192074298858643
2.0589869022369385,4.266720294952393,0.08354488760232925
2.029244899749756,4.280921936035156,0.08472919464111328
1.9981298446655273,4.295510768890381,0.08588240295648575
1.9732317924499512,4.324159622192383,0.08731625974178314
1.9457035064697266,4.345153331756592,0.08858056366443634
1.912231206893921,4.351434230804443,0.08953467756509781
1.8837214708328247,4.372335910797119,0.09076544642448425
1.8564804792404175,4.396670818328857,0.09202627092599869
1.8277411460876465,4.417128562927246,0.093207947909832
1.7940396070480347,4.422474384307861,0.09404932707548141
1.7690218687057495,4.449336051940918,0.09535172581672668
1.739121675491333,4.469470024108887,0.09645994007587433
1.7095842361450195,4.489190101623535,0.09755496680736542
1.6750752925872803,4.493825435638428,0.09831319749355316
1.315805196762085,3.6064870357513428,0.07942122966051102
1.2903984785079956,3.6156399250030518,0.08012655377388
1.2587735652923584,3.6102163791656494,0.08047765493392944
1.56394362449646,4.591420650482178,0.10294213145971298
1.5526752471923828,4.665249347686768,0.10518594831228256
17.79404067993164,54.73320007324219,1.2409346103668213
1.5095915794372559,4.757237911224365,0.10841864347457886
1.4944924116134644,4.831523418426514,0.11064420640468597
1.442927598953247,4.786004066467285,0.11012368649244308
1.4259700775146484,4.852153778076172,0.11216504871845245
1.3879071474075317,4.846914291381836,0.11256331950426102
1.3663996458053589,4.90167236328125,0.11432900279760361
1.2976734638214111,4.7868971824646,0.11209411919116974
1.2688846588134766,4.818826198577881,0.11329846829175949
1.2428312301635742,4.857851505279541,0.11466474831104279
1.212794542312622,4.881518840789795,0.11567478626966476
1.1831592321395874,4.908858299255371,0.11675490438938141
1.1499969959259033,4.924740314483643,0.11749981343746185
1.1177910566329956,4.9481520652771,0.11843845248222351
1.0846120119094849,4.963512420654297,0.1191817969083786
1.0500752925872803,4.970919609069824,0.11973608285188675
1.0217324495315552,5.008698463439941,0.1210300549864769
0.9817477464675903,4.992800235748291,0.12093599885702133
0.9733568429946899,5.145537376403809,0.12494437396526337
0.9279340505599976,5.102320194244385,0.12420051544904709
0.9145609736442566,5.235592842102051,0.12775936722755432
1.8595037460327148,11.099858283996582,0.2715374529361725
1.7574082612991333,10.962242126464844,0.2687218189239502
1.659696102142334,10.851040840148926,0.26647669076919556
1.5655800104141235,10.742677688598633,0.26429545879364014
1.4679985046386719,10.59087085723877,0.26104044914245605
1.3717972040176392,10.430463790893555,0.2575695514678955
1.2894736528396606,10.36224365234375,0.2563478648662567
1.202863097190857,10.254695892333984,0.25398167967796326
1.1098124980926514,10.084470748901367,0.2500722110271454
1.0359045267105103,10.060914039611816,0.24979950487613678
0.9617505073547363,10.025108337402344,0.24923036992549896
0.3835906386375427,4.313678741455078,0.10738313943147659
0.34737491607666016,4.242301940917969,0.10569897294044495
0.3177119493484497,4.252455711364746,0.1060149297118187
0.2895190715789795,4.27794885635376,0.10671792924404144
0.26063814759254456,4.295451641082764,0.1072271391749382
0.2309834212064743,4.301055908203125,0.1074446365237236
0.1994403451681137,4.2674479484558105,0.10668715089559555
0.1694207787513733,4.276560306549072,0.10692416876554489
0.13613617420196533,4.172257423400879,0.10433027893304825
0.10741909593343735,4.188719749450684,0.10476101189851761
0.07758109271526337,4.150320529937744,0.10382448136806488
0.04874046519398689,4.150758266448975,0.10386428236961365
0.01947072148323059,4.174429416656494,0.10445724427700043
-0.009416656568646431,4.115889549255371,0.10294529795646667
-0.036478862166404724,3.9478166103363037,0.0987010970711708
-0.5503790378570557,3.3644590377807617,0.08163869380950928
-0.5773923993110657,3.3837075233459473,0.08189880102872849
-0.5967523455619812,3.3565585613250732,0.08103752881288528
-0.6083583235740662,3.286989212036133,0.07915782928466797
-0.6110877990722656,3.1791834831237793,0.07634784281253815
-0.6312853097915649,3.1672794818878174,0.07581727206707001
-0.6473716497421265,3.136131525039673,0.07483255863189697
-0.691819965839386,3.238534688949585,0.07702971249818802
-0.705405592918396,3.191631555557251,0.07566839456558228
-0.7023318409919739,3.0762569904327393,0.07270286977291107
-0.7286443114280701,3.0942177772521973,0.07284598797559738
-0.7358645796775818,3.0322718620300293,0.0711146891117096
-0.6997226476669312,2.7998669147491455,0.06541372835636139
-0.709815502166748,2.757025957107544,0.0641588419675827
-0.7279871106147766,2.7482521533966064,0.06370832771062851
-0.7498764395713806,2.7545135021209717,0.06357840448617935
-0.7654580473899841,2.738070487976074,0.06291253119707108
-0.7915962338447571,2.7590887546539307,0.06310916692018509
-0.8982023000717163,3.0493977069854736,0.06942341476678848
-0.9521059393882751,3.1515135765075684,0.07141853123903275
-0.9713801145553589,3.1374616622924805,0.07074999809265137
-1.0421204566955566,3.287196159362793,0.07373246550559998
-1.087203025817871,3.350673198699951,0.07475631684064865
-1.120569109916687,3.3726143836975098,0.07482890784740448
-1.1515156030654907,3.386946201324463,0.07473460584878922
-1.1645193099975586,3.3494503498077393,0.07348167896270752
-1.1870837211608887,3.3415334224700928,0.07285332679748535
-1.2122585773468018,3.3408071994781494,0.0723840519785881
-1.2474604845046997,3.3653488159179688,0.07245038449764252
-1.2684447765350342,3.349158763885498,0.07162781804800034
-1.2842862606048584,3.3222033977508545,0.07057157903909683
-1.3194200992584229,3.34623384475708,0.0705755352973938
-1.356390357017517,3.3735647201538086,0.07064182311296463
-2.300021171569824,5.6080498695373535,0.11655630171298981
-2.348801374435425,5.6132307052612305,0.11576689034700394
-2.3776371479034424,5.5756378173828125,0.11406449228525162
-2.4040064811706543,5.53455114364624,0.11227681487798691
-2.4380929470062256,5.511106014251709,0.11085094511508942
-2.5613152980804443,5.682803153991699,0.11329542845487595
-2.5361168384552,5.522663593292236,0.109098881483078
-1.5013047456741333,3.212857723236084,0.0628654807806015
-1.5259281396865845,3.209902763366699,0.062204185873270035
-1.5308648347854614,3.1642355918884277,0.060703668743371964
-1.5528538227081299,3.1535186767578125,0.059873271733522415
-1.5709457397460938,3.135826826095581,0.05888500064611435
-1.5916723012924194,3.125373601913452,0.05803756043314934
-1.6306434869766235,3.149282693862915,0.05781218037009239
-1.66343092918396,3.1586146354675293,0.057287927716970444
-1.7659246921539307,3.29878568649292,0.05908818915486336
-1.8267369270324707,3.35918927192688,0.05939340591430664
-1.182611346244812,2.139997720718384,0.037323929369449615
-1.1898242235183716,2.1181061267852783,0.03641892597079277
-1.9552472829818726,3.426241159439087,0.05804707109928131
-1.9580258131027222,3.3796072006225586,0.056381937116384506
-2.002378463745117,3.4034817218780518,0.055874068289995193
-2.0003156661987305,3.3456897735595703,0.05397976189851761
-1.2685554027557373,2.090268611907959,0.033132802695035934
-1.2738672494888306,2.068721055984497,0.032197967171669006
-2.122445821762085,3.3946731090545654,0.05180240422487259
-2.313208818435669,3.643825054168701,0.05446387082338333
-2.3369991779327393,3.628633975982666,0.05305441468954086
-2.3502631187438965,3.5967702865600586,0.051396023482084274
-2.3816511631011963,3.5901548862457275,0.05004347115755081
-2.404635429382324,3.5748214721679688,0.048560965806245804
-2.4211530685424805,3.5495004653930664,0.04692124202847481
-2.432835102081299,3.513054847717285,0.045030418783426285
-2.459636688232422,3.503911256790161,0.04352167621254921
-2.516386032104492,3.5355682373046875,0.04244903102517128
-2.5977401733398438,3.5974185466766357,0.041584569960832596
-2.6545958518981934,3.628547430038452,0.040299709886312485
-2.7162742614746094,3.6607542037963867,0.03883561119437218
-2.48123836517334,3.498353958129883,-0.03213910385966301
-2.445141553878784,3.504626750946045,-0.033769138157367706
-2.73905611038208,3.985255718231201,-0.040008414536714554
-2.717759609222412,4.018666744232178,-0.04194876179099083
-2.6834418773651123,4.032264232635498,-0.04361812770366669
-2.65523624420166,4.050874710083008,-0.04524648189544678
-2.6162612438201904,4.057559490203857,-0.046714793890714645
-2.1092917919158936,3.3246421813964844,-0.03937414288520813
-2.0733211040496826,3.319577932357788,-0.0403614267706871
-1.2512589693069458,2.0368592739105225,-0.025379054248332977
-1.2483686208724976,2.066054105758667,-0.026349855586886406
-1.996683955192566,3.3571012020111084,-0.0437437929213047
-1.988036036491394,3.3984668254852295,-0.045199524611234665
-1.97202730178833,3.430311679840088,-0.04654928669333458
-1.1998945474624634,2.121508836746216,-0.029317758977413177
-1.1887617111206055,2.136702060699463,-0.030050884932279587
-1.9019111394882202,3.4785406589508057,-0.049752939492464066
-1.8026258945465088,3.354630947113037,-0.048767466098070145
-1.676635503768921,3.173905372619629,-0.04686295613646507
-1.619756817817688,3.1199073791503906,-0.046744804829359055
-1.5897388458251953,3.117769479751587,-0.047371912747621536
-1.567338466644287,3.129077911376953,-0.04818843677639961
-1.5489451885223389,3.1469202041625977,-0.0490911640226841
-1.5328096151351929,3.1721596717834473,-0.05010123923420906
-1.502937912940979,3.169126510620117,-0.050637952983379364
-1.476953148841858,3.1726930141448975,-0.05126715078949928
-2.0313303470611572,4.443922996520996,-0.07258566468954086
-2.0029940605163574,4.465312480926514,-0.07369566708803177
-1.9863286018371582,4.515438079833984,-0.07526811957359314
-1.9532968997955322,4.529808521270752,-0.07626073062419891
-1.9354867935180664,4.57562255859375,-0.0777546837925911
-1.8959413766860962,4.570998668670654,-0.07838816195726395
-1.5835784673690796,3.897030830383301,-0.0673966184258461
-1.5525611639022827,3.9010720252990723,-0.0680336207151413
-1.5318058729171753,3.930222272872925,-0.06910734623670578
-1.5127333402633667,3.9626832008361816,-0.07023585587739944
-1.4898755550384521,3.9880030155181885,-0.07120595872402191
-1.4665123224258423,4.013278484344482,-0.07216698676347733
-1.440497875213623,4.030972480773926,-0.07299353182315826
-1.4171472787857056,4.05578088760376,-0.07395068556070328
-1.388837456703186,4.065549850463867,-0.0746239423751831
-1.359747290611267,4.07535982131958,-0.07525116950273514
-1.334216594696045,4.096102237701416,-0.07608533650636673
-1.3077255487442017,4.112823009490967,-0.0768437311053276
-0.9684526324272156,3.1222574710845947,-0.058679841458797455
-0.9509879946708679,3.143937587738037,-0.05941201001405716
-0.8346565365791321,2.8322081565856934,-0.05378887429833412
-0.7896223068237305,2.7517480850219727,-0.052522480487823486
-0.7651378512382507,2.7383787631988525,-0.052523281425237656
