X,Y,Z
-1.2115824222564697,4.823574542999268,0.6493794322013855
-1.2266943454742432,4.744148254394531,0.6370037794113159
-1.257736325263977,4.728367805480957,0.6332303285598755
-1.2878535985946655,4.71264123916626,0.6291012763977051
-1.3119838237762451,4.674224853515625,0.6218984723091125
-1.3436740636825562,4.665633201599121,0.6187415719032288
-1.3712841272354126,4.641855239868164,0.6135827302932739
-1.1080678701400757,3.6571245193481445,0.4818283021450043
-1.1311776638031006,3.6422688961029053,0.47825634479522705
-1.160885214805603,3.649564504623413,0.47728419303894043
-1.4783077239990234,4.5414533615112305,0.5915798544883728
-1.5114209651947021,4.53917932510376,0.5889579653739929
-1.5691076517105103,4.606143474578857,0.5952443480491638
-1.6407756805419922,4.709079742431641,0.606092095375061
-1.6494992971420288,4.632518291473389,0.5936116576194763
-1.702430009841919,4.679961204528809,0.5968149304389954
-1.733869194984436,4.668940544128418,0.5926083922386169
-1.7574154138565063,4.6357855796813965,0.5855942964553833
-1.7547043561935425,4.533507347106934,0.5698809027671814
-1.7775615453720093,4.5001139640808105,0.5628522634506226
-1.8139495849609375,4.502889633178711,0.5599954724311829
-1.838183879852295,4.476843357086182,0.5536296963691711
-1.9086309671401978,4.56165075302124,0.5609358549118042
-1.9283430576324463,4.520208835601807,0.5525586009025574
-1.9367296695709229,4.4537835121154785,0.5412137508392334
-1.9764527082443237,4.462416172027588,0.5386199951171875
-1.9966778755187988,4.428472518920898,0.5309697389602661
-2.0198123455047607,4.401491165161133,0.5242019295692444
-2.032421588897705,4.349196434020996,0.5143359303474426
-2.049358367919922,4.307472229003906,0.5057904124259949
-2.1139075756073,4.367640018463135,0.5087648034095764
-2.1325371265411377,4.333254337310791,0.500766396522522
-2.161510944366455,4.319521427154541,0.4951575696468353
-2.1724483966827393,4.266786098480225,0.4849357008934021
-2.2054500579833984,4.259247779846191,0.47980260848999023
-2.230039119720459,4.23832368850708,0.47296103835105896
-2.2696213722229004,4.244419097900391,0.4690588116645813
-2.276411771774292,4.188443183898926,0.45826953649520874
-2.2304437160491943,4.03695011138916,0.43715810775756836
-2.25329327583313,4.016005039215088,0.43011361360549927
-2.283447265625,4.008569717407227,0.4244896471500397
-2.310720920562744,3.993605852127075,0.41789111495018005
-2.334822416305542,3.971248149871826,0.4103856682777405
-2.3653600215911865,3.9629132747650146,0.4041588008403778
-2.3912293910980225,3.948065996170044,0.3971790373325348
-2.417518138885498,3.9327361583709717,0.39005768299102783
-2.4415130615234375,3.9094622135162354,0.3817632496356964
-2.467301845550537,3.893974542617798,0.3741779923439026
-2.47987699508667,3.8589601516723633,0.3647110164165497
-2.5102272033691406,3.849332332611084,0.3574049770832062
-2.5131800174713135,3.7968838214874268,0.3459286391735077
-2.629028081893921,3.917046070098877,0.3497076630592346
-2.1063780784606934,3.0954344272613525,0.2706838548183441
-2.044032335281372,2.9592933654785156,0.25282585620880127
-2.058652400970459,2.9402382373809814,0.24510788917541504
-2.0773074626922607,2.9276809692382812,0.23792454600334167
-2.107339859008789,2.92602801322937,0.23082691431045532
-1.0940088033676147,1.4990901947021484,0.11466868966817856
-1.1128517389297485,1.5049177408218384,0.11139349639415741
-2.0734872817993164,2.9076027870178223,-0.14674769341945648
-2.0510337352752686,2.9229917526245117,-0.15626561641693115
-2.469755172729492,3.5724167823791504,-0.20065471529960632
-2.4555561542510986,3.609926462173462,-0.2124497890472412
-2.433321475982666,3.633727550506592,-0.2231408953666687
-2.4113054275512695,3.6571033000946045,-0.23345649242401123
-2.374629497528076,3.6617870330810547,-0.2427138388156891
-2.3524391651153564,3.684704303741455,-0.25259530544281006
-2.317286729812622,3.687861204147339,-0.2609313130378723
-2.293686866760254,3.711091995239258,-0.27066197991371155
-2.267043113708496,3.726774215698242,-0.2795149087905884
-2.235640287399292,3.7359437942504883,-0.28785061836242676
-2.2117769718170166,3.758491277694702,-0.29706430435180664
-2.184619188308716,3.773667573928833,-0.30550438165664673
-2.1578142642974854,3.788386821746826,-0.3137257993221283
-2.129802703857422,3.8035190105438232,-0.32193589210510254
-2.1051957607269287,3.825380802154541,-0.33080434799194336
-2.074517011642456,3.832566738128662,-0.33804064989089966
-2.0503017902374268,3.853708505630493,-0.34643110632896423
-2.02555775642395,3.8748555183410645,-0.35483938455581665
-2.0013420581817627,3.895473003387451,-0.3630739450454712
-1.9732331037521362,3.909074306488037,-0.3706667125225067
-1.9463529586791992,3.9261670112609863,-0.3783874213695526
-1.9176193475723267,3.9395642280578613,-0.3857775926589966
-1.889855146408081,3.952256679534912,-0.3928937315940857
-1.8682715892791748,3.978996515274048,-0.4013659358024597
-1.8458771705627441,4.005862712860107,-0.40979665517807007
-1.816386342048645,4.018589973449707,-0.4168998897075653
-1.797696828842163,4.051816463470459,-0.42590031027793884
-1.7781587839126587,4.0851731300354,-0.43488451838493347
-1.756335735321045,4.115031719207764,-0.443461537361145
-1.4282385110855103,3.4133026599884033,-0.3722919821739197
-1.3728628158569336,3.3473100662231445,-0.36943793296813965
-1.3519375324249268,3.3636200428009033,-0.3754119575023651
-1.3277465105056763,3.3726725578308105,-0.38049623370170593
-1.3007230758666992,3.3742868900299072,-0.38474801182746887
-1.279699683189392,3.3900506496429443,-0.39055338501930237
-1.2552168369293213,3.3986170291900635,-0.3955276608467102
-1.236052393913269,3.4215943813323975,-0.40200990438461304
-1.2114485502243042,3.4298183917999268,-0.4067956805229187
-1.1886224746704102,3.4413459300994873,-0.4119100570678711
-1.164444088935852,3.449047565460205,-0.4165247976779938
-1.1418401002883911,3.464226007461548,-0.42190712690353394
-1.1242536306381226,3.493896007537842,-0.42904627323150635
-1.1019465923309326,3.508587121963501,-0.4343557357788086
-1.0841667652130127,3.5379257202148438,-0.44151046872138977
-1.061278223991394,3.552438497543335,-0.4465721845626831
-1.040337085723877,3.5742666721343994,-0.4525659680366516
-1.0219743251800537,3.607246160507202,-0.4600750207901001
-1.0008293390274048,3.628734827041626,-0.46608591079711914
-0.9772506356239319,3.6426773071289062,-0.4709804654121399
-0.9533686637878418,3.656522512435913,-0.47572821378707886
-0.9274360537528992,3.6626932621002197,-0.47950735688209534
-0.9013478755950928,3.6687023639678955,-0.4833027124404907
-0.8738887310028076,3.6668882369995117,-0.48599177598953247
-0.8514884114265442,3.6876156330108643,-0.49133989214897156
-0.8288383483886719,3.708202362060547,-0.49671509861946106
-0.802784264087677,3.7134807109832764,-0.5000630617141724
-0.7763725519180298,3.718634605407715,-0.5034523010253906
-0.7502375841140747,3.7235782146453857,-0.5065301060676575
-0.901881217956543,4.6443095207214355,-0.6345906257629395
-0.8748677372932434,4.680487632751465,-0.6423908472061157
-0.8381038308143616,4.663118839263916,-0.6428519487380981
-0.8063141107559204,4.676076412200928,-0.6475260853767395
-0.7760289907455444,4.696465015411377,-0.6526969075202942
-0.7454970479011536,4.716654300689697,-0.65788733959198
-0.7136411666870117,4.728978157043457,-0.6620190143585205
-0.6818013191223145,4.741063594818115,-0.6661463379859924
-0.6507006883621216,4.764559745788574,-0.6716680526733398
-0.6183356046676636,4.776320457458496,-0.6752262711524963
-0.5886563062667847,4.8108954429626465,-0.6820582151412964
-0.5550574064254761,4.814534664154053,-0.6845455169677734
-0.5302545428276062,4.898677825927734,-0.6985412240028381
-0.47963184118270874,4.740381240844727,-0.6774170398712158
-0.4382789433002472,4.662556171417236,-0.6676961183547974
-0.4120524525642395,4.738443374633789,-0.6799928545951843
-0.36302345991134644,4.5405073165893555,-0.6529828906059265
-0.29283052682876587,4.440567970275879,-0.6406759023666382
-0.2578822374343872,4.38447904586792,-0.6334415674209595
-0.2185731679201126,4.216127872467041,-0.6099567413330078
-0.18598496913909912,4.144013404846191,-0.6003742814064026
-0.1559925526380539,4.11420202255249,-0.5965805053710938
-0.1288309097290039,4.161487579345703,-0.6037688255310059
-0.10019532591104507,4.19700813293457,-0.6092932820320129
-0.07197146117687225,4.255512237548828,-0.6181862354278564
-0.042626794427633286,4.279033184051514,-0.6220343112945557
-0.013546190224587917,4.511173725128174,-0.6556704044342041
0.017488770186901093,4.429996967315674,-0.6437636613845825
0.04966552183032036,4.50322151184082,-0.6543249487876892
0.07884558290243149,4.382966041564941,-0.6368065476417542
0.11116813123226166,4.4557785987854,-0.6471883654594421
0.14288665354251862,4.478185176849365,-0.6498309373855591
0.1760099232196808,4.527406215667725,-0.6563854813575745
0.09133460372686386,1.99275541305542,-0.2886662781238556
0.2282315492630005,4.312370777130127,-0.6241728663444519
0.25675463676452637,4.287683010101318,-0.6197535395622253
0.28650742769241333,4.285983085632324,-0.6184729337692261
0.2649824023246765,3.5899879932403564,-0.5171982645988464
0.28213849663734436,3.491860866546631,-0.5022643208503723
0.3054966330528259,3.4745209217071533,-0.49898627400398254
0.32886362075805664,3.464831829071045,-0.49639564752578735
0.3528657853603363,3.4626832008361816,-0.49490517377853394
0.3714655935764313,3.4103786945343018,-0.4862841069698334
0.39428380131721497,3.400238513946533,-0.4837167263031006
0.4164372980594635,3.382242202758789,-0.4798906147480011
0.42836853861808777,3.2913169860839844,-0.4655153751373291
0.4459223747253418,3.2502007484436035,-0.45826220512390137
0.4685032069683075,3.2472805976867676,-0.45643019676208496
0.4888005256652832,3.2288925647735596,-0.4524494409561157
0.50855553150177,3.206552028656006,-0.4476344585418701
0.5295233726501465,3.195620059967041,-0.44435641169548035
0.5450655221939087,3.1540420055389404,-0.4368651509284973
0.5670381784439087,3.1504695415496826,-0.43467003107070923
0.5861212015151978,3.131531000137329,-0.43034303188323975
0.5952529907226562,3.0631375312805176,-0.41895297169685364
0.612216591835022,3.0364434719085693,-0.4133118689060211
0.6261951923370361,2.998335838317871,-0.4061989486217499
0.6471066474914551,2.9942264556884766,-0.4037269949913025
0.6645304560661316,2.9748919010162354,-0.39904695749282837
0.6816059947013855,2.9554989337921143,-0.3942515254020691
0.6970208287239075,2.9283876419067383,-0.38843390345573425
0.7174443006515503,2.9238178730010986,-0.38566213846206665
0.7274091243743896,2.877774715423584,-0.3774595856666565
0.7492332458496094,2.880575656890869,-0.37541335821151733
0.7691268920898438,2.8757219314575195,-0.3723812997341156
0.7986650466918945,2.904259204864502,-0.37361130118370056
0.8094429969787598,2.865429401397705,-0.3662201166152954
0.8022966384887695,2.76705265045166,-0.3511967360973358
0.8147157430648804,2.7395615577697754,-0.34516918659210205
0.8313173651695251,2.7268621921539307,-0.3410492539405823
0.8576259613037109,2.7435073852539062,-0.34052324295043945
0.8791441321372986,2.745243787765503,-0.33814552426338196
0.8883515000343323,2.7100586891174316,-0.3310478925704956
0.9070073962211609,2.704293727874756,-0.3275867998600006
0.9068748950958252,2.6432814598083496,-0.3174843192100525
0.900953471660614,2.567680597305298,-0.30574989318847656
0.9137345552444458,2.5470895767211914,-0.30046892166137695
0.9672830700874329,2.639604091644287,-0.30845364928245544
0.9977232813835144,2.666029214859009,-0.30857130885124207
1.019166111946106,2.666659355163574,-0.3056255877017975
1.0319815874099731,2.6454944610595703,-0.30012521147727966
1.0475337505340576,2.6314642429351807,-0.29532283544540405
1.0626335144042969,2.617454767227173,-0.2906080186367035
1.0794541835784912,2.606797933578491,-0.28622570633888245
1.0975792407989502,2.599658489227295,-0.2822011709213257
1.1153208017349243,2.5925419330596924,-0.27807775139808655
1.1208374500274658,2.55668306350708,-0.27086299657821655
1.1259609460830688,2.520836114883423,-0.2637275755405426
1.1402791738510132,2.5062811374664307,-0.2588436007499695
1.1540294885635376,2.49184250831604,-0.25390106439590454
1.1527066230773926,2.44565486907959,-0.24579878151416779
1.170019268989563,2.437851905822754,-0.2414754033088684
1.1767174005508423,2.4090898036956787,-0.23513904213905334
1.19302499294281,2.401474714279175,-0.23082034289836884
1.20225989818573,2.3798463344573975,-0.2251860797405243
1.2188416719436646,2.371812343597412,-0.22076468169689178
1.2316539287567139,2.35681414604187,-0.21566936373710632
1.2423317432403564,2.3383970260620117,-0.21017898619174957
1.2599892616271973,2.333757162094116,-0.2060013711452484
1.2669587135314941,2.3081955909729004,-0.19987435638904572
1.2864948511123657,2.306687355041504,-0.19582004845142365
1.2942615747451782,2.2848360538482666,-0.19003461301326752
1.3062734603881836,2.2693986892700195,-0.18467240035533905
1.322150707244873,2.260575294494629,-0.17983931303024292
1.3372091054916382,2.252082347869873,-0.1749916970729828
1.3481969833374023,2.2367970943450928,-0.1696328967809677
1.359747052192688,2.2210371494293213,-0.1640710085630417
1.375024676322937,2.2119879722595215,-0.15891572833061218
1.3813261985778809,2.189997673034668,-0.15292797982692719
1.3921576738357544,2.1742324829101562,-0.14724990725517273
1.4112629890441895,2.1715450286865234,-0.14236530661582947
1.4169151782989502,2.1495399475097656,-0.1362239271402359
1.431777000427246,2.14001727104187,-0.13064990937709808
1.4420256614685059,2.124037742614746,-0.12462485581636429
1.4492119550704956,2.1052675247192383,-0.11847304552793503
1.4635478258132935,2.095649003982544,-0.11262740939855576
1.4640657901763916,2.066969633102417,-0.10566282272338867
1.4252029657363892,1.9847192764282227,-0.09611828625202179
1.455087661743164,1.997117280960083,-0.09094792604446411
1.4678640365600586,1.9880216121673584,-0.08470046520233154
1.4867907762527466,2.1074681282043457,0.1873617172241211
1.470374345779419,2.1183865070343018,0.19367685914039612
1.4596952199935913,2.134669780731201,0.20003502070903778
1.44263756275177,2.145681142807007,0.20588460564613342
1.4348630905151367,2.1690428256988525,0.21274124085903168
1.4237576723098755,2.1851305961608887,0.21860598027706146
1.4068984985351562,2.195502758026123,0.2237769514322281
1.3982430696487427,2.218914031982422,0.23030388355255127
1.3822712898254395,2.2283928394317627,0.235142320394516
1.3738276958465576,2.251356840133667,0.2412719428539276
1.3565908670425415,2.261277914047241,0.2459748238325119
1.339928150177002,2.2706966400146484,0.2505009174346924
1.3277997970581055,2.286325693130493,0.2555895149707794
1.3160138130187988,2.3060803413391113,0.2610723078250885
1.3023250102996826,2.3222696781158447,0.2661176025867462
1.2892664670944214,2.33795428276062,0.2709922790527344
1.2839041948318481,2.366995334625244,0.27738311886787415
1.2661739587783813,2.376068353652954,0.2812842130661011
1.258817434310913,2.4058382511138916,0.28771743178367615
1.2501740455627441,2.431739568710327,0.29361218214035034
1.2365186214447021,2.4469661712646484,0.29817378520965576
1.2254596948623657,2.4694302082061768,0.3035086393356323
1.2240126132965088,2.5129570960998535,0.3114423155784607
1.2117078304290771,2.5356719493865967,0.3168960213661194
1.1938817501068115,2.54367995262146,0.320358544588089
1.1790738105773926,2.5586929321289062,0.3246806561946869
1.1617438793182373,2.570448160171509,0.32841911911964417
1.1458749771118164,2.5856292247772217,0.3326224982738495
1.1333192586898804,2.6076667308807373,0.3376988172531128
1.1146708726882935,2.615276575088501,0.3409067392349243
1.1019487380981445,2.6370809078216553,0.3458534777164459
1.0884310007095337,2.659064769744873,0.35071831941604614
1.0689027309417725,2.66658091545105,0.35370200872421265
1.0553761720657349,2.688239574432373,0.3585513234138489
1.0431303977966309,2.713397979736328,0.36389467120170593
1.0265097618103027,2.727635622024536,0.367679238319397
1.0092804431915283,2.7419562339782715,0.3713417649269104
0.9918699264526367,2.7561748027801514,0.37502172589302063
0.9668518900871277,2.7482659816741943,0.37568315863609314
0.9434651732444763,2.7437379360198975,0.3767916262149811
0.9216973185539246,2.7426083087921143,0.37830615043640137
0.8994004726409912,2.741530656814575,0.3796033263206482
0.8842236399650574,2.762410879135132,0.383966863155365
0.8745867609977722,2.8016819953918457,0.3909304440021515
0.8917900919914246,2.9297516345977783,0.41036540269851685
0.8779158592224121,2.9578442573547363,0.41586172580718994
0.8600381016731262,2.974872350692749,0.41963452100753784
0.8407056927680969,2.9881367683410645,0.42280688881874084
0.827355146408081,3.0236716270446777,0.42916861176490784
0.8038337230682373,3.021700382232666,0.4302237331867218
0.7862218618392944,3.0420186519622803,0.4344756305217743
0.7668319344520569,3.0546460151672363,0.43762874603271484
0.7504316568374634,3.0823540687561035,0.44266876578330994
0.7363380789756775,3.1212730407714844,0.44936132431030273
0.7243087887763977,3.1714532375335693,0.4577263593673706
0.7040241956710815,3.1876325607299805,0.46123138070106506
0.686628520488739,3.2148938179016113,0.4663415551185608
0.665656566619873,3.2269434928894043,0.4692041873931885
0.6471613645553589,3.2541420459747314,0.47403886914253235
0.6254375576972961,3.266038656234741,0.47667551040649414
0.6059616804122925,3.293071746826172,0.4815707504749298
0.5835303068161011,3.3008244037628174,0.4836479127407074
0.5643917918205261,3.327458143234253,0.48851728439331055
0.5435658693313599,3.3463802337646484,0.49219295382499695
0.5246284604072571,3.380523920059204,0.49788326025009155
0.5041947364807129,3.4108052253723145,0.5030550956726074
0.4886735677719116,3.475346326828003,0.5133100748062134
0.4678895175457001,3.505321741104126,0.518497109413147
0.4444369077682495,3.5159826278686523,0.5208553075790405
0.4207611680030823,3.52650785446167,0.5231456756591797
0.39590463042259216,3.529256820678711,0.524008572101593
0.3738359808921814,3.562617540359497,0.529455304145813
0.3528270721435547,3.6073405742645264,0.5366200804710388
0.3338872790336609,3.6788558959960938,0.5478084683418274
0.31307846307754517,3.7387170791625977,0.557305634021759
0.28763943910598755,3.7483787536621094,0.5593364238739014
0.26251381635665894,3.7733826637268066,0.563309907913208
0.23770134150981903,3.8020482063293457,0.5678576231002808
0.21232692897319794,3.826688528060913,0.571835458278656
0.18819928169250488,3.8820254802703857,0.5804337859153748
0.16263608634471893,3.9179022312164307,0.5861567854881287
0.1372154951095581,3.984508991241455,0.59652179479599
0.11005858331918716,4.008511543273926,0.6001777052879333
0.08271703869104385,4.04006290435791,0.6049260497093201
0.05488068237900734,4.063699722290039,0.6085193157196045
0.026800332590937614,4.106459140777588,0.6150069236755371
-0.002295271959155798,4.1722002029418945,0.6249709725379944
-0.03178111091256142,4.233872890472412,0.6343581080436707
-0.061436645686626434,4.249020576477051,0.6365396976470947
-0.09187038987874985,4.291025161743164,0.6425797343254089
-0.12142017483711243,4.282609462738037,0.6410987377166748
-0.15063166618347168,4.2662672996521,0.6384627819061279
-0.1845977008342743,4.3539204597473145,0.6514155268669128
-0.2529429793357849,5.124316215515137,0.7665258049964905
-0.29136723279953003,5.172662734985352,0.7734676599502563
-0.3305271565914154,5.224647045135498,0.7805988788604736
-0.3696649968624115,5.2647705078125,0.7859829664230347
-0.4046485424041748,5.235215187072754,0.780990719795227
-0.43964192271232605,5.217024326324463,0.777745246887207
-0.4759204685688019,5.213982105255127,0.7767954468727112
-0.5170712471008301,5.260685443878174,0.7832579612731934
-0.5682643055915833,5.399412631988525,0.8029011487960815
-0.6034412384033203,5.372495651245117,0.7979134917259216
-0.628080427646637,5.264830589294434,0.7810088992118835
-0.6673580408096313,5.283593654632568,0.7829076647758484
-0.6999998092651367,5.2484025955200195,0.7768452763557434
-0.7375603318214417,5.25128698348999,0.7764596939086914
-0.7719886898994446,5.231003761291504,0.7722015976905823
-0.8024755716323853,5.19151496887207,0.7650976777076721
-0.8343626260757446,5.163290977478027,0.7597017884254456
-0.8634375929832458,5.11960506439209,0.7520775198936462
-0.9057166576385498,5.151851654052734,0.7556312680244446
-0.9303386807441711,5.084886074066162,0.7446763515472412
-0.9702066779136658,5.101401329040527,0.7455886006355286
-1.0140106678009033,5.140550136566162,0.7496964335441589
-1.0281982421875,5.031577110290527,0.7322545051574707
-1.051398515701294,4.9718170166015625,0.7220539450645447
-1.0892690420150757,4.979861736297607,0.7217215299606323
-1.1185411214828491,4.945986270904541,0.7153259515762329
-1.1523972749710083,4.938618183135986,0.7124844789505005
-1.1887162923812866,4.9423723220825195,0.7111074924468994
-1.2176473140716553,4.915829181671143,0.7054100036621094
-1.207183599472046,4.7353715896606445,0.6777254939079285
-1.2456721067428589,4.745830059051514,0.6773840188980103
-1.2767277956008911,4.729977607727051,0.6733477711677551
-1.307974100112915,4.717885494232178,0.669518232345581
-1.333649754524231,4.6870341300964355,0.6629512310028076
-1.3610888719558716,4.6634907722473145,0.6574687957763672
-1.1103532314300537,3.708683729171753,0.5211223363876343
-1.1202551126480103,3.6494293212890625,0.5111038684844971
-1.1479761600494385,3.6493048667907715,0.5094120502471924
-1.4894626140594482,4.626093864440918,0.6432197093963623
-1.4976682662963867,4.546569347381592,0.6296736001968384
-1.5498687028884888,4.599115371704102,0.634412944316864
-1.5916337966918945,4.618163108825684,0.6345001459121704
-1.6135307550430298,4.57826042175293,0.6264868378639221
-1.6528375148773193,4.589498519897461,0.6253376603126526
-1.678328514099121,4.564324378967285,0.6189770698547363
-1.7144486904144287,4.5680341720581055,0.6165614724159241
-1.780490756034851,4.647223472595215,0.6242299675941467
-1.804498553276062,4.613613605499268,0.6166793704032898
-1.8252898454666138,4.57266902923584,0.6082078814506531
-1.8530255556106567,4.553786277770996,0.6023090481758118
-1.8702055215835571,4.509652614593506,0.59311443567276
-1.8828213214874268,4.454572677612305,0.5825106501579285
-1.9076745510101318,4.427757263183594,0.5756039619445801
-1.944877028465271,4.429152965545654,0.5723755359649658
-1.968404769897461,4.402441501617432,0.5652150511741638
-2.0443615913391113,4.492311000823975,0.5728920102119446
-2.0373241901397705,4.398040294647217,0.5570260882377625
-2.0611746311187744,4.370465278625488,0.549635648727417
-2.098473310470581,4.3706207275390625,0.5457213521003723
-2.1345372200012207,4.371145725250244,0.5415467023849487
-2.14625883102417,4.322831153869629,0.5313043594360352
-2.1491940021514893,4.256956577301025,0.5189371109008789
-2.1825084686279297,4.249457836151123,0.5136034488677979
-2.235464334487915,4.279645919799805,0.5127440690994263
-2.254574775695801,4.248405933380127,0.5042164325714111
-2.2955236434936523,4.258111953735352,0.5005573630332947
-2.217890501022339,4.0489821434021,0.4712781012058258
-2.24684476852417,4.033768653869629,0.464545339345932
-2.2701098918914795,4.012563705444336,0.4570388197898865
-2.3119454383850098,4.025284767150879,0.45329001545906067
-2.33076548576355,3.997194528579712,0.4449031352996826
-2.3628311157226562,3.988176107406616,0.4383445084095001
-2.3823368549346924,3.959230422973633,0.4293804466724396
-2.4041106700897217,3.9377365112304688,0.4212299883365631
-2.430027961730957,3.922593355178833,0.41373410820961
-2.453467845916748,3.8996236324310303,0.4050382077693939
-2.4795408248901367,3.883931875228882,0.3969586491584778
-2.5008177757263184,3.8618335723876953,0.3880327343940735
-2.5224132537841797,3.8392906188964844,0.37896740436553955
-2.590456008911133,3.8838324546813965,0.376077264547348
-3.1694345474243164,4.687363624572754,0.4447515904903412
-2.1050992012023926,3.0712642669677734,0.2853947579860687
-2.0535926818847656,2.9513492584228516,0.26777034997940063
-2.072722911834717,2.938634157180786,0.26010194420814514
-2.0912415981292725,2.926157236099243,0.25242388248443604
-1.084431767463684,1.4955271482467651,0.12525959312915802
-1.1079072952270508,1.5077108144760132,0.12237236648797989
-1.1128064393997192,1.494751214981079,0.11734379827976227
-2.0602023601531982,2.911665439605713,-0.15780289471149445
-2.1136727333068848,3.035670042037964,-0.17386694252490997
-2.438612461090088,3.555124044418335,-0.21359887719154358
-2.4502270221710205,3.631458044052124,-0.2284816950559616
-2.4149329662323,3.6356201171875,-0.23838700354099274
-2.380061388015747,3.6392312049865723,-0.24781356751918793
-2.3609941005706787,3.6694769859313965,-0.2590515911579132
-2.3344931602478027,3.685685157775879,-0.2689371109008789
-2.3072128295898438,3.702094316482544,-0.27879598736763
-2.2834718227386475,3.7251899242401123,-0.2890281081199646
-2.2486162185668945,3.7274081707000732,-0.2972830832004547
-2.225813150405884,3.749401330947876,-0.30692604184150696
-2.1979470252990723,3.765050172805786,-0.31604883074760437
-2.1739988327026367,3.7871451377868652,-0.32569974660873413
-2.139543294906616,3.788083791732788,-0.33316752314567566
-2.1191396713256836,3.816598653793335,-0.34298786520957947
-2.0873043537139893,3.824453592300415,-0.3509645164012909
-2.0639078617095947,3.845205307006836,-0.3598634898662567
-2.039146661758423,3.8664066791534424,-0.3688943088054657
-2.0196163654327393,3.89778208732605,-0.37879207730293274
-1.9826892614364624,3.89408540725708,-0.38515493273735046
-1.9674650430679321,3.9314942359924316,-0.39545485377311707
-1.9319021701812744,3.930971384048462,-0.40183261036872864
-1.9010087251663208,3.94087290763855,-0.4093824326992035
-1.8780673742294312,3.9639813899993896,-0.41803833842277527
-1.8696253299713135,4.018692493438721,-0.43003901839256287
-1.5240256786346436,3.338228940963745,-0.36225736141204834
-1.4600762128829956,3.2598347663879395,-0.35865455865859985
-1.4495888948440552,3.2978546619415283,-0.36764979362487793
-1.4257302284240723,3.307577133178711,-0.3735581934452057
-1.4017918109893799,3.3171463012695312,-0.3792644143104553
-1.3807823657989502,3.3337011337280273,-0.38579457998275757
-1.3602765798568726,3.3498594760894775,-0.392189085483551
-1.3337055444717407,3.351524829864502,-0.3968268632888794
-1.3148244619369507,3.374999761581421,-0.40400803089141846
-1.2905594110488892,3.3837063312530518,-0.40938621759414673
-1.266732096672058,3.3920583724975586,-0.41465356945991516
-1.2454564571380615,3.40755295753479,-0.4207570552825928
-1.2210420370101929,3.4157538414001465,-0.4257914125919342
-1.1986947059631348,3.4312376976013184,-0.43183624744415283
-1.1757044792175293,3.442653179168701,-0.43727731704711914
-1.1539831161499023,3.4575421810150146,-0.4431605637073517
-1.1389033794403076,3.4945738315582275,-0.45164749026298523
-1.1116279363632202,3.494600772857666,-0.45539426803588867
-1.0956538915634155,3.531499147415161,-0.4640294909477234
-1.0708751678466797,3.5384774208068848,-0.46869149804115295
-1.0502005815505981,3.560243844985962,-0.4750882089138031
-1.0302501916885376,3.5856447219848633,-0.4819386601448059
-1.0016981363296509,3.58107328414917,-0.48478448390960693
-0.987835168838501,3.6285102367401123,-0.4946781396865845
-1.1749032735824585,4.439724922180176,-0.6094242334365845
-1.1377332210540771,4.424745559692383,-0.6111708283424377
-1.1120848655700684,4.454536437988281,-0.6191319227218628
-1.0881030559539795,4.491650581359863,-0.6281613707542419
-1.0610696077346802,4.5173139572143555,-0.6356538534164429
-1.0354784727096558,4.554372787475586,-0.6443772315979004
-1.0116018056869507,4.5987372398376465,-0.654141902923584
-0.9800529479980469,4.608891010284424,-0.6590887904167175
-0.9493703842163086,4.6225786209106445,-0.6645624041557312
-0.9169146418571472,4.628533840179443,-0.6686710715293884
-0.8880574107170105,4.6572160720825195,-0.6758806109428406
-0.8552435636520386,4.6627936363220215,-0.6797318458557129
-0.8253745436668396,4.683320045471191,-0.6857782006263733
-0.792681097984314,4.688403606414795,-0.6896021962165833
-0.7585324048995972,4.68574333190918,-0.6916992664337158
-0.7250814437866211,4.690552234649658,-0.6949720978736877
-0.6877260208129883,4.6644487380981445,-0.6936341524124146
-0.6552153825759888,4.668654441833496,-0.6968088150024414
-0.6235915422439575,4.6803483963012695,-0.700840950012207
-0.5946937203407288,4.714879512786865,-0.7080038189888
-0.5493229031562805,4.614964485168457,-0.6949830651283264
-0.5109961032867432,4.56845235824585,-0.6899976134300232
-0.4719577729701996,4.502372741699219,-0.6819992661476135
-0.4442971646785736,4.543713092803955,-0.6897056102752686
-0.41258248686790466,4.546424865722656,-0.6915355920791626
-0.37408509850502014,4.468095302581787,-0.6810467839241028
-0.34361720085144043,4.485755920410156,-0.6852235794067383
-0.30861273407936096,4.433866500854492,-0.6785593032836914
-0.27092838287353516,4.3278303146362305,-0.6631639003753662
-0.2398485690355301,4.314024448394775,-0.6619107127189636
-0.2025154083967209,4.165015697479248,-0.6399078965187073
-0.17159005999565125,4.131460189819336,-0.6356512308120728
-0.1436491161584854,4.155608654022217,-0.6398377418518066
-0.11501653492450714,4.168015003204346,-0.6420851945877075
-0.08728703111410141,4.230400085449219,-0.652069091796875
-0.058676622807979584,4.288735866546631,-0.6614707708358765
-0.028352107852697372,4.288980484008789,-0.6618796586990356
0.0015032836236059666,4.424217700958252,-0.6825718283653259
0.029494088143110275,4.045796871185303,-0.6240561604499817
0.057392437011003494,4.030076026916504,-0.621529221534729
0.0862516462802887,4.068199157714844,-0.6273359656333923
0.1178070679306984,4.183343887329102,-0.6447363495826721
0.1568143367767334,4.448756217956543,-0.6849437952041626
0.18839602172374725,4.463113784790039,-0.6865001916885376
0.21502919495105743,4.373126983642578,-0.6720505952835083
0.2426203340291977,4.321533679962158,-0.6635519862174988
0.27015218138694763,4.2814178466796875,-0.6562967896461487
0.2987593710422516,4.256510257720947,-0.651327908039093
0.3262218236923218,4.227595806121826,-0.6458103060722351
0.353688508272171,4.202346324920654,-0.6408941745758057
0.3755045533180237,4.119255542755127,-0.6270455121994019
0.4003116488456726,4.078406810760498,-0.6192629337310791
0.42626795172691345,4.048886299133301,-0.6132287979125977
0.44922125339508057,4.0000505447387695,-0.6043513417243958
0.4733794033527374,3.966426372528076,-0.5978277921676636
0.4994441568851471,3.9518861770629883,-0.5938435196876526
0.5247877836227417,3.933371067047119,-0.5891315937042236
0.4540662169456482,3.2296667098999023,-0.4821415841579437
0.476554274559021,3.22672176361084,-0.4801531434059143
0.49605411291122437,3.204530715942383,-0.475285142660141
0.5182825326919556,3.2013654708862305,-0.47288939356803894
0.5353119373321533,3.1675543785095215,-0.4660099148750305
0.5546295642852783,3.148876428604126,-0.4614020586013794
0.5756059885025024,3.137601613998413,-0.4578731060028076
0.5836588740348816,3.0617239475250244,-0.4447990953922272
0.603380560874939,3.0504050254821777,-0.4410063922405243
0.6128747463226318,2.9896957874298096,-0.4301394820213318
0.6337191462516785,2.9857282638549805,-0.42748501896858215
0.6516100764274597,2.9664204120635986,-0.4226113557815552
0.6687213182449341,2.9471654891967773,-0.4174858629703522
0.6855964660644531,2.927809000015259,-0.41239041090011597
0.7077544927597046,2.930913209915161,-0.4104766249656677
0.7244710922241211,2.9112892150878906,-0.40539517998695374
0.736387312412262,2.8727846145629883,-0.3975266218185425
0.7542593479156494,2.860583543777466,-0.3932535946369171
0.774023175239563,2.855742931365967,-0.3900180757045746
0.778365969657898,2.7947421073913574,-0.3791561424732208
0.7851098775863647,2.744973659515381,-0.36989638209342957
0.81093430519104,2.7621607780456543,-0.36939409375190735
0.8188236951828003,2.719848394393921,-0.3610158860683441
0.8297179937362671,2.6886188983917236,-0.3541712462902069
0.8683890104293823,2.746023416519165,-0.3589645028114319
0.877860426902771,2.7109060287475586,-0.35146695375442505
0.9017471075057983,2.719886302947998,-0.3495940864086151
0.9155274629592896,2.699380397796631,-0.3439968228340149
0.8950036764144897,2.579780101776123,-0.32588839530944824
0.8986713886260986,2.5337328910827637,-0.3171837627887726
0.9187278151512146,2.535250663757324,-0.3143569529056549
0.9779082536697388,2.6421501636505127,-0.3244689106941223
1.006303310394287,2.6610286235809326,-0.3235131800174713
1.0277018547058105,2.661651849746704,-0.3203400671482086
1.0402729511260986,2.6405842304229736,-0.31440335512161255
1.0555155277252197,2.6266582012176514,-0.3093561828136444
1.0737491846084595,2.619753360748291,-0.3051242530345917
1.0879329442977905,2.6017723083496094,-0.29953891038894653
1.1026833057403564,2.5876126289367676,-0.29434919357299805
1.1110869646072388,2.5591137409210205,-0.2875674366950989
1.1224913597106934,2.5376338958740234,-0.2815972864627838
1.1339164972305298,2.5159945487976074,-0.27560868859291077
1.1368471384048462,2.476722478866577,-0.26759806275367737
1.1471469402313232,2.455291509628296,-0.2616376280784607
1.1607625484466553,2.4407503604888916,-0.25640740990638733
1.1744626760482788,2.4260222911834717,-0.25113996863365173
1.1875543594360352,2.411444902420044,-0.2458253651857376
1.1972081661224365,2.3897461891174316,-0.2397509664297104
1.2137295007705688,2.3818626403808594,-0.23508542776107788
1.2196989059448242,2.353004217147827,-0.2283352166414261
1.2337738275527954,2.3417129516601562,-0.2232620120048523
1.2514381408691406,2.337186813354492,-0.21884022653102875
1.2620964050292969,2.3186116218566895,-0.2130117565393448
1.2822012901306152,2.316915988922119,-0.20862552523612976
1.2863068580627441,2.2883102893829346,-0.20187562704086304
1.3017529249191284,2.2799901962280273,-0.1969388723373413
1.3099205493927002,2.2577474117279053,-0.19067007303237915
1.3252328634262085,2.249221086502075,-0.1855609118938446
1.3364988565444946,2.233891725540161,-0.179826021194458
1.3478716611862183,2.218351125717163,-0.1740325689315796
1.3632211685180664,2.209367036819458,-0.1686818152666092
1.3737595081329346,2.1940383911132812,-0.16284671425819397
1.3843886852264404,2.1785097122192383,-0.15695485472679138
1.4040735960006714,2.1755685806274414,-0.15171536803245544
1.4140771627426147,2.1601474285125732,-0.145677387714386
1.4240984916687012,2.1445703506469727,-0.13960674405097961
1.4347504377365112,2.1284360885620117,-0.13325931131839752
1.4486004114151,2.1193959712982178,-0.1273707002401352
1.4517698287963867,2.093888282775879,-0.12033884972333908
1.4573019742965698,2.071338415145874,-0.11333636194467545
1.452523946762085,2.0367939472198486,-0.10578665137290955
1.4479353427886963,2.0019705295562744,-0.0981159508228302
1.470549464225769,2.005129814147949,-0.09210314601659775
1.4786136150360107,1.9897645711898804,-0.08523159474134445
1.4466038942337036,2.0347602367401123,0.19140148162841797
1.4727543592453003,2.106217861175537,0.2038867324590683
1.4664793014526367,2.1289291381835938,0.21127822995185852
1.4545100927352905,2.1459264755249023,0.21800927817821503
1.437605857849121,2.156663179397583,0.22409866750240326
1.4308351278305054,2.1792283058166504,0.23096589744091034
1.4141091108322144,2.1895241737365723,0.23653505742549896
1.401279330253601,2.2063844203948975,0.2427120804786682
1.3852543830871582,2.215914249420166,0.24782921373844147
1.3773193359375,2.2385759353637695,0.25430139899253845
1.3601338863372803,2.248495101928711,0.25923997163772583
1.3527274131774902,2.2750213146209717,0.26615384221076965
1.3366243839263916,2.283980369567871,0.2707401216030121
1.319718599319458,2.2932522296905518,0.27526113390922546
1.3061161041259766,2.3094167709350586,0.28055769205093384
1.2964738607406616,2.332097291946411,0.28662246465682983
1.2908952236175537,2.36125111579895,0.29343050718307495
1.2735164165496826,2.370151996612549,0.2975804805755615
1.2629278898239136,2.3928658962249756,0.30341747403144836
1.252218246459961,2.415468454360962,0.30926641821861267
1.240452527999878,2.4341061115264893,0.3144928514957428
1.2330200672149658,2.4634320735931396,0.32112374901771545
1.2214418649673462,2.485999584197998,0.3267344534397125
1.2129621505737305,2.5155081748962402,0.3333130180835724
1.2015917301177979,2.5376453399658203,0.3388552665710449
1.1870133876800537,2.55256724357605,0.343426913022995
1.1683168411254883,2.56070876121521,0.346910685300827
1.1506078243255615,2.572486162185669,0.35089704394340515
1.134658694267273,2.587554931640625,0.3553227484226227
1.1256521940231323,2.6163642406463623,0.3615582287311554
1.1102460622787476,2.630892753601074,0.3658657968044281
1.0938693284988403,2.645695924758911,0.3699822723865509
1.0798524618148804,2.6677255630493164,0.3751780390739441
1.0631051063537598,2.6823363304138184,0.37932658195495605
1.0498915910720825,2.7037339210510254,0.3843767046928406
1.0322997570037842,2.7142133712768555,0.38790687918663025
1.0179224014282227,2.735764980316162,0.3927965760231018
1.0002557039260864,2.7501041889190674,0.3966899514198303
0.9879328012466431,2.7788076400756836,0.402667760848999
0.9632299542427063,2.7706875801086426,0.40327292680740356
0.9301318526268005,2.7366647720336914,0.40007802844047546
0.9129553437232971,2.750230073928833,0.4036613702774048
0.8878668546676636,2.7418103218078613,0.4039531648159027
0.8854655623435974,2.8031387329101562,0.4145362973213196
0.8915846943855286,2.894052028656006,0.42957431077957153
0.8847053647041321,2.944288969039917,0.43862926959991455
0.8672763109207153,2.961195230484009,0.4427333474159241
0.8501829504966736,2.9819037914276123,0.44716089963912964
0.8345054388046265,3.010068416595459,0.4527716040611267
0.8127943277359009,3.0156681537628174,0.454999178647995
0.7935566306114197,3.028451442718506,0.4583015739917755
0.7780858278274536,3.0560686588287354,0.4638790190219879
0.7611307501792908,3.0799310207366943,0.46877914667129517
0.7386417984962463,3.0851099491119385,0.47069573402404785
0.7252631783485413,3.127669334411621,0.4783326983451843
0.7155412435531616,3.189033031463623,0.4889048635959625
0.6932601928710938,3.1936609745025635,0.4907947778701782
0.6772937178611755,3.228374481201172,0.497343510389328
0.6555885076522827,3.240464448928833,0.500258207321167
0.6369130611419678,3.2675535678863525,0.5053584575653076
0.6150370240211487,3.279353618621826,0.5081284046173096
0.5937448143959045,3.2947998046875,0.5114931464195251
0.5733789205551147,3.3138363361358643,0.5154294967651367
0.5523867607116699,3.332805871963501,0.5194066762924194
0.533738374710083,3.3669042587280273,0.5255362391471863
0.5173711776733398,3.420030355453491,0.5345274209976196
0.5008278489112854,3.476905584335327,0.5441527962684631
0.4772622883319855,3.48781156539917,0.5466229319572449
0.45349186658859253,3.498565673828125,0.5491024255752563
0.43337148427963257,3.535916566848755,0.5557771325111389
0.4085865318775177,3.5386962890625,0.5568585991859436
0.38450175523757935,3.5490190982818604,0.558946967124939
0.36452794075012207,3.6014153957366943,0.5676980018615723
0.3420264720916748,3.6344895362854004,0.5734428763389587
0.32397177815437317,3.725095510482788,0.5883143544197083
0.29992085695266724,3.7501912117004395,0.5928748846054077
0.27492111921310425,3.767453908920288,0.5961177945137024
0.24980412423610687,3.7884559631347656,0.5996781587600708
0.2246333360671997,3.813140392303467,0.603853702545166
0.2016569823026657,3.895474910736084,0.6172018647193909
0.1748085767030716,3.9044125080108643,0.6189521551132202
0.15026319026947021,3.974846839904785,0.6304872632026672
0.1233939528465271,4.002705097198486,0.6353095173835754
0.0960138738155365,4.026595115661621,0.6390738487243652
0.06794402748346329,4.058020114898682,0.6440629363059998
0.03996633365750313,4.093101501464844,0.6496642231941223
0.011556132696568966,4.147277355194092,0.6583290100097656
-0.017595956102013588,4.220542907714844,0.6700583100318909
-0.047384388744831085,4.255022048950195,0.6756654381752014
-0.07802797853946686,4.285475254058838,0.680336594581604
-0.10818124562501907,4.3003153800964355,0.6824173331260681
-0.13710567355155945,4.2686686515808105,0.6771544218063354
-0.1705193817615509,4.364050388336182,0.6920726299285889
-0.23702122271060944,5.149052619934082,0.8163505792617798
-0.2738606929779053,5.1666131019592285,0.8189616203308105
-0.3126043677330017,5.2031731605529785,0.8243929147720337
-0.3529220223426819,5.266497611999512,0.8337348103523254
-0.388779878616333,5.256397247314453,0.8314840197563171
-0.4229015111923218,5.226827144622803,0.8261981010437012
-0.45781755447387695,5.208552360534668,0.8227393627166748
-0.5023085474967957,5.286023139953613,0.8344277143478394
-0.5480244159698486,5.370877742767334,0.8472653031349182
-0.5858181118965149,5.374909400939941,0.846836268901825
-0.6126368045806885,5.282826900482178,0.8313179016113281
-0.6452222466468811,5.248092174530029,0.8248875737190247
-0.6830719113349915,5.251341819763184,0.8244523406028748
-0.7185592651367188,5.239067077636719,0.8216285109519958
-0.7494999170303345,5.195986747741699,0.8140210509300232
-0.7932382822036743,5.244480133056641,0.820307195186615
-0.8243652582168579,5.2087531089782715,0.8133505582809448
-0.8606882691383362,5.203220844268799,0.8111327886581421
-0.904293417930603,5.2431840896606445,0.8160550594329834
-0.9182183742523193,5.111696243286133,0.7943350076675415
-0.9474313259124756,5.071349620819092,0.7868534326553345
-0.9778517484664917,5.042358875274658,0.7808294892311096
-1.0107877254486084,5.028395175933838,0.776984453201294
-1.0488815307617188,5.036789417266846,0.7766005396842957
-1.0849318504333496,5.037463665008545,0.7750833034515381
-1.104778528213501,4.962352752685547,0.7619369626045227
-1.1531198024749756,5.015203475952148,0.7684756517410278
-1.1687976121902466,4.928682327270508,0.7533958554267883
-1.201038122177124,4.913464069366455,0.7490181922912598
-1.208896279335022,4.804494857788086,0.7304673790931702
-1.2318426370620728,4.759223461151123,0.7216874957084656
-1.2709628343582153,4.77340841293335,0.7219154834747314
-1.298142671585083,4.742527008056641,0.7153600454330444
-1.321756362915039,4.7003960609436035,0.7068121433258057
-1.3535840511322021,4.691870212554932,0.7032135128974915
-1.3831621408462524,4.675711154937744,0.6985067129135132
-1.1108773946762085,3.6638035774230957,0.5455576777458191
-1.1341606378555298,3.648996591567993,0.5415525436401367
-1.1624218225479126,3.6486504077911377,0.5396898984909058
-1.4845635890960693,4.553267955780029,0.6709043383598328
-1.5079885721206665,4.5216965675354,0.6636200547218323
-1.5834590196609497,4.643839359283447,0.6788663268089294
-1.6547821760177612,4.7467570304870605,0.6911494731903076
-1.6735780239105225,4.6956281661987305,0.680946946144104
-1.6800857782363892,4.611647605895996,0.6659306287765503
-1.7191290855407715,4.622702121734619,0.6643731594085693
-1.7240086793899536,4.542960166931152,0.6498324871063232
-1.7628870010375977,4.5536017417907715,0.6482774615287781
-1.7804005146026611,4.505854606628418,0.6383321285247803
-1.8095860481262207,4.486555576324463,0.6324119567871094
-1.8458327054977417,4.489242076873779,0.6293230652809143
-1.872900128364563,4.470341682434082,0.6231458783149719
-1.9348194599151611,4.533226013183594,0.6283392310142517
-1.9567512273788452,4.499205112457275,0.6199932098388672
-1.9809483289718628,4.468178749084473,0.6119958758354187
-2.0049190521240234,4.4412384033203125,0.604430079460144
-2.0344865322113037,4.428554058074951,0.5986707210540771
-2.0886383056640625,4.468343257904053,0.5999784469604492
-2.0659804344177246,4.342621803283691,0.5790280103683472
-2.102062225341797,4.339016914367676,0.574317991733551
-2.1417629718780518,4.346341133117676,0.5708776712417603
-2.1810495853424072,4.353641986846924,0.5672698020935059
-2.1923842430114746,4.305267333984375,0.5564414858818054
-2.213254928588867,4.273579120635986,0.5476652383804321
-2.2360055446624756,4.245025634765625,0.5392863750457764
-2.281186580657959,4.261476039886475,0.5362026691436768
-2.2573676109313965,4.151652812957764,0.5173898935317993
-2.243826389312744,4.062494277954102,0.5013133883476257
-2.2552597522735596,4.016981601715088,0.4905253052711487
-2.298044443130493,4.0293450355529785,0.48667067289352417
-2.3269131183624268,4.018124103546143,0.4796736538410187
-2.3513376712799072,4.000238418579102,0.4719974100589752
-2.37135648727417,3.9712159633636475,0.4626903831958771
-2.402700185775757,3.9623348712921143,0.4556315541267395
-2.4203522205352783,3.9342355728149414,0.4461889863014221
-2.4423105716705322,3.9123849868774414,0.43739384412765503
-2.469792366027832,3.896043062210083,0.428865909576416
-2.492053508758545,3.8735363483428955,0.4195335805416107
-2.512852191925049,3.8517210483551025,0.41017019748687744
-2.5705440044403076,3.8845937252044678,0.40640684962272644
-2.6288042068481445,3.9122462272644043,0.40131449699401855
-2.1061859130859375,3.0918021202087402,0.310729444026947
-2.0507633686065674,2.9700632095336914,0.29225805401802063
-2.0580523014068604,2.937324047088623,0.28227499127388
-2.077406167984009,2.9244494438171387,0.27406126260757446
-2.0916459560394287,2.905461549758911,0.26511844992637634
-1.0938010215759277,1.4977574348449707,0.1326550841331482
-1.1034915447235107,1.4910478591918945,0.1278991848230362
-2.0705313682556152,2.9042558670043945,-0.15915130078792572
-2.0509839057922363,2.922283411026001,-0.16959825158119202
-2.4633328914642334,3.5663163661956787,-0.21822747588157654
-2.45984148979187,3.6152875423431396,-0.23172208666801453
-2.4235870838165283,3.620173931121826,-0.24246102571487427
-2.4013445377349854,3.643552780151367,-0.2540249228477478
-2.3829269409179688,3.673452377319336,-0.2659132480621338
-2.3425791263580322,3.6708006858825684,-0.2752607464790344
-2.3160667419433594,3.6868033409118652,-0.2855477035045624
-2.2893478870391846,3.7026634216308594,-0.2956209182739258
-2.261620283126831,3.718848705291748,-0.30571794509887695
-2.2383036613464355,3.741187810897827,-0.3161843717098236
-2.2115237712860107,3.7562668323516846,-0.32570356130599976
-2.1836514472961426,3.7717034816741943,-0.3352358043193817
-2.159972906112671,3.793435573577881,-0.345226526260376
-2.1293275356292725,3.8009636402130127,-0.35369551181793213
-2.1045103073120117,3.822784662246704,-0.36355501413345337
-2.079918622970581,3.844202756881714,-0.3732888400554657
-2.052635431289673,3.857987403869629,-0.38199880719184875
-2.028400421142578,3.8787038326263428,-0.39135000109672546
-1.9962722063064575,3.885713577270508,-0.39928513765335083
-1.971125841140747,3.906350612640381,-0.40864866971969604
-1.943587064743042,3.9192540645599365,-0.41692036390304565
-1.9474934339523315,3.998767137527466,-0.432270348072052
-1.5544852018356323,3.250916004180908,-0.3569868505001068
-1.5279513597488403,3.2541592121124268,-0.3627874255180359
-1.501686930656433,3.257080316543579,-0.3684682250022888
-1.4775878190994263,3.2673487663269043,-0.37492889165878296
-1.4570008516311646,3.284349203109741,-0.38209807872772217
-1.4337185621261597,3.293853998184204,-0.3883001208305359
-1.4104313850402832,3.303166627883911,-0.39442917704582214
-1.3895912170410156,3.319687604904175,-0.40128421783447266
-1.3681505918502808,3.336231231689453,-0.4082719385623932
-1.3445584774017334,3.3450846672058105,-0.4141649901866913
-1.3209196329116821,3.353764057159424,-0.41999778151512146
-1.3023780584335327,3.3769335746765137,-0.4274809956550598
-1.278113603591919,3.3854713439941406,-0.43314898014068604
-1.2564282417297363,3.401118516921997,-0.4397682249546051
