X,Y,Z
1.3492286205291748,2.2132654190063477,-0.0926167368888855
1.3605307340621948,2.1972665786743164,-0.08971506357192993
1.3706965446472168,2.181828022003174,-0.08686848729848862
1.3938227891921997,2.185776948928833,-0.08471017330884933
1.3920197486877441,2.149914503097534,-0.08096179366111755
1.4016063213348389,2.1344423294067383,-0.07800187915563583
1.39656400680542,2.0957465171813965,-0.07411970943212509
1.4198684692382812,2.0990123748779297,-0.07167878746986389
1.437721848487854,2.096398115158081,-0.0690007358789444
1.4427775144577026,2.0740203857421875,-0.06556710600852966
1.4570063352584839,2.0641469955444336,-0.062426257878541946
1.474844217300415,2.061145305633545,-0.05942387878894806
1.4751373529434204,2.0321462154388428,-0.055520519614219666
1.4651941061019897,1.9911307096481323,-0.05131801962852478
2.1114501953125,2.9775824546813965,0.12408293038606644
2.0891826152801514,2.99303936958313,0.1290179044008255
2.608009099960327,3.7968549728393555,0.16887429356575012
3.160640239715576,4.6717658042907715,0.2137564867734909
3.138035535812378,4.714820861816406,0.22149889171123505
3.103219985961914,4.737496376037598,0.22807691991329193
3.0848793983459473,4.781701564788818,0.2354414016008377
1.637319564819336,2.58018159866333,0.12978720664978027
1.6260701417922974,2.6055359840393066,0.13378745317459106
1.5832899808883667,2.5767877101898193,0.1347939521074295
3.0055694580078125,4.97262716293335,0.2647870182991028
2.979926109313965,5.014979362487793,0.271658331155777
2.985867977142334,5.106295108795166,0.2809721827507019
2.889004707336426,5.022345066070557,0.2806492745876312
2.7957072257995605,4.945007801055908,0.28030985593795776
2.7421326637268066,4.934496879577637,0.2836156487464905
2.6570866107940674,4.860825061798096,0.283008337020874
2.5929946899414062,4.824297904968262,0.28442299365997314
2.53646183013916,4.805521011352539,0.2867581248283386
2.470780372619629,4.764781475067139,0.2876172363758087
2.4162111282348633,4.739955902099609,0.2892383933067322
2.356520175933838,4.704317569732666,0.2901188135147095
2.3149120807647705,4.7073073387146,0.2932107746601105
1.2288304567337036,2.546509265899658,0.16020983457565308
1.2177269458770752,2.568984031677246,0.1631208211183548
1.1882851123809814,2.5525259971618652,0.16355982422828674
1.1729074716567993,2.5680813789367676,0.165943905711174
1.1556649208068848,2.58003568649292,0.16809575259685516
1.14988112449646,2.616605758666992,0.17183388769626617
2.072782039642334,4.808717727661133,0.3182799518108368
2.05087947845459,4.8517608642578125,0.3235265910625458
2.0214710235595703,4.880753993988037,0.3277399241924286
2.002048969268799,4.934844017028809,0.3336784839630127
1.9790654182434082,4.977470874786377,0.3387987017631531
2.0242576599121094,5.198254585266113,0.3562111258506775
2.0037710666656494,5.256060600280762,0.3623858690261841
1.9805550575256348,5.310426712036133,0.3682714104652405
1.9635694026947021,5.382949352264404,0.3754621148109436
1.9260241985321045,5.396284580230713,0.3784926235675812
1.9018930196762085,5.450050354003906,0.3844282925128937
1.8831735849380493,5.5222697257995605,0.39150726795196533
1.9209647178649902,5.7684326171875,0.4109347462654114
1.9300605058670044,5.937544822692871,0.4250251054763794
1.8956642150878906,5.9729413986206055,0.4295661449432373
1.8705265522003174,6.04186487197876,0.43660053610801697
1.8412693738937378,6.099503517150879,0.4426804780960083
1.8182910680770874,6.183406352996826,0.4505707323551178
1.7834769487380981,6.229824066162109,0.4557832181453705
1.7545000314712524,6.294499397277832,0.46233129501342773
1.7239234447479248,6.355241775512695,0.46863260865211487
1.68654203414917,6.397305011749268,0.4735655188560486
1.6485761404037476,6.4391961097717285,0.47820642590522766
1.595005750656128,6.420383453369141,0.47836554050445557
1.5405187606811523,6.393429756164551,0.4779067039489746
0.7807748913764954,3.3422813415527344,0.2506428062915802
1.4179495573043823,6.269684314727783,0.47173336148262024
1.366916537284851,6.248956203460693,0.47147083282470703
1.3240731954574585,6.265990734100342,0.4739924371242523
1.260042667388916,6.1796722412109375,0.4687022268772125
1.213931918144226,6.1728739738464355,0.46942004561424255
1.1563202142715454,6.108469486236572,0.4657851755619049
1.1108591556549072,6.100926876068115,0.4664034843444824
1.0628771781921387,6.081676959991455,0.46583956480026245
1.0280911922454834,6.138887405395508,0.47115927934646606
0.9706705808639526,6.05740213394165,0.46584486961364746
0.9242233037948608,6.040908336639404,0.4655398726463318
0.8760312795639038,6.0046796798706055,0.4637084901332855
0.8308030962944031,5.987414360046387,0.4631843864917755
0.7830386757850647,5.950555324554443,0.460978239774704
0.7425675988197327,5.967431545257568,0.46295443177223206
0.5954804420471191,5.074992656707764,0.39430275559425354
0.5612363815307617,5.0944952964782715,0.39642971754074097
0.5329617261886597,5.16793966293335,0.40277332067489624
0.3958362340927124,4.120910167694092,0.321521133184433
0.36101606488227844,4.057603359222412,0.3168729841709137
0.342681348323822,4.184206962585449,0.32707589864730835
0.31414714455604553,4.202026844024658,0.32880550622940063
0.28255870938301086,4.169100284576416,0.32657188177108765
0.25479474663734436,4.190357685089111,0.3285965919494629
0.2271948903799057,4.2231221199035645,0.331325501203537
0.36348840594291687,7.768416404724121,0.6097295880317688
0.30799177289009094,7.762982368469238,0.6095950603485107
0.2523082196712494,7.714303016662598,0.6060861945152283
0.19789738953113556,7.684689998626709,0.6041007041931152
0.1439778208732605,7.662483215332031,0.6027246117591858
0.0905095711350441,7.651617050170898,0.6018170714378357
0.03612230345606804,7.613124847412109,0.5987519025802612
-0.016777940094470978,7.574249744415283,0.5956868529319763
-0.06938541680574417,7.562267780303955,0.5947656631469727
-0.1213095560669899,7.522665977478027,0.5917006731033325
-0.17303967475891113,7.498283863067627,0.5898352861404419
-0.22457052767276764,7.481367588043213,0.5881796479225159
-0.276075154542923,7.444606304168701,0.5849892497062683
-0.32880374789237976,7.465885639190674,0.5863935351371765
-0.27433061599731445,5.378821849822998,0.4222963750362396
-0.31528931856155396,5.439015865325928,0.4268680810928345
-0.351568341255188,5.413404941558838,0.4246765673160553
-0.38736891746520996,5.3797760009765625,0.4215981066226959
-0.4229775369167328,5.357610702514648,0.41944998502731323
-0.46168655157089233,5.374007225036621,0.4203403890132904
-0.23313559591770172,2.5089187622070312,0.19606544077396393
-0.2451620101928711,2.4530060291290283,0.19153359532356262
-0.2554011046886444,2.3854117393493652,0.18606427311897278
-0.2727062702178955,2.3913681507110596,0.1862446814775467
-0.29475992918014526,2.435866594314575,0.18942977488040924
-0.31306254863739014,2.4453959465026855,0.18989653885364532
-0.3331744372844696,2.46635365486145,0.19125454127788544
-0.6414000391960144,4.507640838623047,0.34906235337257385
-0.6725199818611145,4.503174781799316,0.3481394350528717
-0.7021686434745789,4.490845203399658,0.3464764356613159
-0.729167640209198,4.462944507598877,0.34363317489624023
-0.7612308859825134,4.465572357177734,0.343155175447464
-0.7880942821502686,4.437257766723633,0.34031417965888977
-0.8180072903633118,4.424001693725586,0.338637113571167
-0.8358331918716431,4.35335111618042,0.33244436979293823
-0.7293485403060913,3.66379451751709,0.27906712889671326
-0.7535156607627869,3.655006170272827,0.2776913642883301
-0.7828324437141418,3.668841600418091,0.2780344486236572
-0.95908522605896,4.344224452972412,0.32837316393852234
-0.9892266392707825,4.337560176849365,0.3270556926727295
-1.015139102935791,4.315678119659424,0.32437652349472046
-1.0426560640335083,4.301211357116699,0.3222658038139343
-1.07572603225708,4.309239387512207,0.32185232639312744
-1.0984300374984741,4.2714524269104,0.3179977536201477
-1.120124340057373,4.233696937561035,0.3141937255859375
-1.1512839794158936,4.233527660369873,0.3131100833415985
-1.1768040657043457,4.214500904083252,0.3105086088180542
-1.206412434577942,4.2103047370910645,0.3090161681175232
-1.23260498046875,4.190661907196045,0.30636611580848694
-1.2504678964614868,4.144812107086182,0.3018386662006378
-1.2884793281555176,4.165927886962891,0.3022046387195587
-1.3142979145050049,4.149824619293213,0.2996683120727539
-1.337471842765808,4.126173973083496,0.29659831523895264
-1.363549828529358,4.109565258026123,0.29402095079421997
-1.3895734548568726,4.09275484085083,0.2914429008960724
-1.4205809831619263,4.090494155883789,0.28991323709487915
-1.4510009288787842,4.088229179382324,0.2882576286792755
-1.473157286643982,4.063875675201416,0.28498974442481995
-1.5004632472991943,4.0540289878845215,0.2827576994895935
-1.5235748291015625,4.028897762298584,0.27940040826797485
-1.5543729066848755,4.025634288787842,0.27760225534439087
-1.576027512550354,4.000615119934082,0.27421846985816956
-1.608538031578064,4.004632949829102,0.2727440893650055
-1.6264334917068481,3.9723010063171387,0.26880723237991333
-1.6470369100570679,3.9428606033325195,0.26499348878860474
-1.6790634393692017,3.942216634750366,0.26316210627555847
-1.7089165449142456,3.9380459785461426,0.2609941065311432
-1.7241183519363403,3.901771306991577,0.256644606590271
-1.7534986734390259,3.8973867893218994,0.25439903140068054
-1.781065583229065,3.8850529193878174,0.2515369653701782
-1.7948766946792603,3.844470500946045,0.24690833687782288
-1.8105010986328125,3.811434745788574,0.2426549792289734
-1.832332730293274,3.792511463165283,0.23930391669273376
-1.8649544715881348,3.794154644012451,0.23720231652259827
-1.8848612308502197,3.7670626640319824,0.23321837186813354
-1.9176744222640991,3.76816987991333,0.23098373413085938
-1.942479133605957,3.755636692047119,0.22781328856945038
-1.9637348651885986,3.735948085784912,0.22420722246170044
-1.978704810142517,3.7017221450805664,0.21963559091091156
-2.0081536769866943,3.694908857345581,0.21670684218406677
-1.7046661376953125,3.087372303009033,0.1788090616464615
-1.7325129508972168,3.0899014472961426,0.1767193228006363
-0.8383304476737976,1.4711885452270508,0.08300943672657013
-0.8524762988090515,1.4721440076828003,0.08192167431116104
-0.85414719581604,1.453182578086853,0.07968296110630035
-0.8557608127593994,1.4341691732406616,0.07744515687227249
-0.8738493919372559,1.4415894746780396,0.07657293230295181
-0.8837512731552124,1.4356250762939453,0.07497277110815048
-0.8888965845108032,1.4233348369598389,0.07301495224237442
-0.8983317613601685,1.4174827337265015,0.07136286050081253
-0.9041221141815186,1.4046101570129395,0.0692778080701828
-0.8898627758026123,1.3627725839614868,0.06580798327922821
-0.9028546810150146,1.3636537790298462,0.06442289799451828
-2.397322416305542,3.566866397857666,0.16440631449222565
-1.567245602607727,2.2670364379882812,0.09907940775156021
-1.3945205211639404,1.987861156463623,0.0842747613787651
-1.3091087341308594,1.8718833923339844,-0.06500238925218582
-1.3590196371078491,1.9749486446380615,-0.07173500210046768
-1.2524890899658203,1.8490017652511597,-0.06996341049671173
-1.2023762464523315,1.8026009798049927,-0.07077788561582565
-1.3321949243545532,2.030225992202759,-0.08257858455181122
-1.2034660577774048,1.8623669147491455,-0.07817208766937256
-1.2381372451782227,1.9466718435287476,-0.08419942855834961
-1.1362862586975098,1.8169530630111694,-0.08092578500509262
-1.1870383024215698,1.9277535676956177,-0.08810506016016006
-0.8267828226089478,1.4333288669586182,-0.0718521922826767
-2.142411470413208,3.7782034873962402,-0.1933010369539261
-1.725556492805481,3.094627857208252,-0.16142256557941437
-1.7077077627182007,3.113227367401123,-0.16538815200328827
-2.025951862335205,3.757195472717285,-0.20314641296863556
-2.0070338249206543,3.789186477661133,-0.20847265422344208
-1.9803199768066406,3.8029861450195312,-0.2126261293888092
-1.91629159450531,3.743610143661499,-0.21261239051818848
-1.8082541227340698,3.596970558166504,-0.20735737681388855
-1.7527104616165161,3.550333023071289,-0.2076713889837265
-1.5845330953598022,3.2676308155059814,-0.1938217580318451
-1.496115803718567,3.1411542892456055,-0.18883030116558075
-1.4766182899475098,3.158794403076172,-0.1923234611749649
-1.442509651184082,3.144318103790283,-0.19383616745471954
-1.4541281461715698,3.2288169860839844,-0.20143237709999084
-1.4156311750411987,3.2031025886535645,-0.20216630399227142
-1.362589955329895,3.1452524662017822,-0.20075196027755737
-1.3307949304580688,3.133254051208496,-0.20216231048107147
-1.2924824953079224,3.1026644706726074,-0.2022702991962433
-1.25313138961792,3.068110704421997,-0.20207062363624573
-1.2151628732681274,3.0370349884033203,-0.2019375115633011
-1.1929560899734497,3.0456578731536865,-0.20446409285068512
-1.1423377990722656,2.9773149490356445,-0.20170176029205322
-1.1078590154647827,2.9485485553741455,-0.20155736804008484
-1.0761111974716187,2.926926612854004,-0.20177024602890015
-1.0379987955093384,2.8867154121398926,-0.20063549280166626
-1.0120834112167358,2.879232168197632,-0.20175577700138092
-0.9792886972427368,2.849222183227539,-0.2012341022491455
-0.9530026316642761,2.837430238723755,-0.20193156599998474
-0.9205501675605774,2.8070015907287598,-0.20119650661945343
-0.8933781385421753,2.791090726852417,-0.20147892832756042
-0.8689365983009338,2.7823362350463867,-0.2022596150636673
-0.8325034976005554,2.732274293899536,-0.19998799264431
-0.8031542301177979,2.704360008239746,-0.1991771161556244
-0.7774254679679871,2.687420129776001,-0.19913311302661896
-0.7500614523887634,2.662698984146118,-0.1984865963459015
-0.7335368394851685,2.675262689590454,-0.200609490275383
-0.69941645860672,2.6238341331481934,-0.19791173934936523
-0.6827288866043091,2.636169910430908,-0.19987161457538605
-0.6602236032485962,2.6257259845733643,-0.20011021196842194
-0.6344887614250183,2.5998919010162354,-0.19915233552455902
-0.608314037322998,2.570024013519287,-0.19786646962165833
-0.590865433216095,2.5779898166656494,-0.19943225383758545
-0.565065860748291,2.547780990600586,-0.19794835150241852
-0.5519919395446777,2.574460744857788,-0.2008894830942154
-0.5229673981666565,2.5247631072998047,-0.1978609710931778
-0.5053503513336182,2.528259515762329,-0.19899283349514008
-0.4828444719314575,2.5087802410125732,-0.19821476936340332
-0.45874571800231934,2.477585792541504,-0.19643884897232056
-0.4385846257209778,2.465338945388794,-0.19615858793258667
-0.4214285612106323,2.4682557582855225,-0.19708257913589478
-0.40048083662986755,2.4479949474334717,-0.19615890085697174
-0.3818095326423645,2.443030595779419,-0.19633840024471283
-0.36234572529792786,2.430185556411743,-0.19585184752941132
-0.34259650111198425,2.413325548171997,-0.19504141807556152
-0.32580652832984924,2.4155898094177246,-0.19577836990356445
-0.3030782639980316,2.3713908195495605,-0.19274821877479553
-0.2804014980792999,2.3231568336486816,-0.1892271190881729
-0.27303287386894226,2.40629506111145,-0.19641399383544922
-0.25375792384147644,2.384866952896118,-0.19507624208927155
-0.23560655117034912,2.3710339069366455,-0.19436146318912506
-0.21839667856693268,2.3648159503936768,-0.19427572190761566
-0.20119796693325043,2.358494997024536,-0.19402574002742767
-0.18499940633773804,2.3675990104675293,-0.19505181908607483
-0.16599580645561218,2.3338510990142822,-0.19254815578460693
-0.15075154602527618,2.3504586219787598,-0.1942053586244583
-0.13350702822208405,2.3358731269836426,-0.19329452514648438
-0.11642351746559143,2.3211781978607178,-0.1922163963317871
-0.09893245249986649,2.298593521118164,-0.1904889941215515
-0.08290869742631912,2.299210548400879,-0.1906895786523819
-0.06712769716978073,2.30749773979187,-0.19153591990470886
-0.05091102048754692,2.3001081943511963,-0.19109003245830536
-0.034760769456624985,2.292618989944458,-0.19048276543617249
-0.018561702221632004,2.300590753555298,-0.19116269052028656
-0.002540385816246271,2.2773044109344482,-0.18925410509109497
0.013383462093770504,2.292835235595703,-0.19058050215244293
0.029224425554275513,2.2848994731903076,-0.1899656355381012
0.044924091547727585,2.2768681049346924,-0.18918932974338531
0.06074048951268196,2.276512622833252,-0.18904921412467957
0.07670192420482635,2.2721476554870605,-0.18858371675014496
0.0926632210612297,2.2754604816436768,-0.18876634538173676
0.1092306524515152,2.2903263568878174,-0.18991580605506897
0.12467563152313232,2.281764030456543,-0.18898068368434906
0.14145945012569427,2.296412229537964,-0.1899612843990326
0.15608717501163483,2.2720775604248047,-0.18772293627262115
0.17247331142425537,2.278726100921631,-0.18805885314941406
0.1902426779270172,2.3007760047912598,-0.1896720826625824
0.2054711878299713,2.2916860580444336,-0.18857479095458984
0.22282153367996216,2.3057496547698975,-0.1893731653690338
0.2358768880367279,2.273179054260254,-0.1863459199666977
0.2551300525665283,2.302478075027466,-0.18840458989143372
0.2693139612674713,2.2852206230163574,-0.18666084110736847
0.2860899269580841,2.291079521179199,-0.18666835129261017
0.3049662709236145,2.3122615814208984,-0.18791183829307556
0.32125332951545715,2.3101086616516113,-0.1872536689043045
0.33955836296081543,2.3232831954956055,-0.1878504753112793
0.35098332166671753,2.290127754211426,-0.18471328914165497
0.37292322516441345,2.326166868209839,-0.18701496720314026
0.38765236735343933,2.3159265518188477,-0.18558691442012787
0.40367597341537476,2.3132524490356445,-0.1847730427980423
0.4235597252845764,2.329554796218872,-0.18546423316001892
0.4412209987640381,2.3342673778533936,-0.1852436512708664
0.4618002772331238,2.3541781902313232,-0.1860758364200592
0.47801873087882996,2.3510169982910156,-0.18508590757846832
0.4942948818206787,2.347727060317993,-0.18409110605716705
0.5092465281486511,2.336636781692505,-0.18247997760772705
0.5288925170898438,2.348320960998535,-0.18264448642730713
0.5502960681915283,2.3674874305725098,-0.18325862288475037
0.5701516270637512,2.378899335861206,-0.1832682192325592
0.5969077348709106,2.416579484939575,-0.1852797567844391
0.617855429649353,2.4274849891662598,-0.1852073073387146
0.6425352692604065,2.4533963203430176,-0.18623973429203033
0.6532334089279175,2.4264731407165527,-0.1831723153591156
0.6781522035598755,2.452082872390747,-0.18407484889030457
0.7047808766365051,2.48114013671875,-0.18520194292068481
0.7310844659805298,2.5061116218566895,-0.18598610162734985
0.743879497051239,2.4861907958984375,-0.18337422609329224
0.7699921727180481,2.5109670162200928,-0.18400567770004272
0.7953912615776062,2.5317599773406982,-0.18432161211967468
0.8249602317810059,2.5633678436279297,-0.18538497388362885
0.8430989384651184,2.55757999420166,-0.1837150752544403
0.8704723119735718,2.58144474029541,-0.18406794965267181
0.8994604349136353,2.6087472438812256,-0.1846352219581604
0.9252625703811646,2.624647378921509,-0.18435244262218475
0.9488294720649719,2.6329293251037598,-0.18351252377033234
0.9764153957366943,2.6520538330078125,-0.18336574733257294
1.011183261871338,2.6891696453094482,-0.18432499468326569
1.0378773212432861,2.7041897773742676,-0.18376071751117706
1.0595502853393555,2.7042906284332275,-0.18213823437690735
1.1000709533691406,2.751289129257202,-0.1836479753255844
1.1304789781570435,2.772799491882324,-0.1833004653453827
1.1659976243972778,2.8047122955322266,-0.18356800079345703
1.1975480318069458,2.825453758239746,-0.18305808305740356
1.1336761713027954,2.623899459838867,-0.16825230419635773
1.1484265327453613,2.609104871749878,-0.16550001502037048
1.162800669670105,2.594331979751587,-0.16272862255573273
1.1808427572250366,2.586319923400879,-0.16033312678337097
1.192269206047058,2.5640251636505127,-0.15706844627857208
1.2165069580078125,2.5700340270996094,-0.1555086225271225
1.2641785144805908,2.6252238750457764,-0.1568266600370407
1.5016865730285645,3.0650930404663086,-0.1807025671005249
1.5773683786392212,3.16276216506958,-0.18386873602867126
1.6025468111038208,3.1590161323547363,-0.1810617297887802
1.6718945503234863,3.2420456409454346,-0.18309453129768372
1.4185123443603516,2.7055823802948,-0.150475412607193
1.42631196975708,2.6751389503479004,-0.1464180201292038
1.4519379138946533,2.6792423725128174,-0.1442275047302246
1.4700202941894531,2.669525384902954,-0.141209676861763
1.473010540008545,2.6323204040527344,-0.1367397904396057
1.4662587642669678,2.578040599822998,-0.13140961527824402
1.4541852474212646,2.517642021179199,-0.12582753598690033
1.4668428897857666,2.501392126083374,-0.12250444293022156
1.3846077919006348,2.3234665393829346,-0.1112787276506424
1.345959186553955,2.223888635635376,-0.10411552339792252
1.3605271577835083,2.2151379585266113,-0.10127882659435272
1.3589872121810913,2.179499626159668,-0.09716785699129105
1.382485270500183,2.1833062171936035,-0.09476634114980698
1.392751693725586,2.1676270961761475,-0.09145244210958481
1.398584246635437,2.1453776359558105,-0.0878775492310524
1.4135048389434814,2.13570499420166,-0.08470574766397476
1.4165838956832886,2.1103155612945557,-0.08091966807842255
1.4348441362380981,2.1075174808502197,-0.07795315980911255
1.4363811016082764,2.078178882598877,-0.07381775975227356
1.4451874494552612,2.062652587890625,-0.07025513052940369
1.4588838815689087,2.0531044006347656,-0.06676275283098221
1.4545881748199463,2.017878293991089,-0.062325865030288696
1.4672622680664062,2.008789539337158,-0.058732785284519196
1.4764978885650635,1.9924099445343018,-0.05460435897111893
2.1218135356903076,2.969632387161255,0.1371319442987442
2.09858775138855,2.9858226776123047,0.14285768568515778
2.613157272338867,3.7734999656677246,0.18614137172698975
2.589129686355591,3.7991526126861572,0.19293001294136047
3.1452219486236572,4.690062999725342,0.24469591677188873
3.1167054176330566,4.718040943145752,0.25220853090286255
3.0954859256744385,4.764204025268555,0.2607344686985016
1.645521879196167,2.5742030143737793,0.14398741722106934
1.6358096599578857,2.5986461639404297,0.14827397465705872
1.600203514099121,2.5838782787323,0.1502692997455597
3.017148017883301,4.95483922958374,0.29350608587265015
2.981694459915161,4.975880146026611,0.29979246854782104
2.9681754112243652,5.0334625244140625,0.30818185210227966
2.9165868759155273,5.031620025634766,0.31279900670051575
2.8082361221313477,4.927075386047363,0.31078922748565674
2.769970417022705,4.9394001960754395,0.3158405125141144
2.6904146671295166,4.880646705627441,0.31627267599105835
2.6224546432495117,4.841890811920166,0.317720502614975
2.5672876834869385,4.822492599487305,0.32025954127311707
2.511766195297241,4.79856538772583,0.32233843207359314
2.4468109607696533,4.757270812988281,0.323091059923172
2.380981922149658,4.716104984283447,0.32372626662254333
2.3190724849700928,4.6770219802856445,0.3243016004562378
1.2225885391235352,2.5093672275543213,0.17568019032478333
1.2199606895446777,2.549438953399658,0.18016290664672852
1.201195240020752,2.5581774711608887,0.18237313628196716
1.1856694221496582,2.573837995529175,0.18508760631084442
1.1641377210617065,2.5749409198760986,0.18671591579914093
1.1556490659713745,2.604214668273926,0.19037474691867828
2.0760793685913086,4.770850658416748,0.35139331221580505
2.0625827312469482,4.83580207824707,0.3587927520275116
2.0339555740356445,4.864542007446289,0.3635046184062958
2.0156126022338867,4.91825532913208,0.37011146545410156
1.986957311630249,4.946434020996094,0.3747767210006714
2.4187231063842773,6.14984655380249,0.4688163101673126
2.3599631786346436,6.130583763122559,0.4702080190181732
1.990895390510559,5.28276252746582,0.40758806467056274
1.9655098915100098,5.329378128051758,0.41362664103507996
1.9334306716918945,5.357404708862305,0.4181700348854065
2.0735175609588623,5.877956390380859,0.4611402153968811
2.067812442779541,5.999309539794922,0.47306028008461
2.0079431533813477,5.961820602416992,0.472450315952301
1.9618794918060303,5.964561939239502,0.4750395119190216
1.912978172302246,5.95561408996582,0.4766441881656647
1.8875038623809814,6.0247392654418945,0.484218031167984
1.8508927822113037,6.06027364730835,0.4891437590122223
1.8222743272781372,6.1215338706970215,0.4961652159690857
1.7904340028762817,6.171234130859375,0.502264678478241
1.7582894563674927,6.224738597869873,0.5087617039680481
1.7325260639190674,6.304450988769531,0.5171129107475281
1.6944622993469238,6.342779159545898,0.5220354795455933
1.668654203414917,6.429878234863281,0.5310273170471191
0.8204876780509949,3.25453782081604,0.2696932852268219
1.55125892162323,6.342567443847656,0.5274146795272827
0.7996219992637634,3.3716444969177246,0.2812585234642029
1.4508846998214722,6.317946434020996,0.5284715294837952
1.393173098564148,6.2709221839904785,0.5259833931922913
1.3490214347839355,6.280379295349121,0.5282279253005981
1.2981706857681274,6.25909423828125,0.5279160737991333
1.2370272874832153,6.179991722106934,0.5226989388465881
1.1867486238479614,6.15400505065918,0.5216861963272095
1.1416821479797363,6.154453277587891,0.5228469371795654
1.0782314538955688,6.0511016845703125,0.5151937007904053
1.0404419898986816,6.089155673980713,0.519594132900238
0.9967995882034302,6.088414192199707,0.5206893086433411
0.9507032632827759,6.071997165679932,0.5204353928565979
0.8922367691993713,5.974512100219727,0.5128599405288696
0.8521743416786194,5.995969772338867,0.5155087113380432
0.8013597726821899,5.9439520835876465,0.5118723511695862
0.7683771252632141,6.014902114868164,0.5188269019126892
0.714800238609314,5.923398017883301,0.5117902159690857
0.5680239200592041,5.000054359436035,0.4326660931110382
0.5518196225166321,5.181873798370361,0.4488670825958252
0.4060274064540863,4.085710048675537,0.354300856590271
0.37513303756713867,4.069065570831299,0.3532640039920807
0.3504907786846161,4.114173412322998,0.35759788751602173
0.32701706886291504,4.182412624359131,0.36397165060043335
0.29731979966163635,4.1767802238464355,0.36382603645324707
0.2680526673793793,4.178728103637695,0.3641948401927948
0.23962509632110596,4.2038092613220215,0.3666025400161743
0.38892123103141785,7.777169704437256,0.6786602735519409
0.3332410454750061,7.740744590759277,0.675944983959198
0.27906811237335205,7.731145858764648,0.6756018400192261
0.22432613372802734,7.701745510101318,0.6733137369155884
0.16922485828399658,7.679783821105957,0.6714461445808411
0.11499054729938507,7.630178451538086,0.6671928763389587
0.06200776249170303,7.638561248779297,0.6680418252944946
0.008753612637519836,7.576531410217285,0.6627641916275024
-0.0438263975083828,7.560828685760498,0.661569356918335
-0.09705686569213867,7.540883541107178,0.6597693562507629
-0.14882051944732666,7.50892972946167,0.6567243933677673
-0.19993670284748077,7.46884298324585,0.6530019044876099
-0.2508966326713562,7.44007682800293,0.650302529335022
-0.3024965524673462,7.438185691833496,0.6499843597412109
-0.3554554581642151,7.463141918182373,0.6520429253578186
-0.29643774032592773,5.420525074005127,0.4733048677444458
-0.3334287405014038,5.410629749298096,0.4720354974269867
-0.3692322075366974,5.384951591491699,0.4694140553474426
-0.40656620264053345,5.382313251495361,0.46882402896881104
-0.4416964054107666,5.352262020111084,0.4658700227737427
-0.4740162789821625,5.28703498840332,0.45987626910209656
-0.23694854974746704,2.4520387649536133,0.2130502462387085
-0.2526508569717407,2.438769817352295,0.21161940693855286
-0.2698673903942108,2.4408767223358154,0.21153415739536285
-0.28858840465545654,2.45444655418396,0.21244871616363525
-0.5675496459007263,4.549458026885986,0.3933100700378418
-0.3204268515110016,2.430940866470337,0.20991984009742737
-0.624591588973999,4.49891471862793,0.3878520131111145
-0.6571375131607056,4.506169319152832,0.3877699673175812
-0.6874600648880005,4.497798442840576,0.38636037707328796
-0.7179468274116516,4.485244274139404,0.38459283113479614
-0.7452251315116882,4.457209587097168,0.3815320134162903
-0.7735307812690735,4.436673641204834,0.37913617491722107
-0.8039107918739319,4.431382656097412,0.37780749797821045
-0.8248231410980225,4.3761677742004395,0.3722173869609833
-0.8412826061248779,4.301772117614746,0.36503687500953674
-0.7423866391181946,3.658708333969116,0.30973193049430847
-0.7678276896476746,3.6535511016845703,0.3085845708847046
-0.9362084865570068,4.306369304656982,0.3628678023815155
-0.9757446646690369,4.3456130027771,0.36509793996810913
-1.0018397569656372,4.323822975158691,0.36220815777778625
-1.0319335460662842,4.316877841949463,0.3605603277683258
-1.0562642812728882,4.287069797515869,0.3570302724838257
-1.084061622619629,4.2722272872924805,0.35477107763290405
-1.1113641262054443,4.257303237915039,0.35240334272384644
-1.1341348886489868,4.227263450622559,0.3486695885658264
-1.1632384061813354,4.219503402709961,0.3467755615711212
-1.1922885179519653,4.211543083190918,0.34488144516944885
-1.2183036804199219,4.192082405090332,0.34205353260040283
-1.2474441528320312,4.183659076690674,0.34014612436294556
-1.2735151052474976,4.167825222015381,0.3374221920967102
-1.2951855659484863,4.136836051940918,0.3334590494632721
-1.3304150104522705,4.150360107421875,0.3331173062324524
-1.3568247556686401,4.1337785720825195,0.33033686876296997
-1.3855485916137695,4.124414443969727,0.32815173268318176
-1.4060453176498413,4.092949867248535,0.3241012692451477
-1.4335469007492065,4.083586692810059,0.32171884179115295
-1.4614595174789429,4.073871612548828,0.31929516792297363
-1.4897059202194214,4.063819885253906,0.31683653593063354
-1.5125259160995483,4.038937091827393,0.31323641538619995
-1.5458375215530396,4.0431904792785645,0.3118338882923126
-1.5644387006759644,4.011151313781738,0.30750739574432373
-1.5946485996246338,4.00783109664917,0.30537253618240356
-1.628126621246338,4.011382102966309,0.3037439286708832
-1.650046467781067,3.9857587814331055,0.2999042272567749
-1.6713117361068726,3.9601845741271973,0.29603084921836853
-1.697676420211792,3.9491710662841797,0.293129026889801
-1.7134790420532227,3.9127938747406006,0.28833526372909546
-1.7405258417129517,3.9010579586029053,0.28534096479415894
-1.761232852935791,3.8748533725738525,0.28129467368125916
-1.7810282707214355,3.848844289779663,0.27719393372535706
-1.8032387495040894,3.830098867416382,0.27354228496551514
-1.815800428390503,3.7898366451263428,0.2683306038379669
-1.8626638650894165,3.8193743228912354,0.26801061630249023
-1.8684272766113281,3.764630079269409,0.2617892920970917
-1.9004132747650146,3.766296625137329,0.2593640089035034
-1.9217032194137573,3.746950626373291,0.2554762363433838
-1.950864553451538,3.7408878803253174,0.25241902470588684
-1.9737229347229004,3.7202982902526855,0.24829010665416718
-1.9895884990692139,3.6899428367614746,0.24351273477077484
-1.6934661865234375,3.0921223163604736,0.20168547332286835
-1.7180018424987793,3.0876927375793457,0.1989634931087494
-1.7280147075653076,3.055454730987549,0.19437363743782043
-0.8395988941192627,1.4609324932098389,0.09168484061956406
-0.8648536205291748,1.4824687242507935,0.09174084663391113
-0.8747656941413879,1.4767451286315918,0.09005771577358246
-0.8810403943061829,1.4640178680419922,0.08790066838264465
-0.8868160247802734,1.45149564743042,0.08574618399143219
-0.8840256929397583,1.4258307218551636,0.08279810845851898
-0.901999294757843,1.433109164237976,0.08172937482595444
-0.9035632014274597,1.4137418270111084,0.07910508662462234
-0.8956940174102783,1.3817869424819946,0.07578366249799728
-0.8982058763504028,1.366268515586853,0.07338257133960724
-0.9490603804588318,1.4216291904449463,0.07457715272903442
-2.444288969039917,3.6096417903900146,0.1848221868276596
-1.590293526649475,2.3168389797210693,0.1156688705086708
-1.570694088935852,2.2546520233154297,0.10938284546136856
-1.3414642810821533,1.934707522392273,-0.07492293417453766
-1.452988862991333,2.1279470920562744,-0.08598078042268753
-1.2873269319534302,1.9146597385406494,-0.0804525837302208
-1.1543300151824951,1.7451413869857788,-0.07611341774463654
-1.1972777843475342,1.838219165802002,-0.0829024463891983
-1.1880378723144531,1.8533440828323364,-0.0862617939710617
-1.3116028308868408,2.0798943042755127,-0.0997566506266594
-1.2970279455184937,2.0888595581054688,-0.10294745117425919
-2.1385209560394287,3.6763930320739746,-0.19957289099693298
-0.8856407403945923,1.5743944644927979,-0.08907228708267212
-1.7073582410812378,3.085930109024048,-0.1780165731906891
-1.919550895690918,3.5299243927001953,-0.20738650858402252
-1.6511098146438599,3.089409828186035,-0.18474890291690826
-1.6095272302627563,3.062659978866577,-0.18622146546840668
-1.714866042137146,3.3198068141937256,-0.20514510571956635
-1.6319490671157837,3.2174127101898193,-0.20198825001716614
-1.5879968404769897,3.1868910789489746,-0.20308932662010193
-1.5468140840530396,3.159156084060669,-0.20423193275928497
-1.4988281726837158,3.1171951293945312,-0.2043280452489853
-1.4661130905151367,3.106637477874756,-0.20638206601142883
-1.4030547142028809,3.0282959938049316,-0.20378001034259796
-1.3750540018081665,3.023768901824951,-0.20607000589370728
-1.3359878063201904,2.9941186904907227,-0.2064964920282364
-1.2892956733703613,2.9463491439819336,-0.20556475222110748
-1.254549503326416,2.922966241836548,-0.2062263786792755
-1.2220289707183838,2.902704954147339,-0.20703566074371338
-1.1727948188781738,2.8427929878234863,-0.20493090152740479
-1.1406139135360718,2.8220629692077637,-0.20549246668815613
-1.1090447902679443,2.800922393798828,-0.20596705377101898
-1.0767797231674194,2.7757115364074707,-0.20607244968414307
-1.043389081954956,2.7466063499450684,-0.20581161975860596
-1.0110867023468018,2.7211015224456787,-0.20571814477443695
-0.9782981872558594,2.6914660930633545,-0.20523881912231445
-0.9451525211334229,2.6576712131500244,-0.2043590247631073
-0.926624596118927,2.6640186309814453,-0.206548273563385
-0.8950883746147156,2.6335065364837646,-0.20574058592319489
-0.8636725544929504,2.6028032302856445,-0.20490188896656036
-0.8345612287521362,2.575300455093384,-0.2042331099510193
-0.800125241279602,2.528916597366333,-0.20201745629310608
-0.7799991369247437,2.5268983840942383,-0.20325519144535065
-0.7496656775474548,2.4912166595458984,-0.20169025659561157
-0.7297807931900024,2.488858699798584,-0.2028050571680069
-0.7078484892845154,2.4788496494293213,-0.2032933086156845
-0.6770051121711731,2.4348106384277344,-0.20094530284404755
-0.6577282547950745,2.431896924972534,-0.20183509588241577
-0.6345338821411133,2.4137799739837646,-0.20144259929656982
-0.6175675392150879,2.4180538654327393,-0.20290803909301758
-0.5929393768310547,2.392010450363159,-0.201834574341774
-0.5780284404754639,2.403548002243042,-0.20387519896030426
-0.5513058304786682,2.3657608032226562,-0.20160247385501862
-0.5294301509857178,2.346707582473755,-0.20091083645820618
-0.5163467526435852,2.3654544353485107,-0.2034512758255005
-0.48750895261764526,2.3118200302124023,-0.19977375864982605
-0.46974125504493713,2.307454824447632,-0.20023636519908905
-0.4534628391265869,2.3106186389923096,-0.20127485692501068
-0.4328467845916748,2.2907180786132812,-0.20030568540096283
-0.4154898524284363,2.2859303951263428,-0.20064930617809296
-0.395295113325119,2.2657196521759033,-0.19965068995952606
-0.37682366371154785,2.2530057430267334,-0.19918373227119446
-0.3579062819480896,2.2363121509552,-0.19831614196300507
-0.3316359221935272,2.16945481300354,-0.19298410415649414
-0.318831205368042,2.187033176422119,-0.19515104591846466
-0.3119264245033264,2.250823736190796,-0.2014840990304947
-0.29314208030700684,2.2297422885894775,-0.20008470118045807
-0.2775285840034485,2.2316818237304688,-0.20072853565216064
-0.2565024197101593,2.187136650085449,-0.1971900314092636
-0.2412639707326889,2.1888136863708496,-0.1978173702955246
-0.22439861297607422,2.174906015396118,-0.1970430165529251
-0.20704570412635803,2.157042980194092,-0.19575898349285126
-0.1926228106021881,2.166149377822876,-0.19691161811351776
-0.17683136463165283,2.1596484184265137,-0.19665467739105225
-0.1606152057647705,2.145270586013794,-0.19568514823913574
-0.14408127963542938,2.1230101585388184,-0.19399987161159515
-0.12989762425422668,2.1394896507263184,-0.1956884115934372
-0.11451493948698044,2.1325526237487793,-0.19524149596691132
-0.09856484085321426,2.1099603176116943,-0.19336722791194916
-0.08449801057577133,2.1261188983917236,-0.19505277276039124
-0.06920883804559708,2.1110804080963135,-0.19387787580490112
-0.05365396663546562,2.0881776809692383,-0.1918247938156128
-0.039260752499103546,2.096270799636841,-0.19262726604938507
-0.024684123694896698,2.096485137939453,-0.19271515309810638
-0.010050160810351372,2.0849287509918213,-0.19172996282577515
0.004453438799828291,2.0966105461120605,-0.19287914037704468
0.019285568967461586,2.096534490585327,-0.19279463589191437
0.03371831402182579,2.088578939437866,-0.19199660420417786
0.04823921620845795,2.088301658630371,-0.19191385805606842
0.06299162656068802,2.0956995487213135,-0.1925455629825592
0.0775405541062355,2.0952210426330566,-0.1924462616443634
0.09241843223571777,2.102429151535034,-0.1928943395614624
0.10686284303665161,2.0939793586730957,-0.19191159307956696
0.11983147263526917,2.066025972366333,-0.18915732204914093
0.13697519898414612,2.107867479324341,-0.19280080497264862
0.15108764171600342,2.0991287231445312,-0.19180433452129364
0.1656290739774704,2.0980703830718994,-0.1913774460554123
0.1824173480272293,2.1201460361480713,-0.19306080043315887
0.19497834146022797,2.095625162124634,-0.1905151903629303
0.21108058094978333,2.109743595123291,-0.19149267673492432
0.2249073088169098,2.1005308628082275,-0.19033183157444
0.2429550290107727,2.129903554916382,-0.1925271898508072
0.25418898463249207,2.0972981452941895,-0.18912146985530853
0.2736900746822357,2.134129524230957,-0.19199104607105255
0.29166457056999207,2.155362844467163,-0.1934525966644287
0.303336501121521,2.1302313804626465,-0.19072404503822327
0.32320886850357056,2.1627917289733887,-0.19304151833057404
0.3353950083255768,2.1413156986236572,-0.19053009152412415
0.35025906562805176,2.1390044689178467,-0.1897457093000412
0.36514347791671753,2.1365833282470703,-0.18895936012268066
0.3860999345779419,2.1685547828674316,-0.19115768373012543
0.4038739502429962,2.1812331676483154,-0.19153907895088196
0.4159616231918335,2.1631948947906494,-0.18923215568065643
0.43734243512153625,2.19081974029541,-0.19090533256530762
0.4494297206401825,2.1725616455078125,-0.18859584629535675
0.4611741304397583,2.1542701721191406,-0.1862303763628006
0.47176986932754517,2.1321423053741455,-0.1834781914949417
0.5106960535049438,2.235200881958008,-0.19147342443466187
0.5301116704940796,2.2467801570892334,-0.1915666162967682
0.543912947177887,2.235567808151245,-0.18973864614963531
0.5669072866439819,2.2620794773101807,-0.19100195169448853
0.5843693614006042,2.2657876014709473,-0.19028571248054504
0.6039799451828003,2.276870012283325,-0.19018259644508362
0.6231773495674133,2.283918619155884,-0.1897115856409073
0.6453949809074402,2.3021292686462402,-0.190178781747818
0.6676027178764343,2.320237398147583,-0.19048289954662323
0.6856706142425537,2.323211908340454,-0.18953394889831543
0.7017410397529602,2.3185369968414307,-0.18795205652713776
0.7308908104896545,2.3545422554016113,-0.18962477147579193
0.7448235750198364,2.342132568359375,-0.1873699575662613
0.7680591940879822,2.3593456745147705,-0.18739421665668488
0.7940075397491455,2.3837482929229736,-0.18797017633914948
0.8219233751296997,2.4114813804626465,-0.18875311315059662
0.8438515067100525,2.420548677444458,-0.1880563199520111
0.8659319877624512,2.4294416904449463,-0.18721002340316772
0.8877939581871033,2.4382834434509277,-0.18634173274040222
0.9303778409957886,2.501652240753174,-0.18957781791687012
0.950570821762085,2.502546787261963,-0.1880195140838623
0.973503828048706,2.510601282119751,-0.18696101009845734
1.0123295783996582,2.5583410263061523,-0.1887049823999405
1.038459062576294,2.5732481479644775,-0.18800991773605347
1.0682708024978638,2.5949389934539795,-0.18773604929447174
1.0999237298965454,2.6199417114257812,-0.1876690536737442
1.1299324035644531,2.6412711143493652,-0.18719035387039185
1.129399061203003,2.5907297134399414,-0.18159635365009308
1.1473056077957153,2.583028793334961,-0.17903661727905273
1.1652896404266357,2.575143337249756,-0.17645786702632904
1.1811277866363525,2.563805103302002,-0.17358510196208954
1.2132601737976074,2.5877461433410645,-0.17305511236190796
1.2313271760940552,2.5793840885162354,-0.17026332020759583
1.3549503087997437,2.7883777618408203,-0.18164587020874023
1.453386664390564,2.9401071071624756,-0.18891462683677673
1.4783188104629517,2.94096040725708,-0.1863066852092743
1.5197821855545044,2.9726250171661377,-0.1855463832616806
1.4738906621932983,2.8341307640075684,-0.17421285808086395
1.4459712505340576,2.7344632148742676,-0.16538549959659576
1.4420255422592163,2.683716058731079,-0.1596779227256775
1.445558786392212,2.64650297164917,-0.154759481549263
1.4583176374435425,2.626307249069214,-0.15085190534591675
1.4604891538619995,2.5895144939422607,-0.1459798514842987
1.4333993196487427,2.50187611579895,-0.13830025494098663
1.438976526260376,2.4718031883239746,-0.13384804129600525
1.4756959676742554,2.495680093765259,-0.13229355216026306
1.4639545679092407,2.4392597675323486,-0.12646843492984772
1.4337546825408936,2.3528029918670654,-0.1191483587026596
1.394941806793213,2.2531511783599854,-0.11124096810817719
1.3910762071609497,2.214324474334717,-0.1065097227692604
1.388956069946289,2.1788699626922607,-0.10197392851114273
1.387148141860962,2.1430749893188477,-0.09735298156738281
1.4099429845809937,2.147005081176758,-0.09453945606946945
1.4198737144470215,2.1312265396118164,-0.09076757729053497
1.42376708984375,2.1052560806274414,-0.08645205944776535
1.4332090616226196,2.0895235538482666,-0.08258537948131561
1.451303482055664,2.086658000946045,-0.07916376739740372
1.452317237854004,2.0574874877929688,-0.0745478942990303
1.4611680507659912,2.041754961013794,-0.07040528208017349
1.4610605239868164,2.0130887031555176,-0.0657273530960083
1.47919762134552,2.0096383094787598,-0.06173870339989662
2.110138177871704,2.977001667022705,0.15618164837360382
2.0836896896362305,2.985746383666992,0.1617504209280014
2.5884265899658203,3.770272970199585,0.21052460372447968
3.1668970584869385,4.6835832595825195,0.26865798234939575
3.1425769329071045,4.722908973693848,0.27782365679740906
3.1111104488372803,4.75254487991333,0.2862856686115265
3.098944902420044,4.80651330947876,0.2957861125469208
1.6403757333755493,2.585660934448242,0.16239790618419647
1.6161936521530151,2.591398239135742,0.16604124009609222
1.5898298025131226,2.5891292095184326,0.16884881258010864
2.9952542781829834,4.956752300262451,0.3288208544254303
2.9835896492004395,5.022379398345947,0.3386465907096863
2.945035219192505,5.0401153564453125,0.34509554505348206
2.8566534519195557,4.969208240509033,0.34528258442878723
2.783785581588745,4.9250407218933105,0.34696120023727417
2.7166106700897217,4.890745639801025,0.3491612672805786
2.6574249267578125,4.865076065063477,0.35168665647506714
2.590132713317871,4.821322917938232,0.3527507483959198
2.541419267654419,4.815943717956543,0.3564566671848297
2.471482038497925,4.768551826477051,0.3568694293498993
2.4092206954956055,4.730056285858154,0.3576991558074951
2.3534281253814697,4.7011027336120605,0.3591272234916687
2.312589168548584,4.70359992980957,0.36278292536735535
1.2274965047836304,2.5444860458374023,0.19810418784618378
1.212468147277832,2.560115098953247,0.20110684633255005
1.1896134614944458,2.55774188041687,0.20265011489391327
1.1715610027313232,2.5658743381500244,0.20500139892101288
1.1574784517288208,2.5848865509033203,0.208130344748497
1.1478770971298218,2.6145269870758057,0.21214623749256134
2.06577205657959,4.797744274139404,0.3922092020511627
2.050424575805664,4.854773998260498,0.3997533917427063
2.0260531902313232,4.894193649291992,0.40574851632118225
1.9961796998977661,4.922951698303223,0.41076573729515076
1.957585096359253,4.9297285079956055,0.4139586091041565
2.410950183868408,6.1989426612854,0.5237817764282227
2.3482465744018555,6.164275646209717,0.524032711982727
2.291802406311035,6.14772891998291,0.525546133518219
2.267202615737915,6.218685150146484,0.5344582200050354
2.184457302093506,6.128133296966553,0.5294761657714844
2.1267404556274414,6.102715969085693,0.5300469398498535
2.047719955444336,6.010189056396484,0.5246962904930115
1.9925110340118408,5.9873809814453125,0.5251564383506775
1.928775668144226,5.938365459442139,0.5231601595878601
1.9035314321517944,6.007472038269043,0.5315918922424316
1.8919203281402588,6.120913982391357,0.5439948439598083
1.8705633878707886,6.204442024230957,0.5537912249565125
1.8333888053894043,6.239568710327148,0.5591837167739868
1.7886425256729126,6.252257823944092,0.5623528361320496
1.7594009637832642,6.320877552032471,0.5706026554107666
1.7372454404830933,6.415455341339111,0.5812307000160217
1.6966314315795898,6.446145534515381,0.5861499905586243
1.644845724105835,6.431154727935791,0.586907148361206
1.5857905149459839,6.389606952667236,0.5848311185836792
0.8018761873245239,3.3326683044433594,0.3059317469596863
1.4670841693878174,6.293622970581055,0.5794506072998047
1.4096144437789917,6.246689319610596,0.5768424868583679
1.362746000289917,6.240914821624756,0.5780152082443237
1.3221122026443481,6.265328884124756,0.5818507671356201
1.261309027671814,6.194303512573242,0.5765773057937622
1.2045161724090576,6.138019561767578,0.5726757645606995
1.1577261686325073,6.130982875823975,0.5733882188796997
1.1163771152496338,6.146358966827393,0.5761886239051819
1.0709208250045776,6.138453006744385,0.5768308043479919
1.0180925130844116,6.088122844696045,0.5732054114341736
0.9749588966369629,6.0950236320495605,0.574851930141449
0.9263991713523865,6.070961952209473,0.5736183524131775
0.8733750581741333,6.004000663757324,0.5683110952377319
0.8327082991600037,6.0174784660339355,0.5706298351287842
0.7812025547027588,5.949711799621582,0.565261721611023
0.7384428381919861,5.94721794128418,0.5657344460487366
0.5881052017211914,5.025148868560791,0.4785979688167572
0.5601333975791931,5.10258674621582,0.4865931570529938
0.5301656126976013,5.160426616668701,0.49274104833602905
0.394613653421402,4.122598171234131,0.39416706562042236
0.36178553104400635,4.078688621520996,0.3905048370361328
0.34233465790748596,4.1934733390808105,0.4017712473869324
0.3118394911289215,4.1880035400390625,0.4015406370162964
0.2795657515525818,4.147364139556885,0.39794954657554626
0.2523563802242279,4.176330089569092,0.401052862405777
0.4131968915462494,7.7307353019714355,0.7430173754692078
0.3615829646587372,7.77994441986084,0.7484090924263
0.3047255873680115,7.743429660797119,0.7450453639030457
0.24949997663497925,7.710357666015625,0.7420453429222107
0.19445547461509705,7.6652326583862305,0.7379194498062134
0.1406508982181549,7.6391520500183105,0.7356594800949097
0.08761020749807358,7.639909744262695,0.7360182404518127
0.03339926525950432,7.593647003173828,0.7318618297576904
-0.019369443878531456,7.570384502410889,0.729423463344574
-0.07180771231651306,7.554533004760742,0.727735698223114
-0.12404169887304306,7.534430503845215,0.725674033164978
-0.1754656881093979,7.494533061981201,0.721741795539856
-0.22689171135425568,7.469830513000488,0.7193083167076111
-0.27868857979774475,7.440860271453857,0.7164803743362427
-0.33087319135665894,7.454359531402588,0.71725994348526
-0.2756909132003784,5.370534896850586,0.516403079032898
-0.31647637486457825,5.430656433105469,0.5218547582626343
-0.35220229625701904,5.39733362197876,0.5183485746383667
-0.38927483558654785,5.379242897033691,0.5163280963897705
-0.4254275858402252,5.360953330993652,0.5143069624900818
