X,Y,Z
-0.303612619638443,5.075571537017822,0.30443519353866577
-0.2876599133014679,4.306912422180176,0.25811687111854553
-0.3158232271671295,4.273680210113525,0.2559216022491455
-0.34620794653892517,4.27916955947876,0.25606197118759155
-0.3764391839504242,4.284474849700928,0.25602206587791443
-0.4016353189945221,4.235217571258545,0.25272437930107117
-0.4257318675518036,4.181942462921143,0.2492075264453888
-0.4501916468143463,4.132343769073486,0.2459220588207245
-0.473934143781662,4.0865397453308105,0.24288682639598846
-0.49557048082351685,4.02900505065918,0.23913663625717163
-0.5177016258239746,3.983008861541748,0.2359519749879837
-0.539792537689209,3.940758228302002,0.23300884664058685
-0.5611926913261414,3.894473075866699,0.22984056174755096
-0.5836082100868225,3.859666585922241,0.2273707091808319
-0.6049193739891052,3.8208916187286377,0.22468562424182892
-0.6249181032180786,3.778193235397339,0.22169773280620575
-0.6455013751983643,3.7431232929229736,0.21909627318382263
-0.6662864089012146,3.711794137954712,0.21673312783241272
-0.6837000250816345,3.661076068878174,0.21324606239795685
-0.7031607627868652,3.6256587505340576,0.21067652106285095
-0.7245049476623535,3.6016111373901367,0.2087840437889099
-0.7395750284194946,3.5508079528808594,0.20522893965244293
-0.756379246711731,3.511420965194702,0.20234619081020355
-0.7756538987159729,3.4832961559295654,0.2001209706068039
-0.7962570786476135,3.4626903533935547,0.19834555685520172
-0.8112752437591553,3.4191813468933105,0.1952751874923706
-0.8320435881614685,3.4021964073181152,0.1936822533607483
-0.8494182825088501,3.373830795288086,0.19137530028820038
-0.8629688620567322,3.3301711082458496,0.18820908665657043
-0.8787239789962769,3.2978577613830566,0.18571358919143677
-0.8995944857597351,3.2841951847076416,0.18427330255508423
-0.9161214232444763,3.2553744316101074,0.18199661374092102
-0.9360105991363525,3.2416558265686035,0.18044114112854004
-0.9517271518707275,3.212738513946533,0.17803899943828583
-0.9655512571334839,3.180147647857666,0.17546799778938293
-0.985316276550293,3.1659727096557617,0.17391011118888855
-0.9931083917617798,3.114501476287842,0.17032359540462494
-1.0142829418182373,3.1077358722686768,0.16912086308002472
-1.0170732736587524,3.0452589988708496,0.164861261844635
-1.037597417831421,3.0383927822113037,0.1636510044336319
-1.0611279010772705,3.0385875701904297,0.1628069430589676
-1.0664527416229248,2.9871251583099365,0.15920889377593994
-1.0840836763381958,2.972536563873291,0.1575307697057724
-1.097206473350525,2.946981430053711,0.155235156416893
-1.1117442846298218,2.9249086380004883,0.15312518179416656
-1.123407006263733,2.895423412322998,0.15063676238059998
-1.1220062971115112,2.833181142807007,0.14646589756011963
-1.1383358240127563,2.8183159828186035,0.14472629129886627
-1.1512737274169922,2.796255350112915,0.14259889721870422
-1.149161696434021,2.7380449771881104,0.1386420577764511
-1.168084979057312,2.7300965785980225,0.13723959028720856
-1.1464645862579346,2.6289896965026855,0.13119132816791534
-1.1640840768814087,2.6213064193725586,0.12976877391338348
-1.1814762353897095,2.613584518432617,0.12833282351493835
-1.2074447870254517,2.6232569217681885,0.12772086262702942
-1.235689401626587,2.636028528213501,0.12722329795360565
-1.2606252431869507,2.6415770053863525,0.12635143101215363
-1.2747684717178345,2.626183271408081,0.12441636621952057
-1.2887625694274902,2.610718011856079,0.12248983234167099
-1.29991614818573,2.587801218032837,0.12017302960157394
-1.3071843385696411,2.557943105697632,0.1175616979598999
-1.304343581199646,2.511186361312866,0.11415670812129974
-1.3025994300842285,2.468116521835327,0.11094978451728821
-1.319172739982605,2.4593729972839355,0.10927878320217133
-1.3306516408920288,2.439927816390991,0.10709856450557709
-1.3434711694717407,2.4240481853485107,0.10502895712852478
-1.3516639471054077,2.4016637802124023,0.10269550234079361
-1.356094479560852,2.3722991943359375,0.1000571921467781
-1.3686902523040771,2.3561062812805176,0.09793734550476074
-1.4002074003219604,2.3739213943481445,0.09718482196331024
-1.4038845300674438,2.344566583633423,0.09445611387491226
-1.4116066694259644,2.321746587753296,0.09198540449142456
-1.440083622932434,2.3318474292755127,0.090769924223423
-1.4426965713500977,2.3027124404907227,0.08800165355205536
-1.4387102127075195,2.263753652572632,0.08489697426557541
-1.4547091722488403,2.2535860538482666,0.0827426165342331
-1.4568238258361816,2.2243447303771973,0.07991132885217667
-1.479660153388977,2.2280681133270264,0.0782553032040596
-1.486066222190857,2.2050693035125732,0.07554885745048523
-1.4920756816864014,2.18218994140625,0.07281456142663956
-1.4927830696105957,2.153334856033325,0.06986001133918762
-1.511793851852417,2.149663209915161,0.06764334440231323
-1.5010409355163574,2.1047189235687256,0.06408613175153732
-1.5004241466522217,2.0763919353485107,0.061079468578100204
-1.5146818161010742,2.066091537475586,0.0584036223590374
-1.5136522054672241,2.03780460357666,0.05521119385957718
-1.5240947008132935,2.15102481842041,-0.05012742057442665
-1.5083897113800049,2.1620025634765625,-0.05283421650528908
-1.491873025894165,2.173365354537964,-0.05553063750267029
-1.4895466566085815,2.2032368183135986,-0.05855598300695419
-1.472908854484558,2.214326858520508,-0.06105218827724457
-1.4651894569396973,2.238068103790283,-0.06383966654539108
-1.453590989112854,2.254849672317505,-0.06634558737277985
-1.4512327909469604,2.288731813430786,-0.06936352699995041
-1.4240005016326904,2.282723903656006,-0.07114138454198837
-1.4263414144515991,2.322537660598755,-0.07424551248550415
-1.417126178741455,2.346367359161377,-0.07684721052646637
-1.4040337800979614,2.3632428646087646,-0.07920040190219879
-1.3835270404815674,2.3661954402923584,-0.08102472871541977
-1.3618444204330444,2.369666576385498,-0.08286397159099579
-1.351966142654419,2.393198251724243,-0.08537748456001282
-1.3523308038711548,2.4332034587860107,-0.08841539174318314
-1.325562596321106,2.425596237182617,-0.08971095085144043
-1.3077369928359985,2.435182571411133,-0.09160972386598587
-1.2990469932556152,2.461850166320801,-0.0941586047410965
-1.292647361755371,2.4915647506713867,-0.09678290784358978
-1.2851651906967163,2.5216798782348633,-0.09940943121910095
-1.2929121255874634,2.5832955837249756,-0.10331729054450989
-1.2884197235107422,2.6203131675720215,-0.10624220222234726
-1.2765721082687378,2.6433820724487305,-0.10863304883241653
-1.237274408340454,2.610185384750366,-0.10861773043870926
-1.2380386590957642,2.6615021228790283,-0.11212509125471115
-1.1933984756469727,2.61323881149292,-0.11138946563005447
-1.2006959915161133,2.6784136295318604,-0.11548250913619995
-1.16248619556427,2.644062042236328,-0.1152181550860405
-1.1708258390426636,2.716982841491699,-0.1196674332022667
-1.1683872938156128,2.7646329402923584,-0.12300386279821396
-1.1520740985870361,2.779851198196411,-0.12491252273321152
-1.1408923864364624,2.8096795082092285,-0.1274293065071106
-1.1278198957443237,2.835893392562866,-0.12979643046855927
-1.1243627071380615,2.887510299682617,-0.13335734605789185
-1.118158221244812,2.931654214859009,-0.1365717053413391
-1.1001392602920532,2.9467267990112305,-0.13839903473854065
-1.0883997678756714,2.9801130294799805,-0.14106564223766327
-1.0723481178283691,3.0024373531341553,-0.14322827756404877
-1.056152105331421,3.0246407985687256,-0.14539708197116852
-1.0424996614456177,3.0540544986724854,-0.14789889752864838
-1.024309515953064,3.072479724884033,-0.14979101717472076
-1.0143615007400513,3.1167726516723633,-0.152967631816864
-0.9853119254112244,3.1014559268951416,-0.1532140076160431
-0.9817896485328674,3.1679251194000244,-0.15752741694450378
-0.9650545716285706,3.193384885787964,-0.15974663197994232
-0.9422867894172668,3.2001147270202637,-0.1609918475151062
-0.9302259087562561,3.2441864013671875,-0.16413456201553345
-0.9097341299057007,3.2580323219299316,-0.16574737429618835
-0.8963109254837036,3.298089027404785,-0.1687110811471939
-0.8805205225944519,3.3345720767974854,-0.17142094671726227
-0.8588078022003174,3.3482275009155273,-0.17294619977474213
-0.8389158248901367,3.3692922592163086,-0.1748654544353485
-0.82097327709198,3.3977365493774414,-0.17717263102531433
-0.799047589302063,3.4109153747558594,-0.17868569493293762
-0.7762167453765869,3.424130916595459,-0.18009129166603088
-0.39604195952415466,1.8061946630477905,-0.09536991268396378
-0.39546534419059753,1.8661506175994873,-0.09892301261425018
-0.38401293754577637,1.8764768838882446,-0.099860280752182
-0.3580399453639984,1.8140289783477783,-0.09689899533987045
-0.34862858057022095,1.8356941938400269,-0.09837210178375244
-0.3335442543029785,1.8265762329101562,-0.09819655865430832
-0.3166797161102295,1.8057950735092163,-0.09739057719707489
-0.3080125153064728,1.8310078382492065,-0.099066823720932
-0.29833221435546875,1.8523452281951904,-0.10051935911178589
-0.588527500629425,3.828338861465454,-0.20825424790382385
-0.569557249546051,3.8863677978515625,-0.21192413568496704
-0.5482890605926514,3.9327104091644287,-0.21497808396816254
-0.5249701738357544,3.967329263687134,-0.21740949153900146
-0.5030972957611084,4.017300128936768,-0.22064915299415588
-0.4808359444141388,4.071056365966797,-0.2239905446767807
-0.4560432732105255,4.1131205558776855,-0.22671553492546082
-0.43250802159309387,4.166611194610596,-0.23008176684379578
-0.40659230947494507,4.200537204742432,-0.2323838323354721
-0.3819262385368347,4.253731727600098,-0.2357245832681656
-0.34964239597320557,4.225176811218262,-0.2343997061252594
-0.3193103075027466,4.223643779754639,-0.23458808660507202
-0.2927471101284027,4.268550395965576,-0.23736517131328583
-0.3117273449897766,5.060710430145264,-0.2817629277706146
-0.2741628885269165,5.019894599914551,-0.27981340885162354
-0.23795971274375916,4.998300075531006,-0.2787337005138397
-0.20243960618972778,4.999852657318115,-0.27896010875701904
-0.16679711639881134,4.977741718292236,-0.277876615524292
-0.13213790953159332,4.978769779205322,-0.2780974805355072
-0.09713395684957504,4.960059642791748,-0.27722254395484924
-0.0624493733048439,4.952817440032959,-0.2767726480960846
-0.027251288294792175,4.937535762786865,-0.2758867144584656
0.00706436624750495,4.890804767608643,-0.273257851600647
0.04109916463494301,4.898438453674316,-0.27367985248565674
0.07500110566616058,4.890235900878906,-0.27323025465011597
0.10854662209749222,4.870112419128418,-0.2719283699989319
0.1418832689523697,4.853661060333252,-0.2708216905593872
0.1755598932504654,4.8369622230529785,-0.26971256732940674
0.20790190994739532,4.804462432861328,-0.2677394449710846
0.24053986370563507,4.787331581115723,-0.2666374742984772
0.2737500071525574,4.7855706214904785,-0.2662260830402374
0.3056691586971283,4.764122486114502,-0.264675498008728
0.33983683586120605,4.769654273986816,-0.2646312415599823
0.37115272879600525,4.74387264251709,-0.2628689706325531
0.4014643132686615,4.710114479064941,-0.2606811225414276
0.43196743726730347,4.683947563171387,-0.25879356265068054
0.4636000394821167,4.673120498657227,-0.25768959522247314
0.4981152415275574,4.685295581817627,-0.25785741209983826
0.527534544467926,4.654634475708008,-0.2556883692741394
0.5598153471946716,4.650899410247803,-0.25501352548599243
0.5890182256698608,4.623743534088135,-0.2529577910900116
0.6198301911354065,4.61189079284668,-0.25165560841560364
0.649939775466919,4.592034816741943,-0.24992142617702484
0.6806265115737915,4.579748630523682,-0.24862106144428253
0.710094153881073,4.559529781341553,-0.24690288305282593
0.741666853427887,4.554553508758545,-0.2459298074245453
0.7710208892822266,4.537864685058594,-0.24422670900821686
0.7995396852493286,4.5171403884887695,-0.2423216700553894
0.8228980302810669,4.465412139892578,-0.23875722289085388
0.7204265594482422,3.762338876724243,-0.2005172073841095
0.74647057056427,3.757310152053833,-0.19954106211662292
0.8343831300735474,4.054004669189453,-0.2144487053155899
0.9443191289901733,4.433596611022949,-0.23360712826251984
0.9755447506904602,4.426898002624512,-0.23232008516788483
1.0063048601150513,4.420073986053467,-0.2310502678155899
1.0332096815109253,4.397904872894287,-0.22891098260879517
1.0651460886001587,4.39838171005249,-0.22787296772003174
1.0933235883712769,4.383495330810547,-0.22605089843273163
1.1212998628616333,4.364415168762207,-0.22399576008319855
1.145702600479126,4.333938121795654,-0.22138775885105133
1.1693662405014038,4.303438663482666,-0.21869903802871704
1.2029608488082886,4.310454845428467,-0.2178572565317154
1.2302591800689697,4.294707775115967,-0.21587301790714264
1.2517162561416626,4.2560601234436035,-0.21272125840187073
1.2857922315597534,4.262275218963623,-0.21184363961219788
1.3125540018081665,4.246028423309326,-0.20974068343639374
1.3414087295532227,4.237088203430176,-0.2079775631427765
1.365458607673645,4.213080883026123,-0.205485999584198
1.3940197229385376,4.199694633483887,-0.20347826182842255
1.424435019493103,4.193685054779053,-0.20184984803199768
1.4516024589538574,4.1803202629089355,-0.19976435601711273
1.474738597869873,4.155745506286621,-0.1971587836742401
1.5032234191894531,4.145617961883545,-0.19523784518241882
1.5293521881103516,4.127819061279297,-0.19294597208499908
1.5553961992263794,4.109827041625977,-0.1905706226825714
1.5831375122070312,4.099315643310547,-0.18851208686828613
1.605116844177246,4.074079990386963,-0.1857888251543045
1.6275429725646973,4.048448085784912,-0.18302668631076813
1.6645926237106323,4.058772087097168,-0.1818908005952835
1.6923705339431763,4.047369003295898,-0.17964483797550201
1.9491006135940552,4.574574947357178,-0.20111392438411713
2.0161547660827637,4.643568515777588,-0.20215237140655518
2.0499887466430664,4.633114337921143,-0.19967439770698547
2.0798027515411377,4.615642070770264,-0.1968320608139038
2.111262798309326,4.601454257965088,-0.19406436383724213
2.142362117767334,4.587172985076904,-0.19131985306739807
2.1758928298950195,4.575802803039551,-0.18864503502845764
2.207073211669922,4.560963153839111,-0.1857844889163971
2.2409112453460693,4.553253650665283,-0.18316134810447693
2.2632296085357666,4.520503044128418,-0.17948991060256958
2.291107177734375,4.497797012329102,-0.17619356513023376
2.330734968185425,4.499503135681152,-0.17382599413394928
2.367889642715454,4.497835636138916,-0.17127640545368195
1.7386581897735596,3.249593734741211,-0.12192512303590775
1.7463310956954956,3.210052013397217,-0.11856868863105774
1.7325010299682617,3.1331183910369873,-0.11382804065942764
1.7493560314178467,3.1148693561553955,-0.11127924174070358
1.8148986101150513,3.181041955947876,-0.11166245490312576
1.345434308052063,2.3205790519714355,-0.07996411621570587
0.952708899974823,1.6185306310653687,-0.05470694974064827
0.9534798264503479,1.595418095588684,-0.05284835025668144
0.9685376882553101,1.5955085754394531,-0.05172942206263542
0.9793258905410767,1.588952898979187,-0.05038154125213623
0.9855135679244995,1.5759611129760742,-0.048831671476364136
1.0065745115280151,1.5858113765716553,-0.04794459044933319
1.013439416885376,1.572192907333374,-0.046279069036245346
1.0214457511901855,1.562381386756897,-0.04474403336644173
1.0339617729187012,1.5588568449020386,-0.043356310576200485
1.0490554571151733,1.5582069158554077,-0.041983168572187424
1.0545789003372192,1.5450674295425415,-0.040270935744047165
2.56354022026062,3.7019968032836914,-0.09301955252885818
2.593172550201416,3.690950393676758,-0.08914065361022949
2.6165261268615723,3.674527406692505,-0.08512946963310242
2.6276752948760986,3.6377909183502197,-0.08041755110025406
2.6280264854431152,3.5893361568450928,-0.07541598379611969
2.692927360534668,3.6289262771606445,-0.07210665196180344
2.6359407901763916,3.6940488815307617,0.09437471628189087
2.5975427627563477,3.697199821472168,0.098231740295887
2.5889601707458496,3.7459046840667725,0.1032581552863121
1.0572131872177124,1.5526224374771118,0.044185392558574677
1.0627989768981934,1.5865024328231812,0.04653241112828255
1.0337761640548706,1.5682337284088135,0.0473095141351223
1.0310701131820679,1.588623285293579,0.04918478801846504
1.035767674446106,1.6227043867111206,0.051471367478370667
1.007139801979065,1.6038107872009277,0.05204594507813454
0.9877421855926514,1.5974518060684204,0.05293363705277443
0.9839226603507996,1.61807119846344,0.05468526855111122
0.9675865173339844,1.6187562942504883,0.0557812862098217
0.97607421875,1.6590746641159058,0.05817335471510887
1.3492674827575684,2.331796646118164,0.0831398069858551
1.8105213642120361,3.183403968811035,0.11534406989812851
1.7589586973190308,3.1451680660247803,0.11570561677217484
1.7460200786590576,3.1745853424072266,0.11851583421230316
1.7578818798065186,3.252525568008423,0.12308092415332794
1.7484023571014404,3.2929532527923584,0.126271590590477
2.369935989379883,4.540699005126953,0.17629797756671906
2.3239753246307373,4.529210567474365,0.17798694968223572
2.300534963607788,4.567295074462891,0.1815580278635025
2.2668848037719727,4.583981990814209,0.18426108360290527
2.231029987335205,4.5927557945251465,0.18657264113426208
2.1956071853637695,4.6010422706604,0.18884095549583435
2.162000894546509,4.616827964782715,0.19129791855812073
2.131408214569092,4.639521598815918,0.1940375119447708
2.094437599182129,4.647664546966553,0.19616550207138062
2.068382978439331,4.676297664642334,0.1990942358970642
2.025707721710205,4.669328212738037,0.2004324197769165
1.751937985420227,4.119895935058594,0.1782386749982834
1.7070232629776,4.096372127532959,0.17860159277915955
1.6778945922851562,4.108306884765625,0.1804797202348709
1.654951572418213,4.134342193603516,0.1829635053873062
1.6249490976333618,4.146149635314941,0.18469718098640442
1.6032137870788574,4.179615020751953,0.18741320073604584
1.5651153326034546,4.168950080871582,0.18814018368721008
1.535536289215088,4.179858684539795,0.18983538448810577
1.508744239807129,4.197824954986572,0.19179759919643402
1.4810689687728882,4.215872287750244,0.19367779791355133
1.4506409168243408,4.226367473602295,0.19522424042224884
1.4232120513916016,4.243845462799072,0.19708432257175446
1.393104910850525,4.253752708435059,0.19860714673995972
1.3654667139053345,4.270832538604736,0.2004028856754303
1.3347851037979126,4.280456066131592,0.2017771452665329
1.3085750341415405,4.304793357849121,0.20385859906673431
1.2804125547409058,4.321329593658447,0.2055693119764328
1.2524724006652832,4.3375701904296875,0.20726735889911652
1.2246532440185547,4.357604503631592,0.20912419259548187
1.1935385465621948,4.3661723136901855,0.21031919121742249
1.160319209098816,4.366985321044922,0.21115104854106903
1.1352747678756714,4.397688865661621,0.21343331038951874
1.104650616645813,4.40542459487915,0.21460285782814026
1.0807052850723267,4.44343376159668,0.21725903451442719
1.0508314371109009,4.458561420440674,0.2186449021100998
1.017366647720337,4.4582624435424805,0.21928445994853973
0.984001636505127,4.457704544067383,0.21991921961307526
0.9562140107154846,4.479658603668213,0.22166325151920319
0.8079233169555664,3.920707941055298,0.19460174441337585
0.7550979852676392,3.7999987602233887,0.18907855451107025
0.7259438633918762,3.793724298477173,0.18920865654945374
0.8353115916252136,4.539302349090576,0.2269328385591507
0.8049111366271973,4.552673816680908,0.2281445860862732
0.7778814435005188,4.588988304138184,0.23052878677845
0.7470581531524658,4.601973056793213,0.23168927431106567
0.7146201729774475,4.607089042663574,0.23233914375305176
0.6843852996826172,4.627420425415039,0.23376980423927307
0.6528571844100952,4.639820575714111,0.23481285572052002
0.6215229630470276,4.6558966636657715,0.23605777323246002
0.5900512933731079,4.667820930480957,0.23709845542907715
0.560060441493988,4.69506311416626,0.23879390954971313
0.5278454422950745,4.706621170043945,0.23966428637504578
0.49549540877342224,4.717957496643066,0.24053625762462616
0.4640524387359619,4.736809730529785,0.2418021559715271
0.43190112709999084,4.755494117736816,0.24307788908481598
0.3994327783584595,4.766138553619385,0.2439209371805191
0.36752864718437195,4.7882537841796875,0.24519819021224976
0.3339776396751404,4.790696620941162,0.24548068642616272
0.30138662457466125,4.808477878570557,0.24656172096729279
0.2690449357032776,4.841638565063477,0.24844734370708466
0.2368297278881073,4.8745527267456055,0.2503317892551422
0.20285843312740326,4.87607479095459,0.2505255341529846
0.16876158118247986,4.877368927001953,0.25061994791030884
0.13502824306488037,4.890122413635254,0.2513154447078705
0.10093817114830017,4.922155380249023,0.2530154585838318
0.06714105606079102,4.953938961029053,0.25471463799476624
0.032801900058984756,4.962082862854004,0.25521108508110046
-0.0017102239653468132,4.981698989868164,0.2561596632003784
-0.03652491420507431,5.004978179931641,0.257263720035553
-0.07192907482385635,5.004599571228027,0.25716251134872437
-0.10706333070993423,5.019584655761719,0.25786444544792175
-0.14218884706497192,5.026523113250732,0.2581652104854584
-0.17796018719673157,5.0488104820251465,0.25925663113594055
-0.21295635402202606,5.047470569610596,0.2589605748653412
-0.2478923499584198,5.0458903312683105,0.25866493582725525
-0.2889412045478821,5.141407489776611,0.2633515000343323
-0.27696120738983154,4.383970260620117,0.22438867390155792
-0.30115386843681335,4.292445182800293,0.21955233812332153
-0.3297232687473297,4.274709701538086,0.21844811737537384
-0.3598923087120056,4.280126571655273,0.21842548251152039
-0.3885769844055176,4.261970520019531,0.2172054946422577
-0.4123290181159973,4.200963497161865,0.21382199227809906
-0.4366028904914856,4.151461124420166,0.21103987097740173
-0.46242475509643555,4.121205806732178,0.20925067365169525
-0.4843868017196655,4.0637078285217285,0.2059931755065918
-0.5084314942359924,4.025410175323486,0.2036648541688919
-0.5309801697731018,3.9831700325012207,0.2011602520942688
-0.5482070446014404,3.9060239791870117,0.1969110369682312
-0.5719408988952637,3.8789868354797363,0.19520410895347595
-0.5940943956375122,3.8441033363342285,0.19311636686325073
-0.6090981960296631,3.766716718673706,0.1887664496898651
-0.6348863244056702,3.762488603591919,0.18810972571372986
-0.6546013951301575,3.723494291305542,0.185727059841156
-0.6733939051628113,3.6805176734924316,0.18315821886062622
-0.6960299611091614,3.660451889038086,0.18174394965171814
-0.7114375233650208,3.6058382987976074,0.17857210338115692
-0.7302294969558716,3.5702645778656006,0.17627458274364471
-0.7481593489646912,3.53468918800354,0.17400312423706055
-0.7615659236907959,3.47995662689209,0.17080624401569366
-0.7857369184494019,3.4746158123016357,0.17004279792308807
-0.7992585301399231,3.423504114151001,0.16705340147018433
-0.8220661878585815,3.4141287803649902,0.1659850925207138
-0.8377642035484314,3.3782010078430176,0.1636420041322708
-0.8588326573371887,3.3648946285247803,0.16240820288658142
-0.8702512383460999,3.313612461090088,0.15934807062149048
-0.8861480951309204,3.281153678894043,0.15721188485622406
-0.9048485159873962,3.259895086288452,0.1555577963590622
-0.9269132018089294,3.2537355422973633,0.15459924936294556
-0.9358307123184204,3.2024710178375244,0.15151292085647583
-0.9600651264190674,3.2034831047058105,0.15090587735176086
-0.9696890115737915,3.155749559402466,0.14800980687141418
-0.9823963046073914,3.1191482543945312,0.14561522006988525
-1.0009981393814087,3.1050777435302734,0.14422374963760376
-1.0170373916625977,3.083477258682251,0.1424933671951294
-1.0317986011505127,3.0580310821533203,0.14059217274188995
-1.045413851737976,3.0286917686462402,0.13851343095302582
-1.0663920640945435,3.0214180946350098,0.13744287192821503
-1.0817840099334717,2.999403476715088,0.13562919199466705
-1.0938720703125,2.9701249599456787,0.13351723551750183
-1.0989469289779663,2.9224796295166016,0.13059434294700623
-1.102441430091858,2.8710999488830566,0.12751686573028564
-1.1165409088134766,2.848935127258301,0.12574253976345062
-1.1286627054214478,2.823201894760132,0.12373489886522293
-1.141637921333313,2.801179885864258,0.12192025035619736
-1.1546881198883057,2.7789783477783203,0.12009761482477188
-1.1420767307281494,2.695432662963867,0.11563622206449509
-1.1574515104293823,2.680417060852051,0.11412050575017929
-1.1630796194076538,2.643954038619995,0.11164845526218414
-1.1695741415023804,2.6112284660339355,0.10937272012233734
-1.192349910736084,2.6138367652893066,0.10856263339519501
-1.21377694606781,2.612619161605835,0.10758204758167267
-1.2379262447357178,2.6185991764068604,0.10684902966022491
-1.2758687734603882,2.6524577140808105,0.10720440745353699
-1.2867517471313477,2.6298773288726807,0.10527943074703217
-1.2719541788101196,2.5545222759246826,0.10124009847640991
-1.2858655452728271,2.5388541221618652,0.09957829862833023
-1.2882966995239258,2.5026004314422607,0.0970902070403099
-1.2939248085021973,2.47334361076355,0.0948985144495964
-1.3113758563995361,2.4641919136047363,0.0934162437915802
-1.3190937042236328,2.4379520416259766,0.09130522608757019
-1.338879942893982,2.4361116886138916,0.09007125347852707
-1.3472646474838257,2.4136693477630615,0.088083915412426
-1.3484768867492676,2.3772037029266357,0.08555228263139725
-1.365079641342163,2.367765426635742,0.08397151529788971
-1.3883568048477173,2.372361183166504,0.08287263661623001
-1.4117655754089355,2.3767447471618652,0.08175425231456757
-1.408094882965088,2.333491563796997,0.0789269283413887
-1.4197218418121338,2.317338705062866,0.07702694833278656
-1.434940218925476,2.308002471923828,0.07531648129224777
-1.4377825260162354,2.2786333560943604,0.07295035570859909
-1.4514609575271606,2.2653651237487793,0.07105807960033417
-1.4574966430664062,2.2429373264312744,0.06885939836502075
-1.463287353515625,2.2205350399017334,0.06667510420084
-1.4876809120178223,2.2231452465057373,0.06508921086788177
-1.4626878499984741,2.1552798748016357,0.06148717552423477
-1.5029267072677612,2.1845955848693848,0.0606662854552269
-1.484535574913025,2.126126527786255,0.057266753166913986
-1.4982374906539917,2.1165478229522705,0.055212121456861496
-1.5074275732040405,2.1004602909088135,0.05292743816971779
-1.4989159107208252,2.058478593826294,0.04989893361926079
-1.5116029977798462,2.0492327213287354,0.0476839505136013
-1.5026156902313232,2.104172468185425,-0.0409516878426075
-1.491444706916809,2.121614456176758,-0.04340166226029396
-1.4821498394012451,2.142333984375,-0.04587796702980995
-1.4626034498214722,2.146233558654785,-0.04785025864839554
-1.4853911399841309,2.215634822845459,-0.05130970850586891
-1.4694236516952515,2.2262086868286133,-0.05335629731416702
-1.4530320167541504,2.2368924617767334,-0.05537835508584976
-1.450830101966858,2.270780086517334,-0.057955626398324966
-1.4389172792434692,2.287531614303589,-0.06000974029302597
-1.4162400960922241,2.2878239154815674,-0.061600588262081146
-1.4174184799194336,2.3282904624938965,-0.06427767127752304
-1.4045578241348267,2.3451292514801025,-0.0662829726934433
-1.3878426551818848,2.3550097942352295,-0.06803283095359802
-1.386003017425537,2.3922159671783447,-0.07056352496147156
-1.3532320261001587,2.3749659061431885,-0.07145369052886963
-1.348108172416687,2.4047248363494873,-0.07370884716510773
-1.3376951217651367,2.4283292293548584,-0.07579010725021362
-1.3235019445419312,2.4449267387390137,-0.07764297723770142
-1.30275297164917,2.4471521377563477,-0.07897333800792694
-1.305348515510559,2.4942984580993652,-0.08175509423017502
-1.3121103048324585,2.5523200035095215,-0.08490809798240662
-1.275720477104187,2.5269863605499268,-0.08530859649181366
-1.280638337135315,2.5812342166900635,-0.08833982795476913
-1.2792912721633911,2.6253530979156494,-0.09103803336620331
-1.2466833591461182,2.60636043548584,-0.09153010696172714
-1.2279338836669922,2.6151952743530273,-0.09297720342874527
-1.2129687070846558,2.630720615386963,-0.0946350023150444
-1.2003074884414673,2.6536200046539307,-0.0965559110045433
-1.171568751335144,2.640777349472046,-0.09713103622198105
-1.1681747436523438,2.6848607063293457,-0.09980099648237228
-1.1617069244384766,2.721606969833374,-0.10219783335924149
-1.1590217351913452,2.769313097000122,-0.10500780493021011
-1.1534730195999146,2.8138153553009033,-0.1077064722776413
-1.1302918195724487,2.8147454261779785,-0.10873334109783173
-1.117808222770691,2.840662717819214,-0.11070296913385391
-1.1231873035430908,2.9139244556427,-0.1145411878824234
-1.107733964920044,2.9364795684814453,-0.11634951084852219
-1.0889617204666138,2.951766014099121,-0.11789800971746445
-1.0747963190078735,2.9776628017425537,-0.11984972655773163
-1.0618565082550049,3.0071017742156982,-0.12195198982954025
-1.0456358194351196,3.0292558670043945,-0.12371528148651123
-1.03518807888031,3.0698909759521484,-0.12622767686843872
-1.0226895809173584,3.1069202423095703,-0.12862756848335266
-0.9914366602897644,3.0842037200927734,-0.12852825224399567
-0.9815438389778137,3.128251552581787,-0.13120628893375397
-0.9705891013145447,3.1724629402160645,-0.13383212685585022
-0.953476071357727,3.197972297668457,-0.13568946719169617
-0.9396350979804993,3.2345492839813232,-0.13802410662174225
-0.9230925440788269,3.263606309890747,-0.14006119966506958
-0.902243971824646,3.277484893798828,-0.14139649271965027
-0.8880475759506226,3.3176939487457275,-0.14381957054138184
-0.8664204478263855,3.3314316272735596,-0.1451117992401123
-0.848834753036499,3.3600716590881348,-0.14705578982830048
-0.821284294128418,3.3507986068725586,-0.14735858142375946
-0.4313068985939026,1.8149211406707764,-0.08015314489603043
-0.4184413552284241,1.8179105520248413,-0.0806034505367279
-0.41487187147140503,1.8627138137817383,-0.08291956782341003
-0.3879217803478241,1.8006818294525146,-0.08047395199537277
-0.3672254681587219,1.7651541233062744,-0.07920369505882263
-0.3563436269760132,1.7753273248672485,-0.07992669939994812
-0.3408634066581726,1.7624516487121582,-0.07959882915019989
-0.32842299342155457,1.7647957801818848,-0.0799604207277298
-0.32919418811798096,1.8400076627731323,-0.08363453298807144
-0.311554491519928,1.815349817276001,-0.0827842578291893
-0.30575963854789734,1.8598353862762451,-0.08503488451242447
-0.29994380474090576,1.9081847667694092,-0.0874619111418724
-0.5793665647506714,3.862919569015503,-0.17750389873981476
-0.558047890663147,3.9054505825042725,-0.17991110682487488
-0.5372511744499207,3.9595348834991455,-0.1828780472278595
-0.5125288963317871,3.9863929748535156,-0.18448442220687866
-0.49068257212638855,4.040223121643066,-0.18731676042079926
-0.4694361388683319,4.105569839477539,-0.19070188701152802
-0.4429044723510742,4.128116130828857,-0.1921130269765854
-0.4196217954158783,4.18543004989624,-0.19515764713287354
-0.3938203752040863,4.231027126312256,-0.19756515324115753
-0.3655177354812622,4.249216079711914,-0.1986379623413086
-0.33298608660697937,4.216646194458008,-0.19734658300876617
-0.3061205744743347,4.253875255584717,-0.19933044910430908
-0.32833075523376465,5.054111003875732,-0.2371264100074768
-0.2913099527359009,5.03682279586792,-0.23653247952461243
-0.25446900725364685,5.007551670074463,-0.2352931648492813
-0.21907664835453033,5.001402854919434,-0.23515072464942932
-0.18367601931095123,4.987199306488037,-0.23463955521583557
-0.14899471402168274,4.988345623016357,-0.23486119508743286
-0.1129453256726265,4.954158782958984,-0.23335784673690796
-0.07844080775976181,4.954824447631836,-0.23337310552597046
-0.04397730156779289,4.955249309539795,-0.23338836431503296
-0.009407225996255875,4.924219131469727,-0.2319333702325821
0.02480236627161503,4.916361331939697,-0.231580913066864
0.05932942405343056,4.892653465270996,-0.2304561883211136
0.0931505560874939,4.880427837371826,-0.22971536219120026
0.12629640102386475,4.848465442657471,-0.2280580848455429
0.16024552285671234,4.855278968811035,-0.22823667526245117
0.19300532341003418,4.830665588378906,-0.2269495278596878
0.22547464072704315,4.805830001831055,-0.22566397488117218
0.2589128613471985,4.796346664428711,-0.22493065893650055
0.29047954082489014,4.767191410064697,-0.22328931093215942
0.3234618306159973,4.765084266662598,-0.2229274958372116
0.3548525273799896,4.739388942718506,-0.22147278487682343
0.3877692222595215,4.736826419830322,-0.22111131250858307
0.41904082894325256,4.710682392120361,-0.2195090651512146
0.44934046268463135,4.684394359588623,-0.2178865671157837
0.4808945953845978,4.673439979553223,-0.21699029207229614
0.5129541754722595,4.666129112243652,-0.21627211570739746
0.5436168909072876,4.646966457366943,-0.21501611173152924
0.5763231515884399,4.643054962158203,-0.21434837579727173
0.6063429713249207,4.623521327972412,-0.21291600167751312
0.6360795497894287,4.603800296783447,-0.21148930490016937
0.6668986082077026,4.591583728790283,-0.210416778922081
0.6953091621398926,4.563717842102051,-0.20863936841487885
0.7262048125267029,4.5510382652282715,-0.20746882259845734
0.7568438053131104,4.5421271324157715,-0.2064162939786911
0.7867665886878967,4.529158115386963,-0.20518994331359863
0.8125782012939453,4.492916107177734,-0.2029203623533249
0.7067833542823792,3.758504867553711,-0.16923081874847412
0.7357398867607117,3.768885374069214,-0.16912294924259186
0.7635617256164551,3.771350860595703,-0.1685839146375656
0.9287373423576355,4.430659294128418,-0.19731222093105316
0.9569110870361328,4.412726402282715,-0.19577375054359436
0.9884480237960815,4.409814834594727,-0.19490870833396912
1.0189225673675537,4.402921676635742,-0.19380779564380646
1.0495660305023193,4.395771026611328,-0.19260933995246887
1.0768376588821411,4.377164363861084,-0.19093549251556396
1.107114315032959,4.369656562805176,-0.18974743783473969
1.1355178356170654,4.354347229003906,-0.18822702765464783
1.1654852628707886,4.3464765548706055,-0.1869651824235916
1.191483736038208,4.3232879638671875,-0.1849721372127533
1.2188376188278198,4.307600975036621,-0.1833307147026062
1.2442870140075684,4.284120559692383,-0.18135714530944824
1.2740353345870972,4.275424480438232,-0.18001806735992432
1.296474575996399,4.244252681732178,-0.1776621788740158
1.3258099555969238,4.235241889953613,-0.1761886179447174
1.3522151708602905,4.218748569488525,-0.17443209886550903
1.3864144086837769,4.224130630493164,-0.1735619157552719
1.4108095169067383,4.199638843536377,-0.1714726686477661
1.4380536079406738,4.1863250732421875,-0.16974392533302307
1.466415524482727,4.176539421081543,-0.16815762221813202
1.4928045272827148,4.158951282501221,-0.1662365347146988
1.5189870595932007,4.141210556030273,-0.16432301700115204
1.5447946786880493,4.123382091522217,-0.1623869240283966
1.5698415040969849,4.105621337890625,-0.16038990020751953
1.586174488067627,4.065900802612305,-0.15755529701709747
1.6262435913085938,4.083743572235107,-0.15690690279006958
1.6516916751861572,4.065159320831299,-0.1548711508512497
1.6762146949768066,4.046728134155273,-0.15278260409832
1.7186003923416138,4.071388244628906,-0.15229471027851105
1.9914848804473877,4.629912376403809,-0.17155775427818298
2.0352444648742676,4.640782356262207,-0.1702536940574646
2.0670738220214844,4.626774311065674,-0.16802728176116943
2.096475601196289,4.609319686889648,-0.16562798619270325
2.1240622997283936,4.588150501251221,-0.16310866177082062
2.155876398086548,4.573370933532715,-0.16076426208019257
2.19132661819458,4.5652384757995605,-0.1586083471775055
2.223428964614868,4.554119110107422,-0.15630967915058136
2.2485029697418213,4.5288004875183105,-0.15353555977344513
2.2850234508514404,4.523695468902588,-0.15138225257396698
2.316270589828491,4.507859706878662,-0.1488543450832367
2.3605685234069824,4.520175933837891,-0.14719340205192566
1.7374275922775269,3.2729785442352295,-0.10505034029483795
1.7433465719223022,3.2300124168395996,-0.1021168902516365
1.7298721075057983,3.1529417037963867,-0.09813778847455978
1.7392466068267822,3.1210455894470215,-0.09558222442865372
1.7752997875213623,3.1366844177246094,-0.09447574615478516
1.3417646884918213,2.332075595855713,-0.06897712498903275
1.3082071542739868,2.2387290000915527,-0.06500434875488281
0.9522938132286072,1.6054389476776123,-0.045733492821455
0.9691606760025024,1.6090365648269653,-0.04491930827498436
0.9701300263404846,1.5856373310089111,-0.04333023354411125
0.9806078672409058,1.579209804534912,-0.042191099375486374
1.001347541809082,1.5892986059188843,-0.04149468615651131
1.016591191291809,1.5889031887054443,-0.040452491492033005
1.0185331106185913,1.5690977573394775,-0.038914721459150314
1.022196650505066,1.5527347326278687,-0.037476103752851486
1.043935775756836,1.5617780685424805,-0.03655489161610603
1.0497812032699585,1.5484567880630493,-0.035116806626319885
2.5329198837280273,3.6854348182678223,-0.0808795690536499
2.576395273208618,3.6934080123901367,-0.07807239890098572
2.6001436710357666,3.676798105239868,-0.07470522820949554
2.629000663757324,3.665907859802246,-0.07130558043718338
2.6123764514923096,3.591259479522705,-0.06656872481107712
2.6577796936035156,3.606490135192871,-0.06353261321783066
2.6374363899230957,3.7221078872680664,0.07904787361621857
2.586190938949585,3.7103078365325928,0.08195043355226517
2.563453197479248,3.7354557514190674,0.08545850962400436
1.0689671039581299,1.5825951099395752,0.03740443289279938
1.04816734790802,1.5776933431625366,0.03844137489795685
1.0284483432769775,1.5719523429870605,0.03935189172625542
1.021122694015503,1.5859875679016113,0.04073422774672508
1.0090569257736206,1.5936599969863892,0.04195338487625122
0.9935101270675659,1.5941718816757202,0.042922984808683395
0.9860536456108093,1.6079338788986206,0.04420806095004082
0.9699302911758423,1.6085673570632935,0.045116126537323
0.9524213671684265,1.6053593158721924,0.045868631452322006
1.3368746042251587,2.2898166179656982,0.06658349186182022
1.8675082921981812,3.2549898624420166,0.09626098722219467
1.783984899520874,3.1631767749786377,0.0950639396905899
1.7504665851593018,3.155026435852051,0.09624718874692917
1.7706841230392456,3.246352434158325,0.10045865178108215
1.7539070844650269,3.2731223106384277,0.10268571972846985
2.3900468349456787,4.540110111236572,0.14434869587421417
2.3475914001464844,4.535770416259766,0.14601574838161469
2.314772367477417,4.552532196044922,0.14829960465431213
2.2777812480926514,4.562351703643799,0.1503344476222992
2.2483508586883545,4.585552215576172,0.15278218686580658
2.212367534637451,4.5942816734313965,0.15473328530788422
2.1759796142578125,4.602921009063721,0.15659523010253906
2.145531177520752,4.625730514526367,0.15890918672084808
2.105555772781372,4.626839637756348,0.16046594083309174
2.086068868637085,4.6698198318481445,0.16342906653881073
2.0468368530273438,4.670033931732178,0.1648683249950409
1.9860353469848633,4.62399959564209,0.16459554433822632
1.728232979774475,4.105682849884033,0.1473245918750763
1.6934410333633423,4.103209972381592,0.1483742743730545
1.6707137823104858,4.1293110847473145,0.1504552662372589
1.6439439058303833,4.148386001586914,0.1522117704153061
1.607741117477417,4.145750999450684,0.15317800641059875
1.580739974975586,4.164419651031494,0.15491096675395966
1.5489877462387085,4.167952537536621,0.15605822205543518
1.525145411491394,4.19330358505249,0.15801653265953064
1.4923173189163208,4.196763038635254,0.15904924273490906
1.4614992141723633,4.20754337310791,0.16038359701633453
1.434133768081665,4.225146293640137,0.1619572788476944
1.40468430519104,4.234979152679443,0.1632262021303177
1.377336025238037,4.252111911773682,0.16475345194339752
1.349186658859253,4.269270896911621,0.16620102524757385
1.3248851299285889,4.301341533660889,0.16825805604457855
1.2944165468215942,4.310564041137695,0.16940940916538239
1.2643840312957764,4.319423198699951,0.170541912317276
1.23623788356781,4.335638046264648,0.17194300889968872
1.2083690166473389,4.3556013107299805,0.17340748012065887
1.1762112379074097,4.360311508178711,0.17427468299865723
1.14776611328125,4.379951000213623,0.17575401067733765
1.119141936302185,4.395368576049805,0.1770535409450531
1.0922151803970337,4.418181419372559,0.17864973843097687
1.0625290870666504,4.433407783508301,0.17981372773647308
1.030957579612732,4.440821170806885,0.18067017197608948
1.0005873441696167,4.455728054046631,0.18184982240200043
0.9678692817687988,4.45492696762085,0.1823773831129074
0.9384611248970032,4.4691572189331055,0.18352839350700378
0.7657853364944458,3.7794361114501953,0.15560173988342285
0.7404862642288208,3.792402982711792,0.15651683509349823
0.7267797589302063,3.8705074787139893,0.16014383733272552
0.8189864754676819,4.536102294921875,0.18814915418624878
0.7913927435874939,4.564737319946289,0.18981197476387024
0.7606953382492065,4.577839374542236,0.19078509509563446
0.7332471609115601,4.61391019821167,0.19264250993728638
0.6988946199417114,4.611319541931152,0.19290359318256378
0.6686757802963257,4.6315484046936035,0.1941216140985489
0.6390972137451172,4.655396938323975,0.19549953937530518
0.6066996455192566,4.659705638885498,0.1960679292678833
0.5748910903930664,4.671583652496338,0.19681799411773682
0.5447087287902832,4.698756694793701,0.19820871949195862
0.5136182904243469,4.725794315338135,0.1996103972196579
0.48063695430755615,4.729245185852051,0.20002050697803497
0.4492417275905609,4.747994422912598,0.2010871022939682
0.4161619246006012,4.750993251800537,0.20144540071487427
0.3841031491756439,4.76934289932251,0.2023640125989914
0.3515746295452118,4.791406631469727,0.20345358550548553
0.31957846879959106,4.817103862762451,0.20470638573169708
0.286967933177948,4.834784030914307,0.20562885701656342
0.25371843576431274,4.844448089599609,0.20622120797634125
0.21988904476165771,4.846095085144043,0.20636335015296936
0.18662607669830322,4.878730773925781,0.20778942108154297
0.15288323163986206,4.8916144371032715,0.2083842158317566
0.11897163093090057,4.900360584259033,0.20881293714046478
0.08544821292161942,4.932281970977783,0.21023966372013092
0.05107983574271202,4.924947738647461,0.2099936455488205
0.01635640673339367,4.964215278625488,0.2115977555513382
-0.018254535272717476,4.983725070953369,0.21237041056156158
-0.0531776137650013,5.006894588470459,0.21330887079238892
-0.08773797750473022,4.990797519683838,0.21258467435836792
-0.12303440272808075,5.0134782791137695,0.21352246403694153
-0.15861384570598602,5.035912036895752,0.2143971472978592
-0.19480164349079132,5.05027437210083,0.21483702957630157
-0.2301955372095108,5.056607246398926,0.2149481475353241
-0.2671184241771698,5.089974403381348,0.21621748805046082
-0.30345824360847473,5.103585243225098,0.21665620803833008
-0.2872149348258972,4.322525978088379,0.18338951468467712
-0.3128027617931366,4.254238605499268,0.1802852749824524
-0.3422258496284485,4.251987457275391,0.179956316947937
-0.37367284297943115,4.272859573364258,0.18061339855194092
-0.4003714919090271,4.239094257354736,0.1789693534374237
-0.42547905445098877,4.193512439727783,0.1768384426832199
-0.4483272433280945,4.1283392906188965,0.17387817800045013
-0.4727274179458618,4.090278148651123,0.1719517707824707
-0.4937368333339691,4.028840065002441,0.1690583974123001
-0.5174331665039062,3.9944019317626953,0.1673128604888916
-0.5398919582366943,3.952059030532837,0.16524647176265717
-0.5617259740829468,3.9056646823883057,0.1630195528268814
-0.5828589797019958,3.8631210327148438,0.16091519594192505
-0.6026893258094788,3.816641092300415,0.15860265493392944
-0.6263192296028137,3.7970352172851562,0.1574205458164215
-0.6445593237876892,3.746488571166992,0.15496699512004852
-0.6629624962806702,3.6996889114379883,0.15268224477767944
-0.6847810745239258,3.6719155311584473,0.1511901468038559
-0.7039088606834412,3.636523723602295,0.14929425716400146
-0.7202936410903931,3.5895602703094482,0.14693228900432587
-0.7431823015213013,3.576944351196289,0.14598971605300903
-0.7540287375450134,3.5068581104278564,0.14271007478237152
-0.7754429578781128,3.4862186908721924,0.14145077764987946
-0.7994408011436462,3.480821132659912,0.14077387750148773
-0.8096539378166199,3.4183483123779297,0.13774698972702026
-0.8338608741760254,3.4165709018707275,0.1371801197528839
-0.8468524813652039,3.369148015975952,0.1347884088754654
-0.864768385887146,3.3404369354248047,0.13314750790596008
-0.8838714957237244,3.319307327270508,0.13181906938552856
-0.8950430750846863,3.2718498706817627,0.12938156723976135
-0.9108601212501526,3.243192672729492,0.12770496308803558
-0.9307410717010498,3.229449987411499,0.12662442028522491
-0.9491048455238342,3.207853317260742,0.12522511184215546
-0.9668358564376831,3.1862709522247314,0.12384677678346634
-0.9733729362487793,3.1312103271484375,0.12111362814903259
-0.9921211004257202,3.117161273956299,0.11997202783823013
-1.0059150457382202,3.088146209716797,0.1182648092508316
-1.0215656757354736,3.062469720840454,0.11667148023843765
-1.0453834533691406,3.0627052783966064,0.11608316749334335
-1.0584965944290161,3.0334360599517822,0.11432351171970367
-1.0684406757354736,2.996847629547119,0.1122838631272316
-1.0859543085098267,2.9822728633880615,0.11108222603797913
-1.1011788845062256,2.960064649581909,0.10958739370107651
-1.1013152599334717,2.897486925125122,0.10660534352064133
-1.123713493347168,2.8972864151000977,0.10589051246643066
-1.1258933544158936,2.8461549282073975,0.10331198573112488
-1.1376844644546509,2.820460081100464,0.10167596489191055
-1.1513093709945679,2.7980828285217285,0.10014847666025162
-1.155954122543335,2.7539100646972656,0.09784620255231857
-1.1390256881713867,2.663595676422119,0.09389959275722504
-1.1505234241485596,2.64165997505188,0.0923939198255539
-1.1636106967926025,2.623148202896118,0.09100878238677979
-1.1834251880645752,2.6185898780822754,0.09009337425231934
-1.2081618309020996,2.624508857727051,0.08950536698102951
-1.210658073425293,2.5846431255340576,0.08734139800071716
-1.242891788482666,2.6083149909973145,0.08732932060956955
-1.2779098749160767,2.634840250015259,0.08736223727464676
-1.27032470703125,2.5733864307403564,0.0844796746969223
-1.2807559967041016,2.5507848262786865,0.0828370451927185
-1.290540337562561,2.5283632278442383,0.08122488111257553
-1.2968636751174927,2.4987974166870117,0.07937910407781601
-1.3032526969909668,2.4690475463867188,0.07752453535795212
-1.31973135471344,2.4603171348571777,0.07631052285432816
-1.3265187740325928,2.434490442276001,0.07456053048372269
-1.339318871498108,2.4185874462127686,0.07309003174304962
-1.348474383354187,2.395625114440918,0.07139762490987778
-1.3644646406173706,2.386592149734497,0.07010304182767868
-1.391822338104248,2.3979098796844482,0.0693880245089531
-1.376204013824463,2.3346996307373047,0.0665053054690361
-1.4086954593658447,2.351771831512451,0.0658734068274498
-1.4118156433105469,2.322561025619507,0.06394348293542862
-1.4145071506500244,2.293475389480591,0.0620366595685482
-1.442668080329895,2.303600311279297,0.06112349033355713
-1.4456641674041748,2.2740423679351807,0.059134967625141144
-1.4541584253311157,2.2547295093536377,0.057388659566640854
-1.4648698568344116,2.238494634628296,0.055709343403577805
-1.4803565740585327,2.2283222675323486,0.05412692204117775
-1.4814738035202026,2.1994199752807617,0.052094027400016785
-1.4650065898895264,2.1445577144622803,0.04945487901568413
-1.5023177862167358,2.166327714920044,0.04848337918519974
-1.5114139318466187,2.1504878997802734,0.0466601736843586
-1.4960561990737915,2.099191904067993,0.044035568833351135
-1.5102139711380005,2.089066743850708,0.04221148043870926
-1.5139719247817993,2.067046880722046,0.04015115275979042
-1.5140326023101807,2.0379185676574707,0.03783070668578148
-1.5241636037826538,2.1512672901153564,-0.03549057990312576
-1.4836345911026,2.1272082328796387,-0.03678685426712036
-1.492634654045105,2.1731984615325928,-0.03918991610407829
