X,Y,Z
-0.06415527313947678,7.563159942626953,0.3226803243160248
-0.116538405418396,7.554732799530029,0.32223817706108093
-0.16773070394992828,7.4991278648376465,0.3196823298931122
-0.2193402647972107,7.4860920906066895,0.31895843148231506
-0.27110934257507324,7.4531636238098145,0.3174002468585968
-0.32296353578567505,7.451106548309326,0.3171752691268921
-0.2708003520965576,5.382858753204346,0.229047030210495
-0.31168437004089355,5.443206787109375,0.231390580534935
-0.3473217487335205,5.409778118133545,0.2297150194644928
-0.375989705324173,5.2748541831970215,0.22374379634857178
-0.4031786024570465,5.151513576507568,0.21828937530517578
-0.43634864687919617,5.117489337921143,0.21663644909858704
-0.43492987751960754,4.714064121246338,0.19936205446720123
-0.45780766010284424,4.613877773284912,0.1948036253452301
-0.48852109909057617,4.595046520233154,0.19369199872016907
-0.5202107429504395,4.591586112976074,0.19324393570423126
-0.5502359867095947,4.572380065917969,0.1921413689851761
-0.5819926261901855,4.568465232849121,0.19169163703918457
-0.6094089150428772,4.5334086418151855,0.18988601863384247
-0.6399611234664917,4.521337985992432,0.1889626532793045
-0.6704224944114685,4.51300048828125,0.1882123351097107
-0.7004180550575256,4.50056791305542,0.18729838728904724
-0.7304044961929321,4.487914562225342,0.1863839477300644
-0.7588983178138733,4.467374324798584,0.18515340983867645
-0.7868133783340454,4.446717262268066,0.18381553888320923
-0.8163540363311768,4.433483123779297,0.18275867402553558
-0.8400672674179077,4.393321990966797,0.18061433732509613
-0.7277144193649292,3.667667865753174,0.15037426352500916
-0.7539601922035217,3.666372299194336,0.14991921186447144
-0.7784716486930847,3.6572818756103516,0.14912503957748413
-0.9430793523788452,4.284608840942383,0.17411763966083527
-0.986108660697937,4.3390116691589355,0.17575067281723022
-1.0141701698303223,4.324555397033691,0.17459015548229218
-1.0405277013778687,4.302262783050537,0.1731191724538803
-1.0685123205184937,4.287386894226074,0.1719580441713333
-1.0836855173110962,4.223195552825928,0.16871517896652222
-1.1213103532791138,4.249743461608887,0.16909778118133545
-1.1481870412826538,4.234511852264404,0.1678197681903839
-1.1796801090240479,4.2339911460876465,0.16711914539337158
-1.2058521509170532,4.21447229385376,0.1656772941350937
-1.2330230474472046,4.198508262634277,0.16431520879268646
-1.2614182233810425,4.190108299255371,0.1632133275270462
-1.2828528881072998,4.159134387969971,0.16124379634857178
-1.3115745782852173,4.150209426879883,0.16012462973594666
-1.3427494764328003,4.1484785079956055,0.15928632020950317
-1.3668427467346191,4.12420129776001,0.1575426459312439
-1.3920668363571167,4.107559680938721,0.1560395061969757
-1.417128324508667,4.090764999389648,0.1545407772064209
-1.4374501705169678,4.058875560760498,0.15246528387069702
-1.4762827157974243,4.078190326690674,0.15231017768383026
-1.4935896396636963,4.038649559020996,0.1499404013156891
-1.5156598091125488,4.0137810707092285,0.14804543554782867
-1.5482208728790283,4.01812219619751,0.14725139737129211
-1.570152759552002,3.992877721786499,0.145356222987175
-1.5978590250015259,3.9819211959838867,0.14398345351219177
-1.6251132488250732,3.9709267616271973,0.142583429813385
-1.6475406885147095,3.9490387439727783,0.14072363078594208
-1.6769388914108276,3.9451825618743896,0.13953159749507904
-1.6980937719345093,3.9191625118255615,0.13752228021621704
-1.719030737876892,3.8930110931396484,0.13552044332027435
-1.748551845550537,3.888458251953125,0.13422392308712006
-1.774871587753296,3.876570224761963,0.1326272040605545
-1.7943938970565796,3.8504035472869873,0.13055776059627533
-1.817758321762085,3.8308417797088623,0.12869003415107727
-1.8373852968215942,3.804184675216675,0.1265866607427597
-1.8590337038040161,3.7850100994110107,0.1246732845902443
-1.8844407796859741,3.7724812030792236,0.12296402454376221
-1.9105082750320435,3.759404182434082,0.12120435386896133
-1.929449439048767,3.732201099395752,0.11899299174547195
-1.9542468786239624,3.7193331718444824,0.11721109598875046
-1.9823734760284424,3.713329792022705,0.1156386286020279
-2.0114331245422363,3.7066147327423096,0.11399132758378983
-1.705541968345642,3.090639591217041,0.09380259364843369
-1.72224760055542,3.072460412979126,0.09199091047048569
-1.7500312328338623,3.074754238128662,0.09077621251344681
-0.7662710547447205,1.3251677751541138,0.03854186087846756
-0.7675950527191162,1.306337594985962,0.03740639612078667
-0.7923498749732971,1.3280080556869507,0.03739768639206886
-0.8819051384925842,1.4564517736434937,0.040328655391931534
-0.8838067650794983,1.4370163679122925,0.039066437631845474
-0.897750735282898,1.4375872611999512,0.03834899887442589
-0.9069966077804565,1.4317957162857056,0.037449441850185394
-2.4176065921783447,3.546546220779419,0.08226636052131653
-1.134989857673645,1.6415910720825195,0.036979790776968
-1.4034227132797241,2.0020101070404053,0.043738845735788345
-1.360499620437622,1.9464187622070312,-0.03346226364374161
-1.3438849449157715,1.9531590938568115,-0.035045962780714035
-1.3619780540466309,2.011712074279785,-0.037569478154182434
-1.2222379446029663,1.8326584100723267,-0.03545611351728439
-1.2511813640594482,1.907142162322998,-0.038153886795043945
-1.1632201671600342,1.8012640476226807,-0.03715744614601135
-0.9005348682403564,1.4635800123214722,-0.03273767977952957
-0.8579442501068115,1.4163486957550049,-0.03243502974510193
-0.8334081172943115,1.3991756439208984,-0.032770123332738876
-0.7837162613868713,1.3377918004989624,-0.03200894594192505
-0.7742387056350708,1.3432799577713013,-0.03279590979218483
-0.8511996865272522,1.501692533493042,-0.03736637905240059
-1.1746468544006348,2.108328104019165,-0.05343107506632805
-1.6534054279327393,3.0171968936920166,-0.07778048515319824
-1.639712929725647,3.042375326156616,-0.07973913103342056
-1.5840317010879517,2.992382764816284,-0.07969745248556137
-1.6325362920761108,3.1388823986053467,-0.08488593250513077
-1.6071456670761108,3.1431472301483154,-0.08622850477695465
-1.574474811553955,3.1333975791931152,-0.08716379106044769
-1.555092215538025,3.1517322063446045,-0.08883652091026306
-1.5354359149932861,3.1699929237365723,-0.09052156656980515
-1.5166559219360352,3.1876308917999268,-0.09214530885219574
-1.4974027872085571,3.205301284790039,-0.09376095980405807
-1.4773218631744385,3.223158359527588,-0.09535178542137146
-1.4509412050247192,3.226518154144287,-0.09650572389364243
-1.4347630739212036,3.2507851123809814,-0.09825952351093292
-1.4146453142166138,3.2680606842041016,-0.099819615483284
-1.3910069465637207,3.2781529426574707,-0.1010931208729744
-1.3613497018814087,3.2736315727233887,-0.10191493481397629
-1.6097710132598877,3.9482667446136475,-0.12403713911771774
-1.5793485641479492,3.9520792961120605,-0.1252771019935608
-1.5590630769729614,3.9852468967437744,-0.12740366160869598
-1.5373286008834839,4.014548301696777,-0.1293952763080597
-1.5200047492980957,4.054470062255859,-0.13172486424446106
-1.4944157600402832,4.0722455978393555,-0.13334019482135773
-1.4709875583648682,4.097320079803467,-0.1351662278175354
-1.4488301277160645,4.129998207092285,-0.13721850514411926
-1.421819806098938,4.147586822509766,-0.138763889670372
-1.3904508352279663,4.149930953979492,-0.1397809535264969
-1.365190863609314,4.170592784881592,-0.1414225995540619
-1.3343397378921509,4.176426410675049,-0.14247868955135345
-1.3120577335357666,4.212072372436523,-0.14455774426460266
-1.2823421955108643,4.221174716949463,-0.1457117348909378
-1.2574230432510376,4.244914531707764,-0.14736908674240112
-1.2278532981872559,4.2535223960876465,-0.14850223064422607
-1.2018427848815918,4.277132034301758,-0.15006369352340698
-1.1694186925888062,4.277980327606201,-0.15083454549312592
-1.1428754329681396,4.301270484924316,-0.1524101048707962
-1.1187134981155396,4.331778049468994,-0.15423831343650818
-1.0864828824996948,4.331889629364014,-0.15496405959129333
-1.0584745407104492,4.350839614868164,-0.15627659857273102
-1.0266304016113281,4.3544206619262695,-0.15704680979251862
-0.9982640147209167,4.372992038726807,-0.15836676955223083
-0.961950421333313,4.353109359741211,-0.15828529000282288
-0.934791624546051,4.374960422515869,-0.15968972444534302
-0.9039113521575928,4.381416320800781,-0.1604515165090561
-0.8737092614173889,4.391491413116455,-0.1613548994064331
-0.8424807786941528,4.397561073303223,-0.16212306916713715
-0.8054635524749756,4.368743419647217,-0.16159790754318237
-0.7667812705039978,4.328106880187988,-0.16059647500514984
-0.7343042492866516,4.321834087371826,-0.1607694774866104
-0.6987816095352173,4.296061038970947,-0.16022156178951263
-0.6706600189208984,4.316320896148682,-0.16139961779117584
-0.6360380053520203,4.289968967437744,-0.16083261370658875
-0.6006758809089661,4.255622863769531,-0.1599450409412384
-0.5671634078025818,4.232634544372559,-0.15937039256095886
-0.5393689274787903,4.251988887786865,-0.16039755940437317
-0.5040967464447021,4.20912504196167,-0.1590813249349594
-0.4743136167526245,4.212568283081055,-0.15952374041080475
-0.44422176480293274,4.207981109619141,-0.15966366231441498
-0.4212604761123657,4.277015209197998,-0.16247892379760742
-0.3920208513736725,4.287621974945068,-0.16308476030826569
-0.3571512997150421,4.231898784637451,-0.16117259860038757
-0.32781070470809937,4.242090702056885,-0.16177910566329956
-0.29720625281333923,4.2286810874938965,-0.1614893227815628
-0.2682107388973236,4.238434314727783,-0.16198167204856873
-0.23682935535907745,4.209021091461182,-0.16095294058322906
-0.19092829525470734,3.875279426574707,-0.14828550815582275
-0.16480134427547455,3.9077277183532715,-0.149631530046463
-0.13649703562259674,3.8775665760040283,-0.14858566224575043
-0.11112090200185776,3.93694806098938,-0.15091337263584137
-0.0845155417919159,3.9766507148742676,-0.15243680775165558
-0.05933089554309845,4.156679630279541,-0.15934722125530243
-0.02973930910229683,4.133575439453125,-0.15847879648208618
-0.0010105748660862446,4.125873565673828,-0.1582082211971283
0.027607349678874016,4.117975234985352,-0.15790238976478577
0.05632220581173897,4.12549352645874,-0.15809860825538635
0.08458006381988525,4.105494022369385,-0.1572481393814087
0.11363787204027176,4.124320983886719,-0.1578923761844635
0.13998128473758698,4.041495323181152,-0.15465249121189117
0.17068880796432495,4.102828502655029,-0.15693819522857666
0.1983543336391449,4.085960865020752,-0.15610483288764954
0.22492891550064087,4.053318023681641,-0.15467780828475952
0.25356796383857727,4.059458255767822,-0.15473881363868713
0.28387096524238586,4.080938816070557,-0.15538795292377472
0.3104636073112488,4.0555219650268555,-0.15426155924797058
0.3372509181499481,4.037726879119873,-0.15334022045135498
0.36372804641723633,4.019764423370361,-0.15238794684410095
0.3994758725166321,4.098752498626709,-0.15511366724967957
0.4199604392051697,4.014307022094727,-0.1516556590795517
0.4504627287387848,4.034579753875732,-0.15216980874538422
0.4839552342891693,4.077890396118164,-0.1534925252199173
0.5145115852355957,4.093838214874268,-0.1537231057882309
0.537095308303833,4.047644138336182,-0.15162955224514008
0.569488525390625,4.070825576782227,-0.15213483572006226
0.5949061512947083,4.047480583190918,-0.15091447532176971
0.6229475140571594,4.043279647827148,-0.15038259327411652
0.6532251834869385,4.054337978363037,-0.15034031867980957
0.6959483623504639,4.13831901550293,-0.15299831330776215
0.730720043182373,4.168018341064453,-0.15363845229148865
0.7644339799880981,4.185802459716797,-0.15383122861385345
0.7935255765914917,4.1804094314575195,-0.1531686931848526
0.826728105545044,4.197873115539551,-0.15324637293815613
0.8539997339248657,4.184469699859619,-0.15220169723033905
0.8901877403259277,4.212865352630615,-0.152677521109581
0.9199761748313904,4.2064900398254395,-0.15188340842723846
0.9706911444664001,4.295220851898193,-0.1545225977897644
0.34930485486984253,1.4979387521743774,-0.053654745221138
1.008354663848877,4.19430685043335,-0.14958494901657104
1.0504094362258911,4.2403340339660645,-0.15056730806827545
1.0891000032424927,4.266866207122803,-0.15083380043506622
1.1346205472946167,4.319635391235352,-0.15202844142913818
1.1814000606536865,4.3758955001831055,-0.1532246619462967
1.2206164598464966,4.4016289710998535,-0.1533425897359848
1.2701621055603027,4.460738182067871,-0.15460456907749176
1.3225208520889282,4.522872447967529,-0.1559322029352188
1.340459942817688,4.4687371253967285,-0.15325406193733215
1.3777031898498535,4.481950283050537,-0.15279637277126312
1.4245680570602417,4.524654388427734,-0.1533360630273819
1.4641069173812866,4.5407819747924805,-0.15295402705669403
1.5157884359359741,4.589670181274414,-0.15364070236682892
1.553661823272705,4.5976433753967285,-0.15293432772159576
1.5975028276443481,4.623969078063965,-0.1527567058801651
1.6339712142944336,4.6278204917907715,-0.15183183550834656
1.674003005027771,4.638451099395752,-0.15110164880752563
1.0037662982940674,2.7218198776245117,-0.08803145587444305
1.0323289632797241,2.740370512008667,-0.08795131742954254
1.0437928438186646,2.715148448944092,-0.08645875006914139
1.0622618198394775,2.70800518989563,-0.08554407209157944
1.0665736198425293,2.664325714111328,-0.08347365260124207
1.088041067123413,2.664097785949707,-0.0827757865190506
1.1062589883804321,2.6566150188446045,-0.08178980648517609
1.1119015216827393,2.620387315750122,-0.07994400709867477
1.1299585103988647,2.6126816272735596,-0.07896114140748978
1.1480807065963745,2.6047987937927246,-0.07797177881002426
1.1625726222991943,2.5898356437683105,-0.07674489170312881
1.1801618337631226,2.5818986892700195,-0.07569698989391327
1.1861461400985718,2.549067974090576,-0.07393141090869904
1.180457592010498,2.4913740158081055,-0.07145214825868607
1.1975247859954834,2.4832451343536377,-0.07040629535913467
1.2054336071014404,2.457716941833496,-0.06885790824890137
1.2222325801849365,2.4494364261627197,-0.06777836382389069
1.2321763038635254,2.426974296569824,-0.06630067527294159
1.2345236539840698,2.3907036781311035,-0.06445637345314026
1.250344157218933,2.3824973106384277,-0.06335592269897461
1.2589010000228882,2.3603270053863525,-0.061884135007858276
1.2715171575546265,2.344703435897827,-0.0605621263384819
1.2877789735794067,2.335841178894043,-0.05939522013068199
1.293554425239563,2.310323476791382,-0.057812150567770004
1.29358971118927,2.274458885192871,-0.0559702105820179
1.313281774520874,2.2722012996673584,-0.05493247136473656
1.3206099271774292,2.2498834133148193,-0.05340639874339104
1.331555962562561,2.234363079071045,-0.05202926695346832
1.3508775234222412,2.2318990230560303,-0.05092867463827133
1.354010820388794,2.2025680541992188,-0.04920801892876625
1.3724184036254883,2.200385332107544,-0.04808301851153374
1.378662109375,2.178039789199829,-0.04649709165096283
1.3813532590866089,2.1485559940338135,-0.04470846429467201
1.3804659843444824,2.116586446762085,-0.0429050587117672
1.3985447883605957,2.114084243774414,-0.04169297218322754
1.4044939279556274,2.0913712978363037,-0.040011171251535416
1.4181398153305054,2.0821688175201416,-0.03859769552946091
1.4363161325454712,2.079200506210327,-0.03724956512451172
1.4462201595306396,2.0628178119659424,-0.03559926524758339
1.4593020677566528,2.05361008644104,-0.0340731255710125
1.4774423837661743,2.0502610206604004,-0.03256501257419586
1.4727650880813599,2.0150723457336426,-0.030495787039399147
1.485325574874878,2.00585675239563,-0.02883242815732956
2.10076904296875,2.939440965652466,0.04751736670732498
2.089219808578491,2.9667530059814453,0.049975041300058365
2.0712876319885254,2.9887707233428955,0.05232837423682213
2.5884578227996826,3.794429063796997,0.06880225241184235
3.152057409286499,4.691035747528076,0.08780380338430405
3.124744415283203,4.727951526641846,0.09120501577854156
3.0964713096618652,4.760441303253174,0.09442377090454102
3.075352907180786,4.801904678344727,0.09771136939525604
1.6464481353759766,2.61407208442688,0.0545000396668911
1.6194076538085938,2.612515449523926,0.05569988489151001
1.5930639505386353,2.610347270965576,0.05683855339884758
2.8450098037719727,4.742314338684082,0.10536675900220871
2.794341802597046,4.736048221588135,0.10723777860403061
2.7279765605926514,4.697910785675049,0.10825923830270767
2.7269175052642822,4.775081157684326,0.1119035854935646
2.4543464183807373,4.372851371765137,0.10414363443851471
2.439710855484009,4.421173095703125,0.10692303627729416
2.420015811920166,4.458615303039551,0.10940788686275482
2.379948139190674,4.462386131286621,0.11101651191711426
2.4755823612213135,4.725412845611572,0.11915118992328644
2.4425039291381836,4.7425456047058105,0.12108785659074783
2.3929994106292725,4.728307247161865,0.12223917990922928
2.3479256629943848,4.724652290344238,0.12354319542646408
1.2190980911254883,2.4989566802978516,0.06607940047979355
1.1762769222259521,2.4545726776123047,0.06559261679649353
1.194097876548767,2.536870002746582,0.06849651038646698
1.1790326833724976,2.552488088607788,0.06958775222301483
1.168108582496643,2.5789308547973633,0.07098555564880371
1.162507176399231,2.6156601905822754,0.07265078276395798
1.1348981857299805,2.602191925048828,0.07291637361049652
1.1133462190628052,2.6029696464538574,0.07355514913797379
2.03635835647583,4.858194351196289,0.13837842643260956
2.014009475708008,4.905470371246338,0.14084221422672272
1.9856367111206055,4.933822154998779,0.1427234560251236
1.978496789932251,5.0164875984191895,0.1461995542049408
2.021127223968506,5.234537124633789,0.15359598398208618
1.9805301427841187,5.241641521453857,0.1548348218202591
1.9508110284805298,5.277716636657715,0.15693916380405426
1.9339276552200317,5.346211910247803,0.15999498963356018
1.9094562530517578,5.396395683288574,0.1625111848115921
1.8629119396209717,5.387817859649658,0.16315098106861115
1.8553205728530884,5.493529796600342,0.1672719120979309
1.9382623434066772,5.877437591552734,0.17994406819343567
1.9176985025405884,5.953911781311035,0.1832573264837265
1.887637734413147,6.004410266876221,0.18576905131340027
1.8595014810562134,6.066254615783691,0.18855543434619904
1.8305211067199707,6.128015518188477,0.19136403501033783
1.7961819171905518,6.17066764831543,0.19357901811599731
1.7652583122253418,6.228257656097412,0.19628983736038208
1.7310479879379272,6.27427339553833,0.19861473143100739
1.7024343013763428,6.3467631340026855,0.201658695936203
1.6699204444885254,6.407825469970703,0.20436280965805054
0.8286967873573303,3.2740318775177,0.10480627417564392
1.5774829387664795,6.423092842102051,0.20638689398765564
0.8025683164596558,3.3688602447509766,0.10865169018507004
1.4703543186187744,6.372284412384033,0.2061346024274826
1.4105745553970337,6.317762851715088,0.2049848586320877
1.3642960786819458,6.319899082183838,0.20567259192466736
0.3139326572418213,1.5059027671813965,0.0491575263440609
1.256163239479065,6.242684841156006,0.20439960062503815
1.1950726509094238,6.1631951332092285,0.20231588184833527
1.1470692157745361,6.148457050323486,0.2023019641637802
1.0966382026672363,6.117967128753662,0.2017744928598404
1.049888014793396,6.106332778930664,0.20187579095363617
1.0035383701324463,6.090357303619385,0.20183102786540985
0.9610416889190674,6.097184181213379,0.20251435041427612
0.9110122323036194,6.057468891143799,0.2015330046415329
0.8632516860961914,6.028947830200195,0.20092955231666565
0.8181034922599792,6.019461154937744,0.2009715586900711
0.7657597064971924,5.943671703338623,0.19879473745822906
0.7253065705299377,5.956591606140137,0.19959072768688202
0.5821279883384705,5.077179431915283,0.17034810781478882
0.5543389320373535,5.1548895835876465,0.173151895403862
0.5165126919746399,5.143111228942871,0.17296059429645538
0.38471588492393494,4.1242995262146,0.13887007534503937
0.35296499729156494,4.091863632202148,0.13795191049575806
0.3331119120121002,4.203184604644775,0.141875758767128
0.30114802718162537,4.170362949371338,0.1408495455980301
0.27042192220687866,4.148989200592041,0.1402156949043274
0.2452182173728943,4.224853515625,0.14287762343883514
0.3976381719112396,7.786182403564453,0.2635054588317871
0.34281572699546814,7.773148059844971,0.26326608657836914
0.28788629174232483,7.755836009979248,0.26278409361839294
0.23285380005836487,7.726434707641602,0.2617967128753662
0.17715327441692352,7.6888604164123535,0.2605454623699188
0.12324380874633789,7.66257905960083,0.25968894362449646
0.06981533020734787,7.647633075714111,0.25922891497612
0.016624892130494118,7.608891487121582,0.2579743266105652
-0.036170486360788345,7.585402965545654,0.2570720613002777
-0.0893954336643219,7.549828052520752,0.2557390630245209
-0.14152094721794128,7.533417224884033,0.2550707757472992
-0.1932220160961151,7.508841037750244,0.25413888692855835
-0.24446114897727966,7.480010032653809,0.25307583808898926
-0.29605311155319214,7.470337867736816,0.25264111161231995
-0.3481113314628601,7.475919723510742,0.25258100032806396
-0.29040780663490295,5.414919853210449,0.18277350068092346
-0.3284030854701996,5.420578956604004,0.18280130624771118
-0.3655448853969574,5.410383224487305,0.18230274319648743
-0.38311490416526794,5.139085292816162,0.17302265763282776
-0.40664368867874146,4.988455295562744,0.16775722801685333
-0.4375162124633789,4.938823699951172,0.16583701968193054
-0.4430018663406372,4.636446475982666,0.15545910596847534
-0.4747307598590851,4.629391670227051,0.15500445663928986
-0.5035417079925537,4.5949387550354,0.15364062786102295
-0.5345650911331177,4.583582878112793,0.15305857360363007
-0.5667046904563904,4.579735279083252,0.1526205986738205
-0.5951682329177856,4.552514553070068,0.15140466392040253
-0.6233278512954712,4.525114059448242,0.15019260346889496
-0.65471351146698,4.520694732666016,0.14974993467330933
-0.6860678195953369,4.51605749130249,0.1493072658777237
-0.7147512435913086,4.491857051849365,0.14818525314331055
-0.7441987991333008,4.479175567626953,0.1473817676305771
-0.7735061645507812,4.466300964355469,0.14658018946647644
-0.7987706661224365,4.430136203765869,0.1450212448835373
-0.8266606330871582,4.409146785736084,0.14396733045578003
-0.852017343044281,4.376495361328125,0.14254355430603027
-0.7411189675331116,3.670117139816284,0.11916695535182953
-0.7661764621734619,3.6649856567382812,0.11862402409315109
-0.8134740591049194,3.76271915435791,0.12140558660030365
-0.9690149426460266,4.3361687660217285,0.13946637511253357
-0.995593786239624,4.314138412475586,0.13832354545593262
-1.0167843103408813,4.269090175628662,0.13641083240509033
-1.0513842105865479,4.284849643707275,0.13639411330223083
-1.0737755298614502,4.251133441925049,0.13480988144874573
-1.1011343002319336,4.236084938049316,0.1338198333978653
-1.133573055267334,4.2396697998046875,0.13342097401618958
-1.165597677230835,4.239100933074951,0.13288214802742004
-1.191129207611084,4.219854831695557,0.13167165219783783
-1.2175394296646118,4.2042083740234375,0.13058222830295563
-1.2462787628173828,4.195805549621582,0.12971939146518707
-1.2708594799041748,4.172128677368164,0.12838321924209595
-1.2979836463928223,4.155616760253906,0.127266988158226
-1.3214038610458374,4.131863117218018,0.12588229775428772
-1.3492814302444458,4.1228718757629395,0.12494184821844101
-1.3797560930252075,4.121038436889648,0.12421852350234985
-1.4057811498641968,4.104008197784424,0.12302935868501663
-1.4342182874679565,4.094186305999756,0.12206339836120605
-1.4545118808746338,4.062175273895264,0.120371013879776
-1.4844496250152588,4.059677600860596,0.11955246329307556
-1.5145903825759888,4.056897163391113,0.11872364580631256
-1.5371673107147217,4.031716346740723,0.1172257736325264
-1.5650993585586548,4.020986557006836,0.1161574199795723
-1.58975350856781,4.002933979034424,0.11481209844350815
-1.6106560230255127,3.977755069732666,0.11327239871025085
-1.6272082328796387,3.9414889812469482,0.11141844093799591
-1.6576143503189087,3.9373061656951904,0.11046077311038971
-1.6849315166473389,3.9257264137268066,0.10929442942142487
-1.7115787267684937,3.9142162799835205,0.10805078595876694
-1.7281298637390137,3.8813374042510986,0.10624407976865768
-1.7515510320663452,3.8622844219207764,0.1048000380396843
-1.7816417217254639,3.857135057449341,0.103727787733078
-1.8044782876968384,3.8379104137420654,0.10225176811218262
-1.8202648162841797,3.80452561378479,0.10035893321037292
-1.8491870164871216,3.7992753982543945,0.09922321140766144
-1.8685961961746216,3.7723782062530518,0.09749439358711243
-1.89111328125,3.752431869506836,0.09594933688640594
-1.9265133142471313,3.7607624530792236,0.09508928656578064
-1.9513111114501953,3.747990846633911,0.09369269758462906
-1.9667752981185913,3.7134416103363037,0.09168752282857895
-1.6888692378997803,3.135806083679199,0.07647258043289185
-1.6982340812683105,3.104091167449951,0.07471335679292679
-1.7261672019958496,3.1065587997436523,0.0737803652882576
-1.7361422777175903,3.074143171310425,0.071969173848629
-0.7875375151634216,1.3717166185379028,0.031636033207178116
-0.770915150642395,1.3226920366287231,0.030035201460123062
-0.7895321846008301,1.3344182968139648,0.02982206456363201
-0.8390136361122131,1.395869493484497,0.030662931501865387
-0.8912116885185242,1.4601560831069946,0.0315108485519886
-0.8843396306037903,1.427718162536621,0.030235998332500458
-0.9146775603294373,1.4548380374908447,0.03020961955189705
-0.9079574942588806,1.422122836112976,0.02891729585826397
-1.3234519958496094,1.9008201360702515,0.03310171514749527
-1.574591875076294,2.23040509223938,0.037594735622406006
-1.3293712139129639,1.8872630596160889,-0.02481064386665821
-1.3148880004882812,1.897364854812622,-0.026102537289261818
-1.4769666194915771,2.1981186866760254,-0.03264198452234268
-1.4219470024108887,2.1502797603607178,-0.03304758667945862
-1.2766354084014893,1.9606382846832275,-0.031105604022741318
-0.8815234303474426,1.4203813076019287,-0.02448243461549282
-0.8709825873374939,1.4268569946289062,-0.02519548498094082
-0.8302125334739685,1.3830395936965942,-0.024997659027576447
-0.804650068283081,1.361884355545044,-0.025144800543785095
-0.7907953858375549,1.3609371185302734,-0.025643879547715187
-0.8039181232452393,1.4074548482894897,-0.027045784518122673
-0.9299437403678894,1.6547571420669556,-0.03237491101026535
-1.6378647089004517,2.9637441635131836,-0.059021688997745514
-1.6533344984054565,3.0443108081817627,-0.06164376810193062
-1.6019315719604492,3.000990867614746,-0.06174614280462265
-1.6554720401763916,3.153803825378418,-0.06587851047515869
-1.615079402923584,3.1307711601257324,-0.06635315716266632
-1.5988270044326782,3.1565980911254883,-0.06785090267658234
-1.5728604793548584,3.160869836807251,-0.06885014474391937
-1.550830364227295,3.1717119216918945,-0.069974385201931
-1.531502366065979,3.1897318363189697,-0.0712415799498558
-1.50824773311615,3.20076847076416,-0.07234124094247818
-1.4821966886520386,3.204286813735962,-0.07325238734483719
-1.4659521579742432,3.2288906574249268,-0.07464766502380371
-1.4430336952209473,3.2391741275787354,-0.07567787915468216
-1.4226781129837036,3.2566676139831543,-0.07685476541519165
-1.3994169235229492,3.266707181930542,-0.07785014808177948
-1.373581051826477,3.269160747528076,-0.07865004241466522
-1.353140115737915,3.2860991954803467,-0.07980149239301682
-1.3293706178665161,3.2957639694213867,-0.08072346448898315
-1.3055579662322998,3.3052468299865723,-0.08164443075656891
-1.285356044769287,3.32150936126709,-0.08271367847919464
-1.2636330127716064,3.333988904953003,-0.08369413018226624
-1.2394168376922607,3.3430449962615967,-0.0845620185136795
-1.2180538177490234,3.359175443649292,-0.08559312671422958
-1.199544072151184,3.3823862075805664,-0.08680246770381927
-1.1734206676483154,3.3832509517669678,-0.08743540197610855
-1.1572577953338623,3.4135422706604004,-0.08881878107786179
-1.125030755996704,3.3996074199676514,-0.08900892734527588
-1.103122353553772,3.4149680137634277,-0.08995814621448517
-1.076897382736206,3.415120840072632,-0.09049911051988602
-1.0600255727767944,3.444897413253784,-0.09182926267385483
-1.2511779069900513,4.17039155960083,-0.1117829829454422
-1.2170346975326538,4.164190292358398,-0.11219137161970139
-1.1868910789489746,4.172860622406006,-0.11301239579916
-1.164116621017456,4.203566074371338,-0.11441603302955627
-1.1389764547348022,4.226604461669922,-0.11562091112136841
-1.111136555671692,4.242062091827393,-0.11656457185745239
-1.0916327238082886,4.291438579559326,-0.11842070519924164
-1.06448233127594,4.3143229484558105,-0.11956588923931122
-1.036261796951294,4.329199314117432,-0.12048090994358063
-1.0114160776138306,4.359106540679932,-0.12182362377643585
-0.9832086563110352,4.377544403076172,-0.12278345972299576
-0.9555134177207947,4.399640083312988,-0.12382693588733673
-0.9239176511764526,4.406365871429443,-0.12445145845413208
-0.8948025703430176,4.420320987701416,-0.12527360022068024
-0.8669947385787964,4.441756725311279,-0.1263165920972824
-0.8357288241386414,4.447730541229248,-0.12685933709144592
-0.8084841370582581,4.476557731628418,-0.12803123891353607
-0.7763484120368958,4.482227802276611,-0.12855494022369385
-0.7464621067047119,4.495203971862793,-0.12928378582000732
-0.7170862555503845,4.511829853057861,-0.13012492656707764
-0.6890272498130798,4.5398850440979,-0.13123822212219238
-0.6593360900878906,4.560062408447266,-0.13208183646202087
-0.6266871094703674,4.564651966094971,-0.1324862539768219
-0.5979462265968323,4.592121124267578,-0.13355500996112823
-0.5669445991516113,4.603908538818359,-0.13417601585388184
-0.5370470881462097,4.627135276794434,-0.1350986361503601
-0.5032428503036499,4.619142532348633,-0.13505150377750397
-0.47278496623039246,4.641975402832031,-0.13591240346431732
-0.450565904378891,4.757927894592285,-0.1395139992237091
-0.4351986348628998,4.963199615478516,-0.14575153589248657
-0.39691829681396484,4.919394016265869,-0.1446719467639923
-0.36827096343040466,4.9999213218688965,-0.14715251326560974
-0.33021026849746704,4.955616474151611,-0.14596693217754364
-0.2940976023674011,4.942238807678223,-0.14569997787475586
-0.26087701320648193,4.967557907104492,-0.1465788632631302
-0.22523233294487,4.945844650268555,-0.14607685804367065
-0.18995724618434906,4.927785396575928,-0.1455799639225006
-0.15500634908676147,4.9133806228637695,-0.14517918229103088
-0.11953026801347733,4.890935897827148,-0.144548237323761
-0.08439721912145615,4.825279235839844,-0.14264586567878723
-0.05145404115319252,4.884312629699707,-0.14443658292293549
-0.017448801547288895,4.876743793487549,-0.14419350028038025
0.016435887664556503,4.876749515533447,-0.14412237703800201
0.0507899671792984,4.86089563369751,-0.1435885727405548
0.08483461290597916,4.876043319702148,-0.1439787596464157
0.1179015040397644,4.840206623077393,-0.14287056028842926
0.15212388336658478,4.858787536621094,-0.1433500498533249
0.18476402759552002,4.8303093910217285,-0.14236168563365936
0.21507740020751953,4.758707046508789,-0.14011208713054657
0.22340741753578186,4.273568630218506,-0.12570670247077942
0.24683812260627747,4.166680812835693,-0.12245222181081772
0.27683117985725403,4.180452346801758,-0.12275192141532898
0.3065865635871887,4.190127849578857,-0.12285016477108002
0.338660329580307,4.226837635040283,-0.12373612821102142
0.41522881388664246,4.761152267456055,-0.13916584849357605
0.45347604155540466,4.81257963180542,-0.14046409726142883
0.4888743758201599,4.828744411468506,-0.14073707163333893
0.515159010887146,4.759260654449463,-0.1384526491165161
0.548855185508728,4.763364791870117,-0.13827475905418396
0.583242654800415,4.767156600952148,-0.13808804750442505
0.6289314031600952,4.859803199768066,-0.14047826826572418
0.6728137731552124,4.928821563720703,-0.14218172430992126
0.6909266114234924,4.8119587898254395,-0.13849101960659027
0.7333648204803467,4.86887788772583,-0.13973577320575714
0.767505407333374,4.863628387451172,-0.13919086754322052
0.8012126684188843,4.8582048416137695,-0.13865229487419128
0.8408845067024231,4.887173652648926,-0.13909874856472015
0.880290687084198,4.911984443664551,-0.13941437005996704
0.9124924540519714,4.898178577423096,-0.13855315744876862
0.9571502208709717,4.949336051940918,-0.13953132927417755
0.9888462424278259,4.92719030380249,-0.1384335309267044
1.0144068002700806,4.878146648406982,-0.1365964114665985
1.0573636293411255,4.912979602813721,-0.1371152400970459
1.110534906387329,4.9933013916015625,-0.13878296315670013
1.1350916624069214,4.943737506866455,-0.136840358376503
1.1940580606460571,5.038263320922852,-0.13887181878089905
1.2327710390090942,5.045033931732178,-0.13848266005516052
1.2764021158218384,5.0704426765441895,-0.1386062055826187
1.3168922662734985,5.08430814743042,-0.13832779228687286
1.3434977531433105,5.045046329498291,-0.13660217821598053
1.3849292993545532,5.058151721954346,-0.13628537952899933
1.4285931587219238,5.07847785949707,-0.13616527616977692
0.8625425100326538,2.9862828254699707,-0.07967857271432877
0.8962075114250183,3.0252737998962402,-0.08027120679616928
0.9031730890274048,2.974278450012207,-0.0784749835729599
0.9227713942527771,2.9641833305358887,-0.07775740325450897
0.9362648725509644,2.9353814125061035,-0.07655844837427139
0.9590594172477722,2.936246395111084,-0.07613790035247803
0.9665538668632507,2.8926608562469482,-0.07452263683080673
0.9785529375076294,2.8638908863067627,-0.07330241054296494
0.9982379078865051,2.8571059703826904,-0.07264450192451477
1.009238600730896,2.8242435455322266,-0.07131772488355637
1.0206671953201294,2.7952191829681396,-0.07009564340114594
1.0367844104766846,2.7809643745422363,-0.06921816617250443
1.0472002029418945,2.7520203590393066,-0.06798366457223892
1.0563795566558838,2.7192208766937256,-0.06665154546499252
1.075619101524353,2.7116854190826416,-0.06593608111143112
1.0882009267807007,2.6898348331451416,-0.06486362218856812
1.100326657295227,2.668025016784668,-0.06378621608018875
1.1063380241394043,2.631696939468384,-0.062367964535951614
1.1276708841323853,2.6311440467834473,-0.061793163418769836
1.1399126052856445,2.6088430881500244,-0.06069641187787056
1.1494178771972656,2.5833287239074707,-0.05951426923274994
1.1747281551361084,2.5933878421783447,-0.059154998511075974
1.177937388420105,2.5532917976379395,-0.057636916637420654
1.1856671571731567,2.5238630771636963,-0.056373726576566696
1.189399003982544,2.487537145614624,-0.054933130741119385
1.209344506263733,2.4866082668304443,-0.054285869002342224
1.2142349481582642,2.453775644302368,-0.052930451929569244
1.2172342538833618,2.4173758029937744,-0.051504459232091904
1.2299705743789673,2.4021658897399902,-0.0505298487842083
1.2386798858642578,2.380106210708618,-0.04941164329648018
1.2661067247390747,2.3921940326690674,-0.048973750323057175
1.264177918434143,2.348970890045166,-0.04740849882364273
1.2761460542678833,2.333608627319336,-0.04640606790781021
1.2952640056610107,2.3320083618164062,-0.04567231982946396
1.3111588954925537,2.3231260776519775,-0.04476921260356903
1.313921332359314,2.2901153564453125,-0.043386299163103104
1.3289672136306763,2.2814342975616455,-0.04247226193547249
1.3239790201187134,2.239091396331787,-0.04094181954860687
1.33949613571167,2.229860544204712,-0.0399838462471962
1.3383713960647583,2.194032907485962,-0.03855908289551735
1.3528335094451904,2.185162305831909,-0.03760023042559624
1.3592301607131958,2.1627750396728516,-0.0363982617855072
1.374226689338684,2.153294324874878,-0.0353955440223217
1.3817784786224365,2.1345274448394775,-0.03422964736819267
1.3958375453948975,2.1253764629364014,-0.03320220485329628
1.4064983129501343,2.1089704036712646,-0.032002802938222885
1.424505591392517,2.1063027381896973,-0.03102755919098854
1.4161938428878784,2.064720869064331,-0.029465805739164352
1.463988184928894,2.1029279232025146,-0.02897808328270912
1.4390255212783813,2.03935170173645,-0.027088956907391548
1.466444492340088,2.048632860183716,-0.026110989972949028
2.147934675216675,2.958587408065796,-0.03606560453772545
2.175610065460205,2.9577364921569824,-0.03439069911837578
2.0960195064544678,2.9525864124298096,0.035443197935819626
2.0871829986572266,2.9874532222747803,0.03740481659770012
2.0650529861450195,3.0027718544006348,0.039055053144693375
3.156097173690796,4.6604390144348145,0.06276185065507889
3.1160337924957275,4.677905082702637,0.06507094204425812
3.1104676723480225,4.742419719696045,0.06791181862354279
3.0935633182525635,4.790670871734619,0.07049928605556488
1.6270477771759033,2.5619115829467773,0.03869833052158356
1.6250548362731934,2.6000819206237793,0.04023544490337372
1.6107817888259888,2.6181070804595947,0.041434090584516525
2.9517006874084473,4.879229545593262,0.07886947691440582
1.5441282987594604,2.5944955348968506,0.04277594015002251
1.488550066947937,2.541114330291748,0.042682502418756485
1.4695883989334106,2.5521111488342285,0.043646860867738724
1.433315396308899,2.5323259830474854,0.0440589040517807
1.4194161891937256,2.549072265625,0.04505757987499237
1.401426076889038,2.5589914321899414,0.045932967215776443
1.3787575960159302,2.5623931884765625,0.04666321724653244
1.376192569732666,2.603583574295044,0.048090457916259766
2.4747226238250732,4.761775493621826,0.0891151875257492
2.423179864883423,4.744368553161621,0.0899209976196289
2.3778178691864014,4.7410359382629395,0.09094510227441788
1.1993831396102905,2.435081720352173,0.04725905507802963
1.1821004152297974,2.443504571914673,0.0479610301554203
1.176572322845459,2.4764602184295654,0.049133967608213425
1.194743275642395,2.5628578662872314,0.051366858184337616
1.1842581033706665,2.5891952514648438,0.052413616329431534
1.155036449432373,2.572409152984619,0.05256747454404831
1.154435396194458,2.619683027267456,0.05403624475002289
1.1227058172225952,2.599424362182617,0.054083213210105896
1.0962120294570923,2.5895025730133057,0.054330579936504364
1.0914381742477417,2.629603862762451,0.05561913922429085
2.0049209594726562,4.926965236663818,0.10503962635993958
1.9814722537994385,4.970069408416748,0.10675568878650665
2.0342788696289062,5.213706970214844,0.11279638111591339
1.9870567321777344,5.202608585357666,0.11334341764450073
1.95079505443573,5.2162909507751465,0.11440844088792801
1.9399470090866089,5.299400329589844,0.11701202392578125
1.9098585844039917,5.335190773010254,0.11852666735649109
1.8746289014816284,5.3600616455078125,0.11980853229761124
1.8390755653381348,5.38059663772583,0.1209799200296402
1.940125584602356,5.808122158050537,0.13135042786598206
1.9408544301986694,5.947688579559326,0.13528454303741455
1.895774006843567,5.9539923667907715,0.13609826564788818
1.8684886693954468,6.019859313964844,0.1382974237203598
1.8474498987197876,6.103893756866455,0.1409122794866562
1.8126553297042847,6.142801761627197,0.14249372482299805
1.7741506099700928,6.170266151428223,0.1438188999891281
1.7426706552505493,6.227888107299805,0.14573314785957336
1.7217376232147217,6.326821804046631,0.148633673787117
1.68926203250885,6.388077259063721,0.15067227184772491
1.6525958776474,6.42990255355835,0.15224844217300415
0.8199804425239563,3.2850263118743896,0.07808780670166016
1.5483318567276,6.395509719848633,0.1525232493877411
0.7857694029808044,3.3495407104492188,0.08013837784528732
1.435167670249939,6.321739196777344,0.15174542367458344
1.3952945470809937,6.350634574890137,0.1529284417629242
1.338801383972168,6.302894115447998,0.15227110683918
1.2865252494812012,6.273897647857666,0.1519933044910431
1.219303011894226,6.167914390563965,0.1498081237077713
1.168959140777588,6.145840167999268,0.14966623485088348
1.123309850692749,6.138453960418701,0.1498730629682541
1.0819354057312012,6.153797626495361,0.15064112842082977
1.033072590827942,6.1265363693237305,0.15033547580242157
0.9847615957260132,6.102832317352295,0.15003378689289093
0.93376225233078,6.063422679901123,0.14935456216335297
0.8805612921714783,5.996384143829346,0.14798875153064728
0.8399785161018372,6.010078430175781,0.14861753582954407
0.7951387763023376,5.992528915405273,0.14848008751869202
0.7448430061340332,5.9320783615112305,0.14719180762767792
0.48914390802383423,4.130025386810303,0.1026170402765274
0.4613800644874573,4.148930072784424,0.10323398560285568
0.4292418658733368,4.120964050292969,0.10268561542034149
0.39902570843696594,4.108300685882568,0.10252184420824051
0.3689332902431488,4.095424175262451,0.10232758522033691
0.3401848077774048,4.097908973693848,0.10246337205171585
0.31153061985969543,4.108016014099121,0.10279630124568939
0.27664974331855774,4.0204854011535645,0.10068776458501816
0.24918590486049652,4.030102252960205,0.10101494938135147
0.22070689499378204,4.023937702178955,0.10095153003931046
0.194142147898674,4.056581020355225,0.10180412977933884
0.3156852722167969,7.748946189880371,0.19450616836547852
0.26134058833122253,7.743152141571045,0.1944078505039215
0.20640704035758972,7.70574426651001,0.19352474808692932
0.15239161252975464,7.683565139770508,0.1930328905582428
0.09855928272008896,7.6571044921875,0.1924149990081787
0.044178999960422516,7.634182929992676,0.1917576640844345
-0.008967526257038116,7.603067398071289,0.19090576469898224
-0.061434805393218994,7.559869289398193,0.18976056575775146
-0.11383208632469177,7.551452159881592,0.1894979476928711
-0.165255606174469,7.503632545471191,0.18825602531433105
-0.21708837151527405,7.494502067565918,0.18792025744915009
-0.2692071497440338,7.473278045654297,0.18722745776176453
-0.3206661641597748,7.463434219360352,0.18683208525180817
-0.3739001452922821,7.4883317947387695,0.18731462955474854
-0.3090302646160126,5.430927753448486,0.13575473427772522
-0.3462754786014557,5.4208574295043945,0.13541410863399506
-0.37531495094299316,5.289748191833496,0.13195912539958954
-0.3927615284919739,5.041759014129639,0.1256037950515747
-0.42401736974716187,4.996123790740967,0.12430503964424133
-0.4333227574825287,4.716969966888428,0.11721181124448776
-0.4564932584762573,4.616696357727051,0.11458064615726471
-0.48823150992393494,4.605600357055664,0.1141374334692955
-0.5181984305381775,4.586613178253174,0.11345089226961136
-0.5469965934753418,4.559677600860596,0.11257495731115341
-0.5784872174263,4.5557966232299805,0.11227405816316605
-0.6070128083229065,4.528452396392822,0.11140020191669464
-0.6400761604309082,4.531793117523193,0.11128407716751099
-0.6672305464744568,4.500250816345215,0.11024797707796097
-0.6992994546890259,4.503293037414551,0.11004741489887238
-0.7251420021057129,4.46756649017334,0.10890640318393707
-0.7561692595481873,4.462429523468018,0.10851441323757172
-0.7858017683029175,4.449385166168213,0.1079358384013176
-0.8114533424377441,4.413027286529541,0.10676978528499603
-0.8364894986152649,4.380534648895264,0.10565393418073654
-0.7442449927330017,3.7579777240753174,0.09035954624414444
-0.7505146265029907,3.657130002975464,0.08766401559114456
-0.777509331703186,3.659480571746826,0.08745113760232925
-0.9400271773338318,4.275604248046875,0.10185877233743668
-0.982168972492218,4.326222896575928,0.1026887521147728
-1.0098392963409424,4.3118391036987305,0.10196743160486221
-1.0338116884231567,4.282066345214844,0.10088808089494705
-1.059700846672058,4.259651184082031,0.09998516738414764
-1.0810269117355347,4.2180280685424805,0.09863373637199402
-1.1158521175384521,4.233199119567871,0.09858352690935135
-1.151694416999817,4.251931190490723,0.09858289361000061
-1.1763298511505127,4.2289838790893555,0.09761926531791687
-1.2056022882461548,4.220746994018555,0.09699221700429916
-1.229926586151123,4.193392276763916,0.0959235280752182
-1.2565652132034302,4.177346229553223,0.09510776400566101
-1.282540202140808,4.161287784576416,0.0942564457654953
-1.308355450630188,4.145068645477295,0.09340755641460419
-1.3344796895980835,4.1285400390625,0.09254971891641617
-1.358703374862671,4.1041951179504395,0.09151153266429901
-1.3869562149047852,4.094749927520752,0.09080613404512405
-1.4093841314315796,4.070572853088379,0.0897354856133461
-1.4419704675674438,4.075734615325928,0.08931568264961243
-1.4647243022918701,4.051021575927734,0.0882326290011406
-1.4901527166366577,4.033428192138672,0.0873071476817131
-1.5183634757995605,4.022910118103027,0.08651426434516907
-1.5481945276260376,4.019913196563721,0.08585481345653534
-1.5680242776870728,3.9912643432617188,0.08465372025966644
-1.592613697052002,3.9731202125549316,0.0836673155426979
-1.62458074092865,3.9728353023529053,0.08305688202381134
-1.65059494972229,3.9578850269317627,0.08210090547800064
-1.670865535736084,3.932420015335083,0.08091537654399872
-1.7003014087677002,3.9283134937286377,0.08017104119062424
-1.7149544954299927,3.8878326416015625,0.07866779714822769
-1.7419053316116333,3.8758511543273926,0.0777507871389389
-1.7682483196258545,3.8639230728149414,0.07678741216659546
-1.784033179283142,3.8308446407318115,0.07541769742965698
-1.8001161813735962,3.797415018081665,0.07403389364480972
-1.84004545211792,3.8129711151123047,0.0735943466424942
-1.5526593923568726,3.16231107711792,0.06040610000491142
-1.5599607229232788,3.1238460540771484,0.05902092531323433
-1.5808947086334229,3.1133201122283936,0.058174215257167816
-1.9502936601638794,3.7754459381103516,0.06972905248403549
-1.9580731391906738,3.7273738384246826,0.06802420318126678
-1.669939398765564,3.1286492347717285,0.0563875213265419
-1.679518222808838,3.096900701522827,0.05510415509343147
-1.7089273929595947,3.0986406803131104,0.05437460169196129
-1.7034269571304321,3.039151191711426,0.05258936062455177
-0.8423272967338562,1.4800280332565308,0.025237571448087692
-0.7661389112472534,1.3256175518035889,0.02226453647017479
-0.7832574248313904,1.3337332010269165,0.022040456533432007
-0.7764173150062561,1.3014791011810303,0.021143974736332893
-0.8738671541213989,1.4434268474578857,0.023045949637889862
-0.8917847871780396,1.450805902481079,0.022739121690392494
-0.8935818672180176,1.4313223361968994,0.02199997566640377
-0.9070764183998108,1.4320725202560425,0.021565916016697884
-0.8806493878364563,1.370176911354065,0.020191112533211708
-1.228242039680481,1.7768422365188599,0.022978560999035835
-1.2259818315505981,1.7498724460601807,0.021948035806417465
-1.3397802114486694,1.8075157403945923,0.0193798691034317
-1.360412359237671,1.9466780424118042,-0.018658971413969994
-1.215560793876648,1.7666676044464111,-0.017664426937699318
-1.1734508275985718,1.7339192628860474,-0.018044644966721535
-1.2805590629577637,1.9207669496536255,-0.020689362660050392
-1.257732629776001,1.9171226024627686,-0.021337412297725677
-0.8821646571159363,1.4108850955963135,-0.017103808000683784
-0.8799579739570618,1.4306319952011108,-0.017784064635634422
-0.8820958137512207,1.4567768573760986,-0.018532361835241318
-0.813491940498352,1.365839958190918,-0.017763273790478706
-0.7618524432182312,1.3010690212249756,-0.01728438027203083
-0.7857637405395508,1.3639644384384155,-0.018480317667126656
-0.8550543785095215,1.508808970451355,-0.02082809805870056
-1.651667833328247,2.9653162956237793,-0.04166395962238312
-1.6603844165802002,3.0318827629089355,-0.04332006722688675
-1.6170704364776611,3.0020577907562256,-0.043581753969192505
-1.5950591564178467,3.0137979984283447,-0.044435061514377594
-1.6360150575637817,3.146674394607544,-0.04708090052008629
-1.6066924333572388,3.1441993713378906,-0.047701798379421234
-1.5813157558441162,3.1482865810394287,-0.048410654067993164
-1.5619981288909912,3.1666159629821777,-0.049314919859170914
-1.5350641012191772,3.1710708141326904,-0.05001002550125122
-1.5194917917251587,3.1958577632904053,-0.05099570378661156
-1.4971989393234253,3.2063498497009277,-0.051754117012023926
-1.4741036891937256,3.2170214653015137,-0.052488528192043304
-1.4442869424819946,3.2133843898773193,-0.05298209562897682
