X,Y,Z
-0.42440065741539,1.7888492345809937,-0.38754481077194214
-0.403857558965683,1.7576088905334473,-0.38356727361679077
-0.39145877957344055,1.7597293853759766,-0.3866870105266571
-0.36942464113235474,1.7169644832611084,-0.37989217042922974
-0.3534735143184662,1.7001615762710571,-0.3787587881088257
-0.33402958512306213,1.664563775062561,-0.3731933832168579
-0.32359302043914795,1.6737959384918213,-0.377542644739151
-0.309050977230072,1.6604382991790771,-0.3767681419849396
-0.28460702300071716,1.5906965732574463,-0.36310797929763794
-0.274723082780838,1.599625587463379,-0.3671906590461731
-0.2690598666667938,1.6348376274108887,-0.37716931104660034
-0.24970391392707825,1.5872950553894043,-0.3680873215198517
-0.23519787192344666,1.565919041633606,-0.36497223377227783
-0.23448480665683746,1.6386258602142334,-0.3837531507015228
-0.20766828954219818,1.5266976356506348,-0.359014093875885
-0.19506163895130157,1.512614369392395,-0.357179194688797
-0.18634231388568878,1.5286318063735962,-0.3624696135520935
-0.17290084064006805,1.5068514347076416,-0.35877320170402527
-0.16159842908382416,1.500139594078064,-0.35831472277641296
-0.1496468484401703,1.4857838153839111,-0.3560291528701782
-0.14068442583084106,1.5016027688980103,-0.36099767684936523
-0.1269068717956543,1.4643878936767578,-0.3532087504863739
-0.12013958394527435,1.5104445219039917,-0.36515557765960693
-0.10686114430427551,1.4731385707855225,-0.35695764422416687
-0.09958230704069138,1.5190743207931519,-0.3689512312412262
-0.08857240527868271,1.5119131803512573,-0.36808711290359497
-0.07688511908054352,1.4895967245101929,-0.36317387223243713
-0.06500739604234695,1.4596267938613892,-0.356367290019989
-0.0451786033809185,1.475277304649353,-0.361235111951828
-0.03548337146639824,1.4982458353042603,-0.3670872449874878
-0.024827690795063972,1.4832324981689453,-0.3635706305503845
-0.014486243017017841,1.4984955787658691,-0.3674965500831604
-0.0040107849054038525,1.4833353757858276,-0.363976389169693
0.0062850178219377995,1.4757559299468994,-0.3620504140853882
0.016719959676265717,1.4908952713012695,-0.3655904531478882
0.026962850242853165,1.483201026916504,-0.36354783177375793
0.038031429052352905,1.5133655071258545,-0.3708006739616394
0.04726181551814079,1.467652440071106,-0.35924363136291504
0.05925368145108223,1.5129257440567017,-0.36980950832366943
0.06907960027456284,1.497452974319458,-0.36553439497947693
0.0803031474351883,1.5122346878051758,-0.36866244673728943
0.09037763625383377,1.5042439699172974,-0.36606621742248535
0.1030818298459053,1.534103512763977,-0.37245574593544006
0.11152812838554382,1.503289818763733,-0.36414745450019836
0.12509271502494812,1.540556788444519,-0.37234368920326233
0.1338394284248352,1.517214059829712,-0.3657553195953369
0.15597979724407196,1.6375867128372192,-0.3934907913208008
0.16336719691753387,1.595208764076233,-0.38205575942993164
0.18152466416358948,1.6585955619812012,-0.3959784209728241
0.18386611342430115,1.5783649682998657,-0.3755451738834381
0.20283225178718567,1.6416141986846924,-0.38898083567619324
0.2202286720275879,1.6858469247817993,-0.39782240986824036
0.23325881361961365,1.6922273635864258,-0.3976731598377228
0.2499944269657135,1.7249075174331665,-0.40365976095199585
0.2592146694660187,1.7048375606536865,-0.3969605267047882
0.27893996238708496,1.752398133277893,-0.40599334239959717
0.2887074947357178,1.7359169721603394,-0.4001713693141937
0.30737438797950745,1.771930456161499,-0.4064447581768036
0.3240954577922821,1.7928352355957031,-0.40877050161361694
0.34441423416137695,1.832371473312378,-0.4153205454349518
0.3616631031036377,1.8530141115188599,-0.417520672082901
0.3792315423488617,1.8735132217407227,-0.41964656114578247
0.39945337176322937,1.9051430225372314,-0.4238852858543396
0.4163437485694885,1.9179123640060425,-0.4237705171108246
0.43903660774230957,1.956674575805664,-0.42938968539237976
0.45279255509376526,1.9542917013168335,-0.425942063331604
0.4736480414867401,1.9816030263900757,-0.4286746680736542
0.4985837936401367,2.023602247238159,-0.4343843162059784
0.5149602293968201,2.028249979019165,-0.4319552481174469
0.5534428954124451,2.117976665496826,-0.44755715131759644
0.5832602977752686,2.1704001426696777,-0.45483702421188354
0.6077122092247009,2.2004241943359375,-0.4571486711502075
0.6420402526855469,2.2634034156799316,-0.46614545583724976
0.6679902672767639,2.2928481101989746,-0.46798980236053467
0.7039601802825928,2.355232000350952,-0.47630852460861206
0.7419335842132568,2.420978307723999,-0.48489972949028015
0.7854660749435425,2.5010015964508057,-0.4960756301879883
0.8207912445068359,2.551339864730835,-0.5011081099510193
0.8643378019332886,2.6231844425201416,-0.5099232196807861
0.9085698127746582,2.6947364807128906,-0.5182745456695557
0.9588799476623535,2.780381441116333,-0.5290108323097229
1.0131189823150635,2.872734785079956,-0.540623664855957
1.0712649822235107,2.9718027114868164,-0.5530178546905518
1.1333976984024048,3.0775768756866455,-0.565993070602417
1.193361520767212,3.171779155731201,-0.5762909650802612
1.2559868097305298,3.268986701965332,-0.58674556016922
1.3002541065216064,3.315350294113159,-0.5876902341842651
1.4453076124191284,3.611978054046631,-0.6319694519042969
1.549373745918274,3.796278715133667,-0.6554908156394958
1.639108419418335,3.9364068508148193,-0.6703640818595886
1.7107242345809937,4.029582500457764,-0.6767690181732178
1.8554408550262451,4.288782119750977,-0.7099847793579102
1.946199655532837,4.415558338165283,-0.7203315496444702
1.934877634048462,4.308447360992432,-0.6922686100006104
1.5218878984451294,3.3260321617126465,-0.5260229706764221
1.538559079170227,3.3028371334075928,-0.5140062570571899
1.551698088645935,3.27252459526062,-0.500979483127594
1.574950098991394,3.262906074523926,-0.49106061458587646
1.597927451133728,3.2532055377960205,-0.48108893632888794
1.620890736579895,3.243323564529419,-0.4708811640739441
1.6540570259094238,3.254096269607544,-0.46373921632766724
1.6113569736480713,3.116271734237671,-0.43555426597595215
1.6133009195327759,3.0685365200042725,-0.42037808895111084
1.6454838514328003,3.079162836074829,-0.4132290184497833
1.6985726356506348,3.1268367767333984,-0.41072002053260803
1.7456492185592651,3.1599724292755127,-0.4057213068008423
1.712307333946228,3.0510003566741943,-0.38275304436683655
1.7775208950042725,3.118032932281494,-0.3819390833377838
1.33804452419281,2.309810161590576,-0.275844544172287
0.971818208694458,1.6514540910720825,-0.19209980964660645
0.9414054751396179,1.575248122215271,-0.17822283506393433
0.893821120262146,1.472882866859436,-0.1619313508272171
0.900214433670044,1.4604460000991821,-0.1557440161705017
0.9864934682846069,1.576919674873352,-0.16292308270931244
0.9971917271614075,1.5707776546478271,-0.1570202112197876
1.0106372833251953,1.567414402961731,-0.15104998648166656
1.0106781721115112,1.5447516441345215,-0.14337265491485596
1.0296307802200317,1.5514777898788452,-0.1384422332048416
1.0405845642089844,1.5447202920913696,-0.13195589184761047
1.0533974170684814,1.5412803888320923,-0.12569840252399445
2.5341057777404785,3.65554141998291,-0.28363844752311707
2.573228359222412,3.6579933166503906,-0.26866430044174194
2.602421998977661,3.6480507850646973,-0.25257235765457153
2.603519916534424,3.6003475189208984,-0.23394180834293365
2.6243555545806885,3.576627016067505,-0.2158426195383072
2.6848866939544678,3.610558032989502,-0.20106184482574463
2.6545026302337646,3.741441011428833,0.6180676221847534
2.6104166507720947,3.736659526824951,0.6304582357406616
2.5693283081054688,3.734309196472168,0.6424291729927063
1.05077064037323,1.552772879600525,0.2720775008201599
1.043058156967163,1.5662059783935547,0.2791785001754761
1.0316544771194458,1.572731375694275,0.2848106026649475
1.0315686464309692,1.5993884801864624,0.2940334975719452
1.0146753787994385,1.5999938249588013,0.2984246611595154
1.007070541381836,1.6129337549209595,0.30477336049079895
0.9992300271987915,1.6258999109268188,0.31108465790748596
0.9864748120307922,1.6327158212661743,0.31605616211891174
0.9813332557678223,1.652773141860962,0.32369786500930786
0.9655229449272156,1.652241587638855,0.3269887864589691
1.32753324508667,2.308990001678467,0.4616338908672333
1.8357925415039062,3.2491326332092285,0.6557415723800659
1.771417498588562,3.1908679008483887,0.6500168442726135
1.766111135482788,3.23600697517395,0.6650791168212891
1.7773584127426147,3.311298131942749,0.686359703540802
1.7630361318588257,3.343398094177246,0.6984319090843201
2.3871512413024902,4.60993766784668,0.9703536629676819
2.3419289588928223,4.605031967163086,0.9765447974205017
2.315302610397339,4.63348913192749,0.989592969417572
2.2820003032684326,4.647863388061523,0.9994927644729614
2.250154495239258,4.669841289520264,1.0104378461837769
2.2148220539093018,4.684652328491211,1.0198988914489746
2.1833503246307373,4.705832481384277,1.03068208694458
2.1529886722564697,4.726262092590332,1.041141390800476
2.118515729904175,4.739821434020996,1.050175666809082
2.08300518989563,4.753682613372803,1.0585254430770874
2.04136061668396,4.75320291519165,1.0637253522872925
1.7582579851150513,4.1776204109191895,0.9395684599876404
1.721316933631897,4.170746326446533,0.9424859285354614
1.6983237266540527,4.199198246002197,0.9535208344459534
1.6730290651321411,4.22430944442749,0.9632524847984314
1.6444721221923828,4.242241859436035,0.9712850451469421
1.610277533531189,4.245701313018799,0.9760622382164001
1.5878249406814575,4.277168273925781,0.9872061014175415
1.5544896125793457,4.2798357009887695,0.991777777671814
1.5239920616149902,4.289404392242432,0.9977561235427856
1.4925130605697632,4.299173831939697,1.0032776594161987
1.465868592262268,4.323153018951416,1.0121800899505615
1.4413009881973267,4.354208946228027,1.0228265523910522
1.4101053476333618,4.363133430480957,1.0282618999481201
1.3771123886108398,4.364409923553467,1.0318816900253296
1.3459460735321045,4.372918605804443,1.0369672775268555
1.3174282312393188,4.392409801483154,1.0442720651626587
1.2876290082931519,4.408051013946533,1.05072820186615
1.2576701641082764,4.423482894897461,1.0571987628936768
1.230114221572876,4.445910930633545,1.0653640031814575
1.1988781690597534,4.453336715698242,1.0699493885040283
1.1749964952468872,4.490116596221924,1.0813956260681152
1.1425641775131226,4.497529983520508,1.0853350162506104
1.1082650423049927,4.497321128845215,1.0874879360198975
1.0822526216506958,4.533959865570068,1.0986614227294922
1.0503860712051392,4.5405144691467285,1.1025136709213257
1.0193617343902588,4.550540924072266,1.1072615385055542
0.9906484484672546,4.571511268615723,1.1146645545959473
0.9547408223152161,4.56284761428833,1.1141988039016724
0.776546835899353,3.8502349853515625,0.9416435360908508
0.7569034695625305,3.896061420440674,0.9543482661247253
0.8591379523277283,4.594950199127197,1.1273378133773804
0.8351002931594849,4.644921779632568,1.1414412260055542
0.8064782023429871,4.672325611114502,1.1500844955444336
0.7716242074966431,4.669851779937744,1.1509286165237427
0.7413355708122253,4.693375110626221,1.1579554080963135
0.7079782485961914,4.6979289054870605,1.1603631973266602
0.6799266934394836,4.739809513092041,1.1720620393753052
0.6458846926689148,4.736321926116943,1.1725796461105347
0.6161794066429138,4.7702789306640625,1.1824582815170288
0.5838320851325989,4.7814154624938965,1.186635136604309
0.5509181618690491,4.792544841766357,1.1901603937149048
0.5183391571044922,4.807209491729736,1.1946250200271606
0.48596057295799255,4.825423240661621,1.200035572052002
0.4534645676612854,4.843405723571777,1.2054507732391357
0.4203972816467285,4.861192226409912,1.2108930349349976
0.3877306282520294,4.878706455230713,1.2163147926330566
0.3541787266731262,4.888530254364014,1.219517707824707
0.32109901309013367,4.9095916748046875,1.2251017093658447
0.2879619300365448,4.934211254119873,1.2316370010375977
0.25274527072906494,4.935918807983398,1.232523798942566
0.21928280591964722,4.96006441116333,1.23906672000885
0.18561340868473053,4.983975887298584,1.2456146478652954
0.15093372762203217,4.984928607940674,1.2464872598648071
0.11679866909980774,5.012296676635742,1.2534523010253906
0.08141373842954636,5.02813720703125,1.2573195695877075
0.04625839367508888,5.020984649658203,1.2555005550384521
0.011325409635901451,5.066641330718994,1.2669477462768555
-0.023978078737854958,5.0817365646362305,1.2708147764205933
-0.0591653548181057,5.073849678039551,1.268995761871338
-0.09554438292980194,5.099806785583496,1.2757079601287842
-0.10953589528799057,4.265735626220703,1.0666558742523193
-0.1391342729330063,4.265025615692139,1.0660456418991089
-0.08915913105010986,2.253237247467041,0.5629964470863342
-0.20166213810443878,4.334921836853027,1.08279287815094
-0.12733426690101624,2.380625009536743,0.594485342502594
-0.2624276876449585,4.3319807052612305,1.0815389156341553
-0.29354166984558105,4.345351696014404,1.0846290588378906
-0.3235955536365509,4.3435444831848145,1.083317756652832
-0.19018015265464783,2.335132122039795,0.5819680690765381
-0.3808961510658264,4.3090996742248535,1.0731748342514038
-0.40513381361961365,4.242473125457764,1.0558782815933228
-0.43153825402259827,4.209696292877197,1.0470826625823975
-0.45461609959602356,4.150367259979248,1.0317455530166626
-0.47985342144966125,4.117346286773682,1.0227890014648438
-0.5002394318580627,4.0504279136657715,1.0050135850906372
-0.5255950093269348,4.0247344970703125,0.9975207448005676
-0.5475652813911438,3.9801442623138428,0.9854274392127991
-0.5675470232963562,3.9241385459899902,0.9705705046653748
-0.5908982753753662,3.894280433654785,0.9622423648834229
-0.609693169593811,3.838045120239258,0.9474619030952454
-0.6298074126243591,3.7930235862731934,0.935099720954895
-0.6493252515792847,3.7517948150634766,0.9235216379165649
-0.6676343679428101,3.70672869682312,0.9110715985298157
-0.6888912320137024,3.6802313327789307,0.9032490849494934
-0.7086589932441711,3.6461031436920166,0.893600344657898
-0.7310706377029419,3.6267480850219727,0.8876268267631531
-0.7466588616371155,3.5737099647521973,0.8734460473060608
-0.761404812335968,3.5246524810791016,0.859748363494873
-0.7829251885414124,3.5089335441589355,0.8542523384094238
-0.7983350157737732,3.46714186668396,0.8424684405326843
-0.8133639693260193,3.4252564907073975,0.830724835395813
-0.8350221514701843,3.4089860916137695,0.8252009749412537
-0.8495572209358215,3.3668549060821533,0.8135067820549011
-0.8708259463310242,3.354283332824707,0.8087247610092163
-0.8809155225753784,3.301257848739624,0.7939972877502441
-0.8973642587661743,3.2739205360412598,0.7855258584022522
-0.9117724895477295,3.239084005355835,0.775291919708252
-0.9259506464004517,3.204136371612549,0.765084981918335
-0.9472968578338623,3.194681406021118,0.7610189318656921
-0.960650622844696,3.159637212753296,0.7508037686347961
-0.9707460403442383,3.1175248622894287,0.7385751008987427
-0.9922826290130615,3.111598014831543,0.7349386811256409
-1.0074750185012817,3.087512731552124,0.7271010279655457
-1.0168659687042236,3.0451161861419678,0.7149705290794373
-1.035801887512207,3.0315208435058594,0.7096450924873352
-1.0545310974121094,3.0178325176239014,0.7043032050132751
-1.0672633647918701,2.98999285697937,0.6952642798423767
-1.0761051177978516,2.951228141784668,0.6837178468704224
-1.0934271812438965,2.9376235008239746,0.6781107783317566
-1.1247472763061523,2.9594199657440186,0.6806193590164185
-1.1179425716400146,2.8811428546905518,0.6601567268371582
-1.133885145187378,2.8635215759277344,0.6536102890968323
-1.1606874465942383,2.8744044303894043,0.6531686186790466
-1.140815258026123,2.7720277309417725,0.6271433234214783
-1.1225680112838745,2.677037477493286,0.6030006408691406
-1.121840238571167,2.6243057250976562,0.5884326100349426
-1.1342824697494507,2.603217601776123,0.5810354948043823
-1.1680353879928589,2.63118839263916,0.5843349099159241
-1.1794407367706299,2.610318660736084,0.5766364336013794
-1.2177947759628296,2.648574113845825,0.581993043422699
-1.239248514175415,2.648115873336792,0.5787400007247925
-1.2547472715377808,2.6333954334259033,0.572296142578125
-1.2619110345840454,2.6012632846832275,0.5620284080505371
-1.2692084312438965,2.5731844902038574,0.552435576915741
-1.2830606698989868,2.5588207244873047,0.5458498597145081
-1.2969523668289185,2.544293165206909,0.5392363667488098
-1.3079931735992432,2.522486925125122,0.5309667587280273
-1.3187705278396606,2.5006401538848877,0.5227501392364502
-1.3303242921829224,2.4826295375823975,0.5149434804916382
-1.3285393714904785,2.4410605430603027,0.5024133920669556
-1.352578043937683,2.446566104888916,0.49955958127975464
-1.3512775897979736,2.4044594764709473,0.4868253469467163
-1.368249535560608,2.3960344791412354,0.48092347383499146
-1.3749070167541504,2.3712286949157715,0.4714411795139313
-1.3868520259857178,2.3565218448638916,0.464114248752594
-1.3993432521820068,2.341383457183838,0.4565557837486267
-1.4040789604187012,2.312777519226074,0.4463350772857666
-1.4237185716629028,2.3110501766204834,0.4411037266254425
-1.4269617795944214,2.283064365386963,0.4307444095611572
-1.4590425491333008,2.3006012439727783,0.42890363931655884
-1.442264199256897,2.239359140396118,0.41213303804397583
-1.478776454925537,2.2630114555358887,0.41085919737815857
-1.4937560558319092,2.25447154045105,0.4035569131374359
-1.4598859548568726,2.171567678451538,0.38284870982170105
-1.4711668491363525,2.1559324264526367,0.3740447461605072
-1.485500693321228,2.1474194526672363,0.3662826120853424
-1.4861655235290527,2.119976043701172,0.3553200662136078
-1.5056357383728027,2.117095947265625,0.34799084067344666
-1.5115342140197754,2.0952377319335938,0.3372085690498352
-1.520478367805481,2.0805342197418213,0.32762864232063293
-1.5278959274291992,2.0620627403259277,0.3170245289802551
-1.4985342025756836,2.1021058559417725,-0.1503956913948059
-1.4827483892440796,2.112483263015747,-0.16107018291950226
-1.4732515811920166,2.132514715194702,-0.17242184281349182
-1.4798895120620728,2.1743836402893066,-0.18511609733104706
-1.4849436283111572,2.21708607673645,-0.19818691909313202
-1.4726368188858032,2.233694553375244,-0.20886515080928802
-1.4605224132537842,2.249985933303833,-0.21933020651340485
-1.4539110660552979,2.2764177322387695,-0.23075313866138458
-1.3935322761535645,2.2169551849365234,-0.23308022320270538
-1.3612557649612427,2.1994521617889404,-0.23918858170509338
-1.3345998525619507,2.1920173168182373,-0.2462347149848938
-1.3099961280822754,2.1876943111419678,-0.2535932660102844
-1.302189826965332,2.2094264030456543,-0.26356372237205505
-1.2955322265625,2.234792470932007,-0.2740733325481415
-1.2903215885162354,2.2636027336120605,-0.2851409912109375
-1.2702630758285522,2.2649755477905273,-0.29250001907348633
-1.268554925918579,2.3003592491149902,-0.30440375208854675
-1.2478227615356445,2.3017477989196777,-0.31173938512802124
-1.2455722093582153,2.3370602130889893,-0.3236615061759949
-1.2395532131195068,2.365412712097168,-0.3346617519855499
-1.30014967918396,2.5248758792877197,-0.36468029022216797
-1.408704161643982,2.785600423812866,-0.4106602072715759
-1.4282991886138916,2.874008893966675,-0.43185412883758545
-1.3838704824447632,2.834075689315796,-0.4338062107563019
-1.2376532554626465,2.58111310005188,-0.40222281217575073
-1.200663685798645,2.5502920150756836,-0.40443092584609985
-1.1824357509613037,2.5575168132781982,-0.4124307632446289
-1.1748372316360474,2.5894265174865723,-0.42456263303756714
-1.1449681520462036,2.5718984603881836,-0.42840826511383057
-1.1463967561721802,2.62479567527771,-0.4440302550792694
-1.1656066179275513,2.7202446460723877,-0.4671274423599243
-1.0996310710906982,2.616969585418701,-0.45596843957901
-1.0494558811187744,2.5487945079803467,-0.4505142271518707
-0.9978955984115601,2.472792148590088,-0.44315651059150696
-0.9589978456497192,2.424844264984131,-0.4404516816139221
-0.904017984867096,2.3334994316101074,-0.4293842911720276
-0.8639602065086365,2.2776002883911133,-0.4244278073310852
-0.8285915851593018,2.232166051864624,-0.42123979330062866
-0.7955992221832275,2.1898868083953857,-0.4183221161365509
-0.7631760239601135,2.1473424434661865,-0.4149949848651886
-0.732620120048523,2.108138084411621,-0.41206079721450806
-0.7014718055725098,2.0649917125701904,-0.40816375613212585
-0.6719931364059448,2.025238275527954,-0.40481695532798767
-0.639766275882721,1.9742405414581299,-0.39878734946250916
-0.6256342530250549,1.9777894020080566,-0.4035947918891907
-0.6002200245857239,1.9445948600769043,-0.4008367359638214
-0.5797945261001587,1.9258235692977905,-0.4009307622909546
-0.5521043539047241,1.8811904191970825,-0.3953520357608795
-0.5248182415962219,1.8363796472549438,-0.3895247280597687
-0.5035820603370667,1.8096892833709717,-0.38734230399131775
-0.480762243270874,1.7754266262054443,-0.38342732191085815
-0.4681771397590637,1.7779566049575806,-0.387258380651474
-0.45084846019744873,1.7619109153747559,-0.3868866264820099
-0.42157411575317383,1.6975769996643066,-0.3758355379104614
-0.4015345275402069,1.6663305759429932,-0.37188661098480225
-0.39324572682380676,1.6832433938980103,-0.37853744626045227
-0.3796922564506531,1.6778188943862915,-0.3800143003463745
-0.3629707396030426,1.6573901176452637,-0.3780636489391327
-0.3479190766811371,1.6443129777908325,-0.3777981102466583
-0.33480629324913025,1.638572335243225,-0.3790442943572998
-0.3092871904373169,1.5692589282989502,-0.365264356136322
-0.30606234073638916,1.6119210720062256,-0.3775237202644348
-0.28039172291755676,1.5347856283187866,-0.36168476939201355
-0.27863508462905884,1.588604211807251,-0.3766475319862366
-0.2637313902378082,1.567467212677002,-0.3735894560813904
-0.2467176914215088,1.5312011241912842,-0.36686861515045166
-0.23714293539524078,1.5398701429367065,-0.37089839577674866
-0.21807676553726196,1.48458731174469,-0.3594375252723694
-0.20858071744441986,1.4931743144989014,-0.36310699582099915
-0.19416484236717224,1.464041829109192,-0.3575706481933594
-0.18203619122505188,1.4498631954193115,-0.35565924644470215
-0.1524631828069687,1.459768533706665,-0.36211058497428894
0.11556175351142883,1.4923100471496582,-0.3747118413448334
0.12359821796417236,1.461535930633545,-0.3659643828868866
0.14003093540668488,1.5289130210876465,-0.38162708282470703
0.14475859701633453,1.467861294746399,-0.36524492502212524
0.15658855438232422,1.482225775718689,-0.36768412590026855
0.16950391232967377,1.5040851831436157,-0.3717670738697052
0.1820322573184967,1.5183387994766235,-0.3737327754497528
0.19457484781742096,1.5325132608413696,-0.375695139169693
0.20780687034130096,1.5503572225570679,-0.37854504585266113
0.2298043668270111,1.6283046007156372,-0.3958149254322052
0.24901260435581207,1.679807424545288,-0.40630391240119934
0.2528282105922699,1.6259819269180298,-0.39130011200904846
0.26666805148124695,1.6397147178649902,-0.3926563560962677
0.28454554080963135,1.6758639812469482,-0.3991953730583191
0.2976651191711426,1.6819489002227783,-0.3982847034931183
0.31845372915267944,1.729103684425354,-0.4070432782173157
0.3291604220867157,1.7199962139129639,-0.40252479910850525
0.34738215804100037,1.7481595277786255,-0.40657737851142883
0.3658386170864105,1.7762540578842163,-0.4103156626224518
0.38548848032951355,1.8079230785369873,-0.41480329632759094
0.3932979106903076,1.7835688591003418,-0.40643712878227234
0.42450985312461853,1.8633201122283936,-0.4216638505458832
0.4544990062713623,1.931657075881958,-0.4337145686149597
0.4726393222808838,1.94781494140625,-0.43397313356399536
0.48544156551361084,1.9415946006774902,-0.429248571395874
0.50962233543396,1.9796860218048096,-0.4342522919178009
0.5274970531463623,1.9917638301849365,-0.43315389752388
0.5629156231880188,2.0663673877716064,-0.44542986154556274
0.5857748985290527,2.092780828475952,-0.4472007155418396
0.6206639409065247,2.1594574451446533,-0.4574117958545685
0.6456601619720459,2.189141273498535,-0.4592929482460022
0.6766645908355713,2.2369332313537598,-0.4648113250732422
0.7143506407737732,2.3026647567749023,-0.4737515449523926
0.750433087348938,2.3607778549194336,-0.4809519648551941
0.788470447063446,2.4222679138183594,-0.48833486437797546
0.8310388326644897,2.494321823120117,-0.49753203988075256
0.8747326731681824,2.5659339427948,-0.5063169002532959
0.9245754480361938,2.6516075134277344,-0.5175323486328125
0.9784804582595825,2.7440011501312256,-0.5293235778808594
1.0320626497268677,2.832346200942993,-0.5399690270423889
1.085654377937317,2.916520357131958,-0.5494100451469421
1.1597145795822144,3.0504798889160156,-0.5677067041397095
1.22020423412323,3.144277811050415,-0.577795147895813
1.2980252504348755,3.2767441272735596,-0.5942371487617493
1.400606393814087,3.465632677078247,-0.6202297210693359
1.4708566665649414,3.5677855014801025,-0.6299288272857666
1.6080845594406128,3.8257925510406494,-0.6660591959953308
1.6957257986068726,3.9581892490386963,-0.6792680621147156
1.8231202363967896,4.174275875091553,-0.7056857347488403
1.9156773090362549,4.304368495941162,-0.7167790532112122
1.94907546043396,4.299983978271484,-0.7049469947814941
1.9500141143798828,4.2251787185668945,-0.6816872358322144
1.5391913652420044,3.2754898071289062,-0.519827127456665
1.5663056373596191,3.2728285789489746,-0.5105229616165161
1.5891683101654053,3.2633895874023438,-0.5001860857009888
1.6084768772125244,3.246852159500122,-0.4887896776199341
1.631496548652649,3.236917495727539,-0.4782760441303253
1.6404019594192505,3.199172019958496,-0.4636862874031067
1.594500184059143,3.058626413345337,-0.43458092212677
1.6233420372009277,3.062433958053589,-0.42618420720100403
1.6378406286239624,3.0385353565216064,-0.41384562849998474
1.7226686477661133,3.1439783573150635,-0.4188075363636017
1.723617434501648,3.0961127281188965,-0.40309274196624756
1.7604820728302002,3.112435817718506,-0.3956988751888275
1.3551608324050903,2.356907367706299,-0.292117178440094
1.3185374736785889,2.2579290866851807,-0.27269497513771057
0.9613400101661682,1.6213358640670776,-0.19064176082611084
0.8845183849334717,1.4686739444732666,-0.1678348332643509
0.8867156505584717,1.4497698545455933,-0.1608048677444458
0.9644489288330078,1.5532664060592651,-0.1669374406337738
0.9834825992584229,1.5603549480438232,-0.1622895449399948
1.013494849205017,1.5834330320358276,-0.1589832305908203
1.013607144355774,1.5608243942260742,-0.15105319023132324
1.0242053270339966,1.5544923543930054,-0.14472787082195282
1.035439372062683,1.5476479530334473,-0.13798752427101135
1.0415009260177612,1.5347404479980469,-0.13085636496543884
1.047345757484436,1.5218528509140015,-0.12375292181968689
2.556119918823242,3.659417152404785,-0.28208404779434204
2.5761477947235107,3.637051820755005,-0.2648513913154602
2.6191141605377197,3.645947217941284,-0.24933545291423798
2.612687826156616,3.584378480911255,-0.22843825817108154
2.6683900356292725,3.6123480796813965,-0.2133038341999054
2.6295790672302246,3.73384428024292,0.6527518630027771
2.60906720161438,3.7641727924346924,0.6712271571159363
2.5674312114715576,3.766439914703369,0.6845173835754395
1.052189826965332,1.5676705837249756,0.2898315489292145
1.0446410179138184,1.5808697938919067,0.2969517409801483
1.03200364112854,1.5880413055419922,0.30281588435173035
1.0114343166351318,1.5818654298782349,0.30596432089805603
1.0204720497131348,1.6207410097122192,0.31763800978660583
0.9996370077133179,1.6145212650299072,0.3204372525215149
0.9948862791061401,1.6344647407531738,0.3283059895038605
0.9904760122299194,1.6540931463241577,0.3360123336315155
0.966770350933075,1.6403374671936035,0.3367979824542999
1.3417171239852905,2.315349578857422,0.480160117149353
1.355676531791687,2.38128662109375,0.49870845675468445
1.8385651111602783,3.285120725631714,0.6944074034690857
1.7686107158660889,3.212352752685547,0.6849835515022278
1.7941821813583374,3.3147146701812744,0.7127368450164795
1.7686597108840942,3.3266382217407227,0.7209280133247375
2.3992416858673096,4.596433162689209,1.0040122270584106
2.365952730178833,4.6113362312316895,1.0146167278289795
2.3294339179992676,4.6189961433410645,1.0235984325408936
2.3016738891601562,4.647760391235352,1.0367255210876465
2.269686460494995,4.669755935668945,1.0482325553894043
2.2369260787963867,4.691740989685059,1.059922695159912
2.20015549659729,4.6985249519348145,1.0677361488342285
2.1729376316070557,4.725881576538086,1.0802963972091675
2.144094944000244,4.753769397735596,1.092450737953186
2.099059820175171,4.74673318862915,1.0964411497116089
2.0664007663726807,4.767337322235107,1.1068615913391113
2.0091707706451416,4.727569580078125,1.1031115055084229
1.7463899850845337,4.190057277679443,0.9824526309967041
1.7130110263824463,4.193923473358154,0.9878043532371521
1.6846139430999756,4.212046146392822,0.9961999654769897
1.6560380458831787,4.229963302612305,1.0046159029006958
1.6273707151412964,4.247644424438477,1.0130339860916138
1.5999550819396973,4.264656066894531,1.0211681127548218
1.567122220993042,4.2671709060668945,1.0258821249008179
1.5383301973342896,4.2843194007873535,1.0334786176681519
1.5068002939224243,4.294105052947998,1.0393013954162598
1.4770394563674927,4.311043739318848,1.0469887256622314
1.453536033630371,4.341739177703857,1.0579187870025635
1.4228932857513428,4.350507736206055,1.0635402202606201
1.3979194164276123,4.377208709716797,1.0735297203063965
1.3660082817077637,4.386048316955566,1.078519344329834
1.323530912399292,4.362059593200684,1.0755242109298706
1.2971330881118774,4.3885817527771,1.0849798917770386
1.2764923572540283,4.432988166809082,1.0988744497299194
1.2432197332382202,4.433342456817627,1.101900577545166
1.2139655351638794,4.448121547698975,1.108533501625061
1.183726191520691,4.463085651397705,1.1145219802856445
1.1546236276626587,4.485326290130615,1.1224409341812134
1.1221327781677246,4.492518424987793,1.1266214847564697
1.0902022123336792,4.499344825744629,1.1307235956192017
1.0621554851531982,4.520622253417969,1.1384869813919067
1.0321288108825684,4.534329414367676,1.1444157361984253
1.0065455436706543,4.5741286277771,1.1564172506332397
0.9721189737319946,4.572959899902344,1.1579259634017944
0.9347658753395081,4.556669235229492,1.1556501388549805
0.7683870792388916,3.885643482208252,0.9870845675468445
0.7348279356956482,3.856705665588379,0.9813504815101624
0.8487647771835327,4.632588863372803,1.1808048486709595
0.8187941908836365,4.652585029602051,1.1876790523529053
0.7888103127479553,4.676309585571289,1.1950396299362183
0.7567193508148193,4.688618183135986,1.199550986289978
0.7244927883148193,4.7007036209106445,1.2040700912475586
0.6919675469398499,4.712584495544434,1.2086100578308105
0.6611832976341248,4.7316365242004395,1.2150193452835083
0.6301113367080688,4.75048828125,1.2214487791061401
0.5994623899459839,4.776828765869141,1.2292389869689941
0.5656889081001282,4.780481815338135,1.2310445308685303
0.5318936705589294,4.7838945388793945,1.2328499555587769
0.5017580389976501,4.828522205352783,1.2453656196594238
0.4688178300857544,4.838971138000488,1.2491059303283691
0.4358134865760803,4.849187850952148,1.2528488636016846
0.40392881631851196,4.874264717102051,1.2604681253433228
0.3702310621738434,4.884263515472412,1.2634352445602417
0.33485209941864014,4.878966808319092,1.2625149488449097
0.3026469349861145,4.914911270141602,1.2723253965377808
0.26718688011169434,4.897765636444092,1.268454670906067
0.23544956743717194,4.948349952697754,1.2821869850158691
0.16711287200450897,4.114594459533691,1.0667256116867065
0.13919179141521454,4.153289318084717,1.0772148370742798
0.11189967393875122,4.218373775482178,1.0940521955490112
0.081636942923069,4.177422046661377,1.0834410190582275
0.052473824471235275,4.177845001220703,1.0836135149002075
0.023506687954068184,4.204532623291016,1.0906513929367065
-0.006279392633587122,4.22723388671875,1.0967133045196533
-0.0356222502887249,4.219480991363525,1.0949249267578125
-0.06514135748147964,4.234283447265625,1.098737359046936
-0.09434095770120621,4.2263031005859375,1.0962607860565186
-0.12481112778186798,4.2634758949279785,1.1055463552474976
-0.1541087031364441,4.25508451461792,1.1030678749084473
-0.1870129555463791,4.3182501792907715,1.1191848516464233
-0.21701614558696747,4.316982746124268,1.1186578273773193
-0.24533307552337646,4.285299301147461,1.1103039979934692
-0.2703971266746521,4.2120256423950195,1.0908141136169434
-0.3067721724510193,4.312232494354248,1.1159626245498657
-0.33032310009002686,4.223559856414795,1.092268466949463
-0.36076804995536804,4.236568927764893,1.0949498414993286
-0.39299869537353516,4.264412879943848,1.1015063524246216
-0.4237671494483948,4.273190021514893,1.1031852960586548
-0.44308990240097046,4.172634124755859,1.0767022371292114
-0.46814674139022827,4.132264614105225,1.0652737617492676
-0.49570712447166443,4.1219072341918945,1.0614701509475708
-0.5130665302276611,4.0325212478637695,1.0373921394348145
-0.5342552661895752,3.9805917739868164,1.0230342149734497
-0.5566192865371704,3.9397637844085693,1.0115894079208374
-0.5800575017929077,3.9062328338623047,1.0020670890808105
-0.6020116806030273,3.868882656097412,0.9916435480117798
-0.6169376373291016,3.79425048828125,0.971100389957428
-0.6404042840003967,3.77559232711792,0.9649416208267212
-0.6556925773620605,3.712023973464966,0.9473792910575867
-0.6736904382705688,3.6670186519622803,0.9346279501914978
-0.6982957124710083,3.6552960872650146,0.930382251739502
-0.7178822159767151,3.6211793422698975,0.9205171465873718
-0.7430144548416138,3.6167304515838623,0.9180620312690735
-0.7495730519294739,3.5269925594329834,0.8936038017272949
-0.7720639109611511,3.515078067779541,0.8889460563659668
-0.7889482975006104,3.4770443439483643,0.8777174353599548
-0.8078573942184448,3.4500298500061035,0.8693432211875916
-0.8221694827079773,3.4044265747070312,0.8563426733016968
-0.8423370718955994,3.3845467567443848,0.8498764634132385
-0.8636788129806519,3.3721165657043457,0.8448886275291443
-0.8812345862388611,3.344849109649658,0.8360614776611328
-0.8911402225494385,3.2919130325317383,0.8209298849105835
-0.9055227041244507,3.2572555541992188,0.8104330897331238
-0.9178838133811951,3.2151081562042236,0.7981076240539551
-0.9361101388931274,3.194810152053833,0.7912743091583252
-0.9575343132019043,3.185338258743286,0.7869303822517395
-0.9657144546508789,3.1360604763031006,0.772523820400238
-0.9870263934135437,3.130309820175171,0.7689028978347778
-1.0059332847595215,3.1171793937683105,0.7635131478309631
-1.0169166326522827,3.078472852706909,0.7518654465675354
-1.034026026725769,3.057617425918579,0.7445952892303467
-1.0478332042694092,3.029662847518921,0.7356091737747192
-1.0556249618530273,2.987579822540283,0.722856879234314
-1.071945071220398,2.9705870151519775,0.7162479162216187
-1.093350887298584,2.967801809310913,0.7131033539772034
-1.0993026494979858,2.92183780670166,0.6995692253112793
-1.1175696849822998,2.907737970352173,0.6936657428741455
-1.1267679929733276,2.872433662414551,0.682718813419342
-1.1575521230697632,2.894127607345581,0.6849625110626221
-1.1555399894714355,2.8342671394348145,0.667960524559021
-1.132233738899231,2.7251782417297363,0.6395461559295654
-1.1309422254562378,2.66879940032959,0.6235203742980957
-1.1301259994506836,2.6161530017852783,0.6085390448570251
-1.1420512199401855,2.595313310623169,0.6008403897285461
-1.1689354181289673,2.60953688621521,0.6010497212409973
-1.202380657196045,2.637453079223633,0.6043787598609924
-1.2224363088607788,2.633554220199585,0.6002836227416992
-1.2476965188980103,2.6397552490234375,0.5984474420547485
-1.2548191547393799,2.6078035831451416,0.5879940986633301
-1.2723655700683594,2.6004703044891357,0.5827411413192749
-1.2796286344528198,2.5724310874938965,0.5729030966758728
-1.2903680801391602,2.5510754585266113,0.5645570158958435
-1.2980185747146606,2.5225610733032227,0.5545681118965149
-1.3124363422393799,2.507631540298462,0.547633707523346
-1.3239719867706299,2.489764928817749,0.5397663116455078
-1.3296756744384766,2.4618067741394043,0.5297327637672424
-1.3498932123184204,2.4607558250427246,0.525519847869873
-1.352866768836975,2.4253034591674805,0.5136780738830566
-1.3664370775222778,2.41011643409729,0.506292998790741
-1.3710535764694214,2.382208824157715,0.49595150351524353
-1.3772886991500854,2.3576366901397705,0.4863952696323395
-1.3895400762557983,2.3427793979644775,0.47879520058631897
-1.402686595916748,2.3273000717163086,0.47082287073135376
-1.4107533693313599,2.30570912361145,0.46159812808036804
-1.4179288148880005,2.2845165729522705,0.45233336091041565
-1.428981900215149,2.269824743270874,0.44441893696784973
-1.4454208612442017,2.2608017921447754,0.4371906518936157
-1.4617239236831665,2.2517218589782715,0.4297820031642914
-1.453330159187317,2.2078964710235596,0.4157283902168274
-1.4637383222579956,2.1930971145629883,0.40724992752075195
-1.4665528535842896,2.1647307872772217,0.39586490392684937
-1.481534719467163,2.1559343338012695,0.38800451159477234
-1.5334107875823975,2.201397180557251,0.38946619629859924
-1.5238343477249146,2.1576390266418457,0.3749403655529022
-1.5080338716506958,2.1039445400238037,0.358456015586853
-1.5127705335617065,2.0829267501831055,0.3475044071674347
-1.5195832252502441,2.0650222301483154,0.33707982301712036
-1.5299171209335327,2.049292802810669,0.326314240694046
-1.490639567375183,2.107103109359741,-0.1586906462907791
-1.481006145477295,2.127290725708008,-0.17050670087337494
-1.4919676780700684,2.1756956577301025,-0.18418997526168823
-1.475389003753662,2.186044931411743,-0.19488586485385895
-1.4715560674667358,2.2157704830169678,-0.20722059905529022
-1.4684884548187256,2.2448253631591797,-0.21901832520961761
-1.451704502105713,2.254718065261841,-0.22905965149402618
-1.4013051986694336,2.212001085281372,-0.23354431986808777
-1.3769207000732422,2.207937479019165,-0.24153922498226166
-1.342246174812317,2.1872105598449707,-0.2474125772714615
-1.317712426185608,2.182891368865967,-0.2550022304058075
-1.3178110122680664,2.218032121658325,-0.26692095398902893
-1.297680139541626,2.2198102474212646,-0.274848997592926
-1.2943099737167358,2.2520604133605957,-0.28674715757369995
-1.2778232097625732,2.2603445053100586,-0.2953811585903168
-1.2766681909561157,2.295456886291504,-0.30747583508491516
-1.2595945596694946,2.303710460662842,-0.31604623794555664
-1.249826192855835,2.3254573345184326,-0.32651618123054504
-1.2491623163223267,2.3641321659088135,-0.3393843173980713
-1.428383469581604,2.7500486373901367,-0.4032101631164551
-1.4380230903625488,2.8176841735839844,-0.4216865003108978
-1.4348337650299072,2.8611929416656494,-0.4367550313472748
-1.4142816066741943,2.869906425476074,-0.4465125799179077
-1.2345694303512573,2.5515871047973633,-0.4045010209083557
-1.2025169134140015,2.5312881469726562,-0.40857556462287903
-1.1940475702285767,2.5595433712005615,-0.4203453063964844
-1.17568838596344,2.5666534900665283,-0.4286583960056305
-1.1506034135818481,2.559696912765503,-0.4344831705093384
-1.1552728414535522,2.619577169418335,-0.4517749845981598
-1.119271993637085,2.5875580310821533,-0.4532932639122009
-1.0629870891571045,2.5054104328155518,-0.44554147124290466
-1.0240328311920166,2.461899518966675,-0.44417667388916016
-0.9668586254119873,2.3716297149658203,-0.4340215027332306
-0.9256190657615662,2.3164052963256836,-0.42979246377944946
-0.8792849779129028,2.2465479373931885,-0.42255544662475586
-0.8547846078872681,2.230067253112793,-0.424920916557312
-0.8049330711364746,2.1449694633483887,-0.4139506220817566
-0.7750424146652222,2.1098060607910156,-0.41227057576179504
-0.746964693069458,2.077993392944336,-0.4110039174556732
-0.7024931311607361,1.9989631175994873,-0.40008068084716797
-0.679407000541687,1.977463960647583,-0.40035480260849
-0.6530835032463074,1.944825530052185,-0.3982241749763489
-0.6320148706436157,1.926531195640564,-0.39883506298065186
-0.6030157804489136,1.8825547695159912,-0.3938320279121399
-0.5892961621284485,1.8858696222305298,-0.3987102508544922
-0.5591433644294739,1.83408522605896,-0.3917411267757416
-0.537388026714325,1.807701826095581,-0.38995128870010376
-0.5096165537834167,1.7591358423233032,-0.38304540514945984
-0.48567432165145874,1.7213472127914429,-0.37831911444664
-0.4633536636829376,1.6870157718658447,-0.3742004632949829
-0.4423244297504425,1.656227469444275,-0.37073805928230286
-0.43443089723587036,1.6732771396636963,-0.377695769071579
-0.42258456349372864,1.675480842590332,-0.38134899735450745
-0.4071001410484314,1.6627800464630127,-0.381600946187973
-0.3953275978565216,1.664795160293579,-0.38517606258392334
-0.37483176589012146,1.6296844482421875,-0.37989291548728943
-0.3426285982131958,1.5386202335357666,-0.36131536960601807
-0.3269765377044678,1.5179539918899536,-0.3590835630893707
-0.31550994515419006,1.5157867670059204,-0.3611742854118347
-0.29588836431503296,1.472582221031189,-0.35313501954078674
-0.2795925736427307,1.4441640377044678,-0.34858572483062744
-0.27499786019325256,1.475354552268982,-0.3584097623825073
-0.26193884015083313,1.4616621732711792,-0.3573659360408783
-0.24783632159233093,1.4404559135437012,-0.3541160225868225
-0.23774823546409607,1.4416050910949707,-0.3563491702079773
0.15799009799957275,1.4487067461013794,-0.37151291966438293
0.16771376132965088,1.4442306756973267,-0.36887630820274353
0.17920388281345367,1.4547239542007446,-0.37007805705070496
0.19131724536418915,1.468889832496643,-0.3722086250782013
0.20385944843292236,1.483011245727539,-0.3739936053752899
0.214262917637825,1.4820681810379028,-0.3719116449356079
0.22693777084350586,1.4960469007492065,-0.37357404828071594
0.2451637089252472,1.5436491966247559,-0.38357478380203247
0.2690708339214325,1.621108055114746,-0.4005802869796753
0.28308144211769104,1.634790301322937,-0.4015983045101166
0.29883506894111633,1.65581476688385,-0.40434765815734863
0.3104706406593323,1.6543337106704712,-0.40163448452949524
0.32647904753685,1.6752049922943115,-0.40408751368522644
0.34357696771621704,1.6996986865997314,-0.40722349286079407
0.3664689362049103,1.750119924545288,-0.4164702892303467
0.37255388498306274,1.718476414680481,-0.40612754225730896
0.38966313004493713,1.7388993501663208,-0.4079621434211731
0.41310498118400574,1.7851874828338623,-0.415618360042572
0.42394232749938965,1.7756626605987549,-0.4102277457714081
0.4492436945438385,1.8252989053726196,-0.41844651103019714
0.476442813873291,1.8783972263336182,-0.42704787850379944
0.5032340288162231,1.927630066871643,-0.4344807267189026
0.5198514461517334,1.9360535144805908,-0.43261459469795227
0.5478044152259827,1.9848434925079346,-0.4396647810935974
0.5712576508522034,2.0150201320648193,-0.4423043131828308
0.6007565855979919,2.0633277893066406,-0.4485163986682892
0.6296235918998718,2.107748031616211,-0.45377227663993835
0.6647366881370544,2.170200824737549,-0.46270084381103516
0.6904239654541016,2.1994614601135254,-0.46425285935401917
0.728270947933197,2.2650041580200195,-0.47306621074676514
0.7637650966644287,2.319183826446533,-0.4791581928730011
0.8035067319869995,2.3839807510375977,-0.4872570335865021
0.8466917276382446,2.455662727355957,-0.49636512994766235
0.8908649682998657,2.526975393295288,-0.5048732161521912
0.9386874437332153,2.605074644088745,-0.514390230178833
0.998390257358551,2.71150279045105,-0.5290327668190002
1.0491151809692383,2.7884538173675537,-0.5373026132583618
1.1032770872116089,2.8722527027130127,-0.5464143753051758
1.1741151809692383,2.9949049949645996,-0.5624085068702698
1.2584164142608643,3.145325183868408,-0.5828571915626526
1.3258960247039795,3.248525619506836,-0.5938606262207031
1.4291664361953735,3.432809829711914,-0.6185993552207947
1.5226545333862305,3.587714433670044,-0.6373036503791809
1.6355221271514893,3.780442476272583,-0.6617128849029541
1.749509334564209,3.9684574604034424,-0.6842142343521118
1.8564430475234985,4.134247779846191,-0.7017397880554199
1.9631001949310303,4.291645050048828,-0.7167472839355469
1.9643431901931763,4.216736793518066,-0.6927276849746704
2.0041134357452393,4.2258734703063965,-0.6825815439224243
1.579850673675537,3.2736411094665527,-0.5196263790130615
1.5925772190093994,3.243312120437622,-0.5056884288787842
1.6230748891830444,3.247180461883545,-0.4967903792858124
1.6494637727737427,3.24420428276062,-0.486903578042984
1.5973566770553589,3.0897390842437744,-0.4546569883823395
1.6154959201812744,3.073087692260742,-0.443062961101532
1.6374430656433105,3.06298565864563,-0.43231815099716187
1.6013882160186768,2.947361707687378,-0.40696778893470764
1.7159323692321777,3.107219934463501,-0.41928625106811523
1.6942616701126099,3.0186309814453125,-0.3977590799331665
1.7849441766738892,3.129340887069702,-0.4022762179374695
1.3626548051834106,2.352254867553711,-0.29474642872810364
0.9711610674858093,1.6507291793823242,-0.20142708718776703
0.9412770867347717,1.5743485689163208,-0.18664905428886414
0.8936821818351746,1.472117304801941,-0.16948403418064117
0.8874150514602661,1.4401293992996216,-0.1608291119337082
0.9739009141921997,1.5564783811569214,-0.16824278235435486
0.9994475245475769,1.5732449293136597,-0.1643083691596985
1.0187114477157593,1.580068826675415,-0.15911369025707245
1.0189801454544067,1.5573339462280273,-0.15092886984348297
1.0300421714782715,1.5506813526153564,-0.14418619871139526
1.0404481887817383,1.5443295240402222,-0.13748814165592194
1.0575755834579468,1.5474275350570679,-0.13149303197860718
2.521855354309082,3.634704828262329,-0.2931234836578369
2.572798252105713,3.657499074935913,-0.27930429577827454
2.611191987991333,3.6602630615234375,-0.26328933238983154
2.6094141006469727,3.605178117752075,-0.24243968725204468
2.6122145652770996,3.560861587524414,-0.2226652055978775
2.680903673171997,3.6034204959869385,-0.20730231702327728
2.6350719928741455,3.712494134902954,0.6694478988647461
2.611391544342041,3.7402584552764893,0.6880895495414734
2.5814175605773926,3.757948160171509,0.7046070694923401
1.0487861633300781,1.5498183965682983,0.29556602239608765
1.057949185371399,1.5889348983764648,0.3079189956188202
1.0408830642700195,1.5897481441497803,0.31288450956344604
1.0079668760299683,1.5640387535095215,0.31223875284194946
1.0211442708969116,1.6093589067459106,0.3255961239337921
1.0205745697021484,1.6358797550201416,0.3351061940193176
1.003598928451538,1.6361931562423706,0.3392859101295471
0.9877424240112305,1.635786771774292,0.3429644703865051
0.9754435420036316,1.642081618309021,0.34804674983024597
0.9625787734985352,1.6486191749572754,0.352924108505249
1.333753228187561,2.3243801593780518,0.502495527267456
1.8450497388839722,3.2683663368225098,0.7129926085472107
1.7749137878417969,3.1957972049713135,0.7033707499504089
1.7792885303497314,3.2615489959716797,0.7237673401832581
1.7776329517364502,3.3172059059143066,0.7420122623443604
2.4203217029571533,4.596251964569092,1.0360479354858398
2.387237310409546,4.611042022705078,1.0470293760299683
2.349961996078491,4.619110584259033,1.0562546253204346
2.314009189605713,4.63480281829834,1.0668394565582275
2.2819933891296387,4.656774997711182,1.078810691833496
2.251143455505371,4.6779351234436035,1.0904066562652588
2.2242257595062256,4.7054290771484375,1.103397011756897
2.1899030208587646,4.71925687789917,1.112954020500183
2.154327869415283,4.733433723449707,1.1221396923065186
2.1117923259735107,4.733633041381836,1.128164291381836
2.089285135269165,4.77481746673584,1.143778920173645
2.0491580963134766,4.773486614227295,1.1491326093673706
1.7708215713500977,4.206166744232178,1.0174880027770996
1.7277125120162964,4.189384937286377,1.0177087783813477
1.7044095993041992,4.2218475341796875,1.0300133228302002
1.67015540599823,4.225611209869385,1.0353004932403564
