X,Y,Z
-0.14833050966262817,1.6917542219161987,-0.4383530020713806
-0.13546127080917358,1.681119680404663,-0.4366968274116516
-0.12322884798049927,1.674153447151184,-0.4359836280345917
-0.11257179081439972,1.689732313156128,-0.4411713778972626
-0.0976538434624672,1.6373302936553955,-0.42859989404678345
-0.0882699191570282,1.675506830215454,-0.4392516016960144
-0.07539993524551392,1.6532342433929443,-0.43409469723701477
-0.06417743861675262,1.6610678434371948,-0.4368481934070587
-0.0528612919151783,1.6688226461410522,-0.4396078586578369
-0.03929493948817253,1.5897659063339233,-0.4190267324447632
-0.028116878122091293,1.5823721885681152,-0.4173199534416199
-0.01676233485341072,1.5673482418060303,-0.41362228989601135
-0.005836446303874254,1.5597991943359375,-0.41190895438194275
0.00529392110183835,1.6467041969299316,-0.434709370136261
0.016353677958250046,1.6089080572128296,-0.4245602786540985
0.027675407007336617,1.616355538368225,-0.4263738691806793
0.040192749351263046,1.6690367460250854,-0.44013506174087524
0.05084053799510002,1.631111979484558,-0.42958688735961914
0.06306762248277664,1.653541088104248,-0.4348926544189453
0.07524550706148148,1.668333888053894,-0.43819883465766907
0.08683440089225769,1.667945384979248,-0.4375339448451996
0.09710489213466644,1.6449363231658936,-0.43056946992874146
0.10976604372262955,1.6595916748046875,-0.4333690404891968
0.12132317572832108,1.6590816974639893,-0.432238906621933
0.13409832119941711,1.6735669374465942,-0.4350265562534332
0.14808322489261627,1.699349284172058,-0.44038182497024536
0.15607258677482605,1.6572601795196533,-0.42805570363998413
0.1735585629940033,1.7129974365234375,-0.4409855306148529
0.1863168627023697,1.7196911573410034,-0.4412834346294403
0.19659285247325897,1.7038015127182007,-0.43549153208732605
0.21312716603279114,1.7405036687850952,-0.44298431277275085
0.22237397730350494,1.7169663906097412,-0.4351540803909302
0.23869425058364868,1.7459155321121216,-0.44060784578323364
0.2509380280971527,1.744800090789795,-0.43821683526039124
0.26714858412742615,1.7698845863342285,-0.4422152042388916
0.2866847813129425,1.8135768175125122,-0.450792521238327
0.2969101667404175,1.7972064018249512,-0.44443070888519287
0.31727680563926697,1.8406718969345093,-0.4526207745075226
0.32642436027526855,1.8167043924331665,-0.44395607709884644
0.34688860177993774,1.8561972379684448,-0.4508422613143921
0.3671860694885254,1.8917889595031738,-0.4566897451877594
0.3835163116455078,1.9048805236816406,-0.45687609910964966
0.403945654630661,1.9365159273147583,-0.46120530366897583
0.41947150230407715,1.9419002532958984,-0.45917651057243347
0.44310852885246277,1.9843661785125732,-0.46591922640800476
0.46479204297065735,2.0155186653137207,-0.4697791039943695
0.4966809153556824,2.0873215198516846,-0.4826589822769165
0.5114376544952393,2.08477520942688,-0.4782336950302124
0.5441739559173584,2.1523385047912598,-0.4897254705429077
0.5651374459266663,2.1716511249542236,-0.4900866746902466
0.5913470387458801,2.20929217338562,-0.4941715896129608
0.6221669912338257,2.26143217086792,-0.5013332962989807
0.6485875844955444,2.294893264770508,-0.504186749458313
0.6832601428031921,2.353764772415161,-0.5123414397239685
0.7086670994758606,2.3794515132904053,-0.5128538012504578
0.7490009069442749,2.452498435974121,-0.5233733654022217
0.7812685966491699,2.495917558670044,-0.5273259282112122
0.824713408946991,2.5718679428100586,-0.537906289100647
0.8683623671531677,2.643749713897705,-0.546877920627594
0.9102803468704224,2.708026885986328,-0.5540659427642822
0.9582170248031616,2.7863879203796387,-0.5637932419776917
0.9971401691436768,2.8352973461151123,-0.5672712922096252
1.049670934677124,2.9200644493103027,-0.5773449540138245
1.1060713529586792,3.0115346908569336,-0.5882806181907654
1.1737594604492188,3.1274776458740234,-0.6033371090888977
1.2387142181396484,3.232032299041748,-0.6157701015472412
1.2994463443756104,3.321683883666992,-0.6246408820152283
1.4099456071853638,3.5323097705841064,-0.6554502248764038
1.488749384880066,3.6560885906219482,-0.6692572832107544
1.6113038063049316,3.8784801959991455,-0.7000412344932556
1.6987661123275757,4.011092185974121,-0.7136389017105103
1.7743102312088013,4.110964775085449,-0.7207167744636536
1.809684157371521,4.114584922790527,-0.7105247378349304
1.8390734195709229,4.103724956512451,-0.6977551579475403
1.862093210220337,4.07857608795166,-0.6822547912597656
1.8744184970855713,4.032505512237549,-0.6635615229606628
1.560813069343567,3.298002243041992,-0.5335720777511597
1.587735652923584,3.295435667037964,-0.5239606499671936
1.6176587343215942,3.2998039722442627,-0.5152978301048279
1.6238369941711426,3.255290985107422,-0.49889883399009705
1.6451950073242188,3.241875648498535,-0.48741090297698975
1.6772212982177734,3.2488796710968018,-0.47892293334007263
1.6907768249511719,3.2216076850891113,-0.46530815958976746
1.7149592638015747,3.2147815227508545,-0.45470908284187317
1.7360509634017944,3.200629949569702,-0.4428214728832245
1.7647591829299927,3.1997828483581543,-0.4325670599937439
1.8096156120300293,3.2296574115753174,-0.42646390199661255
2.1490120887756348,3.7751245498657227,-0.48645755648612976
2.164280652999878,3.7412922382354736,-0.4698261618614197
2.1942944526672363,3.734524965286255,-0.4566221535205841
2.2322919368743896,3.740844249725342,-0.4447222352027893
2.242595672607422,3.7000625133514404,-0.4271009862422943
2.2647864818573,3.6790547370910645,-0.4117547571659088
2.3063063621520996,3.691520929336548,-0.40010717511177063
2.306786298751831,3.6376285552978516,-0.38113293051719666
2.33319354057312,3.6223411560058594,-0.365675687789917
2.3707072734832764,3.627345085144043,-0.35246166586875916
2.386627674102783,3.599665641784668,-0.3360205292701721
2.4078221321105957,3.57759428024292,-0.31949830055236816
2.463001012802124,3.6074774265289307,-0.30749568343162537
2.460747480392456,3.553619861602783,-0.28809937834739685
2.4904162883758545,3.543764352798462,-0.2716699540615082
2.51448392868042,3.527992010116577,-0.2547292113304138
2.528684616088867,3.499786138534546,-0.236890509724617
2.5857701301574707,3.526974678039551,-0.22150252759456635
2.185385227203369,2.9409358501434326,-0.1702418178319931
2.803171157836914,3.9487171173095703,0.7115492820739746
2.789515256881714,3.99283504486084,0.7342994809150696
2.7558000087738037,4.0036940574646,0.7499434947967529
2.7325382232666016,4.035120964050293,0.7690118551254272
2.686967134475708,4.034665584564209,0.7818672060966492
2.6744234561920166,4.077020645141602,0.8017836213111877
2.639122247695923,4.087809085845947,0.8155965209007263
2.6147398948669434,4.118775844573975,0.8328188061714172
2.5848424434661865,4.139256477355957,0.8476980328559875
2.540673017501831,4.132204532623291,0.8562628626823425
2.5235657691955566,4.171436786651611,0.874171257019043
2.494110345840454,4.19529390335083,0.888719916343689
2.4772958755493164,4.238178730010986,0.907072901725769
2.446658134460449,4.253371715545654,0.9190382957458496
2.4192891120910645,4.275244235992432,0.9323774576187134
2.397272825241089,4.311452865600586,0.948356032371521
2.2915706634521484,4.196359634399414,0.9310336709022522
2.255509853363037,4.2004570960998535,0.9393410086631775
2.234170436859131,4.231182098388672,0.9535766839981079
2.2060036659240723,4.252269268035889,0.9652833342552185
2.1803174018859863,4.2804155349731445,0.9783841371536255
2.157346487045288,4.315397262573242,0.9932395815849304
2.138263463973999,4.352566719055176,1.0081872940063477
2.1020922660827637,4.355230331420898,1.0152218341827393
2.0746045112609863,4.378974437713623,1.0266683101654053
2.0366029739379883,4.382062911987305,1.0330891609191895
2.006627082824707,4.4021782875061035,1.0435717105865479
1.9855295419692993,4.438999176025391,1.0578906536102295
2.0152111053466797,4.590775489807129,1.0997596979141235
1.9712214469909668,4.578777313232422,1.102222204208374
1.9650883674621582,4.658209323883057,1.1263551712036133
1.9273487329483032,4.663744926452637,1.1327399015426636
1.9042582511901855,4.704172611236572,1.1476366519927979
1.868017315864563,4.708600044250488,1.1536316871643066
1.823528528213501,4.691453456878662,1.154361605644226
1.7969770431518555,4.724391937255859,1.1666834354400635
1.7725530862808228,4.764366149902344,1.1807732582092285
1.3427248001098633,3.6926772594451904,0.9185376763343811
1.3164877891540527,3.700810432434082,0.9237684607505798
1.2903573513031006,3.7087039947509766,0.9289665222167969
1.6384881734848022,4.8173699378967285,1.2108287811279297
1.619959831237793,4.87819242477417,1.2295706272125244
1.5811963081359863,4.881348609924316,1.2339426279067993
1.5580400228500366,4.9310712814331055,1.2501084804534912
1.52760910987854,4.954973220825195,1.2597131729125977
1.163745641708374,3.870262622833252,0.9867437481880188
1.1278953552246094,3.848073959350586,0.983893871307373
1.0988452434539795,3.8515100479125977,0.986931324005127
1.0713523626327515,3.8621490001678467,0.9919049143791199
1.0402936935424805,3.8578333854675293,0.9930484890937805
1.011009931564331,3.8567817211151123,0.99501633644104
0.988600492477417,3.881155490875244,1.0035781860351562
0.9686259031295776,3.9164228439331055,1.0150346755981445
0.9454036951065063,3.9445669651031494,1.0242352485656738
0.922123372554779,3.972557544708252,1.0332409143447876
0.8959993124008179,3.9893226623535156,1.0393949747085571
0.8634867668151855,3.976275682449341,1.0378170013427734
0.8410837650299072,4.007317543029785,1.0477659702301025
0.814019501209259,4.019773960113525,1.0529571771621704
0.7886377573013306,4.039454460144043,1.0598868131637573
0.7541884779930115,4.014578819274902,1.0546143054962158
0.7335218787193298,4.063863754272461,1.0688849687576294
0.9231985211372375,5.331295013427734,1.404047966003418
0.8819705843925476,5.318230628967285,1.4024744033813477
0.8436923623085022,5.315925598144531,1.403752088546753
0.8065590262413025,5.320828437805176,1.4070017337799072
0.7701968550682068,5.333128929138184,1.4117064476013184
0.7369836568832397,5.371520519256592,1.422990083694458
0.6972641944885254,5.3685622215271,1.423417091369629
0.6620127558708191,5.395231246948242,1.4317528009414673
0.5063751935958862,4.3785552978515625,1.1630198955535889
0.47876083850860596,4.407750129699707,1.1719011068344116
0.4495665729045868,4.425498008728027,1.1778086423873901
0.4185272753238678,4.428187847137451,1.179137110710144
0.3779468536376953,4.329200744628906,1.1532727479934692
0.34867557883262634,4.34650182723999,1.1584267616271973
0.31923216581344604,4.3635993003845215,1.1635864973068237
0.28085893392562866,4.244884014129639,1.1325664520263672
0.24576611816883087,4.152241230010986,1.1085230112075806
0.2155579775571823,4.138507843017578,1.1055960655212402
0.18387897312641144,4.079474925994873,1.089911699295044
0.15316654741764069,4.0239949226379395,1.075158953666687
0.1242942214012146,4.002240180969238,1.0694680213928223
0.09596391022205353,3.987825393676758,1.065788984298706
0.06641336530447006,3.9090709686279297,1.0449644327163696
0.03897726535797119,3.8829314708709717,1.038245677947998
0.011849475093185902,3.8377344608306885,1.0264756679534912
-0.014612306840717793,3.781193256378174,1.0110641717910767
-0.040818385779857635,3.7735328674316406,1.0087485313415527
-0.06838903576135635,3.822282314300537,1.0215555429458618
-0.0931355357170105,3.7501139640808105,1.002099633216858
-0.11992650479078293,3.772087574005127,1.007851004600525
-0.2762245833873749,7.127647399902344,1.9042760133743286
-0.165429949760437,3.6194074153900146,0.9669660925865173
-0.19086790084838867,3.6259512901306152,0.968090832233429
-0.2150416225194931,3.6021554470062256,0.961139976978302
-0.4218665659427643,6.331572532653809,1.6884632110595703
-0.5267042517662048,7.157210826873779,1.907652735710144
-0.5400943756103516,6.702266693115234,1.7855523824691772
-0.5840772390365601,6.668704986572266,1.775858998298645
-0.6155880689620972,6.499468803405762,1.7300885915756226
-0.6572996377944946,6.4657392501831055,1.7193849086761475
-0.7034692764282227,6.476792812347412,1.7206753492355347
-0.7489548921585083,6.480014324188232,1.7199615240097046
-0.7850216627120972,6.404160022735596,1.6983500719070435
-0.8274573087692261,6.376688003540039,1.6896393299102783
-0.8640958666801453,6.315340995788574,1.6720781326293945
-0.9069088101387024,6.302443504333496,1.6672905683517456
-0.9597257375717163,6.36058235168457,1.6803686618804932
-1.0091804265975952,6.392181873321533,1.6864820718765259
-1.0617940425872803,6.434481620788574,1.6954280138015747
-1.1062506437301636,6.4279937744140625,1.6916062831878662
-1.1651370525360107,6.49929666519165,1.7082912921905518
-1.2249947786331177,6.5701212882995605,1.7248882055282593
-1.2763367891311646,6.592295169830322,1.7283902168273926
-1.3340307474136353,6.647800445556641,1.7398598194122314
-1.3910858631134033,6.691575050354004,1.7482322454452515
-1.437690258026123,6.686930179595947,1.7440630197525024
-1.4717742204666138,6.622707366943359,1.7244209051132202
-1.5036449432373047,6.550867557525635,1.7029112577438354
-0.6634145379066467,2.8008806705474854,0.7269281148910522
-0.6848272085189819,2.8041772842407227,0.7263098359107971
-0.7002370953559875,2.7854294776916504,0.7198616862297058
-0.7135248780250549,2.7592549324035645,0.711548388004303
-0.7401845455169678,2.7842917442321777,0.7164657115936279
-0.7616984844207764,2.7870450019836426,0.7156251668930054
-1.7477906942367554,6.221717834472656,1.594090223312378
-1.7849619388580322,6.189058303833008,1.5822986364364624
-1.8108915090560913,6.1239824295043945,1.561366081237793
-1.8437212705612183,6.084230422973633,1.547020673751831
-1.8783425092697144,6.051544666290283,1.5345784425735474
-1.9084328413009644,6.000118255615234,1.5173420906066895
-1.936514973640442,5.944983959197998,1.499320387840271
-1.9734632968902588,5.918574333190918,1.4886631965637207
-2.00530743598938,5.881687164306641,1.4746780395507812
-2.0301401615142822,5.826833724975586,1.456074595451355
-2.0633060932159424,5.796939373016357,1.4438183307647705
-2.093599796295166,5.75569486618042,1.4286795854568481
-2.123533010482788,5.714243412017822,1.4135938882827759
-2.1556832790374756,5.679745197296143,1.4003404378890991
-2.2001290321350098,5.681099891662598,1.3953629732131958
-2.2651493549346924,5.735528469085693,1.4030510187149048
-2.321627140045166,5.764428615570068,1.4043654203414917
-2.344090461730957,5.708140850067139,1.3849583864212036
-2.3874785900115967,5.700654983520508,1.3773531913757324
-2.411343812942505,5.6472554206848145,1.3587638139724731
-2.4635963439941406,5.664482593536377,1.356493353843689
-2.550436496734619,5.7580156326293945,1.3720718622207642
-2.556330919265747,5.669987201690674,1.3445309400558472
-3.534818172454834,7.698814868927002,1.8163957595825195
-2.61533784866333,5.593218803405762,1.3128461837768555
-3.6879918575286865,7.747955322265625,1.809026837348938
-3.779445171356201,7.805302619934082,1.8115087747573853
-3.8286638259887695,7.776408672332764,1.79414701461792
-3.907701253890991,7.804943084716797,1.789867639541626
-4.006904602050781,7.865904808044434,1.792467474937439
-4.089542865753174,7.8918962478637695,1.7869921922683716
-4.205367565155029,7.98671293258667,1.7957756519317627
-1.1246668100357056,2.1019909381866455,0.4691907465457916
-1.1737455129623413,2.159376859664917,0.4784967601299286
-1.2207270860671997,2.2091565132141113,0.48575645685195923
-4.542149066925049,8.086790084838867,1.7643259763717651
-4.63632869720459,8.130621910095215,1.758780598640442
-4.706946849822998,8.130073547363281,1.7431583404541016
-1.2345179319381714,2.100053071975708,0.4462110102176666
-1.2456855773925781,2.085742950439453,0.43894287943840027
-2.9356093406677246,4.8401947021484375,1.008568525314331
-2.98197603225708,4.846344947814941,0.9992305040359497
-2.9720029830932617,4.760377883911133,0.9708691239356995
-3.0102522373199463,4.748456001281738,0.9571735858917236
-3.0528793334960938,4.7425456047058105,0.9446110129356384
-3.0674378871917725,4.699433326721191,0.92401522397995
-3.049560785293579,4.6080708503723145,0.8942155838012695
-3.1001787185668945,4.614628314971924,0.8824288249015808
-3.116177797317505,4.569710731506348,0.8607779741287231
-3.1418654918670654,4.545882225036621,0.8426099419593811
-2.8660035133361816,4.091450214385986,0.7459568977355957
-2.853231430053711,4.013645172119141,0.7182590365409851
-2.9040777683258057,4.027836322784424,0.7066527009010315
-2.9462242126464844,4.033672332763672,0.6933868527412415
-2.9492831230163574,3.9817192554473877,0.6690590977668762
-2.4771106243133545,3.4732418060302734,-0.2505652904510498
-2.4284017086029053,3.4585914611816406,-0.2663513720035553
-2.896376132965088,4.190409183502197,-0.3424697816371918
-2.8708276748657227,4.215702533721924,-0.36310550570487976
-2.8474133014678955,4.248536109924316,-0.3845224678516388
-2.8114686012268066,4.261251926422119,-0.40370580554008484
-2.7845401763916016,4.286312103271484,-0.42372387647628784
-2.751901626586914,4.30540657043457,-0.4429352581501007
-2.7385151386260986,4.35338830947876,-0.4648509919643402
-1.281986117362976,2.0697224140167236,-0.22872045636177063
-2.709052801132202,4.445343494415283,-0.5076971650123596
-2.1477978229522705,3.5835490226745605,-0.42258673906326294
-2.651059627532959,4.493959426879883,-0.5456344485282898
-2.6335580348968506,4.5380144119262695,-0.56670743227005
-1.2006754875183105,2.104017734527588,-0.2699894905090332
-2.5779104232788086,4.592090129852295,-0.6044567227363586
-2.5536715984344482,4.625464916229248,-0.6241495609283447
-2.5378432273864746,4.675991058349609,-0.6460322141647339
-2.4997315406799316,4.685296535491943,-0.6622357368469238
-2.458890914916992,4.686985015869141,-0.6769469976425171
-1.114742636680603,2.1618292331695557,-0.31884992122650146
-1.0879936218261719,2.1482584476470947,-0.32347598671913147
-1.0620357990264893,2.1341819763183594,-0.3276970386505127
-1.0739141702651978,2.19621205329895,-0.3436390459537506
-1.041139841079712,2.1679649353027344,-0.34545236825942993
-1.0318118333816528,2.1883602142333984,-0.3549613058567047
-1.0127989053726196,2.187546491622925,-0.36095067858695984
-1.0128302574157715,2.228816032409668,-0.3740532398223877
-1.001273274421692,2.245516538619995,-0.38294997811317444
-0.9879810214042664,2.258599281311035,-0.3912888765335083
-0.9717739820480347,2.264396905899048,-0.3983044922351837
-0.964516818523407,2.2913713455200195,-0.40909940004348755
-0.95344078540802,2.311415672302246,-0.41871941089630127
-0.9308847784996033,2.3027210235595703,-0.4230448603630066
-1.4885830879211426,3.7572977542877197,-0.6997484564781189
-1.2793234586715698,3.2959513664245605,-0.6221049427986145
-1.252793550491333,3.29611873626709,-0.6301250457763672
-1.2446452379226685,3.346620559692383,-0.6480347514152527
-1.1406006813049316,3.1333789825439453,-0.6142500042915344
-1.0461064577102661,2.937143087387085,-0.5827881693840027
-1.0174301862716675,2.9212546348571777,-0.5863150358200073
-0.9853414297103882,2.894212245941162,-0.5875022411346436
-0.9497848153114319,2.8560330867767334,-0.5863710641860962
-0.919933021068573,2.8320109844207764,-0.5878856182098389
-0.8649149537086487,2.7274956703186035,-0.5720411539077759
-0.8125861883163452,2.626096487045288,-0.5564113259315491
-0.7773187756538391,2.5754599571228027,-0.5511915683746338
-0.7374280095100403,2.506150960922241,-0.5417232513427734
-0.697178065776825,2.43294095993042,-0.5308618545532227
-0.6747452616691589,2.4181885719299316,-0.5324691534042358
-0.6415789127349854,2.3626956939697266,-0.5249679684638977
-0.6102215647697449,2.310594081878662,-0.5180133581161499
-0.5777369737625122,2.2508909702301025,-0.5088269710540771
-0.5504640936851501,2.2094693183898926,-0.5035915970802307
-0.5276832580566406,2.1825811862945557,-0.5014812350273132
-0.5044376850128174,2.1517930030822754,-0.49838361144065857
-0.47661322355270386,2.0985825061798096,-0.4896717071533203
-0.4552942216396332,2.0711891651153564,-0.4867313504219055
-0.42778924107551575,2.0138800144195557,-0.47669869661331177
-0.4036343991756439,1.9674830436706543,-0.4690374433994293
-0.3927401006221771,1.9843432903289795,-0.47617289423942566
-0.37451010942459106,1.963834524154663,-0.47416967153549194
-0.35522931814193726,1.9357061386108398,-0.47026917338371277
-0.34073954820632935,1.9336329698562622,-0.47272276878356934
-0.31705179810523987,1.8753228187561035,-0.4611007571220398
-0.3015172779560089,1.8618240356445312,-0.46017032861709595
-0.28327053785324097,1.829464316368103,-0.45454028248786926
-0.2681962251663208,1.81572687625885,-0.45350828766822815
-0.25419530272483826,1.809438943862915,-0.4542008340358734
-0.23753300309181213,1.7805571556091309,-0.44886285066604614
-0.2217739373445511,1.7553061246871948,-0.44439929723739624
-0.20859694480895996,1.7487424612045288,-0.44465577602386475
-0.19639132916927338,1.7496355772018433,-0.4466961920261383
-0.18024347722530365,1.7128791809082031,-0.43875735998153687
-0.16812053322792053,1.713676929473877,-0.4404517412185669
-0.15549202263355255,1.7068414688110352,-0.44017672538757324
-0.1423393040895462,1.6923975944519043,-0.43785539269447327
-0.13058817386627197,1.6930370330810547,-0.4390439987182617
-0.11857028305530548,1.6898221969604492,-0.4392518997192383
-0.10421038419008255,1.6525750160217285,-0.430631160736084
-0.09227553755044937,1.6454224586486816,-0.4297735095024109
-0.08307760953903198,1.6911402940750122,-0.442315012216568
-0.07005289942026138,1.6612848043441772,-0.43511730432510376
-0.058765001595020294,1.669100284576416,-0.43779975175857544
-0.0469462126493454,1.6692924499511719,-0.43849387764930725
-0.03389953076839447,1.6015291213989258,-0.42085587978363037
-0.022184304893016815,1.5601155757904053,-0.4101506769657135
-0.01150192879140377,1.5828419923782349,-0.41632580757141113
-0.0005147619522176683,1.601714849472046,-0.42151281237602234
0.01127207837998867,1.6697392463684082,-0.43916040658950806
0.022454679012298584,1.6394667625427246,-0.4309633672237396
0.03416471928358078,1.6544454097747803,-0.4346843361854553
0.045887354761362076,1.6617870330810547,-0.43641677498817444
0.05772880092263222,1.66916024684906,-0.4377095103263855
0.06904878467321396,1.6613558530807495,-0.4350060522556305
0.08245863020420074,1.6949931383132935,-0.4431549310684204
0.09234962612390518,1.6606043577194214,-0.43355128169059753
0.10534527897834778,1.6828527450561523,-0.4383217394351959
0.11759739369153976,1.689934253692627,-0.4390815198421478
0.12937569618225098,1.6893866062164307,-0.4378754496574402
0.14229054749011993,1.7000534534454346,-0.4395735561847687
0.15313759446144104,1.6881240606307983,-0.4350704848766327
0.16494879126548767,1.687440037727356,-0.4334028959274292
0.18263860046863556,1.7431477308273315,-0.4461956024169922
0.19479021430015564,1.7422707080841064,-0.4444783627986908
0.2036183774471283,1.711281418800354,-0.434748113155365
0.22035269439220428,1.74794340133667,-0.44212019443511963
0.2335711270570755,1.754422903060913,-0.4418356120586395
0.2516283094882965,1.794594168663025,-0.45000454783439636
0.2608855068683624,1.770904541015625,-0.4418712258338928
0.2851368486881256,1.8446474075317383,-0.45779505372047424
0.2956523001194,1.828295111656189,-0.45134857296943665
0.3128916621208191,1.8530523777008057,-0.45506104826927185
0.32525524497032166,1.8478000164031982,-0.4511522054672241
0.3430618941783905,1.8723971843719482,-0.45432189106941223
0.3662077784538269,1.9229882955551147,-0.4637029767036438
0.3836570382118225,1.939778208732605,-0.4648051857948303
0.4095614552497864,1.9974923133850098,-0.47547048330307007
0.4276129901409149,2.014080286026001,-0.4760095179080963
0.44673416018486023,2.034240484237671,-0.4773475229740143
0.4661296606063843,2.054248094558716,-0.4786055088043213
0.4913138449192047,2.096341133117676,-0.4847179353237152
0.5213776230812073,2.156838893890381,-0.4947005808353424
0.5430833697319031,2.180055856704712,-0.4959961175918579
0.5641446113586426,2.1994001865386963,-0.496359258890152
0.5962378978729248,2.2591865062713623,-0.5056328177452087
0.6204900741577148,2.285508155822754,-0.5068760514259338
0.6561558842658997,2.352165699005127,-0.5169715881347656
0.6833508610725403,2.385401725769043,-0.5195249915122986
0.7142980694770813,2.4294068813323975,-0.5242443084716797
0.7491680383682251,2.4841997623443604,-0.5307737588882446
0.788554847240448,2.5495645999908447,-0.5392207503318787
0.8193906545639038,2.5853981971740723,-0.5412916541099548
0.8744161128997803,2.6938581466674805,-0.5582751035690308
0.9212825298309326,2.7727441787719727,-0.5683767199516296
0.964362382888794,2.836644172668457,-0.5750832557678223
0.9970840215682983,2.867487907409668,-0.5748662352561951
1.0577082633972168,2.973890781402588,-0.5893607139587402
1.115460753440857,3.069044828414917,-0.6009878516197205
1.1812734603881836,3.1816442012786865,-0.6155022382736206
1.2488425970077515,3.2935307025909424,-0.6293062567710876
1.3306502103805542,3.436974048614502,-0.6484964489936829
1.4288963079452515,3.615340232849121,-0.6730989217758179
1.5177212953567505,3.7642533779144287,-0.6914851069450378
1.6118872165679932,3.919267416000366,-0.7101397514343262
1.7024463415145874,4.059021472930908,-0.7252484560012817
1.7659356594085693,4.130613327026367,-0.7274045944213867
1.7985764741897583,4.1271538734436035,-0.7158903479576111
1.8310096263885498,4.123500347137451,-0.7044275999069214
1.8445138931274414,4.077297210693359,-0.6857524514198303
1.876400113105774,4.073367595672607,-0.6741222143173218
1.5488702058792114,3.3029634952545166,-0.5376719236373901
1.5727200508117676,3.2934176921844482,-0.5268845558166504
1.599629521369934,3.2907328605651855,-0.5173002481460571
1.619198203086853,3.274198293685913,-0.5054492354393005
1.635083794593811,3.2506213188171387,-0.49257057905197144
1.661725640296936,3.2474327087402344,-0.482645720243454
1.681288242340088,3.2302398681640625,-0.4706236720085144
1.702269196510315,3.216470241546631,-0.4589051604270935
1.7246013879776,3.2061140537261963,-0.44786056876182556
1.7475272417068481,3.195251226425171,-0.43647730350494385
1.8737671375274658,3.3708646297454834,-0.4500027000904083
2.127960205078125,3.768362045288086,-0.4912652373313904
2.1547462940216064,3.7549071311950684,-0.4773341715335846
2.181544303894043,3.741161823272705,-0.4633360207080841
2.2074615955352783,3.727639675140381,-0.44935688376426697
2.228959560394287,3.7074198722839355,-0.4346175789833069
2.2511565685272217,3.6865453720092773,-0.4194298982620239
2.2939538955688477,3.6983914375305176,-0.4075978696346283
2.294198513031006,3.6447672843933105,-0.3888380527496338
2.3278579711914062,3.6433963775634766,-0.3754785656929016
2.3580379486083984,3.634760856628418,-0.3609527349472046
2.369713068008423,3.600694417953491,-0.34398382902145386
2.3903400897979736,3.579123020172119,-0.32789453864097595
2.437702178955078,3.5956389904022217,-0.3147963881492615
2.4332668781280518,3.5386886596679688,-0.29534587264060974
2.4816322326660156,3.5586495399475098,-0.2821849584579468
2.5069451332092285,3.542179584503174,-0.2651498317718506
2.512716054916382,3.5010039806365967,-0.24615301191806793
2.5547029972076416,3.5103349685668945,-0.23055721819400787
2.1783554553985596,2.9504706859588623,-0.1793239563703537
2.7830772399902344,3.948056697845459,0.6863353848457336
2.7641959190368652,3.986426591873169,0.7075302004814148
2.7437522411346436,4.0163750648498535,0.7259308695793152
2.707933187484741,4.028346538543701,0.741049587726593
2.6966772079467773,4.0792927742004395,0.7629350423812866
2.6618831157684326,4.090092658996582,0.7765421867370605
2.6071667671203613,4.067604064941406,0.7833994626998901
2.59549617767334,4.117990493774414,0.8036801218986511
2.5663039684295654,4.142517566680908,0.8192249536514282
2.5422720909118652,4.168299198150635,0.8340161442756653
2.509920597076416,4.180799961090088,0.8461521863937378
2.486945152282715,4.214328765869141,0.8619835376739502
2.4500768184661865,4.22442102432251,0.873094916343689
2.4263813495635986,4.253337383270264,0.8876773118972778
2.406963348388672,4.288395881652832,0.9034312963485718
2.3630776405334473,4.2840728759765625,0.9103598594665527
2.2769405841827393,4.201931953430176,0.900450587272644
2.2436583042144775,4.213200092315674,0.9102018475532532
2.22175931930542,4.244233131408691,0.9241183400154114
2.1908485889434814,4.258094787597656,0.9340986013412476
2.165245771408081,4.286248207092285,0.9466918706893921
2.1392922401428223,4.314244270324707,0.9593544006347656
2.1110641956329346,4.334590911865234,0.9701275825500488
2.082843780517578,4.354650497436523,0.9808687567710876
2.041496515274048,4.346832752227783,0.9850459694862366
2.0294694900512695,4.405346870422363,1.0038031339645386
1.9962449073791504,4.418553829193115,1.0123424530029297
2.0150251388549805,4.546439170837402,1.0471891164779663
1.9826029539108276,4.558761119842529,1.05547297000885
1.9675078392028809,4.613219738006592,1.0736840963363647
1.9344615936279297,4.629509449005127,1.082250714302063
1.9056141376495361,4.656147480010986,1.0933152437210083
1.868238091468811,4.661238193511963,1.099348783493042
1.840763807296753,4.686817169189453,1.1100664138793945
1.823348045349121,4.740899085998535,1.1277369260787964
1.7984472513198853,4.777230739593506,1.1408131122589111
1.7486138343811035,4.749422073364258,1.1381990909576416
1.3277274370193481,3.6887283325195312,0.887160062789917
1.306050181388855,3.7113795280456543,0.8957573175430298
2.6020560264587402,7.564886093139648,1.8322570323944092
1.6485328674316406,4.903385639190674,1.1917695999145508
1.6212884187698364,4.939016342163086,1.2040640115737915
1.594401240348816,4.978288173675537,1.2170606851577759
1.531873345375061,4.904858589172363,1.2025316953659058
1.512635350227356,4.969045639038086,1.2217817306518555
2.2231006622314453,7.489076614379883,1.8465656042099
1.4511845111846924,5.016204833984375,1.2403464317321777
1.413183569908142,5.017852783203125,1.2437711954116821
1.380820631980896,5.041388511657715,1.252341389656067
1.3033047914505005,4.895870685577393,1.2189005613327026
1.0195536613464355,3.94455885887146,0.9843035340309143
0.9918658137321472,3.9506797790527344,0.9880367517471313
0.9659384489059448,3.9639782905578613,0.993617594242096
0.9309178590774536,3.940276861190796,0.9897335171699524
0.9025700092315674,3.946091413497925,0.9928213953971863
0.8835112452507019,3.9962403774261475,1.0071641206741333
0.857149064540863,4.012825012207031,1.0130945444107056
0.8289908766746521,4.017965316772461,1.0161488056182861
0.8053361773490906,4.0451979637146,1.0248442888259888
0.7741521596908569,4.035068511962891,1.0241302251815796
0.7531774044036865,4.084641933441162,1.038038730621338
0.7239930629730225,4.089298248291016,1.0404706001281738
0.7005340456962585,4.127352714538574,1.051461935043335
0.667044460773468,4.105416774749756,1.047216534614563
0.6384016871452332,4.109361171722412,1.049595832824707
0.6142473220825195,4.146880149841309,1.0606375932693481
1.0377594232559204,7.359922409057617,1.8847638368606567
0.7245668768882751,5.414961814880371,1.3877289295196533
0.6891025900840759,5.441910743713379,1.3957483768463135
0.6514970064163208,5.453588008880615,1.3999271392822266
0.613240659236908,5.457448959350586,1.4021601676940918
0.5772785544395447,5.487427711486816,1.4111948013305664
0.4314143657684326,4.3948564529418945,1.131322979927063
0.3958066403865814,4.344645023345947,1.1191812753677368
0.36583516001701355,4.354594707489014,1.1221760511398315
0.3320225477218628,4.31529426574707,1.1125304698944092
0.2950061857700348,4.23049259185791,1.0912046432495117
0.2636738717556,4.2019782066345215,1.0844203233718872
0.23238134384155273,4.165682792663574,1.0756691694259644
0.19915878772735596,4.080051898956299,1.0542120933532715
0.1686832755804062,4.032072067260742,1.0420671701431274
0.13835228979587555,3.9839541912078857,1.0296602249145508
0.10966475307941437,3.954505443572998,1.0221277475357056
0.08191382139921188,3.9475390911102295,1.0204548835754395
0.0539432093501091,3.9101250171661377,1.0109585523605347
0.02680736780166626,3.9178972244262695,1.0131924152374268
-0.0008570827194489539,3.9103524684906006,1.0115187168121338
-0.027742860838770866,3.868701219558716,1.000573754310608
-0.05463634431362152,3.8685085773468018,1.000211477279663
-0.1309443563222885,6.216231346130371,1.6067967414855957
-0.20572540163993835,7.341943264007568,1.8973652124404907
-0.25473570823669434,7.280032634735107,1.8810495138168335
-0.25438982248306274,6.046295166015625,1.5620815753936768
-0.17789636552333832,3.6267142295837402,0.9369082450866699
-0.20257478952407837,3.6180531978607178,0.9341413974761963
-0.22711385786533356,3.609257459640503,0.931255578994751
-0.5139807462692261,7.355312347412109,1.8966424465179443
-0.509198784828186,6.616430759429932,1.7051312923431396
-0.5612009763717651,6.684811592102051,1.7218571901321411
-0.6056899428367615,6.658581256866455,1.7142884731292725
-0.6321280002593994,6.451281547546387,1.6602107286453247
-0.6789280772209167,6.470029830932617,1.6633987426757812
-0.7251283526420593,6.473350524902344,1.6625373363494873
-0.7661659717559814,6.438832759857178,1.6520721912384033
-0.8025791049003601,6.370237350463867,1.6329621076583862
-0.842375636100769,6.331424236297607,1.6215773820877075
-0.8842981457710266,6.311108112335205,1.61501944065094
-0.9288977980613708,6.305418491363525,1.6122043132781982
-0.9830499291419983,6.370980262756348,1.6266354322433472
-1.0315077304840088,6.394975185394287,1.6304932832717896
-1.0835597515106201,6.43727970123291,1.639065146446228
-1.1345044374465942,6.467949867248535,1.6447118520736694
-1.1897832155227661,6.516798496246338,1.6550077199935913
-1.243031620979309,6.546453475952148,1.660446047782898
-1.3038558959960938,6.616852760314941,1.6759648323059082
-1.3558655977249146,6.6424994468688965,1.6793814897537231
-1.4122039079666138,6.686304569244385,1.68742835521698
-1.451404333114624,6.648136615753174,1.6748558282852173
-1.4858208894729614,6.583527088165283,1.655643343925476
-1.5301405191421509,6.5668721199035645,1.6486287117004395
-0.6793552041053772,2.82661771774292,0.7084457278251648
-0.6951496005058289,2.8077619075775146,0.7022571563720703
-0.6983277201652527,2.7410707473754883,0.6840167045593262
-0.7240675091743469,2.762528896331787,0.6877986788749695
-0.7528833746910095,2.7948248386383057,0.6942945122718811
-0.7724502682685852,2.7901527881622314,0.6915871500968933
-1.764892816543579,6.2066874504089355,1.535051941871643
-1.7995989322662354,6.166576385498047,1.5216466188430786
-1.8280984163284302,6.108349800109863,1.502946376800537
-1.8584961891174316,6.061093807220459,1.4871487617492676
-1.8894075155258179,6.01732873916626,1.4723304510116577
-1.9244070053100586,5.9839558601379395,1.4600517749786377
-1.9486405849456787,5.917741298675537,1.4398517608642578
-1.983681559562683,5.88370418548584,1.4275375604629517
-2.0112814903259277,5.835925102233887,1.4111493825912476
-2.046997547149658,5.813238143920898,1.4008612632751465
-2.0735292434692383,5.765203475952148,1.384560465812683
-2.10040020942688,5.716757297515869,1.3681761026382446
-2.128628730773926,5.671560287475586,1.3526215553283691
-2.1693172454833984,5.658026695251465,1.3446301221847534
-2.220278739929199,5.677123546600342,1.3437014818191528
-2.2883825302124023,5.738429069519043,1.3525817394256592
-2.3386683464050293,5.7531633377075195,1.3504544496536255
-2.3597118854522705,5.692994117736816,1.3306608200073242
-2.3887107372283936,5.649896621704102,1.3148186206817627
-2.454246997833252,5.694661617279053,1.3195147514343262
-2.540196180343628,5.788767337799072,1.3346480131149292
-2.5401930809020996,5.686554431915283,1.3045538663864136
-3.5898702144622803,7.896353244781494,1.8024870157241821
-3.677550792694092,7.939476490020752,1.802616834640503
-3.751972198486328,7.954493999481201,1.7964988946914673
-3.816885471343994,7.952478408813477,1.7859092950820923
-3.9056925773620605,8.002379417419434,1.7862733602523804
-3.976524591445923,8.01375961303711,1.7779897451400757
-4.062904357910156,8.047123908996582,1.7739111185073853
-4.15016508102417,8.07958698272705,1.7695142030715942
-4.254909515380859,8.145767211914062,1.7720367908477783
-4.350963592529297,8.198891639709473,1.7705992460250854
-1.16022527217865,2.1523311138153076,0.4614017903804779
-1.1862612962722778,2.165479898452759,0.4606655240058899
-4.602457046508789,8.262443542480469,1.743478536605835
-4.728270530700684,8.354722023010254,1.7484196424484253
-4.839511871337891,8.424030303955078,1.747375726699829
-4.936295986175537,8.465737342834473,1.7403947114944458
-1.2529489994049072,2.1154348850250244,0.4307411015033722
-2.929826259613037,4.867816925048828,0.9812775254249573
-2.9387168884277344,4.811132907867432,0.9597091674804688
-2.9747071266174316,4.800757884979248,0.9472894072532654
-3.023932933807373,4.809153079986572,0.9382333755493164
-3.029449224472046,4.744656562805176,0.914496660232544
-3.058645725250244,4.719622611999512,0.8980172276496887
-3.074922800064087,4.679605484008789,0.8786417245864868
-3.080922842025757,4.622969150543213,0.8560163378715515
-3.097087860107422,4.577916622161865,0.8349117040634155
-3.113218069076538,4.537177562713623,0.8144309520721436
-3.1522772312164307,4.531975746154785,0.7998878955841064
-2.8494503498077393,4.038868427276611,0.7000787854194641
-2.9081058502197266,4.061726093292236,0.6905315518379211
-2.9186084270477295,4.0235819816589355,0.6700814962387085
-2.9546759128570557,4.019258499145508,0.6549259424209595
-2.937540292739868,3.938537836074829,0.6262791752815247
-2.446841239929199,3.4562108516693115,-0.25244617462158203
-2.894745349884033,4.154971122741699,-0.3230545222759247
-2.877640962600708,4.193636894226074,-0.3445107042789459
-2.8745534420013428,4.2553324699401855,-0.36809849739074707
-2.8333213329315186,4.2624430656433105,-0.38682428002357483
-2.8027045726776123,4.280917644500732,-0.40540677309036255
-2.764876127243042,4.289772987365723,-0.4229789674282074
-2.7636263370513916,4.357992172241211,-0.44658657908439636
-2.748091697692871,4.402640342712402,-0.46756601333618164
-2.7240514755249023,4.433895111083984,-0.48690250515937805
-2.153737783432007,3.563783645629883,-0.40412405133247375
-2.664113759994507,4.47974157333374,-0.523455798625946
-2.639683485031128,4.510165691375732,-0.5422266721725464
-2.63244366645813,4.575098037719727,-0.5655848979949951
-1.1969984769821167,2.115345001220703,-0.2684461176395416
-2.5751891136169434,4.625516414642334,-0.6015931367874146
-2.556230068206787,4.669243812561035,-0.6218919157981873
-2.536329507827759,4.71309232711792,-0.6423600912094116
-2.4871702194213867,4.701866626739502,-0.6552407145500183
-2.4909679889678955,4.789495468139648,-0.6816973090171814
-1.089418649673462,2.1318907737731934,-0.30968916416168213
-1.0667811632156372,2.1249332427978516,-0.31486478447914124
-1.061837077140808,2.1522915363311768,-0.3249955177307129
-1.046033263206482,2.158928871154785,-0.3321422040462494
-1.0468119382858276,2.2003769874572754,-0.34458667039871216
-1.0275195837020874,2.199812412261963,-0.35050123929977417
-1.0214455127716064,2.2270681858062744,-0.360801100730896
-1.0069358348846436,2.2367782592773438,-0.3682776391506195
-0.9906130433082581,2.242919445037842,-0.3751312494277954
-0.9802551865577698,2.263136863708496,-0.38444164395332336
-0.9731472134590149,2.290220260620117,-0.39485859870910645
-0.953677237033844,2.288879156112671,-0.4003288149833679
-0.9458299279212952,2.3159661293029785,-0.4107595980167389
-0.9320238828659058,2.3286731243133545,-0.4186917543411255
-0.9038357734680176,2.30548095703125,-0.42020028829574585
-1.261182188987732,3.2846333980560303,-0.6064110994338989
-1.2239075899124146,3.2559609413146973,-0.6086845993995667
-1.2177891731262207,3.309915542602539,-0.6264156103134155
-1.06266188621521,2.951488971710205,-0.5653499364852905
-1.0309556722640991,2.928629159927368,-0.5676043629646301
-0.9986778497695923,2.90179443359375,-0.5687331557273865
-0.9705879092216492,2.88555908203125,-0.5718240141868591
-0.9500680565834045,2.890923023223877,-0.5791447758674622
-0.931803822517395,2.9034831523895264,-0.5877606272697449
-0.8992398381233215,2.8721423149108887,-0.5873796939849854
-0.8407043814659119,2.7524492740631104,-0.5685158967971802
-0.7917055487632751,2.657850503921509,-0.5543684363365173
-0.7685978412628174,2.6473958492279053,-0.55741286277771
-0.7321075201034546,2.588930606842041,-0.5499893426895142
-0.6995276212692261,2.541195869445801,-0.5446573495864868
-0.6624399423599243,2.4747564792633057,-0.5351860523223877
-0.6304699778556824,2.4227402210235596,-0.5284313559532166
-0.6058082580566406,2.3964314460754395,-0.526857316493988
-0.57155442237854,2.3291141986846924,-0.5161153674125671
-0.5498054623603821,2.3097591400146484,-0.5158573985099792
-0.5203576683998108,2.2568228244781494,-0.5080004334449768
-0.49780598282814026,2.229717493057251,-0.5053897500038147
-0.47004234790802,2.1763365268707275,-0.4967104196548462
-0.4531274735927582,2.1712229251861572,-0.49898311495780945
-0.42577508091926575,2.113696813583374,-0.4891282618045807
-0.3997550308704376,2.059802532196045,-0.4795756936073303
-0.377559095621109,2.0206236839294434,-0.4732774496078491
-0.3640519380569458,2.026200771331787,-0.47742441296577454
-0.34985238313674927,2.0279295444488525,-0.4806903600692749
-0.33256202936172485,2.0108790397644043,-0.47912120819091797
-0.31470736861228943,1.9899827241897583,-0.47657233476638794
-0.29396116733551025,1.9463815689086914,-0.4684924781322479
-0.27979326248168945,1.9439771175384521,-0.4702923893928528
-0.2631140649318695,1.9227302074432373,-0.4671938717365265
-0.24383951723575592,1.8787966966629028,-0.45838725566864014
-0.23625995218753815,1.9251325130462646,-0.4716312885284424
-0.2156061977148056,1.865896463394165,-0.4590524435043335
-0.19727657735347748,1.817859172821045,-0.44883492588996887
-0.18614058196544647,1.8338772058486938,-0.45421475172042847
-0.17336395382881165,1.8347187042236328,-0.4558694660663605
-0.15726731717586517,1.797703742980957,-0.4481114149093628
-0.1439216434955597,1.7908556461334229,-0.4476677179336548
-0.13063853979110718,1.7801858186721802,-0.44597840309143066
-0.11674477905035019,1.7580796480178833,-0.441427618265152
-0.10584921389818192,1.7812566757202148,-0.44826948642730713
-0.09226293861865997,1.75900137424469,-0.44354620575904846
-0.07981261610984802,1.7594395875930786,-0.444222629070282
-0.0684598907828331,1.782490849494934,-0.4506271481513977
-0.052135586738586426,1.6578471660614014,-0.41968056559562683
-0.04217339679598808,1.722387433052063,-0.4365248680114746
-0.029079126194119453,1.6582332849502563,-0.42038556933403015
-0.01817764714360237,1.737863540649414,-0.4407229423522949
-0.006158933043479919,1.7530477046966553,-0.4447437822818756
0.006018151994794607,1.753014326095581,-0.4448772966861725
0.018119389191269875,1.7454341650009155,-0.442656010389328
0.030246799811720848,1.7453420162200928,-0.4423564374446869
0.0422024242579937,1.7375942468643188,-0.44013869762420654
0.055437084287405014,1.7676095962524414,-0.44750112295150757
0.0677337571978569,1.767378807067871,-0.44671979546546936
0.07969988137483597,1.7594951391220093,-0.4440237283706665
0.09312868863344193,1.7817929983139038,-0.4489608407020569
0.10373496264219284,1.75104558467865,-0.44055628776550293
0.12142517417669296,1.8299669027328491,-0.4592817425727844
0.13252507150173187,1.8067220449447632,-0.45230698585510254
0.14631642401218414,1.8211889266967773,-0.4548025131225586
0.1589961051940918,1.820447564125061,-0.4535127878189087
0.17098797857761383,1.8121528625488281,-0.44998884201049805
0.18310202658176422,1.803787350654602,-0.44633394479751587
0.20224134624004364,1.8632450103759766,-0.45946767926216125
0.21654154360294342,1.8735424280166626,-0.46044209599494934
0.2333328127861023,1.90264093875885,-0.46571066975593567
0.2486037164926529,1.9165865182876587,-0.4670700430870056
0.2632744610309601,1.9228700399398804,-0.4665272831916809
0.27780893445014954,1.9290671348571777,-0.4660065472126007
0.2913152277469635,1.9276946783065796,-0.46343177556991577
0.3078221082687378,1.9450459480285645,-0.46512505412101746
0.3326398730278015,2.011045455932617,-0.47836801409721375
0.3467389941215515,2.009355068206787,-0.47545039653778076
0.3671426773071289,2.041276216506958,-0.4802494943141937
0.3787038326263428,2.02447247505188,-0.4733407199382782
0.40455716848373413,2.0823636054992676,-0.4838578999042511
0.4191852807998657,2.080275058746338,-0.4803784489631653
0.4408028721809387,2.1116771697998047,-0.48451656103134155
0.47365859150886536,2.191370964050293,-0.49917444586753845
0.49491769075393677,2.21496844291687,-0.5009641051292419
0.5242365598678589,2.271855115890503,-0.5101735591888428
0.5428858399391174,2.2802066802978516,-0.5083641409873962
0.5771848559379578,2.3515398502349854,-0.5200754404067993
0.5968713760375977,2.3595330715179443,-0.5175822973251343
0.6250718832015991,2.400714635848999,-0.5223710536956787
0.6568480134010315,2.4527251720428467,-0.5293658375740051
0.6903837323188782,2.5082151889801025,-0.5365543961524963
0.7237074375152588,2.5597152709960938,-0.5426618456840515
0.758134663105011,2.610830068588257,-0.5484097599983215
0.7974125146865845,2.676372766494751,-0.5570529699325562
0.8420867919921875,2.756275177001953,-0.5681048035621643
0.8867466449737549,2.832110643386841,-0.5779311656951904
0.9243772029876709,2.881927967071533,-0.5821813941001892
0.9583271741867065,2.916710615158081,-0.5831238627433777
1.0143955945968628,3.016850471496582,-0.5967252850532532
1.0843896865844727,3.1527814865112305,-0.6167703866958618
1.13984215259552,3.2408440113067627,-0.6269476413726807
1.1979858875274658,3.3319385051727295,-0.6372951865196228
1.2732746601104736,3.4658403396606445,-0.6551499366760254
1.344111442565918,3.5808701515197754,-0.6685559153556824
1.4438068866729736,3.76717472076416,-0.6946980357170105
1.5505461692810059,3.9631214141845703,-0.7216911315917969
1.6142830848693848,4.043484210968018,-0.7268221378326416
1.696448564529419,4.166159152984619,-0.738888680934906
1.7352200746536255,4.177344799041748,-0.7306258082389832
1.7559309005737305,4.145634651184082,-0.7149791121482849
1.7882953882217407,4.142247200012207,-0.704168438911438
1.8048676252365112,4.103384971618652,-0.6872597336769104
1.4910295009613037,3.32763934135437,-0.5489121079444885
1.524803876876831,3.339477777481079,-0.542142391204834
1.5484046936035156,3.3302392959594727,-0.5319843888282776
1.5683718919754028,3.313950300216675,-0.5206512808799744
1.5849754810333252,3.290476083755493,-0.5082102417945862
1.601605772972107,3.2667696475982666,-0.495722234249115
1.6231976747512817,3.2533583641052246,-0.48464909195899963
1.651056170463562,3.2538862228393555,-0.47574910521507263
1.6704072952270508,3.2368123531341553,-0.46416783332824707
1.6916676759719849,3.2228970527648926,-0.45297926664352417
1.7195919752120972,3.222773313522339,-0.4436604082584381
1.7640353441238403,3.253190040588379,-0.4384079873561859
2.128519058227539,3.8603463172912598,-0.5084694623947144
2.112338066101074,3.76893949508667,-0.48501354455947876
2.134434223175049,3.7492122650146484,-0.47099995613098145
2.1681220531463623,3.7494356632232666,-0.4594419300556183
2.1869685649871826,3.722113609313965,-0.4441642761230469
2.217357873916626,3.714780807495117,-0.43109285831451416
2.2588040828704834,3.7277090549468994,-0.4204844534397125
2.2686336040496826,3.6868178844451904,-0.4034758508205414
2.274177074432373,3.639134407043457,-0.3857458233833313
2.319653034210205,3.6579556465148926,-0.3750799894332886
2.336777687072754,3.630009889602661,-0.35915395617485046
2.3625903129577637,3.614708662033081,-0.34429931640625
2.408590316772461,3.6324360370635986,-0.332512766122818
