X,Y,Z
2.5447075366973877,4.052362442016602,0.33589985966682434
2.534079074859619,4.104234218597412,0.3464052081108093
2.5049808025360107,4.121448993682861,0.3535842001438141
2.482936143875122,4.152308464050293,0.3619662821292877
2.4652082920074463,4.193900108337402,0.3710496127605438
2.430177688598633,4.204689979553223,0.3773267865180969
2.3909997940063477,4.204120635986328,0.3822937309741974
2.3605480194091797,4.220708847045898,0.38869500160217285
2.273913860321045,4.139047145843506,0.3858948051929474
2.2435264587402344,4.155032634735107,0.3919209837913513
2.2215869426727295,4.183894157409668,0.39900916814804077
2.1913862228393555,4.199244022369385,0.4047245681285858
2.159980297088623,4.214942455291748,0.41032445430755615
2.1335062980651855,4.240926742553711,0.4169844090938568
2.103795289993286,4.255224704742432,0.4222431778907776
2.072094202041626,4.265904903411865,0.4271349012851715
2.0489144325256348,4.298140048980713,0.43392983078956604
2.0203895568847656,4.319700241088867,0.43969517946243286
1.98634934425354,4.326404571533203,0.4438389837741852
1.9682543277740479,4.368312358856201,0.45163795351982117
1.988721251487732,4.4992170333862305,0.46854066848754883
1.9818551540374756,4.573886394500732,0.479583203792572
1.9603586196899414,4.616453170776367,0.48734548687934875
4.298399448394775,10.321449279785156,1.096645712852478
4.264558792114258,10.447831153869629,1.1173299551010132
1.8615516424179077,4.655742645263672,0.5008338093757629
1.8246701955795288,4.661517143249512,0.5042924880981445
1.7879291772842407,4.6669535636901855,0.5077219605445862
1.755246639251709,4.6789021492004395,0.5117715001106262
1.3416929244995117,3.654883861541748,0.4019559919834137
1.3075913190841675,3.64213490486145,0.4025183320045471
1.2811453342437744,3.6512033939361572,0.4053913950920105
1.6337980031967163,4.766186237335205,0.5316453576087952
1.5954289436340332,4.7623796463012695,0.5336092710494995
1.5688223838806152,4.7953267097473145,0.5397538542747498
1.5573524236679077,4.876194953918457,0.551172137260437
1.5198450088500977,4.879506587982178,0.5536335706710815
1.5004206895828247,4.941984176635742,0.5628559589385986
1.452111005783081,4.907446384429932,0.5610265135765076
1.4307047128677368,4.9618730545043945,0.5693633556365967
1.3870387077331543,4.94162654876709,0.5692014098167419
1.34038245677948,4.9099040031433105,0.5672909617424011
1.2911908626556396,4.866539478302002,0.563999354839325
1.2542648315429688,4.867848873138428,0.5658954977989197
1.225897192955017,4.898767948150635,0.5712186694145203
1.202109932899475,4.952279567718506,0.5792562365531921
1.1699280738830566,4.971637725830078,0.5831876993179321
1.1361440420150757,4.987156391143799,0.5863888263702393
1.1072077751159668,5.025182723999023,0.5922768712043762
1.0763254165649414,5.055421352386475,0.5972860455513
1.0388717651367188,5.055052757263184,0.5987114310264587
1.0081862211227417,5.084727764129639,0.6037012338638306
0.9876434206962585,5.171484470367432,0.6152965426445007
2.1147682666778564,11.516317367553711,1.3726650476455688
2.0106656551361084,11.40446662902832,1.3618406057357788
1.899153709411621,11.242122650146484,1.3450103998184204
1.7948594093322754,11.093749046325684,1.3297669887542725
1.6950947046279907,10.959820747375488,1.3162497282028198
1.5960229635238647,10.821394920349121,1.301580548286438
1.4990936517715454,10.686079978942871,1.2869242429733276
1.3987276554107666,10.519365310668945,1.2685309648513794
1.3138352632522583,10.440061569213867,1.2606569528579712
1.2323914766311646,10.375450134277344,1.2545819282531738
1.1432992219924927,10.233132362365723,1.239133358001709
1.0631860494613647,10.15962028503418,1.231485366821289
0.9924265146255493,10.17435073852539,1.2342300415039062
0.3931749761104584,4.352787494659424,0.5284714698791504
0.356242299079895,4.278050422668457,0.5198495388031006
0.32649925351142883,4.280332088470459,0.5206003189086914
0.29830411076545715,4.3056206703186035,0.5241778492927551
0.2701500952243805,4.338492393493652,0.528509795665741
0.31050780415534973,5.633432388305664,0.6864830255508423
0.2712729871273041,5.639279365539551,0.687450647354126
0.23346544802188873,5.679719924926758,0.6926707029342651
0.19502590596675873,5.7121477127075195,0.6969494819641113
0.15589214861392975,5.7326836585998535,0.6998134255409241
0.11579103767871857,5.756865978240967,0.7029596567153931
0.07595578581094742,5.77304220199585,0.704836368560791
0.03588681295514107,5.796697616577148,0.7076596617698669
-0.004445370752364397,5.82007360458374,0.7104827761650085
-0.06865985691547394,8.883010864257812,1.0843952894210815
-0.12928587198257446,8.727222442626953,1.0654362440109253
-0.18835674226284027,8.648605346679688,1.0557719469070435
-0.2450474053621292,8.530908584594727,1.0407906770706177
-0.1432570368051529,4.014603614807129,0.48952528834342957
-0.17463469505310059,4.094911098480225,0.49907079339027405
-0.17558546364307404,3.539822578430176,0.4312264621257782
-0.20166988670825958,3.5578925609588623,0.4332523047924042
-0.22783376276493073,3.5796687602996826,0.4357351064682007
-0.2634460926055908,3.7328169345855713,0.4539133608341217
-0.29788556694984436,3.8431146144866943,0.46686995029449463
-0.32439494132995605,3.841050863265991,0.46618562936782837
-0.3454934358596802,3.773097276687622,0.4575243294239044
-0.36871716380119324,3.7398061752319336,0.4531046450138092
-0.3918619751930237,3.710236072540283,0.4491639733314514
-0.41224247217178345,3.6613121032714844,0.4426122307777405
-0.43834930658340454,3.6662089824676514,0.4425632059574127
-0.4591594636440277,3.6246886253356934,0.4369259774684906
-0.478630006313324,3.5792453289031982,0.43085721135139465
-0.5013532042503357,3.560582160949707,0.42804059386253357
-0.5204346179962158,3.518752098083496,0.42246806621551514
-0.5517414808273315,3.561235189437866,0.42678526043891907
-0.5790353417396545,3.5727744102478027,0.427327036857605
-0.5834658741950989,3.4502930641174316,0.41189634799957275
-1.1176280975341797,6.342465400695801,0.755750298500061
-1.1721835136413574,6.392060279846191,0.7602596879005432
-1.2239172458648682,6.4221343994140625,0.7624613642692566
-1.2776601314544678,6.463410377502441,0.7655795216560364
-1.3303061723709106,6.492741584777832,0.7671422362327576
-1.3850349187850952,6.533205986022949,0.7700649499893188
-1.4384888410568237,6.561728000640869,0.7715667486190796
-1.475525140762329,6.514064311981201,0.7641361355781555
-1.5137354135513306,6.473756790161133,0.7576244473457336
-1.5432130098342896,6.399343967437744,0.7466716170310974
-0.6951045393943787,2.799001932144165,0.32560256123542786
-0.7102968096733093,2.779337167739868,0.3223489820957184
-0.7255844473838806,2.7595090866088867,0.3190852403640747
-0.7447944283485413,2.7545628547668457,0.3175574243068695
-0.7704947590827942,2.7718522548675537,0.3185654282569885
-0.7892651557922363,2.7667665481567383,0.3168191909790039
-1.0904208421707153,3.7267918586730957,0.425199419260025
-1.1156593561172485,3.7195827960968018,0.42284250259399414
-1.1438190937042236,3.719421863555908,0.4212619960308075
-1.167828917503357,3.7040891647338867,0.4179556667804718
-1.9032305479049683,5.895542144775391,0.6626020073890686
-1.9332154989242554,5.853538990020752,0.6550349593162537
-1.9677468538284302,5.8260979652404785,0.6491448879241943
-1.2466739416122437,3.609689235687256,0.4004320502281189
-1.264087438583374,3.579216480255127,0.39528360962867737
-1.2894560098648071,3.5704586505889893,0.39253535866737366
-1.313482403755188,3.5620124340057373,0.3896007537841797
-1.3291959762573242,3.531597375869751,0.3842800557613373
-1.3557698726654053,3.530128002166748,0.3821292519569397
-1.3776051998138428,3.513645648956299,0.3782966732978821
-1.4083548784255981,3.5185203552246094,0.37674352526664734
-1.429304599761963,3.5020084381103516,0.37277883291244507
-1.452778935432434,3.492682456970215,0.3695122003555298
-1.4610199928283691,3.4473981857299805,0.36248117685317993
-1.4833956956863403,3.433945894241333,0.35876137018203735
-1.5045630931854248,3.4165830612182617,0.35461190342903137
-1.535659909248352,3.424400806427002,0.3529796302318573
-1.5712823867797852,3.442800998687744,0.35232236981391907
-1.631819486618042,3.513786554336548,0.3569774925708771
-1.6662863492965698,3.52380108833313,0.3552477955818176
-2.619767189025879,5.440099239349365,0.5441049337387085
-2.6735267639160156,5.4578633308410645,0.5413389801979065
-2.666337251663208,5.353540897369385,0.5264394879341125
-2.6986865997314453,5.3292012214660645,0.5194602608680725
-2.74302339553833,5.324673652648926,0.5142364501953125
-2.769099712371826,5.285442352294922,0.505664050579071
-2.4605143070220947,4.621460914611816,0.4376070201396942
-2.494570255279541,4.612581729888916,0.43231064081192017
-1.166542887687683,2.1222269535064697,0.19675348699092865
-1.200366497039795,2.148268699645996,0.19694671034812927
-2.559978485107422,4.511315822601318,0.40871956944465637
-2.5782973766326904,4.4745097160339355,0.4003889858722687
-2.5928242206573486,4.430628776550293,0.391408234834671
-2.6237995624542236,4.412952423095703,0.3846209645271301
-1.260170340538025,2.0879018306732178,0.17941921949386597
-2.6817245483398438,4.379181861877441,0.3708467185497284
-2.676896810531616,4.304940223693848,0.3588255047798157
-3.0024940967559814,4.754541397094727,0.38982677459716797
-3.0019707679748535,4.6862616539001465,0.3776250183582306
-3.0066843032836914,4.628214359283447,0.3663501739501953
-3.051692485809326,4.627391338348389,0.35913243889808655
-3.057673692703247,4.5679450035095215,0.3471483290195465
-3.0824058055877686,4.542537212371826,0.33783790469169617
-3.1018521785736084,4.506315231323242,0.32737675309181213
-3.133047103881836,4.485377311706543,0.3177141845226288
-2.9224278926849365,4.128775596618652,0.284780889749527
-2.8365910053253174,3.9511144161224365,0.2645778954029083
-2.9118168354034424,3.9984402656555176,0.2593197524547577
-2.936640739440918,3.980863332748413,0.24963070452213287
-2.49202823638916,3.487684965133667,-0.14800399541854858
-2.443319082260132,3.4739582538604736,-0.155904158949852
-2.43526554107666,3.5172462463378906,-0.1660209447145462
-2.3750133514404297,3.4824700355529785,-0.17194721102714539
-2.298464775085449,3.425459623336792,-0.17649850249290466
-2.2459514141082764,3.3990731239318848,-0.18195609748363495
-2.1846699714660645,3.3595128059387207,-0.18649441003799438
-2.1424503326416016,3.3491837978363037,-0.1923745572566986
-2.118818759918213,3.3637850284576416,-0.19921764731407166
-1.257933497428894,2.0291330814361572,-0.12373414635658264
-1.2590240240097046,2.0648410320281982,-0.1294931173324585
-2.0567243099212646,3.4281818866729736,-0.22072117030620575
-2.0360963344573975,3.4491140842437744,-0.22761963307857513
-2.0103938579559326,3.4637277126312256,-0.2340780645608902
-1.190871000289917,2.085925817489624,-0.14414769411087036
-1.1876887083053589,2.1143569946289062,-0.14923495054244995
-1.9424383640289307,3.5188281536102295,-0.2535359561443329
-1.9333770275115967,3.563342332839966,-0.26182663440704346
-1.9266831874847412,3.6107733249664307,-0.27022722363471985
-1.9135324954986572,3.648153305053711,-0.2779180407524109
-2.475813388824463,4.8047990798950195,-0.37234827876091003
-2.4512388706207275,4.84300422668457,-0.3816262483596802
-2.4242632389068604,4.873394012451172,-0.3900867700576782
-2.399453639984131,4.911099433898926,-0.39907941222190857
-2.370429754257202,4.941866397857666,-0.40751513838768005
-1.5801068544387817,3.354646682739258,-0.2805511951446533
-1.5500277280807495,3.3510940074920654,-0.2841101884841919
-1.5254695415496826,3.3619425296783447,-0.2888226807117462
-1.501082181930542,3.372504234313965,-0.293430894613266
-1.4834351539611816,3.39691162109375,-0.29918617010116577
-1.4856929779052734,3.4676496982574463,-0.30907949805259705
-1.4638094902038574,3.4849932193756104,-0.3141596019268036
-1.4382168054580688,3.495227336883545,-0.3186401426792145
-2.1645843982696533,5.36746883392334,-0.49458780884742737
-2.14416766166687,5.425297737121582,-0.5051739811897278
-1.3526960611343384,3.494671583175659,-0.32865259051322937
-1.3331161737442017,3.5184531211853027,-0.3340873122215271
-2.060892105102539,5.55952787399292,-0.5329848527908325
-2.02194881439209,5.573207378387451,-0.5392414331436157
-1.9292393922805786,5.436440944671631,-0.5306954383850098
-1.6047807931900024,4.6264119148254395,-0.45542168617248535
-1.5816707611083984,4.666744709014893,-0.4632260799407959
-1.8858277797698975,5.696274280548096,-0.570074737071991
-1.866340160369873,5.7716145515441895,-0.5822570323944092
-0.9746456146240234,3.0886037349700928,-0.3138473927974701
-0.9572177529335022,3.1100239753723145,-0.31830865144729614
-0.8559939861297607,2.8520233631134033,-0.29397791624069214
-0.7978411912918091,2.7270894050598145,-0.2830792963504791
-0.7708168029785156,2.706317186355591,-0.28280600905418396
-0.7495030760765076,2.703991413116455,-0.28432056307792664
-0.7363965511322021,2.7315046787261963,-0.2889927327632904
-0.7183199524879456,2.7400903701782227,-0.2916654348373413
-0.7030142545700073,2.759854316711426,-0.2955564558506012
-0.6729001402854919,2.7231252193450928,-0.2931833863258362
-1.4937149286270142,6.233435153961182,-0.6746530532836914
-1.46491539478302,6.307580471038818,-0.6862440705299377
-1.4226737022399902,6.324703216552734,-0.6916803121566772
-1.3709838390350342,6.299857139587402,-0.6923295855522156
-1.3161718845367432,6.263469696044922,-0.6914070844650269
-1.267403244972229,6.249304294586182,-0.692882239818573
-1.2140922546386719,6.208011627197266,-0.6913201808929443
-1.1614696979522705,6.166276931762695,-0.6896906495094299
-1.1098934412002563,6.128036022186279,-0.6880168318748474
-1.0240881443023682,5.894475936889648,-0.6641972064971924
-0.9444474577903748,5.6713948249816895,-0.6413505673408508
-0.9580801725387573,6.011016368865967,-0.682194709777832
-0.913853108882904,6.001833915710449,-0.6836147904396057
-0.8767471313476562,6.042374610900879,-0.6901382803916931
-0.8356968760490417,6.06356143951416,-0.6945210695266724
-0.6363439559936523,4.868252277374268,-0.5591776371002197
-0.7390993237495422,5.977751731872559,-0.6885648965835571
-0.6933544874191284,5.947792053222656,-0.6869508028030396
-0.6474976539611816,5.913703441619873,-0.6843792200088501
-0.6036838293075562,5.894713401794434,-0.6835758686065674
-0.5585699081420898,5.863859176635742,-0.681433379650116
-0.5157318711280823,5.844195365905762,-0.6805832982063293
-0.47192299365997314,5.80878210067749,-0.6776637434959412
-0.2564626634120941,3.4553465843200684,-0.4036255180835724
-0.23467816412448883,3.4918081760406494,-0.4084275960922241
-0.20991544425487518,3.4932971000671387,-0.40917330980300903
-0.30208784341812134,5.68742036819458,-0.6671178340911865
-0.26099929213523865,5.6582865715026855,-0.6643105149269104
-0.22044788300991058,5.6327667236328125,-0.6616928577423096
-0.18039008975028992,5.610836029052734,-0.6595255732536316
-0.13978731632232666,5.573119163513184,-0.6555356383323669
-0.10054582357406616,5.546739101409912,-0.6528987884521484
-0.06130331754684448,5.485222816467285,-0.6457020044326782
-0.018611647188663483,4.414798259735107,-0.5196288228034973
0.01218388695269823,4.453619956970215,-0.5241567492485046
0.052914153784513474,5.396094799041748,-0.6350591778755188
0.09050753712654114,5.4033613204956055,-0.635925829410553
0.1283598095178604,5.418182849884033,-0.6371859312057495
0.1617857813835144,5.281515121459961,-0.6206039786338806
0.15402208268642426,4.097882270812988,-0.48114845156669617
0.18255062401294708,4.096767425537109,-0.4806669354438782
0.22580121457576752,4.3705244064331055,-0.5124152898788452
0.2549819350242615,4.349601745605469,-0.5091645121574402
0.2724918723106384,4.154258728027344,-0.4855576455593109
0.3019045889377594,4.160114765167236,-0.48552390933036804
0.32960045337677,4.142552852630615,-0.4827808737754822
0.36017850041389465,4.15570592880249,-0.4835474193096161
0.38896259665489197,4.153270244598389,-0.4821756184101105
0.4087585508823395,4.06183385848999,-0.47051844000816345
0.43443530797958374,4.035904884338379,-0.4664984345436096
0.462492436170578,4.032940864562988,-0.465158611536026
0.4937639534473419,4.052865505218506,-0.4663086235523224
0.6284212470054626,4.877173900604248,-0.5594886541366577
0.6621399521827698,4.87295389175415,-0.5573679804801941
0.6959522366523743,4.868483066558838,-0.5552394390106201
0.7287042737007141,4.856081485748291,-0.5522300004959106
0.7544674277305603,4.797412872314453,-0.5437169075012207
0.7850700616836548,4.777055263519287,-0.539409875869751
0.8259235620498657,4.817727088928223,-0.5420072674751282
0.8635625243186951,4.835083484649658,-0.5419624447822571
0.8943900465965271,4.813973426818848,-0.5376290678977966
0.9232198596000671,4.785130023956299,-0.5321352481842041
0.9567825794219971,4.778875827789307,-0.529041588306427
0.9866763949394226,4.757266998291016,-0.524314820766449
1.012435793876648,4.716441631317139,-0.5175060033798218
1.0452756881713867,4.709606647491455,-0.5144525766372681
1.074194312095642,4.6875319480896,-0.5093547105789185
1.0998507738113403,4.650027751922607,-0.5025836825370789
1.130218505859375,4.6351141929626465,-0.4983285963535309
1.160657286643982,4.619946002960205,-0.4940602481365204
1.186854600906372,4.589590072631836,-0.4880813956260681
1.2173935174942017,4.577965259552002,-0.4838912785053253
1.249439001083374,4.569730758666992,-0.4800301790237427
1.27490234375,4.538876533508301,-0.47385144233703613
1.3065310716629028,4.530271530151367,-0.47002628445625305
1.3333182334899902,4.506669044494629,-0.46441343426704407
1.3574490547180176,4.4755167961120605,-0.4579738974571228
1.3888078927993774,4.466316223144531,-0.45374834537506104
1.4176018238067627,4.449525833129883,-0.44879403710365295
1.4437074661254883,4.425192832946777,-0.4430643320083618
1.4739490747451782,4.415656566619873,-0.4386134743690491
1.4978770017623901,4.3874945640563965,-0.43234363198280334
1.2527004480361938,3.5878589153289795,-0.35066699981689453
1.2729591131210327,3.564570665359497,-0.3454689085483551
1.3027864694595337,3.5707192420959473,-0.3430255651473999
1.5947728157043457,4.280360221862793,-0.4074770510196686
1.63252592086792,4.291543960571289,-0.40478286147117615
1.6624771356582642,4.280485153198242,-0.39993733167648315
1.6897070407867432,4.261902332305908,-0.3942756652832031
1.712855339050293,4.236327171325684,-0.3879184424877167
1.7401820421218872,4.221423149108887,-0.3825734555721283
1.7636340856552124,4.195257663726807,-0.3761354088783264
1.783687949180603,4.161826133728027,-0.3690873682498932
1.8123849630355835,4.149884223937988,-0.363712877035141
1.834194540977478,4.123709678649902,-0.3571944534778595
1.8596203327178955,4.104221820831299,-0.3511914312839508
1.8947997093200684,4.10572624206543,-0.34697195887565613
1.9126852750778198,4.072085380554199,-0.33964765071868896
1.947359561920166,4.073363780975342,-0.33516937494277954
1.9687283039093018,4.04622220993042,-0.3283315896987915
1.993519902229309,4.025833606719971,-0.322040319442749
2.0171830654144287,4.005767822265625,-0.3156832754611969
2.0387673377990723,3.9821507930755615,-0.30906572937965393
2.062739849090576,3.961460828781128,-0.3025643825531006
2.098139762878418,3.9609415531158447,-0.29748600721359253
2.120922088623047,3.9403934478759766,-0.2908762991428375
2.1397533416748047,3.91288161277771,-0.2837969660758972
2.119717597961426,3.8130836486816406,-0.27138951420783997
2.1536853313446045,3.812364339828491,-0.26611751317977905
2.171715021133423,3.784590721130371,-0.2588195502758026
2.193413019180298,3.763463020324707,-0.2520119547843933
2.2236862182617188,3.7551581859588623,-0.24590140581130981
2.240816116333008,3.7271933555603027,-0.23849281668663025
2.26948881149292,3.7193610668182373,-0.2323744297027588
2.308095693588257,3.723527669906616,-0.22657836973667145
2.308579921722412,3.6684458255767822,-0.217272087931633
2.33683443069458,3.660177230834961,-0.2107688933610916
2.382992744445801,3.6772875785827637,-0.20543228089809418
2.3954436779022217,3.6416029930114746,-0.1969788819551468
2.402137279510498,3.600114345550537,-0.18816488981246948
2.4439756870269775,3.610003709793091,-0.18187890946865082
2.4466664791107178,3.561314344406128,-0.17242670059204102
2.4740238189697266,3.5522515773773193,-0.16495519876480103
2.507230758666992,3.5484046936035156,-0.157270148396492
2.526740312576294,3.52530837059021,-0.14842236042022705
2.5446653366088867,3.503091335296631,-0.13972529768943787
2.182236671447754,2.9606847763061523,-0.11085615307092667
2.7713630199432373,3.917008399963379,0.24822813272476196
2.7477216720581055,3.942563533782959,0.2576313316822052
2.7226760387420654,3.968780755996704,0.26688411831855774
2.691399574279785,3.9894521236419678,0.2757744789123535
2.6632981300354004,4.007712364196777,0.28372180461883545
2.6162362098693848,4.000810146331787,0.28972893953323364
2.6064345836639404,4.053061008453369,0.2999790608882904
2.577943801879883,4.070706367492676,0.30716046690940857
2.5435924530029297,4.082524299621582,0.313920259475708
2.52463698387146,4.121173858642578,0.3225608170032501
2.490800619125366,4.132083892822266,0.32877007126808167
2.461791515350342,4.148909091949463,0.3353007733821869
2.444340229034424,4.190299987792969,0.3436470627784729
2.4024224281311035,4.191493988037109,0.34879350662231445
2.37678599357605,4.21453332901001,0.35533106327056885
2.3431148529052734,4.223934173583984,0.36070147156715393
2.2461819648742676,4.121160984039307,0.35614627599716187
2.230001449584961,4.1648268699646,0.36416786909103394
2.192957878112793,4.1663818359375,0.3683479130268097
2.177889347076416,4.208916187286377,0.3760949373245239
2.150054693222046,4.231477737426758,0.3818740248680115
2.1202642917633057,4.250366687774658,0.3873520493507385
2.0935323238372803,4.271820068359375,0.3929137587547302
2.0731513500213623,4.307225704193115,0.39982643723487854
2.0350914001464844,4.307685375213623,0.4032432734966278
2.003244400024414,4.322149276733398,0.4079034626483917
1.9783114194869995,4.350291728973389,0.4138275384902954
2.009752035140991,4.50216007232666,0.4315335750579834
1.9796035289764404,4.5193095207214355,0.4364139139652252
1.9382081031799316,4.515630722045898,0.4390605688095093
1.9307482242584229,4.590242385864258,0.44931885600090027
1.9099236726760864,4.632212162017822,0.45637792348861694
1.8717138767242432,4.6305928230285645,0.4591203033924103
1.841856598854065,4.650513648986816,0.46391355991363525
1.8017605543136597,4.649119853973389,0.46640515327453613
1.7885751724243164,4.7162604331970215,0.4757745563983917
1.3532127141952515,3.6456656455993652,0.3697642982006073
1.3223717212677002,3.640127420425415,0.37117329239845276
1.2992606163024902,3.656404495239258,0.37475618720054626
1.2696733474731445,3.658276319503784,0.3767044246196747
1.6313092708587646,4.812154769897461,0.49780434370040894
1.6153260469436646,4.8786516189575195,0.5069722533226013
1.5764931440353394,4.874647617340088,0.5088098049163818
1.5295562744140625,4.8444085121154785,0.507910966873169
1.489449381828308,4.840304851531982,0.5094127655029297
1.4634709358215332,4.880374908447266,0.515557050704956
1.4339133501052856,4.909069538116455,0.5205349922180176
1.396418809890747,4.907435417175293,0.5222758650779724
1.363214135169983,4.920483589172363,0.5255991220474243
1.3152297735214233,4.880939960479736,0.523099422454834
1.2756747007369995,4.875088214874268,0.5240631699562073
1.2464210987091064,4.906431674957275,0.5290290713310242
1.2174216508865356,4.937448978424072,0.5339722037315369
1.1865850687026978,4.960660457611084,0.5380936861038208
1.1546061038970947,4.979893684387207,0.5418184399604797
1.1236085891723633,5.010629653930664,0.5464743375778198
1.0846105813980103,5.003087997436523,0.5469353795051575
1.0568673610687256,5.048478603363037,0.5532186627388
1.0246931314468384,5.070728778839111,0.5569790601730347
0.9863693118095398,5.062266826629639,0.5573911070823669
2.177600383758545,11.61502742767334,1.2818982601165771
2.064840316772461,11.46159839630127,1.2671922445297241
1.9576748609542847,11.32630443572998,1.254492998123169
1.8482105731964111,11.163249015808105,1.2387127876281738
1.7461684942245483,11.02203369140625,1.2253090143203735
1.6436694860458374,10.872474670410156,1.2110130786895752
1.5410521030426025,10.698873519897461,1.1936907768249512
1.4533028602600098,10.62073040008545,1.1864240169525146
1.3533672094345093,10.437919616699219,1.167482614517212
1.270826816558838,10.373695373535156,1.1618226766586304
1.18834388256073,10.29330825805664,1.1543673276901245
1.1000114679336548,10.158373832702637,1.1408414840698242
1.0240464210510254,10.115348815917969,1.137337565422058
0.406409353017807,4.317070007324219,0.4857551157474518
0.37537187337875366,4.312009811401367,0.48556631803512573
0.3404930830001831,4.2564167976379395,0.47970372438430786
0.3117882311344147,4.2779998779296875,0.4825630486011505
0.2856394946575165,4.334212779998779,0.48935210704803467
0.3312152922153473,5.622507572174072,0.6352759003639221
0.29113030433654785,5.609131336212158,0.6339341402053833
0.25386008620262146,5.653636455535889,0.6391659379005432
0.21510662138462067,5.694039344787598,0.6439728140830994
0.17616917192935944,5.718630790710449,0.647020697593689
0.13705343008041382,5.746832370758057,0.6505106091499329
0.09688820689916611,5.739850044250488,0.6499504446983337
0.05707724019885063,5.763680934906006,0.6525181531906128
0.016127604991197586,5.740660667419434,0.6498118042945862
-0.03714612126350403,8.915654182434082,1.0091007947921753
-0.06627921760082245,5.965456008911133,0.6751521825790405
-0.07565170526504517,4.187431812286377,0.4739183187484741
-0.10539939999580383,4.213976860046387,0.4769139885902405
-0.13123977184295654,4.108442306518555,0.46467188000679016
-0.15946370363235474,4.0880656242370605,0.4620875418186188
-0.27175217866897583,5.913215160369873,0.6680247187614441
-0.18851976096630096,3.56225323677063,0.40223175287246704
-0.21214431524276733,3.5415191650390625,0.39970940351486206
-0.2391163408756256,3.574852466583252,0.40330803394317627
-0.2862936556339264,3.8712387084960938,0.43627429008483887
-0.30929601192474365,3.822812557220459,0.4303673505783081
-0.3326619267463684,3.7858548164367676,0.4257815480232239
-0.35597771406173706,3.7526140213012695,0.4216401278972626
-0.376959890127182,3.699913501739502,0.415339857339859
-0.4022797644138336,3.6895108222961426,0.4138079285621643
-0.42676302790641785,3.679046154022217,0.41202157735824585
-0.4482855200767517,3.645301580429077,0.4076176583766937
-0.46882569789886475,3.607588768005371,0.4028012752532959
-0.4874746799468994,3.5582008361816406,0.3967092037200928
-0.5104478001594543,3.539393186569214,0.3940431475639343
-0.5326993465423584,3.5205090045928955,0.3914034962654114
-0.5568806529045105,3.5168933868408203,0.3902464509010315
-0.5923846960067749,3.582085609436035,0.39668282866477966
-0.611616313457489,3.547466993331909,0.39207711815834045
-1.140533208847046,6.352686882019043,0.7007520794868469
-1.1932889223098755,6.386699676513672,0.7031306624412537
-1.2495520114898682,6.439485549926758,0.7076107263565063
-1.30196213722229,6.472971439361572,0.7095309495925903
-1.3564274311065674,6.513664245605469,0.712179958820343
-1.4106245040893555,6.550132751464844,0.7143766283988953
-1.4533377885818481,6.5251851081848145,0.7098431587219238
-1.4908883571624756,6.481147289276123,0.7033019065856934
-1.525200366973877,6.425562858581543,0.6955606937408447
-0.689382016658783,2.818999767303467,0.3041965961456299
-0.7009549736976624,2.7842588424682617,0.29951316118240356
-0.7143632173538208,2.756929397583008,0.29564258456230164
-0.7314833998680115,2.744549512863159,0.29339686036109924
-0.7526273131370544,2.747039794921875,0.29275238513946533
-0.7820997834205627,2.7793450355529785,0.29523158073425293
-1.0714685916900635,3.7113256454467773,0.39274659752845764
-1.1013895273208618,3.719010829925537,0.3920632004737854
-1.1154448986053467,3.6744561195373535,0.3859121799468994
-1.1329681873321533,3.6408441066741943,0.3809211850166321
-1.886824369430542,5.918134689331055,0.6168302893638611
-1.9235801696777344,5.89443302154541,0.6117479801177979
-1.0848503112792969,3.2486512660980225,0.33561933040618896
-1.0828688144683838,3.171584129333496,0.32619228959083557
-1.27138090133667,3.641460418701172,0.37280410528182983
-1.279768705368042,3.585158586502075,0.3653462529182434
-1.2965519428253174,3.5545647144317627,0.3605000972747803
-1.3231152296066284,3.5533437728881836,0.3584669232368469
-1.350166916847229,3.5517609119415283,0.35637009143829346
-1.3771941661834717,3.549997091293335,0.3542689085006714
-1.396177887916565,3.5261330604553223,0.34994274377822876
-1.4148954153060913,3.5021727085113525,0.3456399142742157
-1.4382749795913696,3.492938280105591,0.3425764739513397
-1.452939510345459,3.461866617202759,0.33736175298690796
-1.4686590433120728,3.434378147125244,0.3325473964214325
-1.4973043203353882,3.4350311756134033,0.3304044306278229
-1.5165510177612305,3.4141125679016113,0.3262026607990265
-1.5537489652633667,3.436140298843384,0.32590141892433167
-1.611209750175476,3.5000853538513184,0.3294597864151001
-1.6415038108825684,3.5035109519958496,0.3272762596607208
-1.669285774230957,3.4993247985839844,0.324305921792984
-2.6422834396362305,5.44212532043457,0.5002992153167725
-2.666146993637085,5.400638580322266,0.49217361211776733
-2.704219341278076,5.3865766525268555,0.48650455474853516
-2.3923184871673584,4.685230255126953,0.41926300525665283
-2.4286599159240723,4.675759315490723,0.41444388031959534
-2.438460350036621,4.6183600425720215,0.40527814626693726
-2.4688830375671387,4.602655410766602,0.39971229434013367
-2.499572515487671,4.586548805236816,0.39407774806022644
-1.1933543682098389,2.1534111499786377,0.18289975821971893
-2.5539095401763916,4.535189628601074,0.38072696328163147
-2.571890115737915,4.498611927032471,0.37302476167678833
-2.605144500732422,4.488943576812744,0.3675837814807892
-2.5989348888397217,4.407321929931641,0.3559943735599518
-1.233812689781189,2.0593338012695312,0.16398006677627563
-1.2471920251846313,2.0514981746673584,0.16095340251922607
-2.6787703037261963,4.34249210357666,0.33555588126182556
-2.7649271488189697,4.413390636444092,0.33542895317077637
-2.9788296222686768,4.684601783752441,0.34998345375061035
-3.0051865577697754,4.659032344818115,0.34178948402404785
-3.0406334400177,4.645875453948975,0.3343624174594879
-3.032207489013672,4.5632710456848145,0.3217223584651947
-3.0681724548339844,4.55385684967041,0.3141748905181885
-3.0975899696350098,4.534467697143555,0.3058391809463501
-3.096524715423584,4.464784622192383,0.29348883032798767
-3.1345155239105225,4.457866668701172,0.28535252809524536
-2.8685319423675537,4.025357723236084,0.25056999921798706
-2.860059976577759,3.9551494121551514,0.23847760260105133
-2.9174387454986572,3.9814765453338623,0.23214079439640045
-2.9477992057800293,3.969316244125366,0.22310292720794678
-2.4573519229888916,3.46463942527771,-0.14210447669029236
-2.4350597858428955,3.4895060062408447,-0.1509907990694046
-2.969780206680298,4.320135593414307,-0.1957913637161255
-2.337698221206665,3.4562277793884277,-0.163730189204216
-2.290318727493286,3.440652847290039,-0.16967420279979706
-2.2212681770324707,3.38769268989563,-0.1732008010149002
-2.164058208465576,3.3547143936157227,-0.17750588059425354
-2.1395320892333984,3.3700549602508545,-0.18411320447921753
-2.0946438312530518,3.3518569469451904,-0.18872986733913422
-1.2870365381240845,2.094048500061035,-0.12129320204257965
-2.0488851070404053,3.388425350189209,-0.2015656977891922
-2.0491039752960205,3.442528247833252,-0.20990464091300964
-2.000166416168213,3.416696548461914,-0.21332287788391113
-1.9940180778503418,3.464986562728882,-0.22141854465007782
-1.2067798376083374,2.1312332153320312,-0.13910400867462158
-1.9256352186203003,3.4581563472747803,-0.2303723841905594
-1.9469074010849,3.557392120361328,-0.24170246720314026
-1.9288605451583862,3.584554672241211,-0.24813157320022583
-1.917883038520813,3.6253795623779297,-0.25555920600891113
-1.9004089832305908,3.6561710834503174,-0.26215317845344543
-2.4585821628570557,4.815237998962402,-0.35105717182159424
-2.4387857913970947,4.859711170196533,-0.35988175868988037
-2.4079017639160156,4.883275985717773,-0.3671739101409912
-2.3784611225128174,4.914492607116699,-0.37503689527511597
-2.364631414413452,4.976794242858887,-0.3852231204509735
-1.5652790069580078,3.3543553352355957,-0.26317092776298523
-1.5382691621780396,3.357917308807373,-0.26693233847618103
-1.5075312852859497,3.3544137477874756,-0.2700241208076477
-1.4959487915039062,3.393341302871704,-0.2765362858772278
-1.4810373783111572,3.4250106811523438,-0.2824866473674774
-1.4766285419464111,3.4816391468048096,-0.2904626429080963
-1.445544719696045,3.4774575233459473,-0.29328423738479614
-1.4234619140625,3.494626522064209,-0.2979086637496948
-2.164184093475342,5.420777320861816,-0.46689942479133606
-2.135385274887085,5.460931301116943,-0.4752258062362671
-1.3459200859069824,3.515881299972534,-0.3088757395744324
-2.070425271987915,5.526459693908691,-0.4900889992713928
-2.0423948764801025,5.569551467895508,-0.4984155297279358
-1.9850667715072632,5.5318684577941895,-0.49950551986694336
-1.8934634923934937,5.398687362670898,-0.491622656583786
-1.5961997509002686,4.656914234161377,-0.4275396168231964
-1.5719276666641235,4.693490505218506,-0.43435728549957275
-1.8827548027038574,5.754195690155029,-0.5367217063903809
-0.9767330288887024,3.057603359222412,-0.28734567761421204
-0.9730454087257385,3.1237807273864746,-0.2956814169883728
-0.9417458176612854,3.1005916595458984,-0.2955542504787445
-0.8074366450309753,2.72640323638916,-0.2616730332374573
-0.7862710952758789,2.7242648601531982,-0.26325711607933044
-0.7637952566146851,2.7183284759521484,-0.2642871141433716
-0.7445203065872192,2.723466396331787,-0.2663857340812683
-0.7269871234893799,2.73603892326355,-0.2692478597164154
-0.7078557014465332,2.7408463954925537,-0.27132314443588257
-1.5332516431808472,6.113376617431641,-0.6085917353630066
-1.4705878496170044,6.0443434715271,-0.6048014163970947
-1.4759552478790283,6.258520126342773,-0.629440426826477
-1.4443974494934082,6.325277328491211,-0.6394336223602295
-1.3969141244888306,6.319584369659424,-0.6420915722846985
-1.3435657024383545,6.287038326263428,-0.6416316628456116
-1.2928950786590576,6.265536785125732,-0.6421446204185486
-1.2404221296310425,6.232181549072266,-0.641436755657196
-1.1859792470932007,6.187009334564209,-0.639522135257721
-1.1337084770202637,6.145072937011719,-0.6378798484802246
-1.0694115161895752,6.0339789390563965,-0.6284793019294739
-0.9585921168327332,5.638820171356201,-0.5893315672874451
-0.9521663188934326,5.848369121551514,-0.613335371017456
-0.9352273941040039,6.01207160949707,-0.6327153444290161
-0.8966994881629944,6.041219234466553,-0.637869119644165
-0.8591777086257935,6.081740379333496,-0.6438353657722473
-0.812351644039154,6.056571006774902,-0.6428800821304321
-0.6163676381111145,4.851789474487305,-0.5163809657096863
-0.719159722328186,5.993527889251709,-0.6396283507347107
-0.6718466877937317,5.955798149108887,-0.637151837348938
-0.6261168122291565,5.921541690826416,-0.6346920132637024
-0.5804674029350281,5.883080005645752,-0.6317972540855408
-0.5359401106834412,5.848123550415039,-0.6292867660522461
-0.49389299750328064,5.836057186126709,-0.6292580962181091
-0.4497585594654083,5.8044209480285645,-0.6268377900123596
-0.24566616117954254,3.4867103099823,-0.37698569893836975
-0.22082401812076569,3.480520486831665,-0.37677788734436035
-0.3200884759426117,5.668757915496826,-0.6144397258758545
-0.28064775466918945,5.670736312866211,-0.615461528301239
-0.2394636571407318,5.649231910705566,-0.613591730594635
-0.19937628507614136,5.6313090324401855,-0.6119455099105835
-0.1592673659324646,5.601456165313721,-0.6090293526649475
-0.11951243877410889,5.563553333282471,-0.6052622199058533
-0.08000978082418442,5.505956649780273,-0.599375307559967
-0.04090666025876999,5.483083248138428,-0.5968611240386963
-0.0022619368974119425,4.442516803741455,-0.4834933280944824
0.028894050046801567,4.485150337219238,-0.48805901408195496
0.072807177901268,5.432297706604004,-0.5910630822181702
0.11009228229522705,5.408376216888428,-0.5884276628494263
0.14701876044273376,5.384251594543457,-0.585326075553894
0.1401250809431076,4.075201988220215,-0.44261786341667175
0.21702677011489868,5.249875545501709,-0.5697231888771057
0.25085994601249695,5.194003105163574,-0.5632129311561584
0.28547173738479614,5.165055274963379,-0.5596559047698975
0.26287755370140076,4.225038051605225,-0.4570780396461487
0.2899535596370697,4.184436321258545,-0.45196619629859924
0.31896501779556274,4.182422161102295,-0.4510621130466461
0.35064756870269775,4.21116304397583,-0.45348912477493286
0.38130301237106323,4.224198818206787,-0.4542090892791748
0.48760372400283813,5.014117240905762,-0.5379056930541992
0.5193106532096863,4.975956439971924,-0.5325836539268494
0.5529692769050598,4.96467924118042,-0.5301944613456726
0.5865383744239807,4.953168869018555,-0.5278081297874451
0.6190057396888733,4.933732986450195,-0.5245100855827332
0.6500003933906555,4.9064483642578125,-0.520035445690155
0.6812648773193359,4.878887176513672,-0.5155428647994995
0.7122878432273865,4.855034351348877,-0.5115013718605042
0.7425034046173096,4.827132225036621,-0.5070675015449524
0.774777889251709,4.8144121170043945,-0.5041128396987915
0.805406928062439,4.793874263763428,-0.5001056790351868
0.8492346405982971,4.849688529968262,-0.5040677189826965
0.882099449634552,4.836177349090576,-0.5007856488227844
0.9128431677818298,4.8149003982543945,-0.49676162004470825
0.9431456923484802,4.793487548828125,-0.49253034591674805
0.9715256094932556,4.764309883117676,-0.4873475730419159
1.0011142492294312,4.742579936981201,-0.4829697906970978
1.0305578708648682,4.716671466827393,-0.4781439006328583
1.059957504272461,4.6944990158081055,-0.4737741947174072
1.09054696559906,4.679817199707031,-0.46989911794662476
1.1208950281143188,4.66496467590332,-0.46595385670661926
1.1492972373962402,4.642345905303955,-0.46126118302345276
1.1745026111602783,4.6042609214782715,-0.45500922203063965
1.2064945697784424,4.596298694610596,-0.4517935514450073
1.2349904775619507,4.576988220214844,-0.44715026021003723
1.2663941383361816,4.568743705749512,-0.4436158835887909
1.2894809246063232,4.530282497406006,-0.4371642768383026
1.319403886795044,4.5139031410217285,-0.43282121419906616
1.3461828231811523,4.4900994300842285,-0.4277181923389435
1.3746286630630493,4.473697185516357,-0.4231857359409332
1.4029121398925781,4.4571123123168945,-0.4186657667160034
1.4339828491210938,4.447577953338623,-0.414778470993042
1.454567790031433,4.404388904571533,-0.4077416956424713
1.4847320318222046,4.394689083099365,-0.4036615192890167
1.5096924304962158,4.370087623596191,-0.3981989920139313
1.2611366510391235,3.570897340774536,-0.32274290919303894
1.2886903285980225,3.569633960723877,-0.31996557116508484
1.3214349746704102,3.5828607082366943,-0.31840601563453674
1.6165968179702759,4.291642665863037,-0.3778831958770752
1.6430391073226929,4.273633003234863,-0.3728581964969635
1.6728317737579346,4.262449264526367,-0.3683721423149109
1.698203682899475,4.240209579467773,-0.3629574477672577
1.7313964366912842,4.239783763885498,-0.35921579599380493
1.744185209274292,4.188570499420166,-0.35114532709121704
1.767093539237976,4.162431716918945,-0.34523001313209534
1.7930598258972168,4.14321756362915,-0.33989331126213074
1.8181754350662231,4.124139785766602,-0.3344699442386627
1.849269986152649,4.119228363037109,-0.33015406131744385
1.8780498504638672,4.1065897941589355,-0.3250995874404907
1.9067115783691406,4.093758583068848,-0.32004982233047485
1.9313453435897827,4.07396936416626,-0.31439369916915894
1.9520113468170166,4.04720401763916,-0.3081643581390381
1.9830636978149414,4.041158676147461,-0.3034786283969879
2.015235185623169,4.0343337059021,-0.29856330156326294
2.030381679534912,3.9965462684631348,-0.29140233993530273
2.0589308738708496,3.986692428588867,-0.286264568567276
2.0770881175994873,3.955650568008423,-0.2795467972755432
2.1083672046661377,3.948302745819092,-0.2744283676147461
2.135049343109131,3.934328317642212,-0.2687824070453644
2.1391313076019287,3.87914776802063,-0.26026466488838196
2.1257636547088623,3.7932639122009277,-0.2497720718383789
2.159895896911621,3.79227352142334,-0.2448926568031311
2.192811965942383,3.7917425632476807,-0.23993048071861267
2.20217227935791,3.750537395477295,-0.23240889608860016
2.2328271865844727,3.741839647293091,-0.22658699750900269
2.266343116760254,3.7402615547180176,-0.22124841809272766
2.282801866531372,3.7122902870178223,-0.2143370658159256
2.304077386856079,3.690289258956909,-0.20760081708431244
2.342158317565918,3.6943507194519043,-0.20220039784908295
2.35404634475708,3.659334659576416,-0.19453294575214386
2.3786354064941406,3.6437487602233887,-0.18787401914596558
2.416924476623535,3.6469428539276123,-0.18194308876991272
2.4230422973632812,3.605658531188965,-0.17380061745643616
2.447080135345459,3.589723825454712,-0.16672760248184204
2.476818561553955,3.5791122913360596,-0.15947440266609192
2.4818036556243896,3.5378966331481934,-0.15101616084575653
2.505688428878784,3.5213429927825928,-0.14330217242240906
2.529278516769409,3.5047531127929688,-0.1353655904531479
2.56070876121521,3.501521587371826,-0.12790171802043915
2.175544261932373,2.9319896697998047,-0.10029133409261703
2.7842211723327637,3.899921417236328,0.22076380252838135
2.7578742504119873,3.9276199340820312,0.23011280596256256
2.7114744186401367,3.921416997909546,0.2368563860654831
2.7002875804901123,3.966454267501831,0.2463919222354889
2.656353712081909,3.9673755168914795,0.2531178593635559
2.636730670928955,3.9986791610717773,0.2612026333808899
2.6069610118865967,4.017671585083008,0.26847487688064575
2.559279680252075,4.010773658752441,0.2737978398799896
2.5429563522338867,4.048344612121582,0.2817727327346802
2.522303342819214,4.079139709472656,0.28918519616127014
2.4912359714508057,4.097728729248047,0.2956060767173767
2.480405330657959,4.149318218231201,0.3044043779373169
2.459149122238159,4.179611682891846,0.3113793432712555
2.4245076179504395,4.190354347229004,0.3167853057384491
2.389058828353882,4.201254844665527,0.3221322298049927
2.35502028465271,4.211070537567139,0.3271940052509308
2.266735553741455,4.121459007263184,0.32439985871315
2.23992657661438,4.144541263580322,0.3301360011100769
2.2088942527770996,4.160749912261963,0.33530810475349426
2.1863815784454346,4.189810752868652,0.3413686156272888
2.16416072845459,4.218456268310547,0.34736284613609314
2.1364033222198486,4.240908622741699,0.3527621924877167
2.1049649715423584,4.256208419799805,0.357464075088501
2.0741891860961914,4.270904064178467,0.36205050349235535
2.049285650253296,4.295480251312256,0.36739832162857056
2.018629312515259,4.309596538543701,0.3717856705188751
1.9868369102478027,4.323976993560791,0.3760431110858917
1.9511665105819702,4.331272125244141,0.3797544240951538
2.0027122497558594,4.529624938964844,0.40014711022377014
1.9679378271102905,4.535982608795166,0.40371254086494446
1.9412055015563965,4.564055919647217,0.4090087413787842
1.9107921123504639,4.584952354431152,0.4136190414428711
4.255598068237305,10.425979614257812,0.9468346834182739
1.8419677019119263,4.603944301605225,0.4207434356212616
1.804075002670288,4.601860046386719,0.42319774627685547
1.8027878999710083,4.698040962219238,0.4344615042209625
1.7713086605072021,4.717983245849609,0.4387189745903015
1.3303810358047485,3.6236588954925537,0.338832288980484
1.3076757192611694,3.63993763923645,0.3421577513217926
1.2796475887298584,3.6413896083831787,0.34410616755485535
1.6312283277511597,4.750497817993164,0.45099571347236633
1.6067103147506714,4.791386127471924,0.45694437623023987
1.5690895318984985,4.795346736907959,0.4594345986843109
1.540397047996521,4.8206868171691895,0.4638914465904236
1.5136982202529907,4.853296279907227,0.46908873319625854
1.496158242225647,4.919467449188232,0.4773784875869751
1.4607586860656738,4.929824352264404,0.48016557097435
1.427443265914917,4.947397708892822,0.48368310928344727
1.3836281299591064,4.92725133895874,0.4835197627544403
1.349228024482727,4.936517715454102,0.4862118661403656
1.2936211824417114,4.866673946380615,0.48103880882263184
1.256805181503296,4.8680524826049805,0.4825943112373352
1.231375813484192,4.914412498474121,0.4886428713798523
1.1976120471954346,4.9305195808410645,0.49173814058303833
1.1703985929489136,4.968784332275391,0.49702179431915283
1.1366053819656372,4.980382919311523,0.49967432022094727
1.1048120260238647,5.003251552581787,0.5032597184181213
1.0740610361099243,5.033602237701416,0.5074790120124817
1.0391842126846313,5.048657417297363,0.5102097392082214
1.0066840648651123,5.070898532867432,0.5136637091636658
0.9852379560470581,5.150127410888672,0.5229244232177734
2.12815523147583,11.559494018554688,1.1765285730361938
2.011218309402466,11.374860763549805,1.1598060131072998
1.896729826927185,11.197107315063477,1.1436913013458252
1.7980878353118896,11.090991973876953,1.1348613500595093
1.6919457912445068,10.918612480163574,1.119225263595581
1.5977288484573364,10.806772232055664,1.1097837686538696
1.505558967590332,10.69803237915039,1.1006524562835693
1.404051661491394,10.523425102233887,1.0840014219284058
1.3175123929977417,10.436458587646484,1.076375961303711
1.227325439453125,10.30634593963623,1.064321517944336
1.1455135345458984,10.225601196289062,1.0573707818984985
1.0649930238723755,10.14421558380127,1.0503783226013184
0.9867401719093323,10.073823928833008,1.0444798469543457
0.39291316270828247,4.330154895782471,0.4492678642272949
0.35633695125579834,4.259178161621094,0.4422215223312378
0.3264155089855194,4.2615156173706055,0.4428034722805023
0.30025514960289,4.314012050628662,0.448620080947876
0.2731369733810425,4.362469673156738,0.4540468156337738
0.31072357296943665,5.597858905792236,0.5831171870231628
0.2740042507648468,5.650310516357422,0.5887036323547363
0.23447267711162567,5.6520538330078125,0.589036762714386
0.19600115716457367,5.684584140777588,0.5926081538200378
0.15732796490192413,5.71684455871582,0.5961811542510986
0.11732678860425949,5.741086483001709,0.5989534854888916
0.07766749709844589,5.7611541748046875,0.6012952923774719
0.03756948187947273,5.753795623779297,0.6003776788711548
-0.0024581707548350096,5.6878814697265625,0.5933805704116821
-0.03179948776960373,4.300768852233887,0.44860345125198364
-0.061351753771305084,4.242173671722412,0.4424448609352112
-0.08909068256616592,4.1600823402404785,0.4338591694831848
-0.11690343171358109,4.120534420013428,0.4297318458557129
-0.1445024162530899,4.092484951019287,0.4265158772468567
-0.25103268027305603,5.943050861358643,0.6189751625061035
-0.1792246252298355,3.6439008712768555,0.37928539514541626
-0.20061111450195312,3.5649960041046143,0.3708602488040924
-0.22465547919273376,3.551917552947998,0.3693097233772278
-0.2694879472255707,3.837120294570923,0.39877748489379883
-0.29779213666915894,3.858475923538208,0.40055662393569946
-0.3218657970428467,3.825418710708618,0.39667561650276184
-0.3413061499595642,3.741873025894165,0.38758474588394165
-0.35700350999832153,3.63507080078125,0.3761294186115265
-0.3769659996032715,3.5823309421539307,0.3703020215034485
-0.4061834216117859,3.618305206298828,0.3736642599105835
-0.43200916051864624,3.6232283115386963,0.37360548973083496
-0.4578484296798706,3.6240644454956055,0.37309199571609497
-0.4801872968673706,3.6016626358032227,0.37021708488464355
-0.5018854737281799,3.5752508640289307,0.36694997549057007
