X,Y,Z
-1.222201943397522,2.610355854034424,0.053595155477523804
-1.2394845485687256,2.602208375930786,0.052899640053510666
-1.256942868232727,2.593834638595581,0.052194803953170776
-1.262882947921753,2.560513496398926,0.05097620189189911
-1.2806438207626343,2.5516915321350098,0.05023019388318062
-1.3010668754577637,2.550126075744629,0.0496194064617157
-1.2963707447052002,2.4998512268066406,0.04807033762335777
-1.3027915954589844,2.470062494277954,0.04690400883555412
-1.3141626119613647,2.450758457183838,0.045939601957798004
-1.3265053033828735,2.43522310256958,0.04503176733851433
-1.3276268243789673,2.3989758491516113,0.04374110326170921
-1.3442875146865845,2.3896946907043457,0.0429258793592453
-1.3722038269042969,2.400819778442383,0.042462751269340515
-1.383957028388977,2.3850514888763428,0.041500285267829895
-1.3679550886154175,2.3220314979553223,0.03972847759723663
-1.4003920555114746,2.3391239643096924,0.039288491010665894
-1.415935754776001,2.3297629356384277,0.03839937970042229
-1.4268840551376343,2.313915491104126,0.03740083426237106
-1.4424877166748047,2.3042352199554443,0.036473121494054794
-1.4394590854644775,2.2645978927612305,0.0350581556558609
-1.4584629535675049,2.2617218494415283,0.034186236560344696
-1.4561563730239868,2.2259743213653564,0.03282345086336136
-1.4802480936050415,2.2288219928741455,0.03198569267988205
-1.4858309030532837,2.2063071727752686,0.030771290883421898
-1.4736202955245972,2.157968759536743,0.02920602448284626
-1.502164363861084,2.1667912006378174,0.028340397402644157
-1.4911296367645264,2.122110605239868,0.02678433619439602
-1.4913039207458496,2.093292474746704,0.025418400764465332
-1.5009381771087646,2.0767781734466553,0.02414265275001526
-1.5045939683914185,2.0548110008239746,0.022807791829109192
-1.5091511011123657,2.0320513248443604,0.021383214741945267
-1.52029287815094,2.14453125,-0.029051069170236588
-1.4991854429244995,2.1498024463653564,-0.030410081148147583
-1.4708912372589111,2.14086651802063,-0.031428661197423935
-1.485077977180481,2.1973514556884766,-0.03343867510557175
-1.468868374824524,2.208199977874756,-0.034720052033662796
-1.457504153251648,2.2250423431396484,-0.03604034706950188
-1.4533429145812988,2.2556722164154053,-0.037592753767967224
-1.4432969093322754,2.2759804725646973,-0.03894178569316864
-1.4268386363983154,2.2863142490386963,-0.040105678141117096
-1.4178483486175537,2.3102309703826904,-0.04149238392710686
-1.409224033355713,2.3337512016296387,-0.04284955933690071
-1.4008673429489136,2.3569495677948,-0.04417865723371506
-1.3873156309127808,2.373983144760132,-0.04538373276591301
-1.37739098072052,2.397768259048462,-0.04673232138156891
-1.3452414274215698,2.38010573387146,-0.04721600189805031
-1.3317253589630127,2.3966145515441895,-0.048359889537096024
-1.3289607763290405,2.433788299560547,-0.04992930218577385
-1.3172199726104736,2.453449249267578,-0.05112149938941002
-1.3070225715637207,2.4765543937683105,-0.05239296704530716
-1.292450189590454,2.4929721355438232,-0.05349807068705559
-1.2847952842712402,2.5232293605804443,-0.05491145700216293
-1.2899086475372314,2.5775012969970703,-0.05683256313204765
-1.2785848379135132,2.6005361080169678,-0.058074139058589935
-1.2796398401260376,2.652130126953125,-0.059955794364213943
-1.2302587032318115,2.5977985858917236,-0.05942579731345177
-1.2154570817947388,2.613353729248047,-0.060452740639448166
-1.2035057544708252,2.6360411643981934,-0.06164585053920746
-1.1875629425048828,2.6518025398254395,-0.06266468018293381
-1.1541812419891357,2.6281378269195557,-0.0627489984035492
-1.1463319063186646,2.6613426208496094,-0.06417860835790634
-1.1626721620559692,2.752004384994507,-0.06700621545314789
-1.1517575979232788,2.781947612762451,-0.06834974139928818
-1.1345998048782349,2.7973995208740234,-0.06934713572263718
-1.0283167362213135,2.5875613689422607,-0.06470384448766708
-1.1104975938796997,2.8531599044799805,-0.07196539640426636
-1.1123161315917969,2.9193954467773438,-0.0742204561829567
-1.0994504690170288,2.94926381111145,-0.07555951923131943
-1.0797361135482788,2.9606754779815674,-0.07642882317304611
-1.0722484588623047,3.004871129989624,-0.0781417265534401
-1.055937647819519,3.027169942855835,-0.07929228991270065
-1.0342544317245483,3.034627914428711,-0.08001076430082321
-1.026084542274475,3.0826869010925293,-0.08181087672710419
-1.006825566291809,3.097224712371826,-0.08272397518157959
-0.9852546453475952,3.104135036468506,-0.08343371003866196
-0.9721356630325317,3.1409668922424316,-0.08492422848939896
-0.9621265530586243,3.188922643661499,-0.08669967204332352
-0.9393417239189148,3.195690155029297,-0.08736643940210342
-0.9278536438941956,3.2396652698516846,-0.08904774487018585
-0.9052814245223999,3.2460269927978516,-0.08970560878515244
-0.8924465775489807,3.290039300918579,-0.09135928750038147
-0.8706133365631104,3.303943395614624,-0.09218801558017731
-0.8578532338142395,3.351618528366089,-0.0939607247710228
-0.8420740365982056,3.38779878616333,-0.09541715681552887
-0.8185307383537292,3.3935468196868896,-0.09602333605289459
-0.8025211691856384,3.43345308303833,-0.09753453731536865
-0.7760568261146545,3.431509494781494,-0.09787192195653915
-0.4097325801849365,1.8729246854782104,-0.0536302886903286
-0.40475964546203613,1.9139262437820435,-0.05502016842365265
-0.3968817889690399,1.943471908569336,-0.05608874931931496
-0.37633997201919556,1.9117423295974731,-0.055349480360746384
-0.3625723123550415,1.9143935441970825,-0.05560838803648949
-0.3448786437511444,1.8938442468643188,-0.05519017204642296
-0.3303505480289459,1.8884979486465454,-0.05521253123879433
-0.31593039631843567,1.8830385208129883,-0.05523256957530975
-0.306374192237854,1.9083423614501953,-0.056117720901966095
-0.3039366900920868,1.983812689781189,-0.05849044770002365
-0.2877354621887207,1.9704381227493286,-0.058248188346624374
-0.27186062932014465,1.9569177627563477,-0.05800068750977516
-0.2561706006526947,1.943274974822998,-0.0577501505613327
-0.5014771819114685,4.021774768829346,-0.119754858314991
-0.47821906208992004,4.067845344543457,-0.12135767191648483
-0.45513635873794556,4.125482082366943,-0.12332117557525635
-0.4292067587375641,4.155728340148926,-0.12447059154510498
-0.40628287196159363,4.220787048339844,-0.12667375802993774
-0.3799050450325012,4.258516311645508,-0.1279948353767395
-0.3474820852279663,4.229936599731445,-0.12729643285274506
-0.31731417775154114,4.232299327850342,-0.12753714621067047
-0.2915741205215454,4.288933753967285,-0.12941764295101166
-0.3095620572566986,5.074192047119141,-0.15332522988319397
-0.2719682455062866,5.033327579498291,-0.15225182473659515
-0.23575294017791748,5.0116963386535645,-0.15169976651668549
-0.1998797357082367,5.005435466766357,-0.15162162482738495
-0.16423596441745758,4.983287811279297,-0.15106695890426636
-0.12936191260814667,4.976498603820801,-0.1509842872619629
-0.09465418756008148,4.973370552062988,-0.15099327266216278
-0.05990777164697647,4.966100692749023,-0.15077850222587585
-0.024596257135272026,4.942972660064697,-0.1500898152589798
0.009750551544129848,4.919597625732422,-0.1494005024433136
0.04398031160235405,4.919410228729248,-0.1494225263595581
0.07779044657945633,4.8955607414245605,-0.14873288571834564
0.11119311302900314,4.867580890655518,-0.14781199395656586
0.14427977800369263,4.843278408050537,-0.14700211584568024
0.17851777374744415,4.842140197753906,-0.14690159261226654
0.2118263989686966,4.83298397064209,-0.14656618237495422
0.2446645349264145,4.815798282623291,-0.14599454402923584
0.27673423290252686,4.7906012535095215,-0.1451072096824646
0.3081236779689789,4.761303901672363,-0.1440621167421341
0.34112548828125,4.751230239868164,-0.14360402524471283
0.3747497498989105,4.756536960601807,-0.14361995458602905
0.4058378040790558,4.7304792404174805,-0.1426960974931717
0.4372207820415497,4.712005138397217,-0.14196568727493286
0.46626126766204834,4.673915863037109,-0.1405877023935318
0.4983338713645935,4.662761688232422,-0.140024334192276
0.5306059718132019,4.659209728240967,-0.13970023393630981
0.5629798769950867,4.655418872833252,-0.13937486708164215
0.5942451357841492,4.6436686515808105,-0.13879893720149994
0.6220318078994751,4.608523845672607,-0.1374294012784958
0.6531949043273926,4.596336364746094,-0.13674838840961456
0.6837220191955566,4.584012508392334,-0.13607583940029144
0.7131930589675903,4.56372594833374,-0.13517221808433533
0.7449747323989868,4.558658599853516,-0.13472655415534973
0.7743467092514038,4.541894912719727,-0.1338479369878769
0.8014623522758484,4.513411998748779,-0.13262976706027985
0.8273630738258362,4.47698974609375,-0.13118237257003784
0.725957989692688,3.780914306640625,-0.11047448217868805
0.750715434551239,3.76812744140625,-0.10979454964399338
0.8207486867904663,3.9770517349243164,-0.11548276245594025
0.9433819651603699,4.41812801361084,-0.1278320550918579
0.9741401672363281,4.411466598510742,-0.12717881798744202
1.0056811571121216,4.408407211303711,-0.12663577497005463
1.0363317728042603,4.4013214111328125,-0.12598280608654022
1.0683658123016357,4.4017133712768555,-0.12547190487384796
1.0955870151519775,4.382964134216309,-0.12439679354429245
1.1221174001693726,4.360142707824707,-0.12320642173290253
1.1503828763961792,4.3447136878967285,-0.12223371118307114
1.1744227409362793,4.314021587371826,-0.12084056437015533
1.2060267925262451,4.3134260177612305,-0.12023401260375977
1.2332230806350708,4.297628402709961,-0.11918973922729492
1.260765790939331,4.2815117835998535,-0.11813393235206604
1.2882884740829468,4.265177249908447,-0.11707695573568344
1.317919373512268,4.256137847900391,-0.11622772365808487
1.3421821594238281,4.2321906089782715,-0.11489137262105942
1.3684672117233276,4.215579509735107,-0.11375126987695694
1.3976740837097168,4.20601224899292,-0.11279278248548508
1.4269177913665771,4.196207046508789,-0.11183087527751923
1.4495726823806763,4.1677937507629395,-0.11037474125623703
1.480364441871643,4.165273666381836,-0.10953245311975479
1.5085232257843018,4.155185699462891,-0.10849479585886002
1.5369118452072144,4.144796371459961,-0.1074460968375206
1.5662223100662231,4.133837699890137,-0.1063605472445488
1.588940143585205,4.108442783355713,-0.10489922016859055
1.6194735765457153,4.104929447174072,-0.10396818071603775
1.6442010402679443,4.086698055267334,-0.1026691198348999
1.6664856672286987,4.060810565948486,-0.10116580128669739
1.695180892944336,4.048943996429443,-0.09999970346689224
1.7223687171936035,4.0374836921691895,-0.09879963099956512
2.0202300548553467,4.64909029006958,-0.11269989609718323
2.0517871379852295,4.63528299331665,-0.11128688603639603
2.082336187362671,4.617391586303711,-0.10975810885429382
2.1142942905426025,4.602880477905273,-0.10826178640127182
2.1466219425201416,4.592239856719971,-0.10684967041015625
2.1723239421844482,4.567202091217041,-0.10510416328907013
2.209108591079712,4.562580108642578,-0.10379081219434738
2.240359306335449,4.547351837158203,-0.10221925377845764
2.271054267883301,4.532137393951416,-0.10058274865150452
2.2957990169525146,4.506542682647705,-0.09874578565359116
2.3270509243011475,4.490521430969238,-0.09706820547580719
2.370591878890991,4.498650550842285,-0.09589590132236481
1.7439627647399902,3.2571840286254883,-0.0684242844581604
1.7580151557922363,3.2318739891052246,-0.0668865516781807
1.7373781204223633,3.1407651901245117,-0.06395003944635391
1.7472443580627441,3.1084585189819336,-0.06225216016173363
1.7928293943405151,3.141016721725464,-0.06182701885700226
1.3417037725448608,2.3146562576293945,-0.044752087444067
1.3121439218521118,2.2279059886932373,-0.04226071760058403
0.9582838416099548,1.602246642112732,-0.029780592769384384
0.9687089920043945,1.5959784984588623,-0.02905672788619995
0.9795918464660645,1.5893356800079346,-0.028298016637563705
0.9904329776763916,1.5826160907745361,-0.027523284777998924
1.0069644451141357,1.5860602855682373,-0.026911364868283272
1.021948218345642,1.585762619972229,-0.026198508217930794
1.017956256866455,1.555768609046936,-0.024986030533909798
1.0322630405426025,1.555709958076477,-0.02425660379230976
1.0533794164657593,1.5651006698608398,-0.023648176342248917
1.053195834159851,1.541642427444458,-0.02250092849135399
2.5422065258026123,3.6700613498687744,-0.05161827430129051
2.5753567218780518,3.666017532348633,-0.04956001043319702
2.6181111335754395,3.674076557159424,-0.047543663531541824
2.645603656768799,3.6640000343322754,-0.04525914788246155
2.628872871398926,3.5892632007598877,-0.04202479496598244
2.6609878540039062,3.5850255489349365,-0.0395842120051384
2.626343250274658,3.6823816299438477,0.06225009635090828
2.593693494796753,3.6910927295684814,0.06477578729391098
2.561157464981079,3.7042014598846436,0.06733531504869461
1.0657609701156616,1.566057801246643,0.029403474181890488
1.0589845180511475,1.5800412893295288,0.030543632805347443
1.0275628566741943,1.5586992502212524,0.03098183497786522
1.0160937309265137,1.56618070602417,0.03194741532206535
1.0069754123687744,1.5766761302947998,0.03293342888355255
0.9929510354995728,1.5809162855148315,0.03378415107727051
0.9774331450462341,1.5813628435134888,0.03451511636376381
0.972378134727478,1.5981887578964233,0.03557967767119408
0.9601958990097046,1.605518102645874,0.03643287345767021
1.3364691734313965,2.2723071575164795,0.05249987915158272
1.3440985679626465,2.322089195251465,0.05455315485596657
1.7965047359466553,3.1566150188446045,0.07535862177610397
1.7520313262939453,3.1323466300964355,0.07595591992139816
1.7576237916946411,3.1961958408355713,0.07866418361663818
1.763037085533142,3.259932518005371,0.08136693388223648
2.389413595199585,4.497116565704346,0.11373335868120193
2.3633742332458496,4.5284342765808105,0.11601698398590088
2.331723928451538,4.544764995574951,0.11784524470567703
2.2921228408813477,4.5473313331604,0.11932434886693954
2.2587406635284424,4.563958168029785,0.12109991163015366
2.2218241691589355,4.573314189910889,0.12268701940774918
2.1965389251708984,4.602780818939209,0.12475980818271637
2.157688617706299,4.603829860687256,0.12605693936347961
2.1305601596832275,4.633599758148193,0.12808746099472046
2.092904567718506,4.642117023468018,0.12955984473228455
2.056929588317871,4.649586200714111,0.13094550371170044
2.0307512283325195,4.6780686378479,0.13291442394256592
1.73860502243042,4.085296154022217,0.11702554672956467
1.6983658075332642,4.0725507736206055,0.11759239435195923
1.6759928464889526,4.102870464324951,0.11941143870353699
1.6503121852874756,4.121644496917725,0.12086249887943268
1.6213030815124512,4.133105754852295,0.12208407372236252
1.5970252752304077,4.159247398376465,0.12368862330913544
1.5669260025024414,4.170645236968994,0.12486502528190613
1.5369900465011597,4.181734561920166,0.12603189051151276
1.507817268371582,4.192307472229004,0.12716607749462128
1.4728223085403442,4.188143730163574,0.1278059482574463
1.4426348209381104,4.198606014251709,0.12885983288288116
1.4222737550735474,4.238475322723389,0.1308290809392929
1.3945610523223877,4.255860328674316,0.1321066915988922
1.3697174787521362,4.280290603637695,0.13359710574150085
1.332293152809143,4.267520427703857,0.13386842608451843
1.3039766550064087,4.284390926361084,0.13504977524280548
1.277745246887207,4.308549880981445,0.13647036254405975
1.2498375177383423,4.324827671051025,0.13763509690761566
1.2234160900115967,4.34857177734375,0.13905766606330872
1.1926041841506958,4.357095241546631,0.13991543650627136
1.164484977722168,4.3767900466918945,0.14111030101776123
1.1332545280456543,4.384953022003174,0.14194132387638092
1.1063693761825562,4.407890319824219,0.14324866235256195
1.0751200914382935,4.415589332580566,0.14407721161842346
1.047599196434021,4.438222885131836,0.14532704651355743
1.0159975290298462,4.445540428161621,0.1460341215133667
0.9843447208404541,4.452632427215576,0.14674121141433716
0.9514673948287964,4.4517669677734375,0.14718566834926605
0.9199382662773132,4.458365440368652,0.14788782596588135
0.7561208009719849,3.7984118461608887,0.12638342380523682
0.7277819514274597,3.795975923538208,0.12663574516773224
0.832578718662262,4.515145778656006,0.15103115141391754
0.8054940700531006,4.547792911529541,0.15253452956676483
0.7758556604385376,4.568763256072998,0.15365998446941376
0.7465257048606873,4.589449405670166,0.15477889776229858
0.7153415083885193,4.602298736572266,0.15552806854248047
0.6839738488197327,4.6149420738220215,0.1562679409980774
0.6513731479644775,4.619640350341797,0.15674705803394318
0.6217128038406372,4.647343158721924,0.1580175906419754
0.5893766283988953,4.651538372039795,0.15849189460277557
0.5582486391067505,4.667158126831055,0.15930628776550293
0.5271777510643005,4.686472415924072,0.16018563508987427
0.4966811239719391,4.713345050811768,0.1613330841064453
0.4636790454387665,4.716694355010986,0.16168345510959625
0.4324605166912079,4.743168354034424,0.16283805668354034
0.3988269567489624,4.738266944885254,0.16292019188404083
0.36686891317367554,4.756502151489258,0.1636931449174881
0.3355207145214081,4.7862043380737305,0.16485926508903503
0.30200788378715515,4.788427352905273,0.16508804261684418
0.2698037028312683,4.821622848510742,0.16639578342437744
0.23737908899784088,4.846771240234375,0.1674329787492752
0.2039654403924942,4.856101036071777,0.16789209842681885
0.17061646282672882,4.8730082511901855,0.16853927075862885
0.13688407838344574,4.885785102844238,0.16905225813388824
0.10237091034650803,4.894435405731201,0.16943234205245972
0.06830664724111557,4.895026206970215,0.16954022645950317
0.034615278244018555,4.942224502563477,0.171271413564682
0.00020905064593534917,4.957961082458496,0.17182278633117676
-0.03439750149846077,4.977362632751465,0.17246970534324646
-0.06963861733675003,4.976995468139648,0.1724396049976349
-0.10494416952133179,5.007615566253662,0.17349180579185486
-0.13980771601200104,5.0067644119262695,0.17346201837062836
-0.17574366927146912,5.03688383102417,0.17450156807899475
-0.21064656972885132,5.035550594329834,0.17433378100395203
-0.24692031741142273,5.061268329620361,0.1751101016998291
-0.2852473556995392,5.106179237365723,0.1765556037425995
-0.32028815150260925,5.096283912658691,0.17611533403396606
-0.29886341094970703,4.280001163482666,0.14783133566379547
-0.32792091369628906,4.27004861831665,0.14736364781856537
-0.35676005482673645,4.2599101066589355,0.14683304727077484
-0.387425035238266,4.265079498291016,0.14683403074741364
-0.4131210744380951,4.223452568054199,0.14523513615131378
-0.43634673953056335,4.1622490882873535,0.14297308027744293
-0.46043825149536133,4.116453170776367,0.14125113189220428
-0.48325851559638977,4.066673755645752,0.13931840658187866
-0.5077548027038574,4.032223701477051,0.13790488243103027
-0.5298265814781189,3.986076831817627,0.13610564172267914
-0.5509742498397827,3.9359207153320312,0.13417905569076538
-0.5698221921920776,3.8740665912628174,0.13186514377593994
-0.5907047986984253,3.8314530849456787,0.1301852911710739
-0.6143593192100525,3.8079752922058105,0.12908616662025452
-0.6327090263366699,3.757483720779419,0.12708786129951477
-0.6538389921188354,3.7261359691619873,0.12574779987335205
-0.6712712645530701,3.6754353046417236,0.1237637847661972
-0.6924346685409546,3.6476809978485107,0.12256314605474472
-0.7136303782463074,3.6237168312072754,0.12142124772071838
-0.7325470447540283,3.588085889816284,0.11987439543008804
-0.7506044507026672,3.5524516105651855,0.11834472417831421
-0.757637083530426,3.4670979976654053,0.1151711642742157
-0.7765204310417175,3.4389233589172363,0.11391099542379379
-0.7984147667884827,3.4259064197540283,0.11313175410032272
-0.8212037086486816,3.4165191650390625,0.11242567002773285
-0.8350502848625183,3.372972249984741,0.11061230301856995
-0.8543113470077515,3.3520498275756836,0.10954897105693817
-0.8696683049201965,3.315836191177368,0.10799121856689453
-0.8906281590461731,3.3021998405456543,0.10717204958200455
-0.9019263386726379,3.254608392715454,0.10516521334648132
-0.919714629650116,3.2334134578704834,0.1040319949388504
-0.9395020008087158,3.219606876373291,0.10314323008060455
-0.9551813006401062,3.1905648708343506,0.1017649695277214
-0.9670647382736206,3.150263547897339,0.10004036873579025
-0.9794781804084778,3.113719940185547,0.09837828576564789
-0.9933717250823975,3.084735155105591,0.09696736931800842
-1.0142498016357422,3.077955722808838,0.09626250714063644
-1.0293245315551758,3.0523738861083984,0.09496578574180603
-1.0428204536437988,3.023040294647217,0.093563511967659
-1.0632612705230713,3.015935182571411,0.09280472248792648
-1.0812013149261475,3.001274824142456,0.09179646521806717
-1.0932456254959106,2.9719815254211426,0.09035982191562653
-1.0960512161254883,2.916806936264038,0.0881337895989418
-1.1051369905471802,2.8799660205841064,0.08648043125867844
-1.127400279045105,2.8797361850738525,0.08588605374097824
-1.1354598999023438,2.842982292175293,0.08419311046600342
-1.1413919925689697,2.802720308303833,0.08241942524909973
-1.1578572988510132,2.7875282764434814,0.08137834817171097
-1.1390612125396729,2.6895759105682373,0.07793988287448883
-1.1446336507797241,2.653245210647583,0.07626518607139587
-1.1563425064086914,2.6311352252960205,0.07500267773866653
-1.1694608926773071,2.612525224685669,0.0738472267985344
-1.1876250505447388,2.604342460632324,0.07297898083925247
-1.2201135158538818,2.628105640411377,0.07297278940677643
-1.2409167289733887,2.6270127296447754,0.07224355638027191
-1.2620729207992554,2.6256086826324463,0.07149267196655273
-1.2871304750442505,2.6308434009552,0.07090279459953308
-1.2721915245056152,2.5555012226104736,0.06815332919359207
-1.2749123573303223,2.519205331802368,0.06644198298454285
-1.309363842010498,2.5454940795898438,0.06638212502002716
-1.3014323711395264,2.488043785095215,0.06411689519882202
-1.3080393075942993,2.4580917358398438,0.06255795061588287
-1.3186718225479126,2.439120054244995,0.06126796081662178
-1.3347156047821045,2.430403470993042,0.06023864448070526
-1.343641757965088,2.40763258934021,0.0588403046131134
-1.3526393175125122,2.384672164916992,0.057433225214481354
-1.3723798990249634,2.382411241531372,0.05647788941860199
-1.3878843784332275,2.373438596725464,0.05537819862365723
-1.3922111988067627,2.3437154293060303,0.05375584959983826
-1.4122785329818726,2.340831995010376,0.05273875594139099
-1.4192712306976318,2.3183276653289795,0.05126013606786728
-1.4265166521072388,2.295530080795288,0.04975690692663193
-1.4320096969604492,2.269075870513916,0.04815226420760155
-1.4468914270401,2.259641647338867,0.04690151289105415
-1.465631127357483,2.2568776607513428,0.045782994478940964
-1.4724630117416382,2.233764886856079,0.044186171144247055
-1.4528239965438843,2.1718177795410156,0.04181411489844322
-1.4666000604629517,2.1625640392303467,0.04049476236104965
-1.4768292903900146,2.146141767501831,0.03896784409880638
-1.486606478691101,2.129887342453003,0.03740997985005379
-1.5045217275619507,2.126871109008789,0.036072149872779846
-1.4988598823547363,2.087766647338867,0.03399872034788132
-1.5075793266296387,2.071850538253784,0.032332561910152435
-1.5069692134857178,2.0432708263397217,0.030435949563980103
-1.4940688610076904,2.091182231903076,-0.03495566546916962
-1.5117982625961304,2.1503946781158447,-0.03763984516263008
-1.504913091659546,2.1742146015167236,-0.039663590490818024
-1.4715384244918823,2.1591992378234863,-0.04089462012052536
-1.4724316596984863,2.1962766647338867,-0.04311162978410721
-1.469913363456726,2.2260677814483643,-0.04509631171822548
-1.461608648300171,2.250148057937622,-0.04700036346912384
-1.451063632965088,2.270845890045166,-0.048807114362716675
-1.4331307411193848,2.277560234069824,-0.050227098166942596
-1.426560640335083,2.3046462535858154,-0.05208747088909149
-1.4053386449813843,2.308474540710449,-0.053418491035699844
-1.3969749212265015,2.33174204826355,-0.05514809489250183
-1.3958507776260376,2.3687191009521484,-0.05719711631536484
-1.3899668455123901,2.399261236190796,-0.05911470204591751
-1.3730509281158447,2.4089479446411133,-0.06046959012746811
-1.3407326936721802,2.3912954330444336,-0.06110647693276405
-1.334108829498291,2.4217493534088135,-0.06297256797552109
-1.3165634870529175,2.43129825592041,-0.06427115947008133
-1.3087098598480225,2.4576449394226074,-0.06598959118127823
-1.2981172800064087,2.480865716934204,-0.06761617213487625
-1.2905625104904175,2.5111427307128906,-0.06944306194782257
-1.2759034633636475,2.5273401737213135,-0.07087866216897964
-1.2843304872512817,2.5885894298553467,-0.07356662303209305
-1.2723569869995117,2.611847400665283,-0.07516610622406006
-1.2769076824188232,2.670319080352783,-0.07780323922634125
-1.2165653705596924,2.5908517837524414,-0.0763825923204422
-1.223024606704712,2.6524152755737305,-0.07910038530826569
-1.172876000404358,2.593721628189087,-0.07820558547973633
-1.1872886419296265,2.6770801544189453,-0.08158286660909653
-1.1777160167694092,2.706840753555298,-0.08333888649940491
-1.1435389518737793,2.679018259048462,-0.08330929279327393
-1.1619861125946045,2.7771639823913574,-0.08716793358325958
-1.144544005393982,2.7928051948547363,-0.08847205340862274
-1.13051176071167,2.815319061279297,-0.08997834473848343
-1.1180384159088135,2.8412528038024902,-0.09159205853939056
-1.117556095123291,2.9000682830810547,-0.0942637100815773
-1.0911716222763062,2.8933799266815186,-0.09479695558547974
-1.0862146615982056,2.945199728012085,-0.09727233648300171
-1.0776487588882446,2.9856972694396973,-0.09936065226793289
-1.0646085739135742,3.015192985534668,-0.1010979637503624
-1.0480971336364746,3.0374655723571777,-0.10254430770874023
-1.0338404178619385,3.0670461654663086,-0.10425034165382385
-1.0129852294921875,3.0780746936798096,-0.10534113645553589
-1.0034552812576294,3.1221964359283447,-0.10755709558725357
-0.9813870787620544,3.129171371459961,-0.10847026109695435
-0.9658643007278442,3.158470869064331,-0.11012576520442963
-0.9510874152183533,3.1914474964141846,-0.11192493140697479
-0.9309287667274475,3.205487012863159,-0.11305870115756989
-0.9188222885131836,3.2495362758636475,-0.1152741089463234
-0.8999327421188354,3.2709877490997314,-0.11662607640028
-0.8857465982437134,3.311213493347168,-0.1186414361000061
-0.8641596436500549,3.324951410293579,-0.11972101777791977
-0.8505797386169434,3.3687007427215576,-0.12188233435153961
-0.8285655379295349,3.382192373275757,-0.12297362089157104
-0.8100330829620361,3.410731554031372,-0.12452316284179688
-0.4209211468696594,1.829921841621399,-0.06708397716283798
-0.4181819558143616,1.878556728363037,-0.06915028393268585
-0.4034733176231384,1.873770833015442,-0.06925508379936218
-0.4005400538444519,1.926248550415039,-0.07148955762386322
-0.3853917121887207,1.9213616847991943,-0.0715414360165596
-0.3696085810661316,1.9125216007232666,-0.07144702970981598
-0.34759601950645447,1.8690054416656494,-0.07005278766155243
-0.3284032642841339,1.8367822170257568,-0.0690729171037674
-0.31604817509651184,1.8428971767425537,-0.06953735649585724
-0.31191372871398926,1.8989949226379395,-0.0718441978096962
-0.303370863199234,1.9319849014282227,-0.0732889175415039
-0.29383501410484314,1.961081624031067,-0.07459498941898346
-0.2752394378185272,1.9282861948013306,-0.07354731857776642
-0.5379049777984619,3.968649387359619,-0.15179413557052612
-0.5120586156845093,3.9877920150756836,-0.15283788740634918
-0.4901847243309021,4.0416436195373535,-0.155217707157135
-0.4644808769226074,4.068234443664551,-0.15656398236751556
-0.4440169930458069,4.145097732543945,-0.15985837578773499
-0.41900575160980225,4.18691349029541,-0.16181808710098267
-0.39310336112976074,4.232534408569336,-0.16382764279842377
-0.36407050490379333,4.242953777313232,-0.16445185244083405
-0.33276593685150146,4.225934028625488,-0.16401998698711395
-0.30641603469848633,4.270961761474609,-0.16600392758846283
-0.3256564140319824,5.028634548187256,-0.19574017822742462
-0.29129907488822937,5.054190158843994,-0.19693529605865479
-0.2536291182041168,5.009312629699707,-0.19533272087574005
-0.21864202618598938,5.010952949523926,-0.19555221498012543
-0.18292321264743805,4.9889397621154785,-0.19485674798488617
-0.14779828488826752,4.974475383758545,-0.19446396827697754
-0.11253566294908524,4.971487998962402,-0.19446296989917755
-0.0775713101029396,4.948731899261475,-0.19360461831092834
-0.04324648156762123,4.956955432891846,-0.19396747648715973
-0.008724462240934372,4.941521167755127,-0.19341394305229187
0.025499578565359116,4.910234451293945,-0.19224876165390015
0.06009640172123909,4.894317150115967,-0.1916610598564148
0.09394272416830063,4.882077217102051,-0.1910938173532486
0.12788383662700653,4.88131046295166,-0.19098523259162903
0.160784050822258,4.8490986824035645,-0.18965601921081543
0.19386842846870422,4.832266807556152,-0.188938170671463
0.22635938227176666,4.807413101196289,-0.18791618943214417
0.2602418065071106,4.8057074546813965,-0.18766334652900696
0.2913978695869446,4.768733978271484,-0.18604186177253723
0.32390955090522766,4.758821487426758,-0.1854865849018097
0.35642722249031067,4.748677730560303,-0.18493115901947021
0.3881381154060364,4.730535507202148,-0.18407414853572845
0.4200632572174072,4.712147235870361,-0.1830853521823883
0.45185309648513794,4.70137882232666,-0.18236584961414337
0.48155516386032104,4.67097806930542,-0.18089532852172852
0.5140169858932495,4.667533874511719,-0.18047764897346497
0.5446372032165527,4.648355960845947,-0.1794612556695938
0.5764099955558777,4.636675834655762,-0.1786598116159439
0.6063708066940308,4.617126941680908,-0.17751047015190125
0.6382291913032532,4.612852096557617,-0.1769581437110901
0.6668108105659485,4.585163116455078,-0.17551647126674652
0.6951617002487183,4.557281017303467,-0.17407825589179993
0.7284632921218872,4.560006618499756,-0.17375025153160095
0.757847785949707,4.543369770050049,-0.17261260747909546
0.7877469658851624,4.530383586883545,-0.17162330448627472
0.814882218837738,4.501808166503906,-0.1700524091720581
0.7104530334472656,3.7748448848724365,-0.14218562841415405
0.736598789691925,3.7698538303375244,-0.14156462252140045
0.7629140019416809,3.7646429538726807,-0.14085319638252258
0.927440881729126,4.420278072357178,-0.16479411721229553
0.9620493650436401,4.432880878448486,-0.16467665135860443
0.9886027574539185,4.407063961029053,-0.16313469409942627
1.0199613571166992,4.403951168060303,-0.1624116748571396
1.0505987405776978,4.3967790603637695,-0.16143737733364105
1.0796871185302734,4.385741233825684,-0.1603425294160843
1.1079773902893066,4.370660781860352,-0.1591031700372696
1.1344387531280518,4.347766399383545,-0.15758375823497772
1.1584059000015259,4.31723165512085,-0.15576548874378204
1.188353419303894,4.309123992919922,-0.1546618491411209
1.2219916582107544,4.315976619720459,-0.15411345660686493
1.2451395988464355,4.285006999969482,-0.15221631526947021
1.2704722881317139,4.261311054229736,-0.15058308839797974
1.3020707368850708,4.259967803955078,-0.14971034228801727
1.329167366027832,4.243452072143555,-0.14823925495147705
1.3555763959884644,4.226931571960449,-0.14679396152496338
1.3823070526123047,4.210090637207031,-0.14533273875713348
1.4115639925003052,4.200413227081299,-0.14412115514278412
1.4402706623077393,4.190700054168701,-0.14284658432006836
1.4673397541046143,4.177206039428711,-0.14141108095645905
1.4960778951644897,4.167044162750244,-0.14007975161075592
1.5250120162963867,4.156587600708008,-0.13873600959777832
1.545684576034546,4.12398099899292,-0.1366637796163559
1.567909836769104,4.098912715911865,-0.1347617208957672
1.5926867723464966,4.081014156341553,-0.13310499489307404
1.6210356950759888,4.069884300231934,-0.13164395093917847
1.655186653137207,4.073025703430176,-0.13064703345298767
1.6771037578582764,4.047197341918945,-0.12868912518024445
1.7103462219238281,4.050269603729248,-0.1276121437549591
1.9674898386001587,4.573146820068359,-0.14275771379470825
2.035799980163574,4.641444206237793,-0.1434735357761383
2.0679540634155273,4.627264499664307,-0.141636461019516
2.0973012447357178,4.609805583953857,-0.1396111398935318
2.124833106994629,4.588632583618164,-0.13748465478420258
2.1562321186065674,4.574020862579346,-0.13552802801132202
2.1935887336730957,4.569281101226807,-0.13381873071193695
2.2241811752319336,4.554527759552002,-0.13177743554115295
2.254451274871826,4.539679050445557,-0.12972532212734222
2.28355073928833,4.520796775817871,-0.1275278776884079
2.314936876296997,4.504865646362305,-0.12538553774356842
2.346949577331543,4.492737770080566,-0.12330440431833267
2.391885995864868,4.5044403076171875,-0.12182295322418213
1.743596076965332,3.2303457260131836,-0.08605677634477615
1.7660282850265503,3.2181806564331055,-0.08439457416534424
1.751237154006958,3.141613006591797,-0.08103366941213608
1.7642381191253662,3.1164348125457764,-0.07902824878692627
1.8307079076766968,3.181964874267578,-0.07922065258026123
1.3381611108779907,2.2893497943878174,-0.05593482777476311
0.9625145196914673,1.622270941734314,-0.03886718302965164
0.9651356935501099,1.602526068687439,-0.037623174488544464
0.9742211699485779,1.592464804649353,-0.03657430782914162
0.9849737882614136,1.5858592987060547,-0.035582683980464935
0.9952595233917236,1.5794460773468018,-0.03460603579878807
1.0081450939178467,1.575913429260254,-0.03364831581711769
1.0230108499526978,1.5756477117538452,-0.032737843692302704
1.0266884565353394,1.559265375137329,-0.03148811683058739
1.0395478010177612,1.5554438829421997,-0.030435631051659584
1.047857403755188,1.5451631546020508,-0.029240433126688004
1.0643481016159058,1.5481122732162476,-0.02828214317560196
2.5585079193115234,3.6680424213409424,-0.06444685161113739
2.587242364883423,3.6574556827545166,-0.06161021441221237
2.6288394927978516,3.66624116897583,-0.05902743339538574
2.631319284439087,3.6163179874420166,-0.055272314697504044
2.6400554180145264,3.580918073654175,-0.05176715552806854
2.614286422729492,3.6905934810638428,0.08069999516010284
2.583386182785034,3.7074525356292725,0.08409617841243744
1.0716460943222046,1.5618844032287598,0.03660953789949417
1.0600552558898926,1.5697427988052368,0.03793857619166374
1.0350521802902222,1.5582544803619385,0.03876189887523651
1.032627820968628,1.5785324573516846,0.04028308764100075
1.0125248432159424,1.572925090789795,0.04112856090068817
1.004736065864563,1.5871325731277466,0.04248396307229996
0.9871814846992493,1.584293246269226,0.04332570359110832
0.9776864051818848,1.594722867012024,0.04449678584933281
0.9697027802467346,1.6086862087249756,0.04576490446925163
0.9621896147727966,1.622248649597168,0.04698624461889267
1.3523036241531372,2.3169572353363037,0.06826011091470718
1.8398489952087402,3.207793951034546,0.09607961773872375
1.7759424448013306,3.1497445106506348,0.09583387523889542
1.7482986450195312,3.1517276763916016,0.09730174392461777
1.7704085111618042,3.2464663982391357,0.10163499414920807
1.7463651895523071,3.259406566619873,0.10341814160346985
2.382667064666748,4.5262932777404785,0.14550568163394928
2.3403069972991943,4.521902561187744,0.14715366065502167
2.311039447784424,4.54561710357666,0.14966540038585663
2.274069309234619,4.555423259735107,0.15170589089393616
2.241354465484619,4.571534633636475,0.15391892194747925
2.2054736614227295,4.5802130699157715,0.15586984157562256
2.175837278366089,4.602932929992676,0.15820203721523285
2.1454105377197266,4.625731468200684,0.1605089008808136
2.108691930770874,4.633936405181885,0.1623002290725708
2.07958722114563,4.65555477142334,0.1645132601261139
2.046670913696289,4.670050621032715,0.1664523184299469
1.9828252792358398,4.616823196411133,0.16592545807361603
1.7190293073654175,4.084090709686279,0.14797082543373108
1.6903117895126343,4.096002101898193,0.14955808222293854
1.6646374464035034,4.114869594573975,0.15140074491500854
1.6407033205032349,4.141216278076172,0.1534505933523178
1.6101289987564087,4.153142929077148,0.15498127043247223
1.57753324508667,4.157227039337158,0.15619602799415588
1.556777834892273,4.189986228942871,0.15846602618694305
1.5221033096313477,4.186040878295898,0.15934006869792938
1.491979956626892,4.1968207359313965,0.16068144142627716
1.4586364030838013,4.200209617614746,0.16176459193229675
1.4388864040374756,4.239957332611084,0.16422972083091736
1.4118281602859497,4.257219314575195,0.16582295298576355
1.3818851709365845,4.266982555389404,0.16709871590137482
1.346567988395691,4.261840343475342,0.1677100509405136
1.322314977645874,4.293891906738281,0.16981056332588196
1.2942163944244385,4.310549736022949,0.17128905653953552
1.2641798257827759,4.3194074630737305,0.1724560558795929
1.2381428480148315,4.343134880065918,0.17419259250164032
1.2049976587295532,4.34430456161499,0.1749427169561386
1.1769812107086182,4.364065170288086,0.17645107209682465
1.1515108346939087,4.395026683807373,0.17843149602413177
1.1227755546569824,4.410469055175781,0.1797734946012497
1.0900542736053467,4.410587310791016,0.1804834008216858
1.06045663356781,4.425787925720215,0.1816961020231247
1.0271263122558594,4.425590991973877,0.18228664994239807
1.0002787113189697,4.455703258514404,0.1841450184583664
0.9675965309143066,4.45488977432251,0.1847141683101654
0.9333704113960266,4.446198463439941,0.1849624663591385
0.7671144008636475,3.787045955657959,0.15797460079193115
0.7417206764221191,3.8000283241271973,0.15893876552581787
0.7279866337776184,3.8781321048736572,0.1626509428024292
0.8229119181632996,4.559080600738525,0.1917254477739334
0.7884867787361145,4.549285411834717,0.19183412194252014
0.7629916667938232,4.593169212341309,0.19415560364723206
0.730567991733551,4.598411560058594,0.194772869348526
0.6998239755630493,4.618954181671143,0.19605711102485657
0.6696292757987976,4.6391754150390625,0.1973302811384201
0.6373326778411865,4.643696308135986,0.19794315099716187
0.6050503253936768,4.647986888885498,0.19855517148971558
0.575730562210083,4.679215908050537,0.20018184185028076
0.5419326424598694,4.675373554229736,0.20030856132507324
0.5109964609146118,4.702390193939209,0.20177389681339264
0.47979050874710083,4.721348285675049,0.20289790630340576
0.44770243763923645,4.732320308685303,0.20368920266628265
0.41607072949409485,4.750859260559082,0.2047608196735382
0.38403287529945374,4.769204616546631,0.20573514699935913
0.350859671831131,4.783485412597656,0.20654898881912231
0.31842222809791565,4.80138635635376,0.20752662420272827
0.28589385747909546,4.819057941436768,0.20850494503974915
0.25318244099617004,4.83650541305542,0.20948483049869537
0.2204926311969757,4.861537456512451,0.21068285405635834
0.18590600788593292,4.862977027893066,0.21082738041877747
0.15278856456279755,4.891455173492432,0.2121535688638687
0.11904708296060562,4.908001899719238,0.21297326683998108
0.08544963598251343,4.939920902252197,0.21447107195854187
0.05103907361626625,4.940390586853027,0.21460182964801788
0.016154522076249123,4.971848964691162,0.21594437956809998
-0.018453586846590042,4.956231117248535,0.2152530997991562
-0.05333632230758667,4.991104602813721,0.2167651653289795
-0.08831160515546799,5.006221294403076,0.21742969751358032
-0.12344992160797119,5.021093845367432,0.21809417009353638
-0.15832111239433289,5.020118713378906,0.21801093220710754
-0.19397905468940735,5.026686191558838,0.21816116571426392
-0.2299005538225174,5.048619747161865,0.21899013221263885
-0.26634010672569275,5.074192047119141,0.21998633444309235
-0.30347776412963867,5.103391170501709,0.2211487889289856
-0.2877315878868103,4.330149173736572,0.18756261467933655
-0.31626296043395996,4.300779342651367,0.18611450493335724
-0.34223705530166626,4.251821517944336,0.18379689753055573
-0.37502965331077576,4.288244247436523,0.18517933785915375
-0.39892762899398804,4.223383903503418,0.18219706416130066
-0.4239129424095154,4.177814483642578,0.1800602525472641
-0.4483644962310791,4.128170013427734,0.17774318158626556
-0.47096380591392517,4.074603080749512,0.1751449555158615
-0.49522072076797485,4.040290832519531,0.1733885109424591
-0.516481339931488,3.9864919185638428,0.17080993950366974
-0.540991485118866,3.959625482559204,0.1693958044052124
-0.5617994666099548,3.90549373626709,0.1668233573436737
-0.5829583406448364,3.8629465103149414,0.16469714045524597
-0.6069960594177246,3.843461751937866,0.16349677741527557
-0.6238428354263306,3.7814648151397705,0.1605021059513092
-0.6445709466934204,3.7463316917419434,0.1586626023054123
-0.664370596408844,3.7072136402130127,0.15666505694389343
-0.6862630844116211,3.6794276237487793,0.1551533192396164
-0.7039952278137207,3.6363561153411865,0.1529209017753601
-0.72191321849823,3.5970473289489746,0.15085573494434357
-0.7385331988334656,3.5538432598114014,0.14864251017570496
-0.7541078925132751,3.5066940784454346,0.1462748795747757
-0.7737604975700378,3.4784491062164307,0.14470277726650238
-0.7976807355880737,3.473069190979004,0.14404478669166565
-0.812305748462677,3.4296088218688965,0.14175722002983093
-0.8273018598556519,3.3899033069610596,0.13964156806468964
-0.8467697501182556,3.3690264225006104,0.13831046223640442
-0.8667030334472656,3.347858190536499,0.13696390390396118
-0.8799027800559998,3.3040661811828613,0.13470487296581268
-0.9012852311134338,3.294283628463745,0.13375221192836761
-0.9152158498764038,3.258049964904785,0.13173669576644897
-0.9330496788024902,3.2367734909057617,0.1303388774394989
-0.9492350220680237,3.2076802253723145,0.12861895561218262
-0.963549017906189,3.1748976707458496,0.12677474319934845
-0.9757803082466125,3.138507127761841,0.12473078817129135
-0.9898618459701538,3.109558582305908,0.12298308312892914
-1.0132428407669067,3.110264539718628,0.12241747975349426
-1.0277268886566162,3.0808637142181396,0.12064945697784424
-1.0402907133102417,3.0478196144104004,0.11876247823238373
-1.0532420873641968,3.018608570098877,0.11697706580162048
-1.0656758546829224,2.9894237518310547,0.1151798740029335
-1.0777393579483032,2.9602177143096924,0.11339772492647171
-1.0860004425048828,2.9197773933410645,0.11118215322494507
-1.1122229099273682,2.9266374111175537,0.11076261103153229
-1.1236053705215454,2.8972153663635254,0.1089344397187233
-1.1373451948165894,2.87510085105896,0.10737422108650208
-1.1347501277923584,2.813117027282715,0.10434819757938385
-1.1483025550842285,2.790771245956421,0.10279231518507004
-1.1559420824050903,2.753812074661255,0.1007000058889389
-1.139035701751709,2.6634936332702637,0.09664425253868103
-1.142748475074768,2.6236586570739746,0.09445250779390335
-1.1635994911193848,2.6230595111846924,0.09367582947015762
-1.183465600013733,2.6184794902801514,0.09273355454206467
-1.2017533779144287,2.610175848007202,0.09162771701812744
-1.2257057428359985,2.6163101196289062,0.09099139273166656
-1.2666105031967163,2.6574764251708984,0.09155575931072235
-1.2746251821517944,2.6276698112487793,0.08964159339666367
-1.285962700843811,2.6047747135162354,0.08796872943639755
-1.2738242149353027,2.5367112159729004,0.08473841100931168
-1.3012274503707886,2.549135684967041,0.08422424644231796
-1.2968233823776245,2.4987456798553467,0.08162716031074524
-1.303191065788269,2.469011068344116,0.07970641553401947
-1.3104641437530518,2.443065881729126,0.07789570838212967
-1.3264403343200684,2.434468984603882,0.0766301155090332
-1.3391677141189575,2.418609142303467,0.07510527223348618
-1.3483492136001587,2.395636558532715,0.07334434986114502
-1.3566440343856812,2.3730149269104004,0.07158493995666504
-1.3799960613250732,2.377629518508911,0.07063525170087814
-1.3721333742141724,2.3279824256896973,0.068061962723732
-1.4166486263275146,2.3651676177978516,0.06796792149543762
-1.4117960929870605,2.3225276470184326,0.06556493043899536
-1.4185893535614014,2.3000922203063965,0.06375337392091751
-1.4301867485046387,2.2837302684783936,0.06205211207270622
-1.4393887519836426,2.264112710952759,0.06024328991770744
-1.4541734457015991,2.2546870708465576,0.058661993592977524
-1.469129204750061,2.245012044906616,0.05705558508634567
-1.4717003107070923,2.2152915000915527,0.054890330880880356
-1.4857934713363647,2.205904960632324,0.0532243512570858
-1.4913444519042969,2.1833033561706543,0.05121651291847229
-1.4800162315368652,2.134248733520508,0.04850151762366295
-1.4821804761886597,2.108961820602417,0.04636583849787712
-1.4869258403778076,2.0865042209625244,0.0442473404109478
-1.496445655822754,2.070096731185913,0.04216722026467323
-1.5093052387237549,2.0607783794403076,0.04023041948676109
-1.5046472549438477,2.0254275798797607,0.03764910250902176
-1.520181655883789,2.1443536281585693,-0.0440797433257103
-1.4836050271987915,2.127054452896118,-0.04576869681477547
-1.4974913597106934,2.179147958755493,-0.04877980425953865
-1.4762108325958252,2.1841487884521484,-0.05080113559961319
-1.4818718433380127,2.2273271083831787,-0.05361756682395935
-1.4616289138793945,2.231283187866211,-0.05543232336640358
-1.4531867504119873,2.2553470134735107,-0.05774487927556038
-1.4412236213684082,2.272216320037842,-0.05979738011956215
-1.430808424949646,2.2925610542297363,-0.061937760561704636
-1.4258742332458496,2.323119878768921,-0.06433860957622528
-1.4092923402786255,2.3331668376922607,-0.06611296534538269
-1.408724308013916,2.3698768615722656,-0.06862255930900574
-1.3990079164505005,2.393684148788452,-0.0707695335149765
-1.3813796043395996,2.403848648071289,-0.07251328229904175
-1.3453938961029053,2.379364490509033,-0.07312027364969254
-1.339316964149475,2.4095802307128906,-0.07538167387247086
-1.3215378522872925,2.419325590133667,-0.07701544463634491
-1.311967372894287,2.442223072052002,-0.0790131539106369
-1.2997779846191406,2.461934804916382,-0.08092695474624634
-1.2852787971496582,2.4782845973968506,-0.08269402384757996
-1.2956762313842773,2.5431301593780518,-0.08609727770090103
-1.2866573333740234,2.5695056915283203,-0.08819267153739929
-1.2923468351364136,2.627652406692505,-0.0913868173956871
-1.2660393714904785,2.623044729232788,-0.09241795539855957
-1.2338670492172241,2.603757619857788,-0.09287623316049576
-1.2124121189117432,2.605156421661377,-0.0940314382314682
-1.20675528049469,2.642106771469116,-0.09645003080368042
-1.1843796968460083,2.643608331680298,-0.09757161885499954
-1.1560347080230713,2.6305091381073,-0.0981328934431076
-1.155927062034607,2.6815977096557617,-0.10109245032072067
-1.1657658815383911,2.757996082305908,-0.10500410199165344
-1.157793402671814,2.795135498046875,-0.10743612051010132
-1.1435809135437012,2.8177881240844727,-0.10932720452547073
-1.128243088722229,2.8365211486816406,-0.1110515221953392
-1.110744595527649,2.851747751235962,-0.11264723539352417
-1.1096643209457397,2.9106812477111816,-0.11591804772615433
-1.1009939908981323,2.9514472484588623,-0.11849744617938995
-1.0789480209350586,2.9553728103637695,-0.11958916485309601
-1.0675448179244995,2.9884915351867676,-0.12186868488788605
-1.0561459064483643,3.0255844593048096,-0.1242809072136879
-1.039500117301941,3.0477957725524902,-0.12607401609420776
-1.0264892578125,3.080965757369995,-0.12833061814308167
-1.0050809383392334,3.08796763420105,-0.12949182093143463
-0.983445942401886,3.0948777198791504,-0.1306311935186386
-0.9818186163902283,3.168973684310913,-0.13458147644996643
-0.9648742079734802,3.1945180892944336,-0.1364857703447342
-0.944628119468689,3.2086544036865234,-0.13790471851825714
-0.9329729676246643,3.2526376247406006,-0.14061982929706573
-0.9120559692382812,3.266624689102173,-0.14198830723762512
-0.8948969841003418,3.2955942153930664,-0.14398017525672913
-0.8759828209877014,3.3208119869232178,-0.14583705365657806
-0.8547465801239014,3.3343558311462402,-0.14716632664203644
-0.8371630311012268,3.362905263900757,-0.14917083084583282
-0.8225255012512207,3.4066357612609863,-0.1517695039510727
-0.4382953941822052,1.873367428779602,-0.08381623774766922
