X,Y,Z
1.9237499237060547,4.6252336502075195,0.6455923914909363
1.8759442567825317,4.6064348220825195,0.6465954184532166
1.8549423217773438,4.6517205238342285,0.6565663814544678
1.830405354499817,4.685643196105957,0.6648771166801453
1.8058277368545532,4.71931266784668,0.6731804013252258
1.755968451499939,4.6877851486206055,0.6720378994941711
1.3390710353851318,3.6567704677581787,0.5266497731208801
1.317581295967102,3.6804816722869873,0.5324698686599731
1.278486967086792,3.6527390480041504,0.5308088064193726
1.6537907123565674,4.832636833190918,0.7053435444831848
1.6174519062042236,4.836078643798828,0.7089430093765259
1.5866012573242188,4.861936092376709,0.715412974357605
1.5536565780639648,4.880059719085693,0.7207362651824951
1.5068671703338623,4.853601455688477,0.7194895148277283
1.471734881401062,4.859726905822754,0.7230024337768555
1.4585379362106323,4.939752578735352,0.7375776171684265
1.4214242696762085,4.941927909851074,0.7403852343559265
1.4070115089416504,5.029850959777832,0.7558257579803467
1.3555400371551514,4.983346939086914,0.7510748505592346
1.2953356504440308,4.89890718460083,0.7405520081520081
1.2572946548461914,4.892324447631836,0.7417420744895935
1.223151445388794,4.900449275970459,0.7451912760734558
1.1977276802062988,4.949981212615967,0.7546812891960144
1.171125054359436,4.99558162689209,0.7634068727493286
1.1388007402420044,5.01843786239624,0.7687146663665771
1.1083428859710693,5.048530578613281,0.7751590609550476
1.0738801956176758,5.059468746185303,0.7786909937858582
1.0371817350387573,5.062714576721191,0.7811084389686584
1.0035935640335083,5.080894470214844,0.785427987575531
0.9897902011871338,5.205140590667725,0.806057870388031
1.8200699090957642,9.95610523223877,1.5445765256881714
1.7418423891067505,9.922322273254395,1.5421644449234009
1.6714448928833008,9.933693885803223,1.5468522310256958
1.6096227169036865,9.990111351013184,1.558590292930603
1.5280565023422241,9.928089141845703,1.551213026046753
1.4582548141479492,9.941927909851074,1.5553592443466187
1.3873759508132935,9.947615623474121,1.5583045482635498
1.311069130897522,9.918463706970215,1.5558884143829346
1.2399574518203735,9.911499977111816,1.556962013244629
1.1682096719741821,9.896350860595703,1.5568134784698486
0.21025189757347107,1.894843578338623,0.2984222173690796
1.026274561882019,9.884078979492188,1.5578980445861816
0.9529485106468201,9.852277755737305,1.5541921854019165
0.3907889127731323,4.3661699295043945,0.6893845200538635
0.3556688725948334,4.310935020446777,0.6812933683395386
0.3256463408470154,4.313146114349365,0.6823065280914307
0.2985202968120575,4.3575053215026855,0.6899337768554688
0.2658354341983795,4.324746608734131,0.684979259967804
0.3051442801952362,5.617058753967285,0.8900142908096313
0.26758429408073425,5.65748929977417,0.8968125581741333
0.2299439162015915,5.701508522033691,0.9042260646820068
0.19131813943386078,5.733706951141357,0.9098143577575684
0.1529308706521988,5.788779258728027,0.9190829396247864
0.11194766312837601,5.79355001449585,0.9198578596115112
0.07228104025125504,5.848186492919922,0.9284932017326355
0.031460992991924286,5.840822219848633,0.9273296594619751
-0.009248741902410984,5.871753215789795,0.9322914481163025
-0.05180202051997185,6.075999736785889,0.9648199677467346
-0.09597726166248322,6.1526198387146,0.9771373271942139
-0.13948030769824982,6.186560153961182,0.9823824167251587
-0.18068872392177582,6.127697467803955,0.972582995891571
-0.22586290538311005,6.199647903442383,0.9835925698280334
-0.26017236709594727,5.997596740722656,0.951184868812561
-0.18102823197841644,3.5951294898986816,0.5699833035469055
-0.20648419857025146,3.593815565109253,0.5696161389350891
-0.2294882833957672,3.5615546703338623,0.5643282532691956
-0.5598620772361755,7.8435516357421875,1.2416810989379883
-0.6109834313392639,7.801296234130859,1.2339282035827637
-0.5649132132530212,6.624499797821045,1.0469391345977783
-0.607114315032959,6.57061767578125,1.0376063585281372
-0.6351944208145142,6.3898210525512695,1.008322834968567
-0.6771281361579895,6.3624444007873535,1.0033208131790161
-0.7258133888244629,6.400100231170654,1.008069396018982
-0.7679504156112671,6.37995719909668,1.003592610359192
-0.8071919083595276,6.332643508911133,0.9948793053627014
-0.8421737551689148,6.26220703125,0.9826177954673767
-0.8791967630386353,6.210658550262451,0.9733808040618896
-0.9279629588127136,6.2429070472717285,0.9773276448249817
-0.9787622094154358,6.286310195922852,0.9827207326889038
-1.0286719799041748,6.3178887367248535,0.9858880043029785
-1.080324649810791,6.36060905456543,0.990843653678894
-1.1293160915374756,6.38389778137207,0.9927951693534851
-1.1813945770263672,6.4181013107299805,0.9964491724967957
-1.240601897239685,6.486015796661377,1.0053527355194092
-1.2937543392181396,6.519412040710449,1.0087475776672363
-1.3522619009017944,6.575140476226807,1.015030026435852
-1.4051392078399658,6.604097843170166,1.017234206199646
-1.4485881328582764,6.58735466003418,1.0124324560165405
-1.485002040863037,6.536238670349121,1.002371907234192
-1.5181961059570312,6.473626613616943,0.9906253814697266
-0.6788282990455627,2.8054018020629883,0.4283164143562317
-0.6885560750961304,2.763507843017578,0.42073312401771545
-0.707342803478241,2.759040594100952,0.4188835024833679
-0.7280707955360413,2.7619190216064453,0.41816529631614685
-0.7473031282424927,2.7570648193359375,0.4162653982639313
-0.7710220813751221,2.766874074935913,0.41657140851020813
-1.7548333406448364,6.133096694946289,0.9207245111465454
-1.7920267581939697,6.106940269470215,0.9136760830879211
-1.1161168813705444,3.7105348110198975,0.5532622933387756
-1.1390161514282227,3.6959140300750732,0.5492269396781921
-1.1535507440567017,3.6513144969940186,0.5407044887542725
-1.1742219924926758,3.6289005279541016,0.5355525016784668
-1.193084716796875,3.6028285026550293,0.5297528505325317
-1.212346076965332,3.580538272857666,0.524327278137207
-1.23139488697052,3.5581345558166504,0.5189233422279358
-1.2427608966827393,3.513636589050293,0.5103242993354797
-1.2637979984283447,3.4942731857299805,0.5053402185440063
-1.2882436513900757,3.4858174324035645,0.5020008683204651
-1.3064026832580566,3.4630184173583984,0.49635758996009827
-1.3352577686309814,3.469115972518921,0.49479469656944275
-1.3585598468780518,3.4605748653411865,0.49115946888923645
-1.3873482942581177,3.4621975421905518,0.4888557195663452
-1.4174662828445435,3.4672584533691406,0.4870665669441223
-1.4338852167129517,3.440072774887085,0.48065289855003357
-1.4357266426086426,3.381014823913574,0.469641774892807
-1.4445013999938965,3.339864492416382,0.46120980381965637
-1.4553197622299194,3.3018791675567627,0.45316773653030396
-1.4879366159439087,3.313387393951416,0.45194315910339355
-1.5109297037124634,3.303537130355835,0.4477480947971344
-1.5361876487731934,3.301018238067627,0.4442979693412781
-1.6178956031799316,3.41748046875,0.4567563533782959
-2.643432140350342,5.485795021057129,0.7278082370758057
-2.6648077964782715,5.433296203613281,0.7154592871665955
-2.6954665184020996,5.401837348937988,0.7058488726615906
-2.6979124546051025,5.319119453430176,0.6892942190170288
-2.7669482231140137,5.3676629066467285,0.6897801160812378
-2.800328016281128,5.3426313400268555,0.6805484890937805
-2.7964913845062256,5.24475622177124,0.6619483232498169
-1.1542608737945557,2.1302974224090576,0.2663099765777588
-1.1795339584350586,2.143486261367798,0.2652928829193115
-2.4936916828155518,4.461920261383057,0.5466247200965881
-2.525164842605591,4.445160865783691,0.5386220812797546
-5.993412017822266,10.38046646118164,1.243484377861023
-6.069425106048584,10.356525421142578,1.22581946849823
-1.2398022413253784,2.0844407081604004,0.24372948706150055
-2.90877366065979,4.81449556350708,0.5555686950683594
-2.9302337169647217,4.77522611618042,0.5436263084411621
-2.9535720348358154,4.743644714355469,0.5321444869041443
-2.965649366378784,4.695844650268555,0.5190829634666443
-3.017505407333374,4.705495834350586,0.5117565393447876
-3.0371267795562744,4.666176795959473,0.4990099370479584
-3.05641508102417,4.63140869140625,0.48658034205436707
-3.0573441982269287,4.566531181335449,0.47069793939590454
-3.089615821838379,4.545949935913086,0.4590584933757782
-3.095062017440796,4.491495609283447,0.4438733160495758
-3.1437902450561523,4.501480579376221,0.43503156304359436
-2.8309121131896973,3.9942405223846436,0.37631553411483765
-2.9144999980926514,4.055319786071777,0.371829628944397
-2.930771827697754,4.025380611419678,0.3589210510253906
-2.9407007694244385,3.9806008338928223,0.34351015090942383
-2.998411178588867,4.198235034942627,-0.2278052121400833
-2.4466702938079834,3.478900671005249,-0.20005591213703156
-2.430164337158203,3.508758068084717,-0.21257244050502777
-2.394442319869995,3.513634204864502,-0.2235785275697708
-2.3022496700286865,3.4293181896209717,-0.22774191200733185
-2.2315921783447266,3.377265214920044,-0.23359555006027222
-2.1910266876220703,3.3704843521118164,-0.24235647916793823
-2.154576301574707,3.365459680557251,-0.2504979074001312
-2.1087043285369873,3.347689151763916,-0.2575454115867615
-1.2646944522857666,2.0406739711761475,-0.16198037564754486
-1.2502576112747192,2.0491156578063965,-0.16739314794540405
-2.0968596935272217,3.4945456981658936,-0.2936229407787323
-2.1163711547851562,3.5864126682281494,-0.3094637989997864
-2.0539517402648926,3.536428928375244,-0.3126775324344635
-1.1861461400985718,2.0761115550994873,-0.18793900310993195
-1.1936851739883423,2.1250739097595215,-0.1968013346195221
-2.5783841609954834,4.668603420257568,-0.44192907214164734
-2.5489587783813477,4.6925554275512695,-0.4534679055213928
-2.5252950191497803,4.7307610511779785,-0.4663197994232178
-2.4978299140930176,4.761829376220703,-0.4784947633743286
-2.4677493572235107,4.785187244415283,-0.48962676525115967
-2.438079595565796,4.8123674392700195,-0.5012729167938232
-2.4201412200927734,4.8638014793396,-0.515311062335968
-2.395406484603882,4.9009175300598145,-0.5277977585792542
-1.5767107009887695,3.283548593521118,-0.35921645164489746
-1.5464242696762085,3.280010223388672,-0.3642984926700592
-1.5258269309997559,3.2974729537963867,-0.3716721534729004
-1.5083345174789429,3.321840763092041,-0.37986284494400024
-1.489682674407959,3.3422722816467285,-0.3875056803226471
-1.5231894254684448,3.4838244915008545,-0.409278929233551
-1.5040757656097412,3.508254051208496,-0.41750508546829224
-1.9606915712356567,4.663306713104248,-0.5619308352470398
-1.905068278312683,4.622352123260498,-0.5639610886573792
-1.8602763414382935,4.60609769821167,-0.5685394406318665
-1.8099521398544312,4.575072765350342,-0.5711628198623657
-1.3457069396972656,3.4726665019989014,-0.4383605718612671
-1.3254014253616333,3.492170572280884,-0.44562697410583496
-1.7563896179199219,4.729710578918457,-0.609898030757904
-2.015047788619995,5.546568870544434,-0.7224227786064148
-1.0513981580734253,2.95878267288208,-0.38917702436447144
-0.9987877607345581,2.8739511966705322,-0.38167402148246765
-0.9621959328651428,2.832669973373413,-0.37967872619628906
-0.9293889403343201,2.802237033843994,-0.3789825141429901
-0.8915277719497681,2.7529373168945312,-0.3755737245082855
-0.8336843848228455,2.6367061138153076,-0.36279600858688354
-0.7820096015930176,2.5346779823303223,-0.3516722023487091
-0.7684490084648132,2.554523229598999,-0.3571622371673584
-0.7589803338050842,2.5891571044921875,-0.36478880047798157
-0.7468709945678711,2.6163408756256104,-0.3714493215084076
-0.7482085227966309,2.6918563842773438,-0.385040819644928
-0.7352221608161926,2.719013214111328,-0.39157235622406006
-0.7169404029846191,2.7274155616760254,-0.3954067826271057
-0.6967677474021912,2.728170871734619,-0.39813780784606934
-0.6754761338233948,2.7250683307647705,-0.40034395456314087
-0.6608489751815796,2.7480833530426025,-0.4062238037586212
-0.6431992053985596,2.759770154953003,-0.41029655933380127
-0.6288422346115112,2.7864162921905518,-0.41663679480552673
-0.615944504737854,2.820507287979126,-0.424137145280838
-0.5974552631378174,2.8319218158721924,-0.42832422256469727
-0.5798166394233704,2.847015857696533,-0.43268856406211853
-0.5627388954162598,2.8657867908477783,-0.4376525282859802
-0.5469518303871155,2.8920254707336426,-0.44379711151123047
-0.5322757959365845,2.925762414932251,-0.45114603638648987
-0.5100996494293213,2.921478509902954,-0.4525066018104553
-0.49785909056663513,2.974137783050537,-0.46250075101852417
-0.48062846064567566,3.0000689029693604,-0.46840617060661316
-0.4655385911464691,3.0411393642425537,-0.4767236113548279
-0.4471113681793213,3.0630362033843994,-0.48209455609321594
-0.4263528883457184,3.0734734535217285,-0.4852936863899231
-0.4078480303287506,3.0990307331085205,-0.490876704454422
-0.3861951231956482,3.1014933586120605,-0.49283355474472046
-0.36907804012298584,3.1421167850494385,-0.5008940696716309
-0.3483975827693939,3.1558361053466797,-0.5045177340507507
-0.3271329402923584,3.165626049041748,-0.5072566270828247
-0.5194872617721558,5.402242183685303,-0.8677302598953247
-0.47848379611968994,5.366894245147705,-0.8641126155853271
-0.42721864581108093,5.200559616088867,-0.839368462562561
-0.3542824685573578,4.714723587036133,-0.7622219920158386
-0.3174892067909241,4.659121513366699,-0.7544034123420715
-0.2839880883693695,4.653308391571045,-0.754688024520874
-0.2512187361717224,4.647225856781006,-0.7549380660057068
-0.21745043992996216,4.617834568023682,-0.7512436509132385
-0.18627630174160004,4.6422247886657715,-0.7557714581489563
-0.15396946668624878,4.643283843994141,-0.756540834903717
-0.12069584429264069,4.628713607788086,-0.7548094391822815
-0.08848635852336884,4.6293158531188965,-0.7555762529373169
-0.056076351553201675,4.614353179931641,-0.753345787525177
-0.02349279075860977,4.525958061218262,-0.7388989925384521
0.0078760776668787,4.468179702758789,-0.7294864058494568
0.03955059498548508,4.475717544555664,-0.73077392578125
0.06878263503313065,4.355838775634766,-0.7112540602684021
0.09279569983482361,4.081708908081055,-0.6659473776817322
0.1244780644774437,4.19282341003418,-0.6835490465164185
0.15361472964286804,4.191960334777832,-0.6829141974449158
0.18025906383991241,4.133114337921143,-0.6728721261024475
0.2184758186340332,4.309023380279541,-0.7007474899291992
0.24797256290912628,4.2999186515808105,-0.6981636881828308
0.2701396346092224,4.179017066955566,-0.6774930953979492
0.30028048157691956,4.192634105682373,-0.678689181804657
0.3242770731449127,4.1252970695495605,-0.6668250560760498
0.3583630919456482,4.180840492248535,-0.6742764711380005
0.3998185694217682,4.312987804412842,-0.6939647793769836
0.4267038404941559,4.279722213745117,-0.6870304346084595
0.4580928087234497,4.292314052581787,-0.6874949336051941
0.48445504903793335,4.258703231811523,-0.6804341673851013
0.6052790284156799,5.006366729736328,-0.7973333597183228
0.5582029223442078,4.363348484039307,-0.6927645802497864
0.23904749751091003,1.7706838846206665,-0.28026169538497925
0.6960373520851135,4.898594379425049,-0.772975742816925
0.7300527691841125,4.894192695617676,-0.7694725394248962
0.7621909379959106,4.874257564544678,-0.763291597366333
0.7935435175895691,4.854186058044434,-0.7571932673454285
0.8247690200805664,4.833890438079834,-0.7511050701141357
0.8550131916999817,4.809610366821289,-0.7443792223930359
0.877106249332428,4.743472576141357,-0.7306715846061707
0.9113997220993042,4.7455291748046875,-0.7275464534759521
0.9397523403167725,4.713097095489502,-0.7191012501716614
0.7818689346313477,3.7838222980499268,-0.5745939612388611
0.8146330118179321,3.809091567993164,-0.5754137635231018
0.8343568444252014,3.773759603500366,-0.5668997168540955
0.863985002040863,3.783541202545166,-0.5651991963386536
0.8802168369293213,3.7327539920806885,-0.5544294118881226
0.9117296934127808,3.749652862548828,-0.5537757277488708
0.937665581703186,3.7439002990722656,-0.5493722558021545
0.9539381265640259,3.7005019187927246,-0.5395026803016663
0.9727703332901001,3.6682257652282715,-0.5313212275505066
1.0059908628463745,3.687979221343994,-0.5306284427642822
1.029500961303711,3.6741151809692383,-0.524917483329773
1.049579381942749,3.6489787101745605,-0.5174967050552368
1.0748640298843384,3.642284870147705,-0.5127316117286682
1.095870018005371,3.6205172538757324,-0.5058470368385315
1.1215568780899048,3.6133320331573486,-0.5008965134620667
1.1441407203674316,3.598827600479126,-0.4947398900985718
1.1642048358917236,3.576798915863037,-0.4875933825969696
1.1843143701553345,3.55456280708313,-0.48042649030685425
1.2117241621017456,3.554198741912842,-0.47623899579048157
1.2337408065795898,3.5391335487365723,-0.46983426809310913
1.2559645175933838,3.5238137245178223,-0.4633103311061859
1.276520013809204,3.5047643184661865,-0.456375390291214
1.305166244506836,3.5073323249816895,-0.4522443413734436
1.3322652578353882,3.506160259246826,-0.44747722148895264
1.6467475891113281,4.246354103088379,-0.5362071394920349
1.6752265691757202,4.231935977935791,-0.5285307765007019
1.6990952491760254,4.206565856933594,-0.5195620656013489
1.7283673286437988,4.195516109466553,-0.5123074650764465
1.7541238069534302,4.17729377746582,-0.504025936126709
1.7736854553222656,4.14458703994751,-0.49404314160346985
1.8063933849334717,4.139823913574219,-0.4872029721736908
1.8320974111557007,4.120902061462402,-0.478779137134552
1.8602392673492432,4.1091694831848145,-0.4710381329059601
1.8883575201034546,4.0972089767456055,-0.46327996253967285
1.9138052463531494,4.077693462371826,-0.4545380771160126
1.9393961429595947,4.057868957519531,-0.44564855098724365
1.9602035284042358,4.0314555168151855,-0.43605130910873413
1.9825398921966553,4.008376121520996,-0.42685574293136597
2.0124502182006836,3.998676300048828,-0.41891735792160034
2.0402591228485107,3.985426187515259,-0.41057974100112915
2.058293581008911,3.955085277557373,-0.40042755007743835
2.085796356201172,3.9415132999420166,-0.39183980226516724
2.1171984672546387,3.934433698654175,-0.383822500705719
2.1367928981781006,3.906933546066284,-0.37378430366516113
2.1480305194854736,3.8660025596618652,-0.36248674988746643
2.14595627784729,3.8010432720184326,-0.3489469289779663
2.173142910003662,3.7863922119140625,-0.3398577570915222
2.1947474479675293,3.7656917572021484,-0.33031854033470154
2.212057590484619,3.738229513168335,-0.32023322582244873
2.2463700771331787,3.736701011657715,-0.31200605630874634
2.2720813751220703,3.7218973636627197,-0.30263325572013855
2.2850005626678467,3.687262773513794,-0.2915193438529968
2.3103909492492676,3.672159433364868,-0.28187626600265503
2.348656415939331,3.676340341567993,-0.2734898328781128
2.3475077152252197,3.622162103652954,-0.26080065965652466
2.389157295227051,3.6329352855682373,-0.2526203989982605
2.415055751800537,3.6164965629577637,-0.2420092523097992
2.429905414581299,3.588388442993164,-0.23080995678901672
2.445124387741089,3.5597891807556152,-0.2193955034017563
2.4832851886749268,3.5625174045562744,-0.2094775289297104
2.4882335662841797,3.5215394496917725,-0.197016641497612
2.530688762664795,3.530282735824585,-0.18663667142391205
2.559190273284912,3.519949197769165,-0.17496317625045776
2.58622670173645,3.510411262512207,-0.16330499947071075
2.7945663928985596,3.955099582672119,0.4013860523700714
2.7382962703704834,3.9362118244171143,0.4100310504436493
2.7315967082977295,3.986865282058716,0.4253704249858856
2.690854072570801,3.9944212436676025,0.4361096918582916
2.6612613201141357,4.012970447540283,0.44726797938346863
2.640955924987793,4.0437493324279785,0.4594587981700897
2.6094179153442383,4.0629563331604,0.47008979320526123
2.566215991973877,4.061621189117432,0.4780815839767456
2.536870241165161,4.078854560852051,0.4878790080547333
2.5144217014312744,4.1098151206970215,0.49901220202445984
2.4827821254730225,4.127849102020264,0.5084978342056274
2.478541135787964,4.1880645751953125,0.5228635668754578
2.4410645961761475,4.190948486328125,0.5299817323684692
2.420487403869629,4.228615760803223,0.541314959526062
2.3730976581573486,4.218696117401123,0.5464134216308594
2.333331823348999,4.217607021331787,0.5522813200950623
2.2608509063720703,4.154541492462158,0.549821674823761
2.235363721847534,4.180506706237793,0.5587640404701233
2.2068543434143066,4.203362464904785,0.5673534870147705
2.186922550201416,4.238979816436768,0.5774433016777039
2.1535122394561768,4.2463908195495605,0.5835748910903931
2.1296753883361816,4.274768352508545,0.5924484729766846
2.0977141857147217,4.289599418640137,0.5992392301559448
2.0718395709991455,4.31838846206665,0.6081047058105469
2.038057327270508,4.324962615966797,0.6135414838790894
2.0108253955841064,4.345317363739014,0.620958149433136
1.9821559190750122,4.366096496582031,0.628135085105896
2.0064592361450195,4.507140159606934,0.6526713967323303
1.9857368469238281,4.549224376678467,0.6630180478096008
1.9592268466949463,4.576663017272949,0.6712009906768799
1.9329975843429565,4.603716850280762,0.6793138980865479
1.4575989246368408,3.5431888103485107,0.5256983041763306
1.847876787185669,4.586844444274902,0.6842096447944641
1.8356311321258545,4.653372287750244,0.6978357434272766
1.8107566833496094,4.68717622756958,0.7065651416778564
1.7833707332611084,4.713395118713379,0.7141472101211548
1.7520549297332764,4.7325968742370605,0.7203701734542847
1.3240021467208862,3.6574316024780273,0.5591558218002319
1.3037270307540894,3.6846303939819336,0.5657945871353149
1.2772759199142456,3.693300247192383,0.5695869326591492
1.6264194250106812,4.810960292816162,0.7451086044311523
1.592329978942871,4.821621894836426,0.7498069405555725
1.5596950054168701,4.8397216796875,0.755296528339386
1.531514048576355,4.872337818145752,0.7631077766418457
1.4982168674468994,4.890071392059326,0.7686601281166077
1.4639607667922974,4.899771690368652,0.7728816270828247
1.4361199140548706,4.931476593017578,0.7806241512298584
1.4103922843933105,4.97440767288208,0.7898523211479187
1.3745460510253906,4.983835220336914,0.7936069369316101
1.3175911903381348,4.914707660675049,0.7848613262176514
1.278241753578186,4.908543586730957,0.7861683368682861
1.2439528703689575,4.916772842407227,0.789740264415741
1.2224984169006348,4.977231025695801,0.8017643094062805
1.186965823173523,4.985311508178711,0.8049480319023132
1.1608076095581055,5.034536361694336,0.8147239685058594
1.1241228580474854,5.042342185974121,0.8178874850273132
1.0918700695037842,5.0647149085998535,0.8233969211578369
1.0580543279647827,5.079272747039795,0.8276704549789429
1.024087905883789,5.093601703643799,0.8319528102874756
0.989412784576416,5.107887268066406,0.8357682228088379
1.8080508708953857,9.709599494934082,1.5914651155471802
1.734757900238037,9.698683738708496,1.5924524068832397
1.6757012605667114,9.763073921203613,1.6058546304702759
1.6039471626281738,9.750913619995117,1.6067261695861816
1.5269442796707153,9.703968048095703,1.6019247770309448
1.4540092945098877,9.69113540649414,1.6020166873931885
1.3739120960235596,9.620471954345703,1.5922389030456543
1.298101782798767,9.572076797485352,1.5861955881118774
1.237109661102295,9.630105972290039,1.5978562831878662
0.2141338437795639,1.7638269662857056,0.29304349422454834
1.0936847925186157,9.564864158630371,1.5912728309631348
1.0279642343521118,9.59492301940918,1.5979989767074585
0.9612257480621338,9.609207153320312,1.6015394926071167
0.4029028117656708,4.335737705230713,0.7231850624084473
0.37075453996658325,4.319097518920898,0.7210014462471008
0.3388920724391937,4.298356056213379,0.7181557416915894
0.31094828248023987,4.335064888000488,0.7249572277069092
0.2822580933570862,4.360037326812744,0.7297523617744446
0.3249765634536743,5.631133079528809,0.9427787065505981
0.28671225905418396,5.656245708465576,0.9473097920417786
0.24928884208202362,5.7080397605896,0.9563605189323425
0.209153950214386,5.717247486114502,0.958331823348999
0.17058245837688446,5.7569580078125,0.9654584527015686
0.1313820481300354,5.792553901672363,0.9719477295875549
0.09133555740118027,5.808708190917969,0.9746957421302795
0.05118677392601967,5.840022087097168,0.9798594117164612
0.009857083670794964,5.855648517608643,0.9824377298355103
-0.046858031302690506,8.883527755737305,1.4904505014419556
-0.107395701110363,8.778980255126953,1.4729888439178467
-0.11694488674402237,6.089534759521484,1.0218422412872314
-0.16099373996257782,6.1540846824646,1.0325840711593628
-0.20792025327682495,6.280004024505615,1.0531634092330933
-0.2422315776348114,6.028289318084717,1.0104645490646362
-0.16670966148376465,3.5366721153259277,0.5925671458244324
-0.19504618644714355,3.604746103286743,0.60374516248703
-0.21865953505039215,3.5803024768829346,0.5994542241096497
-0.5364593863487244,7.8840556144714355,1.3196660280227661
-0.5834419131278992,7.768970012664795,1.2992385625839233
-0.5402867197990417,6.58609676361084,1.100433349609375
-0.5897915363311768,6.628530025482178,1.106580138206482
-0.6243008375167847,6.505631923675537,1.0851843357086182
-0.6581379175186157,6.390216827392578,1.065115213394165
-0.7067059874534607,6.416301250457764,1.0686814785003662
-0.7511037588119507,6.411573886871338,1.0667756795883179
-0.7889903783798218,6.356909275054932,1.0562691688537598
-0.8247270584106445,6.290548324584961,1.043891191482544
-0.8659158945083618,6.269813060760498,1.039150357246399
-0.9075390696525574,6.244822978973389,1.033725619316101
-0.953260064125061,6.253973484039307,1.0340274572372437
-1.0069814920425415,6.312317848205566,1.042349934577942
-1.0597283840179443,6.362803936004639,1.0487920045852661
-1.104572057723999,6.363492012023926,1.0470587015151978
-1.1611964702606201,6.428362846374512,1.0559098720550537
-1.2179584503173828,6.481156349182129,1.0627367496490479
-1.271194338798523,6.514665126800537,1.0664498805999756
-1.3272502422332764,6.5590901374816895,1.0719765424728394
-1.3838717937469482,6.607130527496338,1.0773894786834717
-1.433810830116272,6.620793342590332,1.0771770477294922
-1.4696050882339478,6.566151142120361,1.0658698081970215
-1.5054407119750977,6.515110969543457,1.0552371740341187
-1.53829824924469,6.45254373550415,1.04280424118042
-0.6944566965103149,2.8257644176483154,0.4556877911090851
-0.7052302956581116,2.7875924110412598,0.4483162760734558
-0.7225472331047058,2.7755024433135986,0.4450981914997101
-0.7354245781898499,2.748464584350586,0.43953821063041687
-0.7686918377876282,2.7957639694213867,0.44585704803466797
-1.7379367351531982,6.153585433959961,0.9786165356636047
-1.7743345499038696,6.119787693023682,0.9705618023872375
-1.1053643226623535,3.7167394161224365,0.5874717235565186
-1.121469259262085,3.6801116466522217,0.5796980857849121
-1.1440343856811523,3.665553092956543,0.5754473805427551
-1.162333607673645,3.6359572410583496,0.5688324570655823
-1.1817691326141357,3.6098594665527344,0.5627917647361755
-1.2000876665115356,3.5798656940460205,0.5561549067497253
-1.214252233505249,3.5429575443267822,0.548134982585907
-1.2292157411575317,3.5096702575683594,0.5407387614250183
-1.2477251291275024,3.4872419834136963,0.5350629091262817
-1.266758680343628,3.464452028274536,0.5293025970458984
-1.29094660282135,3.456050395965576,0.5257760286331177
-1.3151752948760986,3.447467565536499,0.5220629572868347
-1.3410992622375488,3.4463486671447754,0.5193184018135071
-1.3642438650131226,3.437830924987793,0.5154735445976257
-1.38774836063385,3.4289968013763428,0.5115588307380676
-1.4058605432510376,3.4054670333862305,0.5054240226745605
-1.4105677604675293,3.3495888710021973,0.49451905488967896
-1.4330132007598877,3.340667963027954,0.49031153321266174
-1.449165940284729,3.3174169063568115,0.4840235710144043
-1.4714819192886353,3.3081936836242676,0.4798012375831604
-1.4979033470153809,3.3054592609405518,0.4764110743999481
-1.518243432044983,3.288280963897705,0.47091394662857056
-1.5337886810302734,3.264601707458496,0.46431809663772583
-2.6098382472991943,5.461045742034912,0.7712295651435852
-2.6260385513305664,5.402710914611816,0.7575462460517883
-2.664001703262329,5.3852338790893555,0.7493952512741089
-2.7199137210845947,5.401806354522705,0.7458871603012085
-2.7330262660980225,5.339787483215332,0.731238067150116
-2.7541213035583496,5.295149803161621,0.7190055847167969
-2.768115282058716,5.236417293548584,0.7048617601394653
-2.8305981159210205,5.265848159790039,0.7023612856864929
-1.185203194618225,2.1690311431884766,0.28660112619400024
-1.1677099466323853,2.103858709335327,0.2751564681529999
-2.5117740631103516,4.456958293914795,0.5769932866096497
-5.967237949371338,10.420509338378906,1.3343696594238281
-6.033001899719238,10.367154121398926,1.3126885890960693
-1.2484468221664429,2.1133389472961426,0.26439589262008667
-1.258561372756958,2.0988094806671143,0.2592988610267639
-2.9196712970733643,4.795244216918945,0.5847140550613403
-2.9452967643737793,4.762531757354736,0.5728011131286621
-3.007913112640381,4.793457984924316,0.5682180523872375
-3.0118985176086426,4.732402801513672,0.5526567697525024
-3.032275438308716,4.692928791046143,0.5391224026679993
-3.0333049297332764,4.623941421508789,0.5222821235656738
-3.0587594509124756,4.599076747894287,0.5102019309997559
-3.0558032989501953,4.532077312469482,0.4935307800769806
-3.0922129154205322,4.5180840492248535,0.48185423016548157
-3.1429853439331055,4.526960849761963,0.4722234904766083
-2.8402864933013916,4.036925792694092,0.4116435647010803
-2.829756021499634,3.964492082595825,0.3940843343734741
-2.8999409675598145,4.006375312805176,0.38755297660827637
-2.918213129043579,3.9798030853271484,0.374117910861969
-2.9458694458007812,3.960660457611084,0.36026301980018616
-2.472979784011841,3.488929271697998,-0.20209787786006927
-2.4382688999176025,3.493508815765381,-0.21400398015975952
-2.408442735671997,3.5039145946502686,-0.22573183476924896
-2.306776285171509,3.4119176864624023,-0.23071035742759705
-2.2651870250701904,3.4014999866485596,-0.23982389271259308
-2.203648090362549,3.361935615539551,-0.24661889672279358
-2.169832706451416,3.364528179168701,-0.25624948740005493
-2.1334667205810547,3.3592677116394043,-0.2646297812461853
-2.1082019805908203,3.3743741512298584,-0.27471742033958435
-1.2811781167984009,2.0846493244171143,-0.1750488430261612
-2.1436893939971924,3.5430099964141846,-0.30599963665008545
-2.1138885021209717,3.5509603023529053,-0.3151121139526367
-2.0618770122528076,3.5220067501068115,-0.32081228494644165
-2.490987777709961,4.325514316558838,-0.4038439393043518
-1.197373867034912,2.1135058403015137,-0.20197714865207672
-2.5698485374450684,4.614191055297852,-0.4509957432746887
-2.5494425296783447,4.655440807342529,-0.4648985266685486
-2.5313549041748047,4.699548244476318,-0.47894248366355896
-2.50750470161438,4.737563133239746,-0.49253013730049133
-2.4763267040252686,4.761520862579346,-0.5045408606529236
-2.451268434524536,4.7951436042785645,-0.5173680186271667
-2.4310734272003174,4.839055061340332,-0.531348466873169
-2.3990025520324707,4.8625006675720215,-0.5430100560188293
-1.5803627967834473,3.2630906105041504,-0.37054336071014404
-1.5607361793518066,3.280331611633301,-0.3783412277698517
-1.530791163444519,3.2764627933502197,-0.38365811109542847
-1.5134860277175903,3.30078125,-0.3921961784362793
-1.4977061748504639,3.3284554481506348,-0.4011583626270294
-1.4930024147033691,3.380737781524658,-0.4131085276603699
-1.5162339210510254,3.501054525375366,-0.4336473345756531
-1.4817819595336914,3.489640235900879,-0.4378252625465393
-1.9547466039657593,4.695600986480713,-0.5965756177902222
-1.8878839015960693,4.625525951385498,-0.5948794484138489
-1.8376656770706177,4.594509124755859,-0.5978842973709106
-1.7954715490341187,4.585072040557861,-0.6035702228546143
-1.326839566230774,3.460190534591675,-0.46058225631713867
-0.9468831419944763,2.521639347076416,-0.33929938077926636
-2.0318081378936768,5.528167247772217,-0.7516822814941406
-0.9738038182258606,2.708674907684326,-0.37200212478637695
-0.9168411493301392,2.609074592590332,-0.36194002628326416
-0.8645134568214417,2.5159707069396973,-0.3523958623409271
-0.8381525874137878,2.495725393295288,-0.3528730869293213
-0.8203365802764893,2.5010876655578613,-0.35675281286239624
-0.8107458353042603,2.5321178436279297,-0.36434406042099
-0.7925985455513,2.5372886657714844,-0.3682788014411926
-0.7815304398536682,2.564432144165039,-0.3753878176212311
-0.7676948308944702,2.5842130184173584,-0.38124072551727295
-0.7536075115203857,2.6039228439331055,-0.3870984613895416
-0.757248044013977,2.6867778301239014,-0.40244534611701965
-0.7424963116645813,2.706368923187256,-0.4084208607673645
-0.7171086072921753,2.6886632442474365,-0.4086584746837616
-0.712617039680481,2.749255895614624,-0.4206530749797821
-0.6771659255027771,2.689992666244507,-0.41431599855422974
-0.6638170480728149,2.7166619300842285,-0.42117196321487427
-0.6527747511863708,2.754549264907837,-0.4297938644886017
-0.6364251971244812,2.773728370666504,-0.4353105127811432
-0.6202035546302795,2.792731761932373,-0.4408021867275238
-0.6071186661720276,2.8267064094543457,-0.44870251417160034
-0.5889491438865662,2.8379335403442383,-0.4530392587184906
-0.5743519067764282,2.868018388748169,-0.46015414595603943
-0.5582306981086731,2.8943235874176025,-0.4666513204574585
-0.5407438278198242,2.9128847122192383,-0.47191017866134644
-0.5244246125221252,2.9389214515686035,-0.47842785716056824
-0.5012312531471252,2.926872491836548,-0.4786657691001892
-0.4837731420993805,2.9489552974700928,-0.4841877818107605
-0.4710506796836853,3.0052578449249268,-0.49543285369873047
-0.7506848573684692,5.0172600746154785,-0.8304194808006287
-0.6993849277496338,4.907219886779785,-0.8154612183570862
-0.6552572250366211,4.838856220245361,-0.8067662715911865
-0.6135254502296448,4.781637191772461,-0.7997210025787354
-0.5615721940994263,4.632273197174072,-0.7771854400634766
-0.5151681900024414,4.516955852508545,-0.760294497013092
-0.4836379289627075,4.519973278045654,-0.763067364692688
-0.4505014717578888,4.507534027099609,-0.7627090811729431
-0.4150684177875519,4.468007564544678,-0.7577823400497437
-0.3783727288246155,4.40518045425415,-0.748889684677124
-0.3465919494628906,4.399694442749023,-0.7497830390930176
-0.30849549174308777,4.2980170249938965,-0.7337184548377991
-0.28003114461898804,4.322877407073975,-0.7390655279159546
-0.247715026140213,4.286040782928467,-0.7338947653770447
-0.22123587131500244,4.35278844833374,-0.7465025186538696
-0.18960824608802795,4.334787368774414,-0.7445109486579895
-0.15530849993228912,4.224314212799072,-0.726020336151123
-0.12430988252162933,4.171304702758789,-0.7174212336540222
-0.09467174112796783,4.145015239715576,-0.7134420871734619
-0.06457848101854324,4.068479537963867,-0.7008355855941772
-0.03595925495028496,4.091893196105957,-0.7050353288650513
-0.007449090480804443,4.0689544677734375,-0.7010138630867004
0.020871112123131752,4.065065383911133,-0.7003087401390076
0.04893273115158081,4.049432277679443,-0.6976143717765808
0.07758298516273499,4.075952053070068,-0.7021684050559998
0.10542316734790802,4.0561981201171875,-0.6981208920478821
0.13360024988651276,4.040088653564453,-0.6947295665740967
0.16258327662944794,4.062269687652588,-0.6979665756225586
0.19422966241836548,4.134238243103027,-0.7097786068916321
0.22292689979076385,4.132979869842529,-0.708677351474762
0.25464358925819397,4.18154239654541,-0.7157933712005615
0.281279981136322,4.13763427734375,-0.7070923447608948
0.310629665851593,4.143503665924072,-0.7069599628448486
0.33881622552871704,4.133812427520752,-0.704206645488739
0.3732859194278717,4.196934700012207,-0.7132084965705872
0.41309356689453125,4.305795669555664,-0.7299174666404724
0.43563732504844666,4.226508617401123,-0.714720606803894
0.47095581889152527,4.277349472045898,-0.7216017246246338
0.4827294647693634,4.12132453918457,-0.693372905254364
0.5284292697906494,4.2559990882873535,-0.7136870622634888
0.5559689998626709,4.237421989440918,-0.708269476890564
0.5981767177581787,4.321665287017822,-0.7199835181236267
0.27806589007377625,1.911003828048706,-0.31735655665397644
0.3035469651222229,1.9893131256103516,-0.3290421664714813
0.7581284046173096,4.74774694442749,-0.7821093797683716
0.78926020860672,4.731592655181885,-0.7762920260429382
0.8281717300415039,4.760817050933838,-0.7779391407966614
0.8604649305343628,4.74794864654541,-0.7724021077156067
0.8948527574539185,4.750194549560547,-0.7689771056175232
0.9307560920715332,4.759769439697266,-0.766761839389801
0.9593524932861328,4.731220722198486,-0.7584271430969238
0.9939408302307129,4.7327117919921875,-0.7549566030502319
1.0208007097244263,4.6962409019470215,-0.744843602180481
1.052546501159668,4.686106204986572,-0.7389710545539856
1.0799111127853394,4.656927108764648,-0.7301453351974487
1.1053022146224976,4.620030879974365,-0.7201693654060364
1.1337811946868896,4.598066806793213,-0.7123502492904663
1.159567952156067,4.564646244049072,-0.7024049162864685
0.9694194793701172,3.708702802658081,-0.5668985843658447
0.98834228515625,3.676419973373413,-0.5581884980201721
1.0140655040740967,3.670121431350708,-0.5534778237342834
1.0394850969314575,3.6637723445892334,-0.5483627319335938
1.0544962882995605,3.6199951171875,-0.5376418828964233
1.0864123106002808,3.6355292797088623,-0.5358147621154785
1.1050776243209839,3.606386423110962,-0.5274155139923096
1.134782075881958,3.6141552925109863,-0.5242147445678711
1.1479395627975464,3.5701606273651123,-0.5134158730506897
1.1804451942443848,3.584803819656372,-0.5109961032867432
1.2006298303604126,3.5625438690185547,-0.5033705234527588
1.2255191802978516,3.5548510551452637,-0.4977441430091858
1.2474822998046875,3.539804697036743,-0.49089372158050537
1.269293189048767,3.524613618850708,-0.4840661585330963
1.2940454483032227,3.5164108276367188,-0.47815024852752686
1.313689947128296,3.493377208709717,-0.47017166018486023
1.333591103553772,3.474198818206787,-0.4625759422779083
1.357554316520691,3.46571946144104,-0.4564371705055237
1.3760066032409668,3.4425501823425293,-0.4483431577682495
1.4001810550689697,3.433596134185791,-0.44211721420288086
1.7266840934753418,4.151686668395996,-0.5281121134757996
1.7612316608428955,4.154999732971191,-0.5221140384674072
1.7871119976043701,4.136473655700684,-0.5132851600646973
1.8162078857421875,4.124769687652588,-0.5052793025970459
1.8415206670761108,4.106015682220459,-0.49626633524894714
1.8734173774719238,4.101105690002441,-0.4887548089027405
1.9019376039505005,4.088945388793945,-0.48041871190071106
1.9240056276321411,4.062402725219727,-0.47037115693092346
1.9519610404968262,4.050024032592773,-0.46186333894729614
1.9761356115341187,4.0305962562561035,-0.4525359272956848
2.0011885166168213,4.010517597198486,-0.44290658831596375
2.0206058025360107,3.9799435138702393,-0.43222734332084656
2.044288158416748,3.9600348472595215,-0.42263761162757874
2.0712008476257324,3.946963310241699,-0.41378912329673767
2.091417074203491,3.9196043014526367,-0.4032881259918213
2.1300668716430664,3.9262495040893555,-0.3962308466434479
2.145742177963257,3.892000436782837,-0.38481923937797546
2.135948419570923,3.8137385845184326,-0.3693557381629944
2.1589572429656982,3.7927088737487793,-0.35928258299827576
2.177401304244995,3.7650527954101562,-0.34860435128211975
2.202707529067993,3.7511651515960693,-0.3392084240913391
2.2329585552215576,3.743187189102173,-0.3300074636936188
2.247154474258423,3.708235263824463,-0.318438857793808
2.2719595432281494,3.693920612335205,-0.30865058302879333
2.3173768520355225,3.712435245513916,-0.3014795482158661
2.3184101581573486,3.657362461090088,-0.28795281052589417
2.3435864448547363,3.6420938968658447,-0.27748793363571167
2.3846840858459473,3.6533961296081543,-0.26914337277412415
2.405947208404541,3.630871295928955,-0.2577115297317505
2.40452241897583,3.5763189792633057,-0.24408234655857086
2.4499499797821045,3.593390941619873,-0.23536355793476105
2.4487838745117188,3.538154363632202,-0.2211349606513977
2.485940933227539,3.541494131088257,-0.21074296534061432
2.5135302543640137,3.5322265625,-0.19946062564849854
2.5292470455169678,3.50244402885437,-0.18617455661296844
2.5658037662506104,3.505462646484375,-0.1746276468038559
2.186790943145752,2.9465243816375732,-0.13640165328979492
2.7856101989746094,3.911707639694214,0.41752976179122925
2.7638094425201416,3.944674253463745,0.43265652656555176
2.7179274559020996,3.9372901916503906,0.44231146574020386
2.7200281620025635,4.005136489868164,0.4602530896663666
2.6781511306762695,4.008485317230225,0.4706045985221863
2.6453447341918945,4.019585132598877,0.4810166358947754
2.6291568279266357,4.061273097991943,0.4950750768184662
2.574526309967041,4.044196605682373,0.5016992092132568
2.5661087036132812,4.094188690185547,0.5159714818000793
2.550772190093994,4.134456634521484,0.5290095210075378
2.530924081802368,4.172618389129639,0.5415818095207214
2.4749643802642822,4.150614261627197,0.5463122129440308
2.4612388610839844,4.193596363067627,0.5590077638626099
2.4344727993011475,4.216936111450195,0.5690069794654846
2.383124828338623,4.200411319732666,0.5733790397644043
2.3706066608428955,4.2507524490356445,0.5867727398872375
2.2821569442749023,4.161139011383057,0.580543577671051
2.2521069049835205,4.176354885101318,0.588577926158905
2.2205147743225098,4.1921281814575195,0.5964266061782837
2.203181505203247,4.235119342803955,0.6082062721252441
2.169684886932373,4.242612361907959,0.6145963072776794
2.1495847702026367,4.277766227722168,0.6251335144042969
2.1108460426330566,4.278706073760986,0.6302058696746826
2.085545778274536,4.307267665863037,0.6393254995346069
2.057424783706665,4.3283185958862305,0.6472649574279785
2.0301830768585205,4.348707675933838,0.6549898982048035
1.98311185836792,4.326847076416016,0.6562673449516296
1.9726008176803589,4.390127658843994,0.6701864004135132
1.9961541891098022,4.531094074249268,0.6960967779159546
1.9512760639190674,4.5159454345703125,0.6980233192443848
1.946598768234253,4.5927019119262695,0.7141380310058594
1.9139022827148438,4.605465888977051,0.7202862501144409
1.8808083534240723,4.6223273277282715,0.7267658710479736
1.885326623916626,4.732079982757568,0.7479106187820435
1.8413920402526855,4.719407558441162,0.749714732170105
1.780648112297058,4.659136772155762,0.7438229918479919
1.7559975385665894,4.692349910736084,0.7528578639030457
1.3468533754348755,3.681580066680908,0.5932451486587524
1.313398003578186,3.6725025177001953,0.5943058729171753
1.284148097038269,3.6740126609802246,0.5970770120620728
1.6553667783737183,4.8439764976501465,0.790450930595398
1.6054999828338623,4.807040214538574,0.7876617908477783
1.5681325197219849,4.810458660125732,0.7912352681159973
1.5437335968017578,4.85406494140625,0.8011568784713745
1.5176403522491455,4.8938703536987305,0.8105288147926331
1.5040329694747925,4.973959922790527,0.8266156315803528
1.4648395776748657,4.968824863433838,0.8285672664642334
1.4406983852386475,5.015281677246094,0.8391751646995544
1.3936758041381836,4.987846851348877,0.8369884490966797
1.3536592721939087,4.9822258949279785,0.8383505940437317
1.2950973510742188,4.905466079711914,0.8277385830879211
1.2586348056793213,4.906364917755127,0.8301749229431152
1.241114854812622,4.981733798980713,0.8452638387680054
1.2056751251220703,4.9897871017456055,0.8490468263626099
1.1699347496032715,4.997750282287598,0.8522065281867981
1.1392449140548706,5.028004169464111,0.8592156171798706
1.1057077646255493,5.046776294708252,0.8643190860748291
1.0734633207321167,5.068951606750488,0.8700215220451355
1.0421226024627686,5.098536968231201,0.8770740032196045
1.0020246505737305,5.082479476928711,0.8762880563735962
1.7967541217803955,9.4667387008667,1.634817361831665
1.7224632501602173,9.440587997436523,1.632938265800476
1.6425544023513794,9.379746437072754,1.6251140832901
1.5705064535140991,9.3600435256958,1.6244747638702393
0.30165836215019226,1.87779700756073,0.32645806670188904
1.432314157485962,9.329989433288574,1.6248822212219238
1.3631435632705688,9.316368103027344,1.6245551109313965
1.2962253093719482,9.317549705505371,1.6266179084777832
1.2256035804748535,9.299324989318848,1.6254037618637085
1.1563793420791626,9.276570320129395,1.6234217882156372
1.089949131011963,9.268529891967773,1.6240648031234741
0.2143995314836502,1.9392077922821045,0.3402389883995056
0.9652986526489258,9.3276948928833,1.6382269859313965
0.8896620273590088,9.230461120605469,1.6222398281097412
0.3895597457885742,4.36899471282959,0.7684076428413391
0.35413214564323425,4.313925266265869,0.7593051195144653
0.325545996427536,4.335292339324951,0.7636826634407043
0.2969409227371216,4.360305309295654,0.7687457203865051
0.34636610746383667,5.667654037475586,1.00008225440979
0.3034820854663849,5.623769760131836,0.9925779104232788
0.2651803195476532,5.648704528808594,0.9972637891769409
0.22792558372020721,5.707969665527344,1.0080642700195312
0.18916203081607819,5.740067005157471,1.0141193866729736
0.15019232034683228,5.775740623474121,1.0208590030670166
0.11008831113576889,5.815004348754883,1.0282973051071167
0.06984695047140121,5.830984592437744,1.0311840772628784
0.029185701161623,5.8236517906188965,1.0297404527664185
-0.017367679625749588,8.935615539550781,1.579850435256958
-0.07866005599498749,8.839138984680176,1.5627219676971436
-0.14006586372852325,8.765307426452637,1.5496737957000732
-0.19855695962905884,8.656465530395508,1.530510663986206
-0.2566627562046051,8.585722923278809,1.5179669857025146
-0.22530269622802734,6.11600923538208,1.0807207822799683
-0.2645284831523895,6.04142427444458,1.0670024156570435
-0.1832367181777954,3.6114578247070312,0.6375436782836914
-0.2072204053401947,3.5832748413085938,0.6323043704032898
-0.23580649495124817,3.6394217014312744,0.6419801712036133
-0.5648728609085083,7.8703484535217285,1.3878637552261353
-0.5178195238113403,6.5778422355651855,1.1590451002120972
-0.569096028804779,6.643414497375488,1.169499397277832
-0.6143102049827576,6.6242356300354,1.1650627851486206
-0.6379292607307434,6.3980584144592285,1.1243280172348022
-0.6833034157752991,6.401403903961182,1.1240061521530151
-0.7304954528808594,6.419722557067871,1.1263635158538818
-0.7722872495651245,6.391901016235352,1.120465874671936
-0.8115876913070679,6.344784259796143,1.1106444597244263
-0.8449402451515198,6.263184547424316,1.0948925018310547
-0.885320782661438,6.238584041595459,1.0891788005828857
-0.9348912239074707,6.274581432342529,1.094078779220581
-0.9832925796508789,6.298773765563965,1.0969552993774414
-1.03718900680542,6.349076747894287,1.1043918132781982
-1.0858789682388306,6.372722148895264,1.1065393686294556
-1.1362247467041016,6.4036054611206055,1.1099079847335815
-1.1933320760726929,6.468184471130371,1.1191351413726807
-1.2430340051651,6.486836910247803,1.120423674583435
-1.3000922203063965,6.539058208465576,1.1275266408920288
-1.3579459190368652,6.586881160736084,1.133859634399414
-1.4151997566223145,6.634577751159668,1.1397119760513306
-1.4578005075454712,6.614227771759033,1.1336102485656738
-1.489077091217041,6.544759750366211,1.1191699504852295
-1.5260536670684814,6.5013298988342285,1.1092473268508911
-0.6776798367500305,2.7979350090026855,0.47628912329673767
-0.6934426426887512,2.778491258621216,0.47193560004234314
-0.712608277797699,2.773967981338501,0.46999073028564453
-0.7295094132423401,2.7619543075561523,0.46662241220474243
-0.7502905130386353,2.7647271156311035,0.4657759368419647
-0.7736733555793762,2.7746548652648926,0.46611419320106506
-1.7622509002685547,6.154564380645752,1.0309809446334839
-1.7942776679992676,6.105922222137451,1.019970417022705
-1.1151078939437866,3.7008888721466064,0.6163114309310913
-1.1401095390319824,3.6938135623931885,0.6130056381225586
-1.1515158414840698,3.6422975063323975,0.6023441553115845
-1.1763819456100464,3.634888172149658,0.599043071269989
