X,Y,Z
0.28779137134552,4.767362117767334,-0.35292574763298035
0.31991928815841675,4.749727725982666,-0.3513440489768982
0.35169026255607605,4.731908798217773,-0.34947219491004944
0.3838197588920593,4.721647262573242,-0.3481786549091339
0.4143829345703125,4.687830448150635,-0.34515953063964844
0.44691944122314453,4.6848931312561035,-0.344442754983902
0.4774859845638275,4.662349224090576,-0.34229448437690735
0.5096451044082642,4.6590166091918945,-0.3412950336933136
0.5400198101997375,4.639978408813477,-0.33916279673576355
0.5707173347473145,4.620674133300781,-0.33701980113983154
0.6018596291542053,4.608935832977295,-0.33545583486557007
0.6328572034835815,4.596989154815674,-0.33388566970825195
0.6623421907424927,4.5771803855896,-0.3314884305000305
0.6903754472732544,4.549483776092529,-0.3285449743270874
0.7168850302696228,4.509970664978027,-0.324756383895874
0.7508262991905212,4.520336151123047,-0.3245895802974701
0.7808889746665955,4.5074238777160645,-0.3227449655532837
0.8091493248939514,4.486709117889404,-0.3201141059398651
0.7021498084068298,3.7457783222198486,-0.2663041651248932
0.7295178771018982,3.7485759258270264,-0.26556140184402466
0.7575969696044922,3.751047134399414,-0.26478153467178345
0.9240555763244629,4.4171366691589355,-0.3106638491153717
0.9535699486732483,4.406997203826904,-0.30861952900886536
0.9863526225090027,4.411880970001221,-0.30764129757881165
1.0168030261993408,4.405086994171143,-0.30585184693336487
1.045235276222229,4.38653564453125,-0.3032325804233551
1.07185697555542,4.3641839027404785,-0.3003189265727997
1.1017217636108398,4.356879711151123,-0.2983013987541199
1.1295379400253296,4.341833591461182,-0.2957723140716553
1.1555426120758057,4.318985939025879,-0.292715460062027
1.1819602251052856,4.295801639556885,-0.289626806974411
1.2073091268539429,4.272690773010254,-0.2864753305912018
1.2364875078201294,4.264487266540527,-0.28424519300460815
1.2656093835830688,4.2560834884643555,-0.28201496601104736
1.2928828001022339,4.239877223968506,-0.2792563736438751
1.3229016065597534,4.2307586669921875,-0.276947945356369
1.35418701171875,4.229196548461914,-0.2749978303909302
1.3769207000732422,4.2014994621276855,-0.27133551239967346
1.4069092273712158,4.195824146270752,-0.2691059708595276
1.4272282123565674,4.160271644592285,-0.26495274901390076
1.4559922218322754,4.150453090667725,-0.2624211013317108
1.4846254587173462,4.140468120574951,-0.2597177028656006
1.5046627521514893,4.108486175537109,-0.25569239258766174
1.5412359237670898,4.120064735412598,-0.2543531060218811
1.5643466711044312,4.094818592071533,-0.2507328689098358
1.589460849761963,4.076938152313232,-0.24745798110961914
1.6175347566604614,4.0660576820373535,-0.2445407658815384
1.6393623352050781,4.040647983551025,-0.24079379439353943
1.661523699760437,4.014880657196045,-0.23700399696826935
1.692158818244934,4.010707855224609,-0.23445647954940796
1.9733455181121826,4.590689182281494,-0.2656201720237732
2.0345630645751953,4.645124435424805,-0.26594188809394836
2.0636098384857178,4.623960018157959,-0.2618779242038727
2.094052791595459,4.606174945831299,-0.2579997181892395
2.118381977081299,4.578058242797852,-0.2534358501434326
2.149075746536255,4.563938140869141,-0.2496674805879593
2.1844561100006104,4.5559797286987305,-0.24610528349876404
2.221285104751587,4.551377296447754,-0.24274942278862
2.2430171966552734,4.5191497802734375,-0.23779520392417908
2.2767205238342285,4.511219024658203,-0.23413731157779694
2.3112990856170654,4.502588748931885,-0.23034870624542236
2.3425791263580322,4.486608505249023,-0.2261476218700409
2.3857192993164062,4.494986534118652,-0.2230018526315689
1.7450027465820312,3.2357540130615234,-0.15799470245838165
1.7636247873306274,3.2168996334075928,-0.15443949401378632
1.742047905921936,3.1264138221740723,-0.14749093353748322
1.7665603160858154,3.121751070022583,-0.14461025595664978
1.8130383491516113,3.1538074016571045,-0.14332090318202972
1.3565343618392944,2.322237014770508,-0.10342732071876526
0.9578922986984253,1.6148593425750732,-0.07043097913265228
0.9624569416046143,1.5985653400421143,-0.06822502613067627
0.9692780375480652,1.585371971130371,-0.0661136731505394
0.9865185022354126,1.5885833501815796,-0.06462174654006958
1.0010312795639038,1.5887906551361084,-0.06300392746925354
1.0053130388259888,1.5722758769989014,-0.060691431164741516
1.0162345170974731,1.5653153657913208,-0.05869079381227493
1.0263521671295166,1.5587741136550903,-0.056693512946367264
1.0324465036392212,1.5454354286193848,-0.05439463257789612
1.0475668907165527,1.5447458028793335,-0.052473507821559906
1.0640902519226074,1.5477192401885986,-0.05064963176846504
2.5662245750427246,3.6804587841033936,-0.11569087207317352
2.6048195362091064,3.6821556091308594,-0.11069171875715256
2.6330058574676514,3.6718356609344482,-0.10518839955329895
2.6164839267730713,3.597224235534668,-0.09764429181814194
2.635165214538574,3.574022054672241,-0.09143391996622086
2.612175226211548,3.6897387504577637,0.15445446968078613
2.5812816619873047,3.7063980102539062,0.1605045646429062
1.0550727844238281,1.5389889478683472,0.06873050332069397
1.0634475946426392,1.5756747722625732,0.07239028811454773
1.055627465248108,1.5901950597763062,0.07501435279846191
1.0313361883163452,1.5780493021011353,0.0762479230761528
1.019915223121643,1.5853530168533325,0.0783391147851944
1.0078153610229492,1.592968225479126,0.08042354136705399
0.9878140091896057,1.5869882106781006,0.08175578713417053
0.9887824058532715,1.613810420036316,0.08470003306865692
0.9685174226760864,1.607757806777954,0.08589174598455429
0.9605767726898193,1.6214921474456787,0.08810855448246002
1.3501619100570679,2.315685749053955,0.12781699001789093
1.8451461791992188,3.219154119491577,0.18040528893470764
1.773183822631836,3.1476714611053467,0.17896918952465057
1.754356861114502,3.1669442653656006,0.1825362592935562
1.7676609754562378,3.2440266609191895,0.18943580985069275
1.750974416732788,3.270591974258423,0.19334058463573456
2.381455898284912,4.529989719390869,0.27108246088027954
2.342108726501465,4.532657146453857,0.2743225693702698
2.3069005012512207,4.54168701171875,0.2778969705104828
2.2804417610168457,4.572232246398926,0.2826424241065979
2.246683359146118,4.588673114776611,0.2865291237831116
2.2132985591888428,4.604629039764404,0.290359228849411
2.177776336669922,4.612679481506348,0.29359108209609985
2.1476683616638184,4.635142803192139,0.2976228892803192
2.1168694496154785,4.657629489898682,0.3016246259212494
2.0830554962158203,4.672622203826904,0.30513298511505127
2.050375461578369,4.686832904815674,0.30851301550865173
1.9936513900756836,4.647446155548096,0.30833700299263
1.7270079851150513,4.108151912689209,0.27451395988464355
1.6970263719558716,4.120441436767578,0.27729812264442444
1.6678229570388794,4.132165908813477,0.2800021469593048
1.6390244960784912,4.143492698669434,0.28266119956970215
1.606156349182129,4.147806167602539,0.2847711145877838
1.576100468635559,4.159149169921875,0.2872534394264221
1.5486372709274292,4.177596092224121,0.2902465760707855
1.5272935628890991,4.210165977478027,0.2941914498806
1.4927167892456055,4.205840587615967,0.29556503891944885
1.4672374725341797,4.231137752532959,0.2989225387573242
1.439201831817627,4.248829364776611,0.3016693592071533
1.4109869003295898,4.2663350105285645,0.3044237792491913
1.3786530494689941,4.268548011779785,0.3060607612133026
1.353581428527832,4.292757511138916,0.3092828691005707
1.3259782791137695,4.313446521759033,0.3121650516986847
1.2938379049301147,4.318985939025879,0.3138613700866699
1.26277756690979,4.328026294708252,0.31582722067832947
1.2355341911315918,4.34789514541626,0.31857359409332275
1.2093563079833984,4.37128210067749,0.32159093022346497
1.178603172302246,4.3795390129089355,0.3234233558177948
1.1526291370391846,4.410486221313477,0.32682642340660095
1.1211103200912476,4.418476581573486,0.328530490398407
1.0916942358016968,4.4337358474731445,0.33078300952911377
1.0608166456222534,4.441100597381592,0.3324466049671173
1.0351194143295288,4.47103214263916,0.3358229100704193
1.0044344663619995,4.48590087890625,0.33785122632980347
0.969212532043457,4.477592468261719,0.33813342452049255
0.938942015171051,4.491889476776123,0.34013831615448
0.7666351795196533,3.7994253635406494,0.28848138451576233
0.7401920557022095,3.8045754432678223,0.28966256976127625
0.7273279428482056,3.886258363723755,0.29660558700561523
0.819769024848938,4.55830192565918,0.34861552715301514
0.7914592623710632,4.5869317054748535,0.3515438437461853
0.7591564655303955,4.592298984527588,0.3527063727378845
0.7320500016212463,4.628159999847412,0.35622474551200867
0.6998113393783569,4.636992454528809,0.357700377702713
0.6670868396759033,4.6417412757873535,0.35863634943962097
0.6364283561706543,4.661698341369629,0.36073386669158936
0.6034760475158691,4.666007995605469,0.3616412281990051
0.572713315486908,4.68550968170166,0.363739937543869
0.5436788201332092,4.72026252746582,0.3670428693294525
0.5102144479751587,4.723928451538086,0.3679167330265045
0.4785798490047455,4.7428460121154785,0.369759202003479
0.44597703218460083,4.753796577453613,0.37100058794021606
0.4135804772377014,4.768402099609375,0.3725472092628479
0.38222038745880127,4.79440975189209,0.37500229477882385
0.3493669927120209,4.812484264373779,0.3768664300441742
0.31581437587738037,4.814760684967041,0.37739643454551697
0.2838870584964752,4.847929000854492,0.3801882565021515
0.2507583200931549,4.865326404571533,0.38176342844963074
0.21791964769363403,4.894166469573975,0.3842572271823883
0.18321749567985535,4.895559787750244,0.3846195936203003
0.1498682051897049,4.920043468475342,0.3868112564086914
0.11541429162025452,4.91316556930542,0.38639751076698303
0.081621453166008,4.944995880126953,0.3889126181602478
0.04732932150363922,4.964910507202148,0.390509694814682
0.012141602113842964,4.980692386627197,0.391802042722702
-0.022586729377508163,5.004016399383545,0.39370623230934143
-0.05746014416217804,5.011520862579346,0.39438527822494507
-0.0926055759191513,5.026585578918457,0.39547476172447205
-0.12789861857891083,5.041411399841309,0.3964689373970032
-0.16357949376106262,5.059878826141357,0.3977672755718231
-0.19932791590690613,5.058615684509277,0.397531121969223
-0.23408542573451996,5.049347877502441,0.3966878354549408
-0.2720414400100708,5.1020612716674805,0.40073221921920776
-0.30591535568237305,5.076772212982178,0.39842063188552856
-0.2879853844642639,4.285804748535156,0.33603882789611816
-0.3163851797580719,4.260407447814941,0.3337526321411133
-0.34842556715011597,4.289201259613037,0.3357316553592682
-0.37964266538619995,4.302225112915039,0.33648839592933655
-0.4043668508529663,4.245241165161133,0.33178845047950745
-0.4261297285556793,4.168790340423584,0.32536035776138306
-0.4511081576347351,4.127039909362793,0.32165026664733887
-0.4737195074558258,4.073591232299805,0.3170605003833771
-0.49812009930610657,4.039340019226074,0.3139866292476654
-0.5226936340332031,4.008793354034424,0.3112199008464813
-0.5430656671524048,3.951105833053589,0.3063381016254425
-0.5645537376403809,3.9048776626586914,0.30217158794403076
-0.584376871585846,3.85476016998291,0.2977414131164551
-0.6071614027023315,3.8276424407958984,0.2951124310493469
-0.6279558539390564,3.788822650909424,0.2915978729724884
-0.6429702639579773,3.719186544418335,0.28573843836784363
-0.6658586263656616,3.699397563934326,0.28365015983581543
-0.684380829334259,3.6564743518829346,0.2796671688556671
-0.7063707113265991,3.6364974975585938,0.27747413516044617
-0.7243458032608032,3.5972821712493896,0.2738332748413086
-0.7398142218589783,3.5464720726013184,0.26932716369628906
-0.7521447539329529,3.4841973781585693,0.26398175954818726
-0.773037314414978,3.463744640350342,0.26167869567871094
-0.8001418113708496,3.4736664295196533,0.26163944602012634
-0.8148125410079956,3.4303135871887207,0.257604718208313
-0.8300836086273193,3.390650510787964,0.25386783480644226
-0.8460253477096558,3.354661703109741,0.25042515993118286
-0.8676791191101074,3.341167449951172,0.24864225089550018
-0.8862926959991455,3.320249557495117,0.2461869716644287
-0.9026327729225159,3.29170823097229,0.24318666756153107
-0.9154585003852844,3.251845598220825,0.23937620222568512
-0.9337368011474609,3.2305214405059814,0.23693342506885529
-0.9477502703666687,3.1940345764160156,0.23338599503040314
-0.9616022109985352,3.161496162414551,0.23004497587680817
-0.9829586744308472,3.1550285816192627,0.22856959700584412
-0.990088164806366,3.103854179382324,0.2238786369562149
-1.0066107511520386,3.082247018814087,0.22133255004882812
-1.0247044563293457,3.0640616416931152,0.21902397274971008
-1.0432183742523193,3.049680709838867,0.21696069836616516
-1.0560322999954224,3.0206193923950195,0.2137841284275055
-1.0711240768432617,2.998863935470581,0.21114785969257355
-1.0889053344726562,2.984269618988037,0.20901930332183838
-1.097399115562439,2.9438602924346924,0.20508626103401184
-1.1124637126922607,2.9216392040252686,0.2023930847644806
-1.1150678396224976,2.8706390857696533,0.19765010476112366
-1.1400114297866821,2.8777220249176025,0.19692742824554443
-1.1405909061431885,2.823023557662964,0.19197997450828552
-1.148353934288025,2.7862889766693115,0.18826737999916077
-1.1391680240631104,2.7099967002868652,0.1818762868642807
-1.1357636451721191,2.6522672176361084,0.17672640085220337
-1.147226333618164,2.6304409503936768,0.17400774359703064
-1.1905142068862915,2.679668664932251,0.17594701051712036
-1.1930773258209229,2.6359074115753174,0.17175354063510895
-1.1900604963302612,2.5816783905029297,0.16684894263744354
-1.2287155389785767,2.6197352409362793,0.16788186132907867
-1.2628896236419678,2.646834373474121,0.16817571222782135
-1.270965337753296,2.6171071529388428,0.1647985875606537
-1.2891790866851807,2.608311653137207,0.1627494990825653
-1.292758822441101,2.5717976093292236,0.1588660180568695
-1.3044103384017944,2.552903890609741,0.15612217783927917
-1.2964621782302856,2.495699405670166,0.1510443538427353
-1.2992368936538696,2.459146738052368,0.1472240835428238
-1.3231624364852905,2.464212417602539,0.14585496485233307
-1.3262361288070679,2.4316298961639404,0.14223381876945496
-1.3388773202896118,2.415907382965088,0.1395748406648636
-1.3518658876419067,2.3998453617095947,0.13685916364192963
-1.3603193759918213,2.377232313156128,0.13375382125377655
-1.3640648126602173,2.3481814861297607,0.13027691841125488
-1.3994296789169312,2.372823476791382,0.12974603474140167
-1.4122304916381836,2.3562731742858887,0.12681320309638977
-1.4238413572311401,2.340280294418335,0.123917356133461
-1.4266753196716309,2.311216354370117,0.12032698094844818
-1.4298125505447388,2.2818267345428467,0.11667481064796448
-1.4436405897140503,2.268616199493408,0.11379841715097427
-1.4542635679244995,2.252674102783203,0.11068996787071228
-1.4688524007797241,2.2433226108551025,0.10794235020875931
-1.475780725479126,2.2201874256134033,0.10438533872365952
-1.4815458059310913,2.1976757049560547,0.10085214674472809
-1.4910608530044556,2.1819140911102295,0.09763801097869873
-1.5063565969467163,2.171525478363037,0.09440834075212479
-1.4913302659988403,2.1202526092529297,0.08945472538471222
-1.4955734014511108,2.0982439517974854,0.08579403907060623
-1.5010292530059814,2.075239896774292,0.08183053135871887
-1.5141115188598633,2.065847873687744,0.07838785648345947
-1.508871078491211,2.0310287475585938,0.07386919856071472
-1.5109097957611084,2.1310484409332275,-0.07087425887584686
-1.507829189300537,2.161719560623169,-0.0755401998758316
-1.4879646301269531,2.1658403873443604,-0.07902783900499344
-1.484706163406372,2.196270704269409,-0.0834856852889061
-1.4423261880874634,2.1681418418884277,-0.08557114750146866
-1.4742079973220825,2.2498762607574463,-0.09183827042579651
-1.4529930353164673,2.254209041595459,-0.09501814097166061
-1.43648099899292,2.2646241188049316,-0.09836215525865555
-1.4305733442306519,2.2912590503692627,-0.10235553234815598
-1.4134385585784912,2.3017232418060303,-0.10557478666305542
-1.4087426662445068,2.331857919692993,-0.10966045409440994
-1.404392123222351,2.3616230487823486,-0.11366820335388184
-1.3868942260742188,2.3717923164367676,-0.11672958731651306
-1.3613249063491821,2.3684186935424805,-0.11913976818323135
-1.340937852859497,2.37091326713562,-0.12165379524230957
-1.3313876390457153,2.3940176963806152,-0.12521541118621826
-1.3212496042251587,2.4172794818878174,-0.12880189716815948
-1.3114140033721924,2.4402127265930176,-0.13232822716236115
-1.303020715713501,2.4666361808776855,-0.1360771507024765
-1.31365966796875,2.5313751697540283,-0.1419154703617096
-1.3022079467773438,2.5546557903289795,-0.14549274742603302
-1.2930737733840942,2.580972671508789,-0.1491762101650238
-1.2850561141967773,2.6109304428100586,-0.1530798375606537
-1.275875210762024,2.6412851810455322,-0.15703946352005005
-1.2284114360809326,2.5903327465057373,-0.15608340501785278
-1.2119524478912354,2.6022250652313232,-0.15881307423114777
-1.1998944282531738,2.624817132949829,-0.16217395663261414
-1.166518211364746,2.6012470722198486,-0.1626364290714264
-1.1588364839553833,2.6343765258789062,-0.1666298359632492
-1.161744475364685,2.6925058364868164,-0.1722480058670044
-1.1593515872955322,2.7400195598602295,-0.17717692255973816
-1.1515352725982666,2.77695894241333,-0.18142667412757874
-1.140393853187561,2.806663751602173,-0.18523912131786346
-1.126569390296936,2.8288798332214355,-0.18853799998760223
-1.1218382120132446,2.876681089401245,-0.19358184933662415
-1.1150542497634888,2.9209306240081787,-0.19832445681095123
-1.0995290279388428,2.943305015563965,-0.20162086188793182
-1.0829226970672607,2.9617550373077393,-0.20463019609451294
-1.0701189041137695,2.9910998344421387,-0.2084159404039383
-1.0509015321731567,3.0060126781463623,-0.21111029386520386
-1.0445019006729126,3.0575575828552246,-0.21638770401477814
-1.0204600095748901,3.0572967529296875,-0.2180059552192688
-1.0051459074020386,3.082716226577759,-0.22145560383796692
-0.985729455947876,3.097012758255005,-0.22403614223003387
-0.9678699374198914,3.1188180446624756,-0.22714143991470337
-0.9625869393348694,3.181424379348755,-0.23323535919189453
-0.9448278546333313,3.2028510570526123,-0.2363230139017105
-0.9246438145637512,3.216698169708252,-0.23886530101299286
-0.9080983996391296,3.245553493499756,-0.24237726628780365
-0.8932359218597412,3.281850814819336,-0.24647940695285797
-0.8717091083526611,3.295552968978882,-0.24892592430114746
-0.8555304408073425,3.327815532684326,-0.2527622580528259
-0.8378426432609558,3.356274366378784,-0.2562595307826996
-0.8195756077766418,3.384706974029541,-0.2596692442893982
-0.8009478449821472,3.4130454063415527,-0.2631014287471771
-0.7826794981956482,3.4451160430908203,-0.2668602764606476
-0.763678252696991,3.473180055618286,-0.27031317353248596
-0.7497526407241821,3.5278735160827637,-0.2757270336151123
-0.7326161861419678,3.5711216926574707,-0.28022751212120056
-0.7134241461753845,3.606651782989502,-0.28415659070014954
-0.6929764747619629,3.638270378112793,-0.2878127098083496
-0.6704428195953369,3.658207654953003,-0.29055285453796387
-0.6541534066200256,3.7164230346679688,-0.2961280047893524
-0.6338490843772888,3.7553839683532715,-0.30018681287765503
-0.6124080419540405,3.7903952598571777,-0.3039613962173462
-0.5896841883659363,3.8214731216430664,-0.3074589967727661
-0.5687215328216553,3.8639068603515625,-0.31186243891716003
-0.5490964651107788,3.9217090606689453,-0.3173160254955292
-0.5261563062667847,3.9601175785064697,-0.3212330937385559
-0.5032579302787781,4.002248287200928,-0.32548102736473083
-0.4804620146751404,4.048090934753418,-0.33005744218826294
-0.4569566547870636,4.0977373123168945,-0.3349364697933197
-0.43271899223327637,4.143360614776611,-0.33926841616630554
-0.40597841143608093,4.169467449188232,-0.3420284688472748
-0.37892985343933105,4.19539737701416,-0.3447970449924469
-0.3519710898399353,4.2250213623046875,-0.3478913903236389
-0.3187445402145386,4.184645175933838,-0.3451673090457916
-0.287316232919693,4.155656814575195,-0.34315595030784607
-0.26210150122642517,4.2196879386901855,-0.34884560108184814
-0.22643889486789703,4.108642578125,-0.34007230401039124
-0.19753314554691315,4.102293968200684,-0.3399672210216522
-0.16849099099636078,4.103551387786865,-0.3404245972633362
-0.13992589712142944,4.104605197906494,-0.3406654894351959
-0.13421539962291718,4.949901103973389,-0.41102686524391174
-0.0994470939040184,4.935122966766357,-0.41002389788627625
-0.0649937093257904,4.927886486053467,-0.4096662700176239
-0.029995715245604515,4.912637710571289,-0.4085468053817749
0.004206817597150803,4.912733554840088,-0.40847089886665344
0.03810488060116768,4.873664379119873,-0.4051588773727417
0.072264663875103,4.888856887817383,-0.40637779235839844
0.1058337464928627,4.868783473968506,-0.4046848714351654
0.1383289098739624,4.821250915527344,-0.40061718225479126
0.17238442599773407,4.820188522338867,-0.4001903831958771
0.2055133432149887,4.811131477355957,-0.3991256356239319
0.23740752041339874,4.7785162925720215,-0.39612773060798645
0.26951879262924194,4.757351875305176,-0.39410126209259033
0.3025016486644745,4.7554121017456055,-0.39357033371925354
0.3338121771812439,4.722159385681152,-0.3902282118797302
0.3665120303630829,4.719797134399414,-0.3894716501235962
0.3986201882362366,4.709441661834717,-0.38807395100593567
0.42851096391677856,4.67560338973999,-0.3847634792327881
0.46017757058143616,4.6648406982421875,-0.38325193524360657
0.49179011583328247,4.649960041046143,-0.3811919689178467
0.5221810936927795,4.6310625076293945,-0.3788413107395172
0.5543057322502136,4.627415657043457,-0.37775611877441406
0.5854647755622864,4.615816116333008,-0.3760402202606201
0.6143624186515808,4.588588714599609,-0.3729436993598938
0.6454899907112122,4.576563835144043,-0.37090376019477844
0.6747531294822693,4.556708335876465,-0.36827170848846436
0.7021757960319519,4.525094032287598,-0.36471009254455566
0.734883725643158,4.527898788452148,-0.3639419972896576
0.7675091624259949,4.530506134033203,-0.36301833391189575
0.7932779788970947,4.494568824768066,-0.3588724434375763
0.8219311833381653,4.473716735839844,-0.35593968629837036
0.7186137437820435,3.7641654014587402,-0.2984403073787689
0.7402675151824951,3.7362613677978516,-0.29519903659820557
0.7692062258720398,3.7464396953582764,-0.2948325574398041
0.9366309642791748,4.407899379730225,-0.34541434049606323
0.9733029007911682,4.428022861480713,-0.3454990088939667
0.9989021420478821,4.398510932922363,-0.34173518419265747
1.03125,4.399195194244385,-0.34033891558647156
1.0550975799560547,4.365658760070801,-0.33610180020332336
1.0831148624420166,4.350935459136963,-0.3332909047603607
1.1135218143463135,4.3434271812438965,-0.3310174345970154
1.1378068923950195,4.313130855560303,-0.32703813910484314
1.1698232889175415,4.312802791595459,-0.3253430128097534
1.1993426084518433,4.304874897003174,-0.3228466808795929
1.2266651391983032,4.289251327514648,-0.31979164481163025
1.2545217275619507,4.273255825042725,-0.31668639183044434
1.279794454574585,4.249666690826416,-0.3130549490451813
1.3137387037277222,4.255803108215332,-0.31154635548591614
1.3380861282348633,4.232065677642822,-0.3077208399772644
1.3621701002120972,4.208192825317383,-0.30391445755958557
1.388145923614502,4.187582015991211,-0.3003040552139282
1.4198280572891235,4.185377597808838,-0.29805412888526917
1.4433189630508423,4.161044597625732,-0.29408273100852966
1.4690335988998413,4.143974781036377,-0.29060158133506775
1.4894005060195923,4.112040996551514,-0.28609737753868103
1.5206966400146484,4.109093189239502,-0.28359317779541016
1.5495564937591553,4.098511695861816,-0.2804771959781647
1.5801105499267578,4.095404148101807,-0.27779123187065125
1.5992692708969116,4.063047885894775,-0.2731427252292633
1.6273880004882812,4.052084445953369,-0.2699037492275238
1.658509373664856,4.04809045791626,-0.2671267092227936
1.6833961009979248,4.029581069946289,-0.2632077634334564
1.7228153944015503,4.047033309936523,-0.26166364550590515
2.003473997116089,4.61847448348999,-0.2955005466938019
2.0466647148132324,4.629617691040039,-0.29303833842277527
2.0782480239868164,4.61578893661499,-0.28887882828712463
2.116358995437622,4.61587381362915,-0.2854720652103424
2.139460563659668,4.583962440490723,-0.2801304757595062
2.1713685989379883,4.569199085235596,-0.2757789194583893
2.1957969665527344,4.540449619293213,-0.2705288231372833
2.2330856323242188,4.539885997772217,-0.2669016718864441
2.2608230113983154,4.5176825523376465,-0.2619105279445648
2.2958364486694336,4.509015083312988,-0.25766924023628235
2.3265349864959717,4.493518352508545,-0.2529805600643158
2.3655920028686523,4.495400905609131,-0.24921159446239471
1.7372020483016968,3.2478277683258057,-0.17719772458076477
1.7523562908172607,3.2221155166625977,-0.17287100851535797
1.7347451448440552,3.138514280319214,-0.16542451083660126
1.7325987815856934,3.0862925052642822,-0.15977662801742554
1.784613013267517,3.128786087036133,-0.15893277525901794
1.3327349424362183,2.299377679824829,-0.11450477689504623
1.3023583889007568,2.213304042816162,-0.10795322805643082
0.9569157958030701,1.6015180349349976,-0.07642850279808044
0.9639849066734314,1.5882453918457031,-0.07406134158372879
0.9746218323707581,1.5818350315093994,-0.07201076298952103
0.9911494851112366,1.5854520797729492,-0.0704018622636795
0.9998880624771118,1.5754287242889404,-0.06809906661510468
1.017150640487671,1.5783857107162476,-0.06627495586872101
1.0209897756576538,1.5620230436325073,-0.06366417557001114
1.0315372943878174,1.555169701576233,-0.061378054320812225
1.0486668348312378,1.5579018592834473,-0.0593973807990551
1.0520693063735962,1.5415339469909668,-0.056681714951992035
2.5543673038482666,3.688213348388672,-0.13022123277187347
2.583547592163086,3.677591562271118,-0.12434203177690506
2.6114628314971924,3.6676154136657715,-0.11845339089632034
2.6321210861206055,3.64339542388916,-0.11165191978216171
2.63227915763855,3.5951900482177734,-0.10412920266389847
2.674409866333008,3.6031382083892822,-0.09795747697353363
2.6339731216430664,3.6926820278167725,0.1713917851448059
2.6049180030822754,3.712902069091797,0.1784622073173523
2.5736913681030273,3.7248153686523438,0.184627965092659
1.060093879699707,1.5587135553359985,0.07950137555599213
1.0567127466201782,1.5796878337860107,0.08280442655086517
1.0370326042175293,1.573889970779419,0.08450488746166229
1.0292959213256836,1.5881375074386597,0.08727996796369553
1.0296969413757324,1.615577220916748,0.09076709300279617
0.9976480007171631,1.5895576477050781,0.09107077866792679
0.9798706769943237,1.586714267730713,0.09262814372777939
0.9779766798019409,1.6106222867965698,0.09573344141244888
0.96219402551651,1.6108959913253784,0.09739188849925995
0.966611385345459,1.6444318294525146,0.10101072490215302
1.3328274488449097,2.306716203689575,0.14383861422538757
1.8067792654037476,3.1812548637390137,0.2012995034456253
1.7483359575271606,3.128901958465576,0.20067740976810455
1.7498397827148438,3.1858036518096924,0.2070460319519043
1.7575352191925049,3.2568728923797607,0.21431507170200348
1.7555378675460815,3.310781955718994,0.22050349414348602
2.365109443664551,4.5363545417785645,0.3055664300918579
2.3325157165527344,4.5528974533081055,0.31002822518348694
2.2947328090667725,4.563025951385498,0.3140077590942383
2.2612147331237793,4.579428672790527,0.3183515667915344
2.235992431640625,4.608846664428711,0.3234725594520569
2.1999807357788086,4.617220401763916,0.32708489894866943
2.1659774780273438,4.6329851150512695,0.3310829699039459
2.1383962631225586,4.662652015686035,0.3360980451107025
2.0952885150909424,4.656266212463379,0.33846166729927063
2.0690205097198486,4.684769630432129,0.3432983160018921
2.025716781616211,4.677917957305908,0.34535253047943115
1.7814027070999146,4.197254657745361,0.3121192157268524
1.7105929851531982,4.112642288208008,0.30801668763160706
1.6843692064285278,4.131641387939453,0.31159642338752747
1.652482509613037,4.135883331298828,0.3140093982219696
1.6252871751785278,4.154801368713379,0.31736621260643005
1.5979036092758179,4.173540115356445,0.3207327127456665
1.5708444118499756,4.191908836364746,0.3240615427494049
1.5410315990447998,4.202746391296387,0.3268207907676697
1.5113955736160278,4.2132887840271,0.3294719159603119
1.480916976928711,4.223901271820068,0.3319757282733917
1.4503254890441895,4.2343058586120605,0.33448249101638794
1.4276130199432373,4.266474723815918,0.338704913854599
1.394876480102539,4.2688984870910645,0.34058669209480286
1.3672451972961426,4.285815715789795,0.34355777502059937
1.346806526184082,4.328828811645508,0.34846213459968567
1.3077343702316284,4.312132358551025,0.34858039021492004
1.2802892923355103,4.332366943359375,0.3516835570335388
1.2543883323669434,4.355975151062012,0.3550540506839752
1.2234448194503784,4.364588260650635,0.3572521507740021
1.1921956539154053,4.3730692863464355,0.35916998982429504
1.168853759765625,4.411442756652832,0.3635658025741577
1.1333788633346558,4.404450416564941,0.3642456531524658
1.1064153909683228,4.427201271057129,0.3673712909221649
1.0768866539001465,4.442331790924072,0.369907945394516
1.0472874641418457,4.4572577476501465,0.37226855754852295
1.0172368288040161,4.472061634063721,0.37452974915504456
0.9878647327423096,4.490464687347412,0.3771158456802368
0.9553960561752319,4.493369102478027,0.37840938568115234
0.9141501784324646,4.45412540435791,0.3761664628982544
0.7522690892219543,3.7996225357055664,0.32178130745887756
0.7231030464172363,3.7932982444763184,0.3219234347343445
0.8358704447746277,4.560176372528076,0.3878363370895386
0.8061925768852234,4.581213474273682,0.3904787302017212
0.7762121558189392,4.60206413269043,0.39313197135925293
0.7441384196281433,4.607245922088623,0.39445164799690247
0.7130221128463745,4.619938373565674,0.39631280303001404
0.6843169331550598,4.651728630065918,0.39966264367103577
0.6503444314002991,4.648650169372559,0.40003907680511475
0.6210960745811462,4.683969020843506,0.4037526845932007
0.5885457992553711,4.688081741333008,0.4047797620296478
0.5559210181236267,4.691973686218262,0.4058082699775696
0.5264811515808105,4.726624488830566,0.40932244062423706
0.4940894842147827,4.737881660461426,0.4107343256473541
0.4618934690952301,4.752795219421387,0.41248592734336853
0.42942243814468384,4.771402835845947,0.41458773612976074
0.3974928557872772,4.789725303649902,0.41667699813842773
0.364739328622818,4.800071716308594,0.41809508204460144
0.33225083351135254,4.817990779876709,0.41993480920791626
0.2994428873062134,4.835699081420898,0.4217296540737152
0.26580381393432617,4.853214740753174,0.42353513836860657
0.2328675240278244,4.874347686767578,0.4256731867790222
0.19990868866443634,4.899139881134033,0.42815321683883667
0.16608969867229462,4.908152103424072,0.42927685379981995
0.1324702501296997,4.932519435882568,0.43145257234573364
0.0975937619805336,4.941105842590332,0.4322587549686432
0.06331439316272736,4.957220077514648,0.4337441325187683
0.02893400378525257,4.984769344329834,0.436251699924469
-0.005701508838683367,4.992621898651123,0.4370570182800293
-0.04068410024046898,5.0235819816589355,0.43988874554634094
-0.07611069828271866,5.015405178070068,0.43899840116500854
-0.11144066601991653,5.038116455078125,0.4408358931541443
-0.14725489914417267,5.0644659996032715,0.44301149249076843
-0.18245987594127655,5.063338279724121,0.4428041875362396
-0.21832497417926788,5.077516555786133,0.44395655393600464
-0.25398463010787964,5.083672523498535,0.44438278675079346
-0.2935471534729004,5.147853851318359,0.44960469007492065
-0.27773720026016235,4.3418450355529785,0.3789055049419403
-0.3042396008968353,4.289392948150635,0.3740452826023102
-0.33339694142341614,4.279458045959473,0.37291401624679565
-0.36449429392814636,4.29258394241333,0.37380915880203247
-0.39193496108055115,4.25894832611084,0.37057581543922424
-0.4166848361492157,4.20973539352417,0.36580464243888855
-0.44118502736091614,4.164254665374756,0.361385315656662
-0.4633314311504364,4.1031670570373535,0.35563990473747253
-0.4862532913684845,4.053542613983154,0.350912868976593
-0.5109609961509705,4.019179821014404,0.347525030374527
-0.5330391526222229,3.9731881618499756,0.3430669605731964
-0.5537559986114502,3.923272132873535,0.3381426930427551
-0.5766652822494507,3.8925094604492188,0.3348964750766754
-0.5962334871292114,3.8423802852630615,0.33000996708869934
-0.6178134679794312,3.8035640716552734,0.32610589265823364
-0.6377308964729309,3.7608797550201416,0.32190725207328796
-0.6568523049354553,3.718153715133667,0.3176022469997406
-0.6802017092704773,3.702176094055176,0.31550684571266174
-0.6967600584030151,3.6516458988189697,0.3104938268661499
-0.715069591999054,3.612490177154541,0.3064740002155304
-0.7327628135681152,3.569305658340454,0.302122563123703
-0.7494623064994812,3.526139259338379,0.2978133261203766
-0.761014997959137,3.4640047550201416,0.29174891114234924
-0.7880414724349976,3.474034070968628,0.2917501926422119
-0.8028203248977661,3.4307825565338135,0.287295937538147
-0.8223384022712708,3.406242609024048,0.28441038727760315
-0.8403816223144531,3.3778748512268066,0.2812371551990509
-0.8560205101966858,3.341909408569336,0.2774145007133484
-0.8747665286064148,3.32106876373291,0.27470991015434265
-0.8901850581169128,3.288858413696289,0.27109095454216003
-0.9066821336746216,3.2602248191833496,0.2677752673625946
-0.9293337464332581,3.253960609436035,0.26631245017051697
-0.9409871697425842,3.2101669311523438,0.2618018388748169
-0.9583658576011658,3.188886880874634,0.2590201497077942
-0.9672943949699402,3.141522169113159,0.25409477949142456
-0.9865134358406067,3.1275038719177246,0.25187745690345764
-0.9960936307907104,3.083690881729126,0.24728351831436157
-1.0199601650238037,3.084214687347412,0.24625863134860992
-1.0361833572387695,3.0624916553497314,0.2434130758047104
-1.0529546737670898,3.0445427894592285,0.24077996611595154
-1.0656639337539673,3.015477418899536,0.2372901439666748
-1.0786150693893433,2.9861695766448975,0.23377534747123718
-1.102081537246704,2.9860355854034424,0.23255711793899536
-1.1090004444122314,2.9420130252838135,0.22792181372642517
-1.127318024635315,2.931015968322754,0.22573871910572052
-1.1156539916992188,2.8437328338623047,0.21772822737693787
-1.1352479457855225,2.8361129760742188,0.21582719683647156
-1.1446712017059326,2.8030266761779785,0.21199724078178406
-1.1521170139312744,2.766378879547119,0.20791371166706085
-1.1325105428695679,2.6690866947174072,0.19921137392520905
-1.1302322149276733,2.6150929927825928,0.19381894171237946
-1.159268856048584,2.632335662841797,0.1936807632446289
-1.1744099855422974,2.6172215938568115,0.19114810228347778
-1.1988649368286133,2.623410701751709,0.19013768434524536
-1.2195982933044434,2.6225900650024414,0.18852290511131287
-1.2403523921966553,2.6216182708740234,0.18689905107021332
-1.275503396987915,2.6481943130493164,0.18714837729930878
-1.2904902696609497,2.632401704788208,0.18439505994319916
-1.2750786542892456,2.557548761367798,0.1774793416261673
-1.2884048223495483,2.5422799587249756,0.17471742630004883
-1.2910209894180298,2.5060715675354004,0.17053215205669403
-1.3048616647720337,2.490253448486328,0.1676843762397766
-1.3185431957244873,2.4743664264678955,0.16478750109672546
-1.3236546516418457,2.445223331451416,0.1609901785850525
-1.326560139656067,2.412698745727539,0.15701110661029816
-1.3470704555511475,2.4104113578796387,0.15491952002048492
-1.348321795463562,2.374056339263916,0.15063665807247162
-1.371866226196289,2.378722667694092,0.14886584877967834
-1.391338586807251,2.376591444015503,0.14669130742549896
-1.4038007259368896,2.3603479862213135,0.14352934062480927
-1.4159424304962158,2.344141960144043,0.14035114645957947
-1.4046307802200317,2.291823387145996,0.13499963283538818
-1.4343258142471313,2.305750608444214,0.1335122138261795
-1.4358426332473755,2.2727363109588623,0.12920178472995758
-1.4572486877441406,2.2731571197509766,0.12675990164279938
-1.4527108669281006,2.2344512939453125,0.12213125824928284
-1.4721640348434448,2.2312097549438477,0.11933305859565735
-1.4876314401626587,2.221102476119995,0.11602823436260223
-1.4666874408721924,2.1600780487060547,0.11013628542423248
-1.472127079963684,2.1376116275787354,0.10618782043457031
-1.479984164237976,2.1180789470672607,0.10227900743484497
-1.4932001829147339,2.1089460849761963,0.09884811192750931
-1.4983046054840088,2.0862998962402344,0.09456635266542435
-1.5076746940612793,2.0700573921203613,0.09047342091798782
-1.5158796310424805,2.0545244216918945,0.08640921115875244
-1.5274913311004639,2.1382803916931152,-0.07533677667379379
-1.5024510622024536,2.1367247104644775,-0.07929311692714691
-1.4753994941711426,2.1316325664520264,-0.08293605595827103
-1.5018447637557983,2.203298330307007,-0.0894218385219574
-1.4849880933761597,2.214524030685425,-0.0935465395450592
-1.4691730737686157,2.2248823642730713,-0.09739678353071213
-1.4568272829055786,2.2421298027038574,-0.1015586405992508
-1.4482797384262085,2.266036033630371,-0.10599622875452042
-1.4324246644973755,2.275923013687134,-0.10955359041690826
-1.4178284406661987,2.2894628047943115,-0.11327975243330002
-1.416965126991272,2.3264527320861816,-0.11820382624864578
-1.4003007411956787,2.3363430500030518,-0.12166590988636017
-1.3952322006225586,2.366414785385132,-0.12612611055374146
-1.3854286670684814,2.3900413513183594,-0.13027282059192657
-1.360713243484497,2.3860692977905273,-0.13279004395008087
-1.340005874633789,2.3886373043060303,-0.13560223579406738
-1.333408236503601,2.4189040660858154,-0.14002616703510284
-1.3158690929412842,2.4283056259155273,-0.1431857794523239
-1.3061869144439697,2.451040506362915,-0.14706628024578094
-1.290238380432129,2.463693618774414,-0.1503126323223114
-1.3078529834747314,2.542253017425537,-0.15763984620571136
-1.2753875255584717,2.523592948913574,-0.15895427763462067
-1.2906278371810913,2.598647356033325,-0.16613459587097168
-1.2579870223999023,2.5797500610351562,-0.16728027164936066
-1.2425258159637451,2.5956902503967285,-0.17067468166351318
-1.2160420417785645,2.586489200592041,-0.1723218858242035
-1.2011399269104004,2.6018483638763428,-0.1755789965391159
-1.1868013143539429,2.6210761070251465,-0.1790827065706253
-1.156759262084961,2.6044528484344482,-0.18009619414806366
-1.1681444644927979,2.6801798343658447,-0.1874658465385437
-1.140109896659851,2.6666197776794434,-0.1886179894208908
-1.1494871377944946,2.742886543273926,-0.19607873260974884
-1.1382466554641724,2.7726728916168213,-0.20032887160778046
-1.1333400011062622,2.8165485858917236,-0.2055581659078598
-1.123632550239563,2.849587917327881,-0.2100416123867035
-1.1171865463256836,2.8937458992004395,-0.21526966989040375
-1.0936347246170044,2.8942084312438965,-0.21727797389030457
-1.0904006958007812,2.949301242828369,-0.2234262079000473
-1.0777453184127808,2.9786300659179688,-0.22762538492679596
-1.0591398477554321,2.9933769702911377,-0.23062364757061005
-1.0427733659744263,3.0154247283935547,-0.23417378962039948
-1.0288280248641968,3.0447065830230713,-0.23830397427082062
-1.0157153606414795,3.077643394470215,-0.24276359379291534
-0.994012176990509,3.08453631401062,-0.2451036125421524
-0.979001522064209,3.113661050796509,-0.24912703037261963
-0.9636003971099854,3.142730951309204,-0.2531852126121521
-0.9460562467575073,3.1641392707824707,-0.25662437081336975
-0.9381415843963623,3.2190799713134766,-0.2628241777420044
-0.9191620349884033,3.2405691146850586,-0.2661944627761841
-0.8982152938842773,3.254345655441284,-0.26889967918395996
-0.8842909336090088,3.2942824363708496,-0.27379271388053894
-0.8652544617652893,3.315258741378784,-0.2771250605583191
-0.845862627029419,3.336158514022827,-0.28041937947273254
-0.8311092853546143,3.379807710647583,-0.28553396463394165
-0.8134564161300659,3.411959171295166,-0.2896958589553833
-0.7913473844528198,3.4249842166900635,-0.2922424077987671
-0.770908772945404,3.4454379081726074,-0.29543977975845337
-0.7607625126838684,3.515275478363037,-0.3027660846710205
-0.7371575832366943,3.5281054973602295,-0.30514952540397644
-0.7184361219406128,3.5635874271392822,-0.3095003664493561
-0.7009759545326233,3.606571674346924,-0.31453046202659607
-0.6822346448898315,3.6456544399261475,-0.31926193833351135
-0.6648021340370178,3.6962006092071533,-0.32481324672698975
-0.6429044604301453,3.7275848388671875,-0.3287036418914795
-0.6242694854736328,3.777956485748291,-0.3342856168746948
-0.5992024540901184,3.7897591590881348,-0.3364737033843994
-0.5780174136161804,3.8283371925354004,-0.34104639291763306
-0.5589127540588379,3.886106252670288,-0.3470999002456665
-0.5353311896324158,3.920729160308838,-0.3511412441730499
-0.5123875141143799,3.9589929580688477,-0.3555215299129486
-0.49143287539482117,4.016416549682617,-0.3616565763950348
-0.46654096245765686,4.046691417694092,-0.36530911922454834
-0.4432026147842407,4.096188068389893,-0.3704849183559418
-0.41645359992980957,4.1184563636779785,-0.373227596282959
-0.3893531560897827,4.144461154937744,-0.37634599208831787
-0.3662523031234741,4.212864875793457,-0.38333284854888916
-0.3353502154350281,4.19584321975708,-0.3824559450149536
-0.30659425258636475,4.20578145980835,-0.3838381767272949
-0.2731126844882965,4.1456522941589355,-0.3788379430770874
-0.24071456491947174,4.096940994262695,-0.3748943507671356
-0.21222828328609467,4.098455429077148,-0.37554827332496643
-0.18405218422412872,4.1075592041015625,-0.37676432728767395
-0.1554291844367981,4.108712673187256,-0.37707817554473877
-0.12676364183425903,4.109668254852295,-0.37739238142967224
-0.11679448187351227,4.915409088134766,-0.45168113708496094
-0.08245696872472763,4.908289909362793,-0.4513407051563263
-0.04809112474322319,4.893171310424805,-0.45007702708244324
-0.013968397863209248,4.87783145904541,-0.44861772656440735
0.020065929740667343,4.89337158203125,-0.4500204026699066
0.054345883429050446,4.8658833503723145,-0.44748783111572266
0.08864093571901321,4.89261531829834,-0.4499635100364685
0.12090952694416046,4.825799465179443,-0.44363725185394287
0.15414893627166748,4.817105293273926,-0.4425157606601715
0.1872735172510147,4.808183193206787,-0.4413956105709076
0.21996620297431946,4.791259765625,-0.43956321477890015
0.25267866253852844,4.766311168670654,-0.4370131194591522
0.2850636839866638,4.7528533935546875,-0.4352913200855255
0.3174929618835449,4.743072509765625,-0.43378376960754395
0.34808000922203064,4.709793567657471,-0.43015289306640625
0.38085103034973145,4.707329273223877,-0.42935889959335327
0.412122905254364,4.681336402893066,-0.42643311619758606
0.4438469111919403,4.67071533203125,-0.4246752858161926
0.4734235405921936,4.640542030334473,-0.4210580289363861
0.5047118067741394,4.629520893096924,-0.4192051887512207
0.5368460416793823,4.626008987426758,-0.4180518686771393
0.5695480108261108,4.622203350067139,-0.41687723994255066
0.5984370708465576,4.59514045715332,-0.4133507311344147
0.6279938817024231,4.575620651245117,-0.41045910120010376
0.6573486328125,4.555905818939209,-0.4075757563114166
0.6872743368148804,4.5398173332214355,-0.40503472089767456
0.7182318568229675,4.527279853820801,-0.40281394124031067
0.7469407916069031,4.507015228271484,-0.39964187145233154
0.7766698002815247,4.494251251220703,-0.39713600277900696
0.8091280460357666,4.496591567993164,-0.3959788680076599
0.7108114957809448,3.79862117767334,-0.33336973190307617
0.7275697588920593,3.7440569400787354,-0.3274470865726471
0.7568691372871399,3.7542874813079834,-0.3269386291503906
0.9155317544937134,4.385433673858643,-0.3803054094314575
0.9507405757904053,4.402015686035156,-0.38014933466911316
0.9813896417617798,4.39547061920166,-0.3779926002025604
1.01453697681427,4.400116443634033,-0.3767232596874237
1.0425546169281006,4.381772518157959,-0.373247891664505
1.0726451873779297,4.374712944030762,-0.3707877993583679
1.0991253852844238,4.3522844314575195,-0.3670336902141571
1.1294063329696655,4.344734191894531,-0.3645497262477875
1.15937077999115,4.33705472946167,-0.3619222640991211
1.185497522354126,4.31406831741333,-0.3578791618347168
1.2150355577468872,4.3060688972473145,-0.35514312982559204
1.238434076309204,4.27530574798584,-0.35052821040153503
1.2681894302368164,4.266800403594971,-0.3477613031864166
1.295090913772583,4.250812530517578,-0.3441770672798157
1.3246300220489502,4.241947650909424,-0.34111830592155457
1.3490264415740967,4.218140602111816,-0.3369089365005493
1.3759812116622925,4.201471328735352,-0.33326637744903564
1.4013665914535522,4.180996417999268,-0.32927244901657104
1.4323807954788208,4.1789655685424805,-0.32658854126930237
1.458310842514038,4.161987781524658,-0.3227488100528717
1.487667202949524,4.151845932006836,-0.3193736970424652
1.5112401247024536,4.126986026763916,-0.31492239236831665
1.5366792678833008,4.109527587890625,-0.31088778376579285
1.5618271827697754,4.0919599533081055,-0.3068322539329529
1.5898818969726562,4.0814056396484375,-0.3032975494861603
1.613026738166809,4.055812835693359,-0.29857951402664185
1.6350435018539429,4.0304365158081055,-0.29388073086738586
1.6623079776763916,4.019538402557373,-0.2901638150215149
1.695554494857788,4.022819519042969,-0.28747332096099854
1.960586667060852,4.562695026397705,-0.322628378868103
2.0255837440490723,4.624045372009277,-0.323397696018219
2.064720630645752,4.628376483917236,-0.3200240731239319
2.0910756587982178,4.60400390625,-0.3146785497665405
2.1245880126953125,4.593254089355469,-0.3101840019226074
2.151566505432129,4.56807279586792,-0.30470821261405945
2.1827597618103027,4.553579330444336,-0.29975149035453796
2.2132933139801025,4.539134979248047,-0.2948838472366333
2.2446281909942627,4.524045467376709,-0.28987187147140503
2.2690351009368896,4.494706630706787,-0.2839367687702179
2.3026387691497803,4.486678123474121,-0.2792204022407532
2.345224618911743,4.495702743530273,-0.2755526304244995
2.3804891109466553,4.486296653747559,-0.2705134451389313
1.7372740507125854,3.2203662395477295,-0.1909811645746231
1.7586389780044556,3.2089812755584717,-0.187039315700531
1.7363611459732056,3.1190052032470703,-0.17859314382076263
1.775416612625122,3.1375808715820312,-0.1762646734714508
1.824341893196106,3.172792434692383,-0.17469844222068787
1.3554860353469849,2.32177472114563,-0.1252494752407074
0.9533028602600098,1.6077935695648193,-0.08488398045301437
0.9584591388702393,1.5911906957626343,-0.08211798965930939
0.9689117074012756,1.5849621295928955,-0.07987862080335617
0.9857234954833984,1.5884724855422974,-0.078078493475914
0.9968010187149048,1.5816609859466553,-0.07568450272083282
1.0010194778442383,1.56522536277771,-0.07283343374729156
1.0175979137420654,1.5685852766036987,-0.07089845091104507
1.028421401977539,1.561623454093933,-0.06836406141519547
1.036840796470642,1.5514646768569946,-0.06563350558280945
1.0424569845199585,1.538379192352295,-0.06283225864171982
1.0596961975097656,1.5409005880355835,-0.06050766259431839
2.561755895614624,3.673264265060425,-0.13832791149616241
2.5943965911865234,3.6696724891662598,-0.1321762502193451
2.6294853687286377,3.6641111373901367,-0.12530192732810974
2.6204254627227783,3.6034536361694336,-0.1167079508304596
2.644474983215332,3.5860776901245117,-0.10921231657266617
2.6178174018859863,3.70296573638916,0.19535928964614868
2.5917952060699463,3.7208452224731445,0.20247507095336914
1.0566331148147583,1.5417697429656982,0.0863967165350914
1.0666172504425049,1.5819977521896362,0.09114737808704376
1.0511367321014404,1.5828101634979248,0.09346477687358856
1.030408501625061,1.5776158571243286,0.09536169469356537
1.027079701423645,1.5982074737548828,0.09875189512968063
