X,Y,Z
1.0176000595092773,6.068421840667725,1.494445562362671
0.962639570236206,5.995733261108398,1.4788532257080078
0.9236711859703064,6.024142265319824,1.4874675273895264
0.8732835650444031,5.977269172668457,1.477320671081543
0.830321729183197,5.978860378265381,1.479215145111084
0.7844853401184082,5.9613847732543945,1.4764761924743652
0.6276314854621887,5.040064811706543,1.2496514320373535
0.5924519896507263,5.043741703033447,1.2519867420196533
0.5692729353904724,5.15651273727417,1.281393051147461
0.41723018884658813,4.0397443771362305,1.0044116973876953
0.39125585556030273,4.068705081939697,1.012202262878418
0.3674302399158478,4.131521701812744,1.028490424156189
0.34073367714881897,4.160130023956299,1.0363103151321411
0.30922386050224304,4.12807035446167,1.0290638208389282
0.28202977776527405,4.15250825881958,1.0359493494033813
0.2565671503543854,4.210874080657959,1.0511066913604736
0.41669848561286926,7.747422695159912,1.9342480897903442
0.36101630330085754,7.719597339630127,1.927747130393982
0.30469056963920593,7.664867401123047,1.9146161079406738
0.2508784234523773,7.6513895988464355,1.9118735790252686
0.1970728039741516,7.629958629608154,1.9072328805923462
0.1428317129611969,7.6119513511657715,1.9035494327545166
0.08948887139558792,7.582359790802002,1.896317958831787
0.0364529974758625,7.537374973297119,1.8847460746765137
-0.016040613874793053,7.533706188201904,1.883598804473877
-0.0680127739906311,7.4879889488220215,1.8720308542251587
-0.12060639262199402,7.464635848999023,1.8661456108093262
-0.17198267579078674,7.444725036621094,1.8612123727798462
-0.223202183842659,7.428248882293701,1.8572273254394531
-0.2736023962497711,7.396481513977051,1.8486248254776
-0.32642459869384766,7.432621002197266,1.8567026853561401
-0.2750515341758728,5.409183979034424,1.3506089448928833
-0.311641126871109,5.380879878997803,1.3429685831069946
-0.3480719029903412,5.363704681396484,1.3381831645965576
-0.383735328912735,5.338719367980957,1.3315174579620361
-0.42019692063331604,5.32861852645874,1.3286311626434326
-0.44823774695396423,5.224030494689941,1.3015029430389404
-0.42843422293663025,4.613394737243652,1.1483625173568726
-0.45874494314193726,4.595635414123535,1.1430083513259888
-0.4868716299533844,4.558815956115723,1.1329760551452637
-0.5177275538444519,4.548178195953369,1.129507303237915
-0.5474951863288879,4.5298051834106445,1.1241772174835205
-0.5795208811759949,4.526231288909912,1.1225184202194214
-0.6074976325035095,4.5001630783081055,1.1146349906921387
-0.6394103765487671,4.503970146179199,1.1142085790634155
-0.6681016683578491,4.485024929046631,1.1082062721252441
-0.6973562836647034,4.469615936279297,1.1031286716461182
-0.7290437817573547,4.465137481689453,1.1007750034332275
-0.7563037872314453,4.438068389892578,1.0929343700408936
-0.7843647599220276,4.418393611907959,1.0867334604263306
-0.8091041445732117,4.3837761878967285,1.076419711112976
-0.8240645527839661,4.300537109375,1.054263949394226
-0.7246713042259216,3.647271156311035,0.8927004933357239
-0.7474640607833862,3.627779960632324,0.886508584022522
-0.9185599684715271,4.306835174560547,1.0508371591567993
-0.953521192073822,4.323308944702148,1.0532848834991455
-0.9848816394805908,4.3249101638793945,1.051634669303894
-1.0125795602798462,4.311584949493408,1.046196699142456
-1.04067063331604,4.297965049743652,1.0407048463821411
-1.06474769115448,4.269438743591309,1.0316821336746216
-1.0964765548706055,4.270151138305664,1.029751181602478
-1.122388243675232,4.248569488525391,1.022500991821289
-1.1498990058898926,4.234245300292969,1.0168932676315308
-1.1750397682189941,4.212582588195801,1.0090088844299316
-1.203668475151062,4.20551872253418,1.0047199726104736
-1.232253909111023,4.198256492614746,1.0004301071166992
-1.256173014640808,4.172329902648926,0.9916743636131287
-1.2809569835662842,4.149889945983887,0.9838122725486755
-1.3105348348617554,4.141702175140381,0.979348361492157
-1.333979845046997,4.119358062744141,0.9709755182266235
-1.364281177520752,4.118624210357666,0.9677171111106873
-1.394675374031067,4.1176533699035645,0.9644322991371155
-1.4184503555297852,4.094581604003906,0.9559323787689209
-1.4446887969970703,4.0785040855407715,0.9491101503372192
-1.4634851217269897,4.040555477142334,0.9372184872627258
-1.4936391115188599,4.038938999176025,0.9333029985427856
-1.5209460258483887,4.030039310455322,0.9276565313339233
-1.5482388734817505,4.020934104919434,0.921999990940094
-1.579166293144226,4.018439769744873,0.9177799224853516
-1.602286458015442,3.9941787719726562,0.9085514545440674
-1.627543330192566,3.9770305156707764,0.9010661840438843
-1.6543320417404175,3.9674017429351807,0.8947063684463501
-1.681060791015625,3.9575836658477783,0.8883445262908936
-1.7108821868896484,3.954557418823242,0.8835225701332092
-1.7223803997039795,3.9051051139831543,0.868140459060669
-1.7625843286514282,3.922208309173584,0.8676867485046387
-1.7897926568984985,3.911386251449585,0.8608144521713257
-1.8063921928405762,3.879974126815796,0.8491004705429077
-1.8226797580718994,3.8484749794006348,0.8374509811401367
-1.8632696866989136,3.864691734313965,0.835968017578125
-1.8839352130889893,3.839202404022217,0.8254809975624084
-1.9007697105407715,3.8067984580993652,0.8135449290275574
-1.9366724491119385,3.8161814212799072,0.8100417852401733
-1.95870041847229,3.797959327697754,0.8006956577301025
-1.9884544610977173,3.792853832244873,0.7939878702163696
-2.001495122909546,3.7529752254486084,0.7797818779945374
-2.01163387298584,3.709981918334961,0.7651294469833374
-1.6933046579360962,3.0751116275787354,0.6290159821510315
-1.725085973739624,3.0853350162506104,0.6259102821350098
-0.843818724155426,1.4855217933654785,0.29875004291534424
-0.8392274975776672,1.453427791595459,0.28961947560310364
-0.8571416735649109,1.4615635871887207,0.28851625323295593
-0.8747230172157288,1.4698288440704346,0.2872622311115265
-0.8646124005317688,1.4317164421081543,0.2769797444343567
-0.8789364695549011,1.4328150749206543,0.2741290032863617
-0.889420211315155,1.427132248878479,0.26992636919021606
-0.9071235656738281,1.435038447380066,0.26812881231307983
-0.8957898616790771,1.3972907066345215,0.2578553259372711
-0.914162278175354,1.404636025428772,0.2557138502597809
-0.9072397947311401,1.3730487823486328,0.24648959934711456
-0.9422743320465088,1.4062743186950684,0.24863414466381073
-2.391798257827759,3.5213780403137207,0.6131197214126587
-1.4261415004730225,2.038965940475464,0.34273695945739746
-1.3031779527664185,2.0670905113220215,-0.21606944501399994
-1.2916603088378906,2.082549810409546,-0.22541724145412445
-1.1853622198104858,1.941584825515747,-0.21703504025936127
-1.129069447517395,1.8793601989746094,-0.21671894192695618
-0.8141103386878967,1.4004682302474976,-0.17102235555648804
-0.8368381261825562,1.4629236459732056,-0.18341460824012756
-0.9497353434562683,1.6882880926132202,-0.21711736917495728
-0.9256842136383057,1.6742182970046997,-0.22076018154621124
-0.9007079601287842,1.65615713596344,-0.22345876693725586
-0.859462559223175,1.6071163415908813,-0.22173817455768585
-0.8024758100509644,1.526863694190979,-0.21527090668678284
-0.7984604835510254,1.545685887336731,-0.22249238193035126
-0.7749305963516235,1.5265076160430908,-0.22422097623348236
-0.76035076379776,1.5244218111038208,-0.2282680720090866
-0.7321119904518127,1.4944469928741455,-0.22801436483860016
-0.7029002904891968,1.460582971572876,-0.22688493132591248
-0.6792436838150024,1.4368611574172974,-0.22712984681129456
-0.6557467579841614,1.4129976034164429,-0.2271532118320465
-0.6452393531799316,1.4170961380004883,-0.2316664755344391
-0.6240564584732056,1.396277904510498,-0.2319132685661316
-0.6078423857688904,1.3858554363250732,-0.23379266262054443
0.6166715025901794,1.3661335706710815,-0.2247544676065445
0.6440621018409729,1.401047706604004,-0.22685667872428894
0.6638946533203125,1.4181129932403564,-0.225880965590477
0.6907214522361755,1.4489258527755737,-0.22685366868972778
0.7160353660583496,1.4761008024215698,-0.22712105512619019
0.7367393970489502,1.4925442934036255,-0.22555969655513763
0.7682157158851624,1.5295019149780273,-0.2269059270620346
0.7912555932998657,1.548959732055664,-0.22544555366039276
0.8127093315124512,1.5647941827774048,-0.22332380712032318
0.8312113285064697,1.5733611583709717,-0.2199072688817978
0.8736253380775452,1.6262035369873047,-0.22252225875854492
0.9071941375732422,1.661717414855957,-0.2224479615688324
0.9431410431861877,1.7002755403518677,-0.22252924740314484
0.9838592410087585,1.7450065612792969,-0.22297422587871552
1.019547939300537,1.7791231870651245,-0.22169490158557892
1.0688719749450684,1.8366576433181763,-0.22308814525604248
1.11924409866333,1.893516182899475,-0.22390520572662354
1.168760895729065,1.946292519569397,-0.22370657324790955
1.2004051208496094,1.968877911567688,-0.21973924338817596
1.2815967798233032,2.070478677749634,-0.2240104377269745
1.3315280675888062,2.1181640625,-0.2216886579990387
1.3547003269195557,2.122779130935669,-0.21461956202983856
1.3880587816238403,2.1438257694244385,-0.20907185971736908
1.3987752199172974,2.128383159637451,-0.19960148632526398
1.3988771438598633,2.096449136734009,-0.18844164907932281
1.755715012550354,2.594449758529663,-0.22320356965065002
1.7736241817474365,2.5831961631774902,-0.21184922754764557
1.9500163793563843,2.798656702041626,-0.2178703397512436
1.9167155027389526,2.7134242057800293,-0.1998654156923294
1.953930377960205,2.7261722087860107,-0.18852438032627106
1.452056646347046,1.9972307682037354,-0.12895764410495758
1.4604023694992065,1.9820597171783447,-0.11882466077804565
2.188053846359253,3.0992391109466553,0.5400007963180542
2.1373798847198486,3.0757241249084473,0.5467513203620911
1.5280171632766724,2.235889196395874,0.4051508903503418
1.5135653018951416,2.248762845993042,0.4144602417945862
1.509554147720337,2.2777042388916016,0.4266033172607422
1.49554443359375,2.2945425510406494,0.43632179498672485
1.4779771566390991,2.3043415546417236,0.4444649815559387
1.477657437324524,2.3395886421203613,0.45730388164520264
1.489913821220398,2.3985462188720703,0.4748816192150116
1.4869757890701294,2.434979200363159,0.48794564604759216
1.526259422302246,2.540173053741455,0.5147700905799866
1.5000642538070679,2.5363521575927734,0.5195292234420776
1.4461241960525513,2.4862446784973145,0.5144569873809814
1.420693278312683,2.4861104488372803,0.5195141434669495
1.3869158029556274,2.4685044288635254,0.5206258893013
1.3654260635375977,2.4703328609466553,0.5255911350250244
1.3510891199111938,2.4855940341949463,0.5333690643310547
2.85370135307312,5.344545841217041,1.1558787822723389
2.8261375427246094,5.390939235687256,1.175174355506897
2.7941746711730957,5.422117710113525,1.1905910968780518
2.777768611907959,5.4837236404418945,1.2127797603607178
2.754406213760376,5.535623550415039,1.2325598001480103
1.231779932975769,2.522237539291382,0.5651687383651733
1.2122796773910522,2.5304369926452637,0.5706526637077332
1.2040050029754639,2.5586371421813965,0.5804247856140137
1.172898530960083,2.538217306137085,0.5791919827461243
1.157509446144104,2.552548885345459,0.585701048374176
1.1445432901382446,2.5740411281585693,0.5936611890792847
2.566396713256836,5.887974262237549,1.3649392127990723
2.545853853225708,5.956785678863525,1.3877882957458496
2.515279769897461,6.000472068786621,1.4047635793685913
2.4913251399993896,6.061716079711914,1.4258917570114136
2.4661271572113037,6.127353191375732,1.4472732543945312
2.4330925941467285,6.175152778625488,1.464600682258606
2.4076449871063232,6.2441301345825195,1.487123966217041
2.374195098876953,6.287291049957275,1.5033507347106934
2.3507556915283203,6.35887336730957,1.5265387296676636
2.3112740516662598,6.391397953033447,1.539973497390747
2.2844901084899902,6.463597774505615,1.5625256299972534
2.2496495246887207,6.517973899841309,1.581031084060669
2.2173595428466797,6.575166702270508,1.6001497507095337
2.191159248352051,6.650020599365234,1.6236375570297241
2.137277364730835,6.641471862792969,1.6268658638000488
2.070042371749878,6.593053817749023,1.6196588277816772
2.012171745300293,6.577276706695557,1.6200910806655884
1.9500832557678223,6.542575359344482,1.615822434425354
1.8852959871292114,6.492506980895996,1.6076866388320923
1.8292676210403442,6.467295169830322,1.6056568622589111
1.7736848592758179,6.441631317138672,1.603546142578125
1.7208729982376099,6.426806926727295,1.6036391258239746
0.8434617519378662,3.244612216949463,0.811279833316803
1.6056725978851318,6.363556385040283,1.594431757926941
0.813866376876831,3.324948787689209,0.8348332643508911
1.4917336702346802,6.283098220825195,1.5808628797531128
1.44594144821167,6.284598350524902,1.584607481956482
1.3960258960723877,6.271168231964111,1.5845282077789307
1.3437938690185547,6.246506690979004,1.580666422843933
1.2897465229034424,6.210280418395996,1.573925495147705
1.2377042770385742,6.181061744689941,1.5690131187438965
1.186495065689087,6.147528648376465,1.5629918575286865
1.1400225162506104,6.139776229858398,1.5636178255081177
1.0897678136825562,6.105461597442627,1.5574899911880493
1.0402494668960571,6.074729919433594,1.5516194105148315
0.9920952916145325,6.051233768463135,1.547276258468628
0.943742036819458,6.02362585067749,1.5419424772262573
0.8982051610946655,6.0144267082214355,1.541402816772461
0.8508504033088684,5.982249736785889,1.5349842309951782
0.8070303201675415,5.972223281860352,1.5343080759048462
0.7609880566596985,5.943108558654785,1.5287867784500122
0.6031837463378906,4.989664554595947,1.284355640411377
0.5807045102119446,5.106136798858643,1.3152401447296143
0.5439683794975281,5.109691619873047,1.3171418905258179
0.4071468114852905,4.096341609954834,1.056748390197754
0.3786097466945648,4.098696708679199,1.058223843574524
0.35557878017425537,4.1649250984191895,1.0762543678283691
0.32450026273727417,4.140554428100586,1.0707776546478271
0.29519760608673096,4.146325588226318,1.072576880455017
0.26850625872612,4.185830116271973,1.0831540822982788
0.44275346398353577,7.751783847808838,2.006664752960205
0.3876630365848541,7.731626033782959,2.002296209335327
0.3323146402835846,7.695964813232422,1.994001030921936
0.277151495218277,7.678836822509766,1.990617036819458
0.2226400375366211,7.642519950866699,1.981823205947876
0.168700709939003,7.613588809967041,1.9741950035095215
0.11546257883310318,7.603181838989258,1.9714666604995728
0.062098145484924316,7.558374404907227,1.9599138498306274
0.008683890104293823,7.551005840301514,1.9581665992736816
-0.043652281165122986,7.516799449920654,1.9495513439178467
-0.09527737647294998,7.47089147567749,1.9379913806915283
-0.14696380496025085,7.462585926055908,1.935659408569336
-0.19808489084243774,7.438970565795898,1.9287642240524292
-0.24926620721817017,7.4263434410095215,1.9248138666152954
-0.3021830916404724,7.435999393463135,1.926721453666687
-0.25601235032081604,5.379061698913574,1.393398404121399
-0.29404500126838684,5.388669967651367,1.3955978155136108
-0.3303650915622711,5.367809772491455,1.3899742364883423
-0.36653250455856323,5.350618362426758,1.3848294019699097
-0.4029495418071747,5.333250522613525,1.3792873620986938
-0.4385693669319153,5.315673351287842,1.3737796545028687
-0.41059035062789917,4.589466571807861,1.1853245496749878
-0.4424809515476227,4.586861610412598,1.1839298009872437
-0.47318679094314575,4.572744369506836,1.1796225309371948
-0.5046782493591309,4.562127113342285,1.1762677431106567
-0.5352321863174438,4.551517009735107,1.17241370677948
-0.5636847615242004,4.525745868682861,1.164486289024353
-0.595757007598877,4.529816150665283,1.1642969846725464
-0.624902069568634,4.511147975921631,1.1583157777786255
-0.6547198295593262,4.49217414855957,1.1522868871688843
-0.6837711930274963,4.473071098327637,1.146308422088623
-0.7137316465377808,4.461264610290527,1.1422624588012695
-0.7400237917900085,4.430807590484619,1.1328113079071045
-0.7704293131828308,4.426342010498047,1.1299959421157837
-0.7994064092636108,4.4142165184021,1.125284194946289
-0.8206546902656555,4.357076168060303,1.109129786491394
-0.7120936512947083,3.6415164470672607,0.9257063269615173
-0.7374761700630188,3.6370608806610107,0.9233455061912537
-0.764275312423706,3.6399009227752686,0.9227497577667236
-0.9387088418006897,4.324615955352783,1.0942108631134033
-0.9686930179595947,4.318897724151611,1.0906574726104736
-0.9981515407562256,4.3130669593811035,1.087161660194397
-1.0228768587112427,4.284767150878906,1.0780240297317505
-1.054655909538269,4.285770416259766,1.0763087272644043
-1.0753068923950195,4.242384910583496,1.063511848449707
-1.1049511432647705,4.235766887664795,1.0594966411590576
-1.13576078414917,4.236519813537598,1.057144284248352
-1.162550687789917,4.222411632537842,1.0511366128921509
-1.1915936470031738,4.215359210968018,1.0469110012054443
-1.218988299369812,4.200673580169678,1.040800929069519
-1.248915433883667,4.19295597076416,1.036431074142456
-1.2758266925811768,4.177995204925537,1.0301908254623413
-1.2984271049499512,4.152313709259033,1.0208367109298706
-1.324259638786316,4.137359142303467,1.014180302619934
-1.3523598909378052,4.12945556640625,1.0092997550964355
-1.3794971704483032,4.1136980056762695,1.0023969411849976
-1.4010056257247925,4.0835089683532715,0.9921035170555115
-1.427151083946228,4.067599773406982,0.9853186011314392
-1.4572542905807495,4.066356182098389,0.9814738631248474
-1.4848268032073975,4.0577192306518555,0.9758780598640442
-1.5096373558044434,4.041760444641113,0.9685778617858887
-1.5358388423919678,4.025128364562988,0.960981011390686
-1.5641884803771973,4.015579700469971,0.9551872611045837
-1.5980250835418701,4.020047187805176,0.9527143836021423
-1.6165249347686768,3.989452362060547,0.9413593411445618
-1.640508770942688,3.9728801250457764,0.9333851933479309
-1.663485050201416,3.9524033069610596,0.9244602918624878
-1.6990041732788086,3.9596023559570312,0.9219404458999634
-1.7208855152130127,3.935006618499756,0.912065863609314
-1.748242735862732,3.9244985580444336,0.905288577079773
-1.7636343240737915,3.889871120452881,0.8925922513008118
-1.8015085458755493,3.903632164001465,0.8909614682197571
-1.820422649383545,3.87538480758667,0.8797242045402527
-1.8512396812438965,3.8709373474121094,0.8738285303115845
-1.871987223625183,3.845600128173828,0.8632763624191284
-1.8979264497756958,3.834623336791992,0.8554309010505676
-1.9309961795806885,3.8370327949523926,0.8504421710968018
-1.9536361694335938,3.818723201751709,0.8409051299095154
-1.9667088985443115,3.7793002128601074,0.8265525698661804
-1.990110993385315,3.7601747512817383,0.8167252540588379
-2.015655279159546,3.748413324356079,0.808100163936615
-2.044424295425415,3.743427276611328,0.8008264303207397
-1.7162911891937256,3.0929994583129883,0.6563771963119507
-1.7384699583053589,3.082231044769287,0.6486174464225769
-0.8296175003051758,1.4472801685333252,0.30199214816093445
-0.8470377922058105,1.4557669162750244,0.3009592890739441
-0.8606563210487366,1.4574893712997437,0.2984917163848877
-0.8749681115150452,1.4587631225585938,0.29573506116867065
-0.8894612193107605,1.4598393440246582,0.2928895652294159
-0.8874340057373047,1.4348129034042358,0.28474530577659607
-0.8887608647346497,1.4166646003723145,0.27793899178504944
-0.8901116251945496,1.3984110355377197,0.2711045444011688
-0.904567301273346,1.3991916179656982,0.26772597432136536
-0.8974459171295166,1.367864727973938,0.2582651972770691
-0.9192976355552673,1.382043719291687,0.2572881579399109
-0.9286938905715942,1.3766320943832397,0.2525114417076111
-2.4471209049224854,3.5735702514648438,0.6449913382530212
-1.528262972831726,2.2000207901000977,0.3903067111968994
-1.2176556587219238,1.7297346591949463,0.30149608850479126
-1.3250672817230225,2.0854339599609375,-0.21883071959018707
-1.278029441833496,2.045119047164917,-0.22272630035877228
-1.1396198272705078,1.88193678855896,-0.21868900954723358
-1.0956414937973022,1.8394509553909302,-0.22039371728897095
-0.8446093201637268,1.4409812688827515,-0.1776456981897354
-0.8379442095756531,1.4531298875808716,-0.1841719001531601
-0.8309133648872375,1.4653706550598145,-0.19067339599132538
-0.9278290867805481,1.663865327835083,-0.22201117873191833
-0.8953580856323242,1.6322420835494995,-0.2230345904827118
-0.859489917755127,1.5935503244400024,-0.22282007336616516
-0.8256669640541077,1.5580604076385498,-0.2228737473487854
-0.7947131395339966,1.5253896713256836,-0.22287625074386597
-0.7767024636268616,1.5164703130722046,-0.22616919875144958
-0.7515955567359924,1.4936941862106323,-0.22724021971225739
-0.7371760606765747,1.4914456605911255,-0.23132534325122833
-0.6942098736763,1.4298747777938843,-0.22596675157546997
-0.6705911159515381,1.4061598777770996,-0.22624428570270538
-0.6537395715713501,1.396275520324707,-0.22859099507331848
-0.6322911381721497,1.3756693601608276,-0.22906039655208588
-0.6192610263824463,1.3723790645599365,-0.232278510928154
0.6276865601539612,1.3774701356887817,-0.23089462518692017
0.6406360268592834,1.3807469606399536,-0.22767680883407593
0.6503067016601562,1.3769415616989136,-0.22326292097568512
0.6718195676803589,1.3973923921585083,-0.2226688712835312
0.7022000551223755,1.4349709749221802,-0.2246103137731552
0.7227704524993896,1.451460599899292,-0.22296425700187683
0.7381377220153809,1.4574753046035767,-0.21969227492809296
0.7839979529380798,1.521772027015686,-0.22488971054553986
0.811034619808197,1.5477851629257202,-0.22413542866706848
0.8326952457427979,1.5634112358093262,-0.2216900736093521
0.8675658702850342,1.602665901184082,-0.22239157557487488
0.9091419577598572,1.6514822244644165,-0.22390300035476685
0.9454328417778015,1.6898329257965088,-0.22377486526966095
0.9801041483879089,1.7245596647262573,-0.22288990020751953
1.0135587453842163,1.7554364204406738,-0.22117309272289276
1.0594805479049683,1.8059403896331787,-0.2215377241373062
1.1159517765045166,1.8727062940597534,-0.22334721684455872
1.1710052490234375,1.9357006549835205,-0.22433912754058838
1.2234915494918823,1.991107702255249,-0.223714679479599
1.2848732471466064,2.059204339981079,-0.22402019798755646
1.3384190797805786,2.1137454509735107,-0.222364604473114
1.3660718202590942,2.1247191429138184,-0.2154831886291504
1.3896969556808472,2.128862142562866,-0.2077825963497162
1.386798620223999,2.094341278076172,-0.19637326896190643
1.392472505569458,2.0726587772369385,-0.1861523538827896
1.7364968061447144,2.5463907718658447,-0.2181885838508606
1.8092892169952393,2.615574836730957,-0.2130686491727829
1.968133807182312,2.8052000999450684,-0.2164890319108963
1.9609454870224,2.754002571105957,-0.20006775856018066
1.9836724996566772,2.7482471466064453,-0.18714271485805511
1.4586131572723389,1.9926258325576782,-0.12616948783397675
1.4677774906158447,1.9768133163452148,-0.1152934655547142
1.487350344657898,2.0914182662963867,0.37589627504348755
1.7667614221572876,2.525970220565796,0.46355751156806946
1.5597323179244995,2.2635488510131836,0.4230055809020996
1.5187983512878418,2.2383625507354736,0.4256403148174286
1.5028021335601807,2.2520382404327393,0.4353173077106476
1.4940811395645142,2.274641275405884,0.4463840126991272
1.4855879545211792,2.2969250679016113,0.4572964310646057
1.4718674421310425,2.3132529258728027,0.46671098470687866
1.453460693359375,2.3232247829437256,0.47479447722435
1.4564845561981201,2.3650856018066406,0.4890647232532501
1.4851421117782593,2.44966197013855,0.5123656988143921
1.4539958238601685,2.439863681793213,0.5158554315567017
1.4076340198516846,2.4032087326049805,0.5133760571479797
1.3975777626037598,2.4253456592559814,0.5230875611305237
1.3838505744934082,2.440575361251831,0.5312742590904236
1.3655327558517456,2.4494292736053467,0.5378831624984741
2.889526605606079,5.2771501541137695,1.1686794757843018
2.8532378673553467,5.3025431632995605,1.1838011741638184
2.8400986194610596,5.367439270019531,1.2074546813964844
2.8014605045318604,5.384757995605469,1.220537543296814
2.7865030765533447,5.4542317390441895,1.2446914911270142
2.769719123840332,5.524127006530762,1.2692641019821167
1.2672724723815918,2.5735018253326416,0.5951281189918518
1.2305407524108887,2.5433566570281982,0.591819703578949
1.189355731010437,2.502502679824829,0.5859301686286926
1.1833581924438477,2.5379302501678467,0.5974546074867249
1.157802939414978,2.5317113399505615,0.5992292761802673
1.1544219255447388,2.573962926864624,0.6125121116638184
2.5918679237365723,5.888394355773926,1.4084031581878662
2.5559709072113037,5.918063163757324,1.4227319955825806
2.5359997749328613,5.99044942855835,1.4467040300369263
2.5043671131134033,6.038414001464844,1.4646624326705933
2.4756510257720947,6.097069263458252,1.4854892492294312
2.4477670192718506,6.151020526885986,1.504910945892334
2.4179136753082275,6.201267719268799,1.5235694646835327
2.388463258743286,6.255091190338135,1.5430492162704468
2.3607635498046875,6.3202362060546875,1.5645604133605957
2.324824810028076,6.367674350738525,1.5819482803344727
2.296251058578491,6.432319641113281,1.6035866737365723
2.2645347118377686,6.485636234283447,1.6223899126052856
2.238313674926758,6.556769371032715,1.6458137035369873
2.206965923309326,6.6172871589660645,1.6663132905960083
2.1669859886169434,6.660365104675293,1.6818782091140747
2.097496747970581,6.608842372894287,1.673536777496338
2.0417966842651367,6.596430778503418,1.6750679016113281
1.9777354001998901,6.550551414489746,1.6680059432983398
1.9154198169708252,6.507784366607666,1.6617470979690552
1.8628716468811035,6.497480869293213,1.6634594202041626
1.7994896173477173,6.4545769691467285,1.6560856103897095
1.7426693439483643,6.429208755493164,1.653182029724121
0.8543654084205627,3.2438113689422607,0.8359493613243103
0.8297321796417236,3.2415664196014404,0.8371985554695129
1.5746283531188965,6.334898471832275,1.63975989818573
0.8006606101989746,3.3213038444519043,0.8616819381713867
1.4734735488891602,6.309597492218018,1.6395978927612305
1.4206072092056274,6.285461902618408,1.6360228061676025
1.367282509803772,6.257218837738037,1.6314373016357422
1.302077293395996,6.1654276847839355,1.610246181488037
1.2596549987792969,6.180678844451904,1.6170834302902222
1.2120295763015747,6.165802955627441,1.6160602569580078
1.1578888893127441,6.117342948913574,1.605705738067627
1.1169240474700928,6.139348030090332,1.6133626699447632
1.0620458126068115,6.08284854888916,1.6004557609558105
1.0092623233795166,6.037178993225098,1.59047269821167
0.964790940284729,6.02818489074707,1.5901315212249756
0.9227792620658875,6.033812522888184,1.593719720840454
0.8725553154945374,5.983053684234619,1.582471489906311
0.8271427154541016,5.965895652770996,1.579241394996643
0.78177410364151,5.9522705078125,1.5768754482269287
0.6153327226638794,4.956028938293457,1.3140333890914917
0.5814043879508972,4.967172145843506,1.318126916885376
0.5698873400688171,5.180784702301025,1.3760581016540527
0.4246869385242462,4.124702453613281,1.0965975522994995
0.3901384770870209,4.066976070404053,1.0822795629501343
0.366680383682251,4.133325099945068,1.1003401279449463
0.33757632970809937,4.135527610778809,1.1013786792755127
0.30850929021835327,4.137521743774414,1.1024153232574463
0.28008925914764404,4.146834850311279,1.105454444885254
0.2530232071876526,4.178553581237793,1.1145236492156982
0.412464439868927,7.715395927429199,2.0591394901275635
0.3583134412765503,7.710107326507568,2.0587596893310547
0.3032475411891937,7.682090759277344,2.051309823989868
0.24886536598205566,7.665002346038818,2.0468783378601074
0.19415707886219025,7.621118545532227,2.0353896617889404
0.13989534974098206,7.6070475578308105,2.0319650173187256
0.08637385815382004,7.558620929718018,2.019454002380371
0.0338440015912056,7.55888032913208,2.020045042037964
-0.018589209765195847,7.521134376525879,2.0101852416992188
-0.07045535743236542,7.479495048522949,1.9984136819839478
-0.12283077090978622,7.448806285858154,1.989661693572998
-0.17432159185409546,7.432859420776367,1.98495614528656
-0.22493310272693634,7.397696018218994,1.9752182960510254
-0.2773190140724182,7.422535419464111,1.9815970659255981
-0.3292253613471985,7.428149700164795,1.9829381704330444
-0.27618247270584106,5.38666296005249,1.4375885725021362
-0.31345969438552856,5.373661041259766,1.4331408739089966
-0.3501032888889313,5.364206314086914,1.4297300577163696
-0.38445594906806946,5.324376583099365,1.4182988405227661
-0.42085015773773193,5.314420700073242,1.4148963689804077
-0.40817004442214966,4.736176013946533,1.2603373527526855
-0.42866772413253784,4.594398498535156,1.2220683097839355
-0.45975127816200256,4.58420991897583,1.2185357809066772
-0.48926109075546265,4.562685489654541,1.2115806341171265
-0.5206391215324402,4.559732437133789,1.209619164466858
-0.5501822233200073,4.541562080383301,1.2036818265914917
-0.5822862386703491,4.538090229034424,1.2016721963882446
-0.610786497592926,4.511988162994385,1.193752408027649
-0.6442809700965881,4.5231170654296875,1.1957420110702515
-0.6665253639221191,4.459383964538574,1.1775803565979004
-0.6970078945159912,4.455423355102539,1.174921989440918
-0.7262118458747864,4.439978122711182,1.1692655086517334
-0.7585812211036682,4.446771621704102,1.1695448160171509
-0.7822832465171814,4.401129722595215,1.1560763120651245
-0.8129513263702393,4.396273136138916,1.1533912420272827
-0.8378283381462097,4.361490249633789,1.142921805381775
-0.7251074910163879,3.6402878761291504,0.9523594975471497
-0.7488605976104736,3.6284961700439453,0.9475611448287964
-0.9095697402954102,4.26072883605957,1.1107341051101685
-0.9519779682159424,4.3143768310546875,1.1227959394454956
-0.9821556806564331,4.308499336242676,1.1193660497665405
-1.0122474431991577,4.3024187088012695,1.115941047668457
-1.0428029298782349,4.296041965484619,1.1123672723770142
-1.0665329694747925,4.267841815948486,1.1025760173797607
-1.0975234508514404,4.268858432769775,1.1003882884979248
-1.1247013807296753,4.254990577697754,1.0944150686264038
-1.152360439300537,4.240797519683838,1.0883678197860718
-1.1784999370574951,4.218951225280762,1.080369234085083
-1.2060049772262573,4.204348087310791,1.0743292570114136
-1.230602502822876,4.182559490203857,1.0660597085952759
-1.2568186521530151,4.168044090270996,1.059440016746521
-1.2874199151992798,4.1678547859191895,1.0565060377120972
-1.3131648302078247,4.149113655090332,1.0488399267196655
-1.3352397680282593,4.119352340698242,1.0384576320648193
-1.366532564163208,4.1183180809021,1.0353786945343018
-1.3975732326507568,4.117199420928955,1.0320777893066406
-1.4179500341415405,4.087467193603516,1.0211901664733887
-1.4456077814102173,4.079135417938232,1.0157140493392944
-1.4713538885116577,4.063228130340576,1.008316159248352
-1.4973299503326416,4.047025203704834,1.0008598566055298
-1.5204989910125732,4.0235114097595215,0.9916584491729736
-1.5513349771499634,4.021318435668945,0.9875913262367249
-1.5729578733444214,3.998072624206543,0.9778836369514465
-1.600451111793518,3.988691568374634,0.9715614318847656
-1.6335372924804688,3.9932665824890137,0.9686878323554993
-1.6529667377471924,3.9620683193206787,0.9570620656013489
-1.6809898614883423,3.9518282413482666,0.950568437576294
-1.7053468227386475,3.934675931930542,0.9421818256378174
-1.7277295589447021,3.9140892028808594,0.932565450668335
-1.7541111707687378,3.9039974212646484,0.9255907535552979
-1.781218409538269,3.893406391143799,0.9184042811393738
-1.8056299686431885,3.875447988510132,0.909430205821991
-1.839699387550354,3.878041982650757,0.9053166508674622
-1.8631068468093872,3.860200881958008,0.8958253860473633
-1.8857407569885254,3.842484474182129,0.8864288330078125
-1.9152226448059082,3.838240385055542,0.8801450133323669
-1.9460585117340088,3.833181858062744,0.8734268546104431
-1.9663684368133545,3.8074557781219482,0.862053632736206
-1.992488145828247,3.795774221420288,0.8535501956939697
-2.007563591003418,3.763759136199951,0.8401904106140137
-2.0219006538391113,3.731858253479004,0.8270536661148071
-1.7007830142974854,3.0876100063323975,0.6789549589157104
-1.7229949235916138,3.0769500732421875,0.6713010668754578
-0.82366544008255,1.4482735395431519,0.3133102059364319
-0.8450706601142883,1.4633893966674805,0.3137649893760681
-0.8589659929275513,1.465024471282959,0.3112860321998596
-0.8655438423156738,1.4530737400054932,0.30579712986946106
-0.8838753700256348,1.4608668088912964,0.3044491410255432
-0.8815021514892578,1.4361591339111328,0.2961549758911133
-0.8952686786651611,1.437570333480835,0.29323610663414
-0.8972851634025574,1.4190354347229004,0.28609898686408997
-0.8825488686561584,1.3745160102844238,0.2738201916217804
-0.8918002843856812,1.3694204092025757,0.26933959126472473
-0.9093626737594604,1.3772286176681519,0.2673327922821045
-0.949386715888977,1.4164292812347412,0.2709449231624603
-2.3949005603790283,3.5197389125823975,0.6632261872291565
-1.2107832431793213,1.7319880723953247,0.3158935308456421
-1.281729817390442,2.034194231033325,-0.2166091948747635
-1.2547988891601562,2.022585868835449,-0.22296780347824097
-1.1706703901290894,1.918190836906433,-0.21861450374126434
-1.090218424797058,1.816041350364685,-0.21368123590946198
-0.8353673219680786,1.4370981454849243,-0.17909955978393555
-0.8477538228034973,1.4830178022384644,-0.1899295151233673
-0.9417536854743958,1.6743686199188232,-0.2199428677558899
-0.9125007390975952,1.649857759475708,-0.22220785915851593
-0.8854221105575562,1.628487467765808,-0.2246008962392807
-0.8461197018623352,1.5827906131744385,-0.2233080416917801
-0.8131125569343567,1.5468538999557495,-0.22303372621536255
-0.7786652445793152,1.507226586341858,-0.2219361662864685
-0.7708264589309692,1.5191326141357422,-0.22839416563510895
-0.7391714453697205,1.4822819232940674,-0.22722648084163666
-0.7183266878128052,1.465915322303772,-0.22900979220867157
-0.6924755573272705,1.4390053749084473,-0.22894872725009918
-0.6538712382316589,1.3838491439819336,-0.22413413226604462
-0.6553440093994141,1.41228449344635,-0.23268315196037292
-0.6305961012840271,1.384637475013733,-0.23203708231449127
0.6132081747055054,1.3583356142044067,-0.22890682518482208
0.6323873400688171,1.3757750988006592,-0.22815750539302826
0.645389199256897,1.378980278968811,-0.22494301199913025
0.6803759336471558,1.4273165464401245,-0.22882574796676636
0.6972018480300903,1.4371263980865479,-0.2263932079076767
0.726081371307373,1.4711097478866577,-0.22760912775993347
0.7503953576087952,1.4943444728851318,-0.22693024575710297
0.7786839008331299,1.5241779088974,-0.2270488739013672
0.80898118019104,1.557262897491455,-0.2274252474308014
0.8272190690040588,1.5659857988357544,-0.2240092009305954
0.8621741533279419,1.605241060256958,-0.22477468848228455
0.8959113955497742,1.6406766176223755,-0.22473478317260742
0.9354500770568848,1.6861265897750854,-0.2257615029811859
0.9795259833335876,1.737868070602417,-0.2272760272026062
1.011446475982666,1.7652256488800049,-0.22505861520767212
1.0531597137451172,1.8092323541641235,-0.22479163110256195
1.1051007509231567,1.8696722984313965,-0.22618526220321655
1.1702529191970825,1.9493316411972046,-0.22924448549747467
1.216559648513794,1.994897484779358,-0.2277202159166336
1.2775388956069946,2.0632998943328857,-0.2282419204711914
1.3268890380859375,2.1113457679748535,-0.2261240929365158
1.3502811193466187,2.1158666610717773,-0.21883171796798706
1.383897304534912,2.1367838382720947,-0.21309882402420044
1.4025490283966064,2.1347734928131104,-0.20495276153087616
1.3855063915252686,2.0768773555755615,-0.19104905426502228
1.7558465003967285,2.5939204692840576,-0.22826611995697021
1.7863305807113647,2.602410078048706,-0.2185756415128708
1.9494937658309937,2.798612594604492,-0.22305256128311157
1.9395395517349243,2.7447001934051514,-0.20678237080574036
1.9534106254577637,2.7262167930603027,-0.1932055950164795
1.4519857168197632,1.9970813989639282,-0.13203345239162445
1.469950556755066,1.994246006011963,-0.1222834512591362
2.1557586193084717,3.05607008934021,0.5305340886116028
2.151057720184326,3.0948591232299805,0.5478909611701965
1.529516339302063,2.235219717025757,0.4031830132007599
1.5175387859344482,2.2556445598602295,0.4142993986606598
1.4964646100997925,2.2588624954223633,0.42157599329948425
1.4925956726074219,2.2875523567199707,0.43352481722831726
1.4784728288650513,2.304314136505127,0.4429560899734497
1.4768224954605103,2.340350389480591,0.4560997784137726
1.4900271892547607,2.398758888244629,0.4734499156475067
1.46824312210083,2.4016196727752686,0.4797780215740204
1.5286461114883423,2.543539524078369,0.5139036178588867
1.4835624694824219,2.51061749458313,0.5128284096717834
1.4538391828536987,2.499840259552002,0.5158069729804993
1.3990668058395386,2.44564151763916,0.5097343921661377
1.3763312101364136,2.448317527770996,0.5149335861206055
1.3573229312896729,2.4575157165527344,0.5215279459953308
1.357854962348938,2.499685525894165,0.5348953008651733
2.847982168197632,5.330825328826904,1.1500581502914429
2.8217196464538574,5.376634120941162,1.1689891815185547
2.7945854663848877,5.422565937042236,1.1875841617584229
2.7727770805358887,5.478302478790283,1.2083555459976196
2.755666732788086,5.539965629577637,1.2302168607711792
1.2326841354370117,2.5220956802368164,0.5638279914855957
1.2200933694839478,2.5440123081207275,0.572253942489624
1.1844944953918457,2.5173850059509277,0.5696127414703369
1.1689130067825317,2.531944751739502,0.5762320756912231
1.166648030281067,2.5739314556121826,0.5890287756919861
1.148301601409912,2.581048011779785,0.5939193367958069
2.576469898223877,5.905193328857422,1.3656740188598633
2.5434229373931885,5.9502997398376465,1.3827869892120361
2.519514322280884,6.016035079956055,1.4047363996505737
2.4897408485412598,6.063236236572266,1.4221923351287842
2.460902214050293,6.113795280456543,1.4405702352523804
2.4380624294281006,6.1821513175964355,1.4630858898162842
2.405062198638916,6.233712673187256,1.4810185432434082
2.376302719116211,6.295508861541748,1.501437783241272
2.343648672103882,6.346172332763672,1.5192526578903198
2.3129987716674805,6.399824142456055,1.5377639532089233
2.2855782508850098,6.464071750640869,1.558969497680664
2.2468667030334473,6.5037007331848145,1.5739173889160156
2.2185750007629395,6.575718879699707,1.596190094947815
2.1882243156433105,6.643989086151123,1.6177144050598145
2.138129234313965,6.650282382965088,1.6241732835769653
2.0718979835510254,6.601504325866699,1.617116928100586
2.0067250728607178,6.556013107299805,1.6109477281570435
1.9521085023880005,6.542904376983643,1.6120386123657227
1.8875402212142944,6.496821880340576,1.6045101881027222
1.8309085369110107,6.475785732269287,1.6032044887542725
1.7705014944076538,6.435762405395508,1.5971589088439941
1.7164483070373535,6.413393497467041,1.5954575538635254
0.8381757736206055,3.222946882247925,0.8037737011909485
1.599973440170288,6.334606647491455,1.5833362340927124
0.8128475546836853,3.3179261684417725,0.8308216333389282
1.4954334497451782,6.298916339874268,1.5802081823349
1.451925277709961,6.315540313720703,1.5873804092407227
1.3937873840332031,6.26513671875,1.5777372121810913
1.3427313566207886,6.240072250366211,1.5744599103927612
1.2897779941558838,6.203474044799805,1.568311333656311
1.2439422607421875,6.204044818878174,1.5705807209014893
1.1887727975845337,6.155914783477783,1.5605268478393555
1.1398704051971436,6.140984535217285,1.5589779615402222
1.089343786239624,6.106801509857178,1.5525254011154175
1.044111967086792,6.098323822021484,1.5526485443115234
0.9941449165344238,6.059610843658447,1.5451265573501587
0.9480172395706177,6.043102741241455,1.5428961515426636
0.8959139585494995,5.992864608764648,1.5314737558364868
0.8502292037010193,5.975840091705322,1.528570532798767
0.802226185798645,5.93972110748291,1.5208464860916138
0.7627547979354858,5.959475994110107,1.5274690389633179
0.6075546145439148,5.024440288543701,1.2891923189163208
0.583254873752594,5.1219635009765625,1.315683364868164
0.5530335307121277,5.18574333190918,1.3330007791519165
0.4029206931591034,4.048105716705322,1.041121006011963
0.3802669942378998,4.114587306976318,1.0588322877883911
0.3549140393733978,4.158305644989014,1.0707513093948364
0.32389718294143677,4.1339521408081055,1.065190315246582
0.2935524582862854,4.120723724365234,1.0625537633895874
0.26802492141723633,4.171424865722656,1.0764477252960205
0.44285282492637634,7.738063335418701,1.9971922636032104
0.3878987729549408,7.725600719451904,1.994308352470398
0.33199840784072876,7.6862969398498535,1.984590768814087
0.277433305978775,7.688196182250977,1.98561429977417
0.2230851799249649,7.659435272216797,1.9788036346435547
0.16873140633106232,7.611388683319092,1.9670987129211426
0.11545591056346893,7.5894455909729,1.9621752500534058
0.06240896135568619,7.567440986633301,1.9560543298721313
0.008748970925807953,7.529940128326416,1.9460211992263794
-0.043585021048784256,7.510974884033203,1.9408812522888184
-0.09550955146551132,7.480300426483154,1.9328111410140991
-0.14697878062725067,7.456833839416504,1.9266979694366455
-0.1981268972158432,7.433013916015625,1.920586109161377
-0.24939633905887604,7.420226573944092,1.9172346591949463
-0.3029869794845581,7.452686786651611,1.9245232343673706
-0.25697416067123413,5.399178504943848,1.3935248851776123
-0.2939051389694214,5.389993190765381,1.3905062675476074
-0.3292893171310425,5.354114055633545,1.3806695938110352
-0.36599811911582947,5.344420909881592,1.3776566982269287
-0.40379798412323,5.341977119445801,1.376572847366333
-0.4384309649467468,5.309209823608398,1.3675062656402588
-0.41093435883522034,4.590469837188721,1.1813114881515503
-0.4425872564315796,4.587953567504883,1.179652214050293
-0.4722781777381897,4.566395282745361,1.1731568574905396
-0.5045833587646484,4.563374042510986,1.1714613437652588
-0.5363271236419678,4.5601806640625,1.1697940826416016
-0.5652408599853516,4.5342254638671875,1.1623486280441284
-0.5946292281150818,4.515693664550781,1.1565399169921875
-0.6256198883056641,4.51211404800415,1.154159426689148
-0.6549336314201355,4.4932637214660645,1.147908329963684
-0.6834890246391296,4.474289417266846,1.1417135000228882
-0.7116873264312744,4.451323509216309,1.1345444917678833
-0.7376741170883179,4.41697359085083,1.1245450973510742
-0.7697699069976807,4.419790744781494,1.1240673065185547
-0.7948079705238342,4.385269641876221,1.1136549711227417
-0.8225143551826477,4.3655219078063965,1.106760859489441
-0.7156180739402771,3.6610922813415527,0.9266648888587952
-0.73553466796875,3.630718469619751,0.9175124168395996
-0.7624077200889587,3.6335766315460205,0.9167903065681458
-0.9373608231544495,4.318272590637207,1.0878812074661255
-0.9713462591171265,4.327103614807129,1.08845055103302
-0.9956333637237549,4.299159526824951,1.079123854637146
-1.0213950872421265,4.278446197509766,1.0716782808303833
-1.0523583889007568,4.279689788818359,1.0697863101959229
-1.0820039510726929,4.27324104309082,1.0659822225570679
-1.1027982234954834,4.229660987854004,1.052930474281311
-1.1342651844024658,4.230142116546631,1.050956130027771
-1.1613901853561401,4.215915679931641,1.045028567314148
-1.1900091171264648,4.2090229988098145,1.04060697555542
-1.2164689302444458,4.194630146026611,1.034383773803711
-1.2456881999969482,4.18716287612915,1.0298537015914917
-1.2717151641845703,4.168525695800781,1.022616982460022
-1.2941347360610962,4.138827800750732,1.0127379894256592
-1.325331687927246,4.138064861297607,1.0098905563354492
-1.353366732597351,4.130230903625488,1.0047671794891357
-1.3746179342269897,4.100391387939453,0.9942945837974548
-1.4024087190628052,4.092206001281738,0.9891952872276306
-1.4286693334579468,4.076319217681885,0.9821709990501404
-1.4573864936828613,4.067414283752441,0.9768789410591125
-1.4833441972732544,4.051177501678467,0.9698609113693237
-1.5080677270889282,4.0352935791015625,0.962334394454956
-1.5358511209487915,4.026211738586426,0.9564147591590881
-1.5603605508804321,4.009973526000977,0.9489070773124695
-1.5857765674591064,3.9932098388671875,0.9411913156509399
-1.6168041229248047,3.9904098510742188,0.9368084669113159
-1.6447635889053345,3.980405807495117,0.9306781888008118
-1.664642095565796,3.952976942062378,0.9199147820472717
-1.6927939653396606,3.946678876876831,0.9142010807991028
-1.7181798219680786,3.9330525398254395,0.9067831039428711
-1.7429701089859009,3.915343761444092,0.8983092904090881
-1.76762855052948,3.8974504470825195,0.8898482918739319
-1.7917581796646118,3.879636287689209,0.8810497522354126
-1.8179113864898682,3.8691115379333496,0.8737269043922424
-1.8472639322280884,3.8653221130371094,0.8679627776145935
-1.8777871131896973,3.860823154449463,0.8618471622467041
-1.8984555006027222,3.835338830947876,0.8510390520095825
-1.9259427785873413,3.823376178741455,0.8430664539337158
-1.9481157064437866,3.8053040504455566,0.8334344625473022
-1.9807785749435425,3.807487964630127,0.8282590508460999
-1.9857171773910522,3.754734992980957,0.8110233545303345
-2.0051679611206055,3.7288031578063965,0.7995675802230835
-2.031465530395508,3.7163822650909424,0.790968656539917
-1.7098318338394165,3.0797476768493652,0.6500592231750488
-1.7303483486175537,3.069826602935791,0.6426557898521423
-0.8444527387619019,1.474545955657959,0.30599287152290344
-0.8434523940086365,1.4492748975753784,0.29803526401519775
-0.8652879595756531,1.4640207290649414,0.29822489619255066
-0.8712847232818604,1.4523112773895264,0.2928422689437866
-0.8811070919036865,1.4471797943115234,0.2888299226760864
-0.8712577819824219,1.4088736772537231,0.2780918776988983
-0.877216637134552,1.3968983888626099,0.2726382613182068
-0.8988763689994812,1.4113973379135132,0.272145539522171
-0.9167433381080627,1.4191091060638428,0.27021923661231995
-0.8931085467338562,1.3617217540740967,0.2557677924633026
-0.9157362580299377,1.3753911256790161,0.2547388970851898
-0.9615287780761719,1.4246134757995605,0.2599243223667145
-2.398043632507324,3.504646062850952,0.6296206116676331
-1.2483019828796387,1.797037124633789,0.3172449469566345
-1.3432146310806274,1.9064922332763672,0.3305981457233429
-1.3212647438049316,2.07922101020813,-0.21243277192115784
-1.2538152933120728,2.005837917327881,-0.212571918964386
-1.1438692808151245,1.8891099691390991,-0.21372400224208832
-1.121911883354187,1.8833063840866089,-0.21961580216884613
-0.8457127213478088,1.467185139656067,-0.18103162944316864
-0.9040482044219971,1.5941650867462158,-0.20186282694339752
-0.9432380199432373,1.6916011571884155,-0.2196381539106369
-0.9066619277000427,1.6533877849578857,-0.21985900402069092
-0.8727009892463684,1.6180903911590576,-0.22013740241527557
-0.840603768825531,1.5860940217971802,-0.22068563103675842
-0.8109501004219055,1.5571140050888062,-0.221351757645607
-0.7803841233253479,1.524183750152588,-0.22109457850456238
-0.7624624371528625,1.5151604413986206,-0.22415755689144135
-0.7410337328910828,1.4991419315338135,-0.22605079412460327
-0.7163944244384766,1.475978970527649,-0.22677992284297943
-0.6908348798751831,1.4489096403121948,-0.22661131620407104
-0.6672512888908386,1.425115704536438,-0.22676846385002136
-0.6439052224159241,1.4011423587799072,-0.22671730816364288
-0.6194766759872437,1.3733534812927246,-0.22585508227348328
-0.6096698045730591,1.3770406246185303,-0.230051651597023
0.6260316371917725,1.399811029434204,-0.23137834668159485
0.6424127817153931,1.4100737571716309,-0.22940512001514435
0.6621909737586975,1.4272011518478394,-0.22847971320152283
0.6855636835098267,1.4511126279830933,-0.22851665318012238
0.71076500415802,1.4783756732940674,-0.22887220978736877
0.7278545498847961,1.4880002737045288,-0.22638235986232758
0.7628028392791748,1.531929612159729,-0.2287825345993042
0.7824468016624451,1.5444636344909668,-0.22639018297195435
0.8109092116355896,1.574161410331726,-0.22632919251918793
