X,Y,Z
-0.2257045954465866,3.5552239418029785,-0.16939954459667206
-0.19891192018985748,3.521641969680786,-0.16792839765548706
-0.17355751991271973,3.5073468685150146,-0.167375847697258
-0.14965152740478516,3.5318710803985596,-0.16868671774864197
-0.12426632642745972,3.50942063331604,-0.16775935888290405
-0.09939069300889969,3.494590997695923,-0.1672029048204422
-0.07557031512260437,3.518599271774292,-0.16840241849422455
-0.05070017650723457,3.4956305027008057,-0.16732485592365265
-0.025948500260710716,3.4958999156951904,-0.16736815869808197
-0.0015822239220142365,3.437466859817505,-0.16460809111595154
0.022217078134417534,3.421785831451416,-0.16390234231948853
0.045930080115795135,3.4137470722198486,-0.16349947452545166
0.06981612741947174,3.421151638031006,-0.16378314793109894
0.09341149777173996,3.4127864837646484,-0.16331970691680908
0.11884597688913345,3.4510409832000732,-0.16509392857551575
0.14186200499534607,3.4267454147338867,-0.16388440132141113
0.16524459421634674,3.417891263961792,-0.16337700188159943
0.1888900250196457,3.4166769981384277,-0.16314704716205597
0.2139805555343628,3.4386649131774902,-0.16403166949748993
0.2366793304681778,3.4137215614318848,-0.16268198192119598
0.26104310154914856,3.4197824001312256,-0.1628209799528122
0.28484028577804565,3.4178943634033203,-0.1625736653804779
0.3078370988368988,3.4080820083618164,-0.1618337780237198
0.3306809365749359,3.398118495941162,-0.16109605133533478
0.35385990142822266,3.3879544734954834,-0.16035282611846924
0.37914010882377625,3.4009408950805664,-0.16071659326553345
0.4027808606624603,3.3982396125793457,-0.1603456288576126
0.426217645406723,3.3954033851623535,-0.15985199809074402
0.45167142152786255,3.4078798294067383,-0.16007612645626068
0.47672709822654724,3.4123694896698,-0.15992289781570435
0.4993261992931366,3.4012720584869385,-0.1590511053800583
0.5253556966781616,3.413166046142578,-0.15926137566566467
0.5501633286476135,3.417188882827759,-0.15900255739688873
0.5736724138259888,3.413351058959961,-0.15835577249526978
0.6046212315559387,3.4516212940216064,-0.1596631109714508
0.6304078102111816,3.454969644546509,-0.15934470295906067
0.6558434963226318,3.4582059383392334,-0.15903514623641968
0.68417888879776,3.4766123294830322,-0.15933503210544586
0.7064286470413208,3.464231014251709,-0.15818804502487183
0.7302130460739136,3.459332227706909,-0.15738995373249054
0.7580191493034363,3.46936297416687,-0.1572587788105011
0.7838594317436218,3.4716548919677734,-0.1567908227443695
0.8024275302886963,3.4434123039245605,-0.1548728346824646
0.8414758443832397,3.5023884773254395,-0.15683236718177795
0.8579872846603394,3.466268539428711,-0.15453237295150757
0.8902409672737122,3.490398645401001,-0.15490370988845825
0.9293619394302368,3.540785789489746,-0.1564435064792633
0.9597781896591187,3.5569686889648438,-0.15638166666030884
0.9882277846336365,3.565420389175415,-0.15594196319580078
1.0040793418884277,3.5285861492156982,-0.15353025496006012
1.0520440340042114,3.6001031398773193,-0.15580137073993683
1.0793126821517944,3.6002209186553955,-0.15498508512973785
1.1084651947021484,3.607740879058838,-0.15439431369304657
1.1399805545806885,3.6225180625915527,-0.1540915071964264
1.1744112968444824,3.6443769931793213,-0.15407343208789825
1.2112035751342773,3.669381618499756,-0.15414968132972717
1.2466728687286377,3.6905128955841064,-0.1540662944316864
1.2818928956985474,3.711538791656494,-0.153866246342659
1.336914300918579,3.7874770164489746,-0.1559179127216339
1.3603423833847046,3.770888566970825,-0.1541273146867752
1.4148982763290405,3.838306427001953,-0.15574678778648376
1.4416992664337158,3.8283846378326416,-0.15415145456790924
1.4731005430221558,3.833209753036499,-0.15310443937778473
1.5232155323028564,3.8850064277648926,-0.15391288697719574
1.5835646390914917,3.957740068435669,-0.15547385811805725
1.633195400238037,4.000906944274902,-0.1558348685503006
1.6487101316452026,3.9608051776885986,-0.15283457934856415
1.7058178186416626,4.021568298339844,-0.15372617542743683
1.1215330362319946,2.5943801403045654,-0.0982130840420723
1.1505708694458008,2.6115715503692627,-0.09788665920495987
1.1572376489639282,2.5787477493286133,-0.09566202759742737
1.1764274835586548,2.574392557144165,-0.09445551782846451
1.1888939142227173,2.5557961463928223,-0.0927414670586586
1.1966274976730347,2.526337146759033,-0.09062198549509048
1.2004767656326294,2.489928960800171,-0.08826548606157303
1.206744909286499,2.460881233215332,-0.0861549973487854
1.2182798385620117,2.442157030105591,-0.0843990221619606
1.224634051322937,2.412782907485962,-0.082272008061409
1.244853138923645,2.411252975463867,-0.08109854906797409
1.2535656690597534,2.3891592025756836,-0.07920490205287933
1.2694982290267944,2.3807787895202637,-0.0777680054306984
1.2860040664672852,2.3719520568847656,-0.07627400755882263
1.2836629152297974,2.328779697418213,-0.07366613298654556
1.2989895343780518,2.3203125,-0.07216758280992508
1.3010097742080688,2.287834644317627,-0.06991712749004364
1.309081792831421,2.2652502059936523,-0.06794620305299759
1.3282854557037354,2.263150453567505,-0.06658168137073517
1.3313441276550293,2.2341668605804443,-0.06440401822328568
1.358743667602539,2.2450897693634033,-0.06334274262189865
1.3579200506210327,2.209044933319092,-0.06094113737344742
1.3639941215515137,2.1869559288024902,-0.0589299313724041
1.3868471384048462,2.1910903453826904,-0.057597771286964417
1.381136178970337,2.1484575271606445,-0.054965145885944366
1.4037119150161743,2.152494192123413,-0.05355122685432434
1.413362741470337,2.136854410171509,-0.05162302404642105
1.4325363636016846,2.1335082054138184,-0.04988638684153557
1.437727689743042,2.111182689666748,-0.047699157148599625
1.4450023174285889,2.092028856277466,-0.04553776979446411
1.450528621673584,2.0691940784454346,-0.043230827897787094
1.4682615995407104,2.0662810802459717,-0.041335202753543854
1.4385371208190918,1.9963406324386597,-0.03805578127503395
1.4543415307998657,1.9897371530532837,-0.03593866527080536
1.4667552709579468,1.9806420803070068,-0.03376927226781845
3.180964469909668,4.451738357543945,0.116005539894104
2.205164670944214,3.1328160762786865,0.08470839262008667
2.171889543533325,3.13689923286438,0.08783949166536331
2.149702548980713,3.1520557403564453,0.09099949151277542
2.130920886993408,3.174103021621704,0.09431853145360947
2.111074686050415,3.1966071128845215,0.09762517362833023
3.0952746868133545,4.759823322296143,0.1490088403224945
1.6438056230545044,2.5687339305877686,0.08231112360954285
1.6409883499145508,2.60744571685791,0.08544066548347473
1.6186963319778442,2.612090587615967,0.08732368052005768
1.7056537866592407,2.796898365020752,0.09532313048839569
1.8769824504852295,3.1312499046325684,0.10874293744564056
1.8566006422042847,3.147829532623291,0.11120914667844772
1.828713059425354,3.15049409866333,0.11314555257558823
1.7704403400421143,3.1028645038604736,0.11318684369325638
2.480787515640259,4.423409938812256,0.1638176441192627
2.4417927265167236,4.427116394042969,0.16630564630031586
2.43650484085083,4.492196083068848,0.17105957865715027
2.381131410598755,4.468665599822998,0.17237459123134613
2.4952094554901123,4.7659149169921875,0.18614985048770905
2.4584105014801025,4.776108741760254,0.18875300884246826
2.3905556201934814,4.727345943450928,0.18900993466377258
2.328000783920288,4.688719272613525,0.18951073288917542
1.2538405656814575,2.572007894515991,0.1050644963979721
1.2224011421203613,2.5524587631225586,0.10531787574291229
1.2028623819351196,2.5573534965515137,0.10656700283288956
1.1808608770370483,2.5589351654052734,0.10761578381061554
1.1698411703109741,2.5853707790374756,0.10973682999610901
1.1580623388290405,2.60770583152771,0.1116417944431305
1.130537509918213,2.594174385070801,0.11200864613056183
2.065856695175171,4.834630012512207,0.21041789650917053
2.0427541732788086,4.878206729888916,0.21395546197891235
2.0116384029388428,4.903676986694336,0.21672724187374115
1.9891233444213867,4.946424961090088,0.22021359205245972
1.987457275390625,5.043606281280518,0.22616320848464966
2.018352746963501,5.232533931732178,0.23615747690200806
1.994199514389038,5.28342342376709,0.23999732732772827
1.9711313247680664,5.337759971618652,0.24401390552520752
1.9471666812896729,5.387966156005859,0.24783144891262054
1.904113531112671,5.386680603027344,0.24925263226032257
1.8755019903182983,5.429657936096191,0.2526039183139801
1.8675286769866943,5.535375118255615,0.25891953706741333
1.8596488237380981,5.644859313964844,0.2654619514942169
1.919439673423767,5.965921878814697,0.28203248977661133
1.88446843624115,6.0015082359313965,0.28514987230300903
1.8607906103134155,6.078210830688477,0.2901099920272827
1.8271281719207764,6.124978542327881,0.29367905855178833
1.797113299369812,6.18253755569458,0.2977684736251831
1.7597187757492065,6.217525959014893,0.30080878734588623
1.7380030155181885,6.308574199676514,0.30654677748680115
1.7141625881195068,6.399876117706299,0.31213825941085815
1.670437216758728,6.419406890869141,0.3142607510089874
0.822134792804718,3.2532970905303955,0.15985620021820068
1.5600303411483765,6.36262321472168,0.31381312012672424
0.798947274684906,3.3593292236328125,0.16630147397518158
1.4600024223327637,6.338123321533203,0.3147522509098053
1.4004409313201904,6.283538341522217,0.31299811601638794
1.3476612567901611,6.255091190338135,0.3125421702861786
1.2930307388305664,6.214742660522461,0.311492383480072
1.2451237440109253,6.200572490692139,0.31174299120903015
1.1920194625854492,6.15928316116333,0.31052395701408386
1.1590584516525269,6.22504997253418,0.31457293033599854
1.093684196472168,6.113984107971191,0.3096931278705597
1.0441606044769287,6.08695650100708,0.3090723752975464
1.0074702501296997,6.128665924072266,0.31193965673446655
0.9569759368896484,6.085361480712891,0.3104918599128723
0.8995915651321411,5.995458126068115,0.30645474791526794
0.8649821281433105,6.055682182312012,0.3100806474685669
0.742974579334259,5.481799125671387,0.2812116742134094
0.7674399018287659,5.974339962005615,0.3070393204689026
0.719796895980835,5.929140090942383,0.30528581142425537
0.5755966305732727,5.034774303436279,0.2596765160560608
0.5522484183311462,5.151156902313232,0.2660071551799774
0.5203490853309631,5.197577953338623,0.26874762773513794
0.3797353208065033,4.086318492889404,0.21157245337963104
0.35362258553504944,4.116048336029053,0.2134014070034027
0.33022457361221313,4.184496879577637,0.2172544002532959
0.29957500100135803,4.16723108291626,0.21656280755996704
0.27091819047927856,4.176997184753418,0.21721771359443665
0.24451543390750885,4.237226486206055,0.22051306068897247
0.39619559049606323,7.8114166259765625,0.40683436393737793
0.3402229845523834,7.7749834060668945,0.4052676856517792
0.28555864095687866,7.761544704437256,0.40491729974746704
0.22974199056625366,7.704847812652588,0.40204593539237976
0.17458432912826538,7.682875633239746,0.40097054839134216
0.12071985751390457,7.668297290802002,0.4002992510795593
0.0671953484416008,7.641638278961182,0.3990156948566437
0.01402557734400034,7.602903842926025,0.3971198499202728
-0.0386195108294487,7.567704677581787,0.3953882157802582
-0.09199387580156326,7.559450626373291,0.3948114514350891
-0.14404459297657013,7.535236835479736,0.3934233784675598
-0.19535690546035767,7.495067119598389,0.39122214913368225
-0.24683693051338196,7.47404146194458,0.39003968238830566
-0.2985016405582428,7.464356899261475,0.3894682228565216
-0.351252943277359,7.481601238250732,0.3902171850204468
-0.2926735579967499,5.418353080749512,0.282370001077652
-0.3306814432144165,5.423999786376953,0.28244704008102417
-0.3671954572200775,5.406027793884277,0.28130796551704407
-0.4041669964790344,5.39558219909668,0.28057438135147095
-0.4397374987602234,5.369333267211914,0.2790335714817047
-0.47508615255355835,5.338930606842041,0.2771523594856262
-0.4444601237773895,4.632691383361816,0.2401691973209381
-0.2619587182998657,2.5456652641296387,0.13180260360240936
-0.27577292919158936,2.5089011192321777,0.12973617017269135
-0.2972966134548187,2.5418078899383545,0.13127833604812622
-0.3109475076198578,2.5048115253448486,0.12921392917633057
-0.3281630277633667,2.5026321411132812,0.12886953353881836
-0.3453674614429474,2.5003345012664795,0.1285146176815033
-0.6555820107460022,4.5171074867248535,0.2317579984664917
-0.686944305896759,4.512477874755859,0.23110975325107574
-0.7181909084320068,4.503693103790283,0.23025354743003845
-0.744229793548584,4.467860698699951,0.22799786925315857
-0.7748004794120789,4.462701797485352,0.22719044983386993
-0.7997862696647644,4.4266204833984375,0.22482311725616455
-0.8252044320106506,4.394208908081055,0.222656711935997
-0.8526657223701477,4.373105525970459,0.22107520699501038
-0.7419727444648743,3.667217493057251,0.18496032059192657
-0.7686887979507446,3.669722318649292,0.1845790445804596
-0.789548397064209,3.645374298095703,0.18279992043972015
-0.9660010933876038,4.317681789398193,0.2158646285533905
-0.9958933591842651,4.310934066772461,0.2148771435022354
-1.0299721956253052,4.3190155029296875,0.21462370455265045
-1.058057188987732,4.30423641204834,0.21323630213737488
-1.0757944583892822,4.251613140106201,0.20985697209835052
-1.095853567123413,4.21026611328125,0.20705728232860565
-1.139802098274231,4.259253978729248,0.20870068669319153
-1.1677541732788086,4.2436394691467285,0.20715712010860443
-1.1950712203979492,4.227974891662598,0.20563624799251556
-1.2162193059921265,4.193567752838135,0.20311985909938812
-1.2467575073242188,4.1927947998046875,0.20220611989498138
-1.2705539464950562,4.1693925857543945,0.20021067559719086
-1.3023509979248047,4.167810916900635,0.19923481345176697
-1.3289391994476318,4.151278018951416,0.19756892323493958
-1.3573962450027466,4.142126083374023,0.19619220495224
-1.3827921152114868,4.125555038452148,0.19438709318637848
-1.4156532287597656,4.13096809387207,0.19362348318099976
-1.4338887929916382,4.091676712036133,0.19075091183185577
-1.460225224494934,4.074132442474365,0.18888603150844574
-1.4855599403381348,4.056723594665527,0.18701431155204773
-1.5128247737884521,4.046708583831787,0.18540790677070618
-1.5400218963623047,4.036510944366455,0.18380144238471985
-1.5677992105484009,4.025877952575684,0.18215645849704742
-1.5846152305603027,3.9857840538024902,0.17916874587535858
-1.614734411239624,3.982177257537842,0.17781037092208862
-1.6412427425384521,3.971403121948242,0.17606493830680847
-1.6646493673324585,3.9532575607299805,0.17400284111499786
-1.6689318418502808,3.8878982067108154,0.16983996331691742
-1.6932941675186157,3.8689095973968506,0.16770412027835846
-1.7353397607803345,3.893087863922119,0.16739128530025482
-1.7676867246627808,3.8957407474517822,0.16609564423561096
-1.7840521335601807,3.86257266998291,0.16326795518398285
-1.8042110204696655,3.836033821105957,0.16069531440734863
-1.8414109945297241,3.844385862350464,0.15955808758735657
-1.8667994737625122,3.832206964492798,0.15749591588974
-1.8921352624893188,3.8198459148406982,0.1554313749074936
-1.8938122987747192,3.7580008506774902,0.1513182371854782
-1.9235267639160156,3.7517411708831787,0.14944934844970703
-1.9415065050125122,3.7249550819396973,0.14670848846435547
-1.977431058883667,3.732625722885132,0.14526499807834625
-1.9916232824325562,3.698577880859375,0.14218443632125854
-1.7060909271240234,3.116258382797241,0.11827698349952698
-1.7156745195388794,3.084289789199829,0.11551372706890106
-1.7357890605926514,3.073089361190796,0.11350955069065094
-0.8395625948905945,1.4628591537475586,0.05323629453778267
-0.8418798446655273,1.4435124397277832,0.05173009634017944
-0.8515195250511169,1.437883734703064,0.05070677772164345
-0.8689109683036804,1.445730209350586,0.050141431391239166
-0.8909479975700378,1.4598101377487183,0.04973519966006279
-0.8930127620697021,1.4402409791946411,0.048147834837436676
-0.8898130059242249,1.4146548509597778,0.04637359827756882
-0.88641756772995,1.3891074657440186,0.044614411890506744
-0.8687742948532104,1.3215181827545166,0.040541280061006546
-2.3812711238861084,3.518742561340332,0.10246017575263977
-1.2134525775909424,1.767497181892395,0.050009921193122864
-1.4811137914657593,2.1284797191619873,0.05844064801931381
-1.3937171697616577,2.008606195449829,-0.0510522685945034
-1.1494158506393433,1.6836369037628174,-0.044562578201293945
-1.2374464273452759,1.8409303426742554,-0.05053633078932762
-1.2242635488510132,1.8496681451797485,-0.05251910164952278
-1.1822785139083862,1.8164430856704712,-0.05329665541648865
-1.1652461290359497,1.8180930614471436,-0.05490636080503464
-0.8487188816070557,1.4123725891113281,-0.04718255624175072
-0.7666972875595093,1.2975785732269287,-0.044314514845609665
-0.8783985376358032,1.5620343685150146,-0.056583669036626816
-1.6334880590438843,2.955812931060791,-0.1090560182929039
-2.0529470443725586,3.776512622833252,-0.14169995486736298
-2.0094845294952393,3.759915590286255,-0.14340217411518097
-2.0054690837860107,3.819365978240967,-0.14799152314662933
-1.947786569595337,3.7744648456573486,-0.14847199618816376
-1.9351115226745605,3.8159193992614746,-0.15232813358306885
-1.9007014036178589,3.8156309127807617,-0.15443967282772064
-1.8848848342895508,3.8538029193878174,-0.15809179842472076
-1.8558812141418457,3.863416910171509,-0.16053329408168793
-1.8221646547317505,3.8620693683624268,-0.16249369084835052
-1.8123446702957153,3.913949489593506,-0.16663767397403717
-1.7655479907989502,3.888066053390503,-0.16748712956905365
-1.5395485162734985,3.4546432495117188,-0.1504601389169693
-1.5514798164367676,3.5474140644073486,-0.15616460144519806
-1.54776930809021,3.608475685119629,-0.16048505902290344
-1.665436863899231,3.9612345695495605,-0.1779327541589737
-1.412392020225525,3.4281225204467773,-0.15550565719604492
-1.373902678489685,3.40158748626709,-0.15575812757015228
-1.3470183610916138,3.4038448333740234,-0.15728257596492767
-1.363441824913025,3.518871307373047,-0.16400586068630219
-1.529274582862854,4.031967639923096,-0.1895255446434021
-1.474810004234314,3.973112106323242,-0.18833346664905548
-1.4191135168075562,3.906170606613159,-0.18668048083782196
-1.3884543180465698,3.9088022708892822,-0.18819846212863922
-1.3923784494400024,4.010728359222412,-0.1945362091064453
-1.3165760040283203,3.8798859119415283,-0.18954527378082275
-1.2436354160308838,3.751983642578125,-0.18462391197681427
-1.1643182039260864,3.5972237586975098,-0.17819850146770477
-1.1609923839569092,3.6760432720184326,-0.18324607610702515
-1.137136697769165,3.6915810108184814,-0.1851700395345688
-1.1024409532546997,3.6694345474243164,-0.18518206477165222
-1.0757851600646973,3.6731958389282227,-0.18650026619434357
-1.034312129020691,3.6282505989074707,-0.18526041507720947
-0.9990946650505066,3.601609468460083,-0.18489764630794525
-0.9787787199020386,3.6273229122161865,-0.18721824884414673
-0.9367635846138,3.5698039531707764,-0.1852242648601532
-0.9042299389839172,3.545915126800537,-0.18495598435401917
-0.8721252679824829,3.5257606506347656,-0.1847507208585739
-0.8326181173324585,3.471081018447876,-0.18270982801914215
-0.8055869340896606,3.4653804302215576,-0.18323300778865814
-0.7694001197814941,3.4175753593444824,-0.18151848018169403
-0.7388119697570801,3.3923287391662598,-0.18096725642681122
-0.7135295271873474,3.3936989307403564,-0.18172740936279297
-0.6848009824752808,3.375683069229126,-0.18144172430038452
-0.6627044081687927,3.3879904747009277,-0.18278175592422485
-0.6318918466567993,3.3541367053985596,-0.18163156509399414
-0.6029320955276489,3.327706813812256,-0.180843323469162
-0.5690633058547974,3.274252414703369,-0.1784793883562088
-0.5498460531234741,3.3012213706970215,-0.18049326539039612
-0.5219151973724365,3.2741165161132812,-0.17955276370048523
-0.49796947836875916,3.2699127197265625,-0.17986907064914703
-0.4729381799697876,3.2578237056732178,-0.1797221153974533
-0.453948438167572,3.291992425918579,-0.1820235252380371
-0.42577701807022095,3.25639009475708,-0.1804683804512024
-0.3996783494949341,3.2321560382843018,-0.17954157292842865
-0.3771577477455139,3.2348291873931885,-0.18011364340782166
-0.35119563341140747,3.2063333988189697,-0.17893202602863312
-0.3243161737918854,3.166016101837158,-0.17696799337863922
-0.300984263420105,3.1604599952697754,-0.17695607244968414
-0.2775428295135498,3.146920919418335,-0.17649729549884796
-0.2575738728046417,3.1720736026763916,-0.17821639776229858
-0.2338002622127533,3.1504271030426025,-0.17730778455734253
-0.21180817484855652,3.151967763900757,-0.17756368219852448
-0.18800587952136993,3.1300199031829834,-0.17650698125362396
-0.16453209519386292,3.100083351135254,-0.1750018447637558
-0.14477317035198212,3.14009690284729,-0.17745400965213776
-0.12138726562261581,3.102044105529785,-0.17550316452980042
-0.10049039870500565,3.126197099685669,-0.17694276571273804
-0.0777154490351677,3.1034328937530518,-0.17572161555290222
-0.05622124671936035,3.111691951751709,-0.1762641817331314
-0.034281887114048004,3.0847039222717285,-0.17481788992881775
-0.012866558507084846,3.0926620960235596,-0.1753600686788559
0.00854753702878952,3.0614776611328125,-0.17357762157917023
0.03042057901620865,3.084742546081543,-0.1748499870300293
0.05134069547057152,3.0532639026641846,-0.17302867770195007
0.07222271710634232,3.0372400283813477,-0.17209206521511078
0.09336355328559875,3.0366666316986084,-0.17203935980796814
0.1138862818479538,3.0203628540039062,-0.17102059721946716
0.13521181046962738,3.0273025035858154,-0.17126379907131195
0.1570214182138443,3.034071445465088,-0.17150235176086426
0.17809323966503143,3.032918691635132,-0.17130368947982788
0.20120187103748322,3.062753200531006,-0.1728622019290924
0.22130094468593597,3.0457401275634766,-0.1717238426208496
0.24235376715660095,3.044156789779663,-0.17137692868709564
0.26512426137924194,3.0579373836517334,-0.17189739644527435
0.28415969014167786,3.0327441692352295,-0.17023949325084686
0.3060389757156372,3.0384740829467773,-0.17032626271247864
0.3288096785545349,3.0518076419830322,-0.17080646753311157
0.34900492429733276,3.041740655899048,-0.16987283527851105
0.3765319287776947,3.089569568634033,-0.1721690148115158
0.3954654932022095,3.0675694942474365,-0.17058365046977997
0.41784530878067017,3.0725021362304688,-0.17050467431545258
0.4380463659763336,3.0618364810943604,-0.16954882442951202
0.46028926968574524,3.066495895385742,-0.16933095455169678
0.4817838668823242,3.0632286071777344,-0.16867391765117645
0.5061761736869812,3.079094409942627,-0.16908104717731476
0.5315528512001038,3.0985989570617676,-0.16968803107738495
0.5530890226364136,3.0948641300201416,-0.16901685297489166
0.57438725233078,3.0910255908966064,-0.16821804642677307
0.6000658869743347,3.1100261211395264,-0.1686665266752243
0.6204227209091187,3.0981175899505615,-0.16743002831935883
0.6482983827590942,3.1243269443511963,-0.1682647317647934
0.6667207479476929,3.10453462600708,-0.16661953926086426
0.6938959360122681,3.126601457595825,-0.16710013151168823
0.7240183353424072,3.159848213195801,-0.16817159950733185
0.7480196952819824,3.162323236465454,-0.16758477687835693
0.7681769132614136,3.1495089530944824,-0.1662028431892395
0.7919535040855408,3.151712417602539,-0.1656067967414856
0.8193362355232239,3.1689462661743164,-0.1656808704137802
0.8460156321525574,3.1821751594543457,-0.1655413806438446
0.8725046515464783,3.191255807876587,-0.1651616394519806
0.9094436168670654,3.2377569675445557,-0.16671901941299438
0.9372566938400269,3.2501842975616455,-0.16648080945014954
0.9494100213050842,3.2101197242736816,-0.1634739637374878
0.979173481464386,3.2297816276550293,-0.16351856291294098
1.0112110376358032,3.252664566040039,-0.1636824905872345
1.0527691841125488,3.3050999641418457,-0.16532853245735168
1.012611746788025,3.1049368381500244,-0.15433478355407715
1.018892526626587,3.0536277294158936,-0.15076351165771484
1.1732228994369507,3.438145399093628,-0.1686011701822281
1.1945414543151855,3.4226090908050537,-0.1666746288537979
1.2213873863220215,3.4214863777160645,-0.16543664038181305
1.2473293542861938,3.4205024242401123,-0.1641377955675125
1.273179531097412,3.419374465942383,-0.16280974447727203
1.303526520729065,3.428884744644165,-0.16196992993354797
1.359858512878418,3.503479242324829,-0.1641526073217392
1.3902157545089722,3.508427143096924,-0.16299089789390564
1.4284950494766235,3.5352323055267334,-0.16276106238365173
1.4582796096801758,3.5400280952453613,-0.16150417923927307
1.508571743965149,3.5910568237304688,-0.16228683292865753
1.5750370025634766,3.6774215698242188,-0.16460439562797546
1.1444200277328491,2.622058391571045,-0.11615559458732605
1.1525179147720337,2.5929698944091797,-0.11367384344339371
1.1702927350997925,2.58506441116333,-0.11211108416318893
1.1849898099899292,2.5698347091674805,-0.11022251844406128
1.2057856321334839,2.568838119506836,-0.10892068594694138
1.2299622297286987,2.574735164642334,-0.10785461962223053
1.2542741298675537,2.5804216861724854,-0.10677029192447662
1.976694107055664,3.9957475662231445,-0.1632295399904251
2.0232691764831543,4.020606994628906,-0.16209030151367188
1.2108056545257568,2.3667538166046143,-0.09411097317934036
1.248404622077942,2.4001357555389404,-0.09409058094024658
1.2653535604476929,2.3913121223449707,-0.09233475476503372
1.277872920036316,2.375849962234497,-0.09033582359552383
1.2823246717453003,2.3468565940856934,-0.08781598508358002
1.2982069253921509,2.338174819946289,-0.08603667467832565
1.3144487142562866,2.3291499614715576,-0.08421016484498978
1.3128286600112915,2.2897114753723145,-0.08125270158052444
1.3239487409591675,2.2743330001831055,-0.07918768376111984
1.331620216369629,2.2517895698547363,-0.07682190090417862
1.3431235551834106,2.2359068393707275,-0.07468509674072266
1.3454902172088623,2.2071540355682373,-0.07211556285619736
1.3563300371170044,2.1913938522338867,-0.06992856413125992
1.3757271766662598,2.188563108444214,-0.06811220943927765
1.3734122514724731,2.1531152725219727,-0.0652795061469078
1.3853062391281128,2.14089298248291,-0.06316255033016205
1.4151569604873657,2.154125452041626,-0.06166791170835495
1.4101996421813965,2.1153218746185303,-0.05865227431058884
1.4150078296661377,2.0933382511138916,-0.05616580322384834
1.438374638557434,2.0963852405548096,-0.05419562757015228
1.4566067457199097,2.0933401584625244,-0.05204356834292412
1.4521030187606812,2.058403968811035,-0.04907912388443947
1.4620380401611328,2.041818618774414,-0.04639666900038719
1.4473388195037842,1.994694709777832,-0.04310804605484009
1.46527898311615,1.9913147687911987,-0.04064434394240379
2.218101978302002,3.1280605792999268,0.0983690619468689
2.188436508178711,3.134481430053711,0.10208591818809509
2.161486864089966,3.143526554107666,0.10569633543491364
2.136744737625122,3.160264730453491,0.10957946628332138
2.1231205463409424,3.1880929470062256,0.11352147907018661
2.102015495300293,3.206592082977295,0.11710663884878159
3.0972185134887695,4.804063320159912,0.1797604113817215
1.6300699710845947,2.567662477493286,0.09818384796380997
1.6318888664245605,2.6125550270080566,0.10203863680362701
1.5875656604766846,2.5848019123077393,0.10298749059438705
1.8760710954666138,3.103780746459961,0.12595020234584808
1.8663523197174072,3.136808156967163,0.1295364648103714
1.8349581956863403,3.137085437774658,0.13170813024044037
1.8211750984191895,3.16752552986145,0.13515585660934448
2.517890691757202,4.450695037841797,0.1927366703748703
2.457550287246704,4.417257785797119,0.19403551518917084
2.4077951908111572,4.4044270515441895,0.19613149762153625
2.4037535190582275,4.473062992095947,0.20179231464862823
2.4030325412750244,4.5484795570373535,0.20778976380825043
2.474673271179199,4.7663469314575195,0.22034229338169098
2.421774387359619,4.749517440795898,0.2220868170261383
2.3544023036956787,4.700329303741455,0.22221407294273376
2.314643621444702,4.702493667602539,0.22467166185379028
1.2514736652374268,2.5896501541137695,0.12500831484794617
1.212344765663147,2.5563836097717285,0.12459563463926315
1.1888481378555298,2.5544095039367676,0.12567377090454102
1.1758911609649658,2.5732014179229736,0.12773428857326508
1.1563204526901245,2.577702522277832,0.1290891468524933
1.154775857925415,2.625282049179077,0.1325378268957138
2.0713071823120117,4.805149555206299,0.24457304179668427
2.0495879650115967,4.848227500915527,0.24866719543933868
2.0246546268463135,4.883910655975342,0.25239846110343933
2.003075361251831,4.930591583251953,0.2566481828689575
1.9816064834594727,4.981143474578857,0.261055588722229
2.025653839111328,5.202662944793701,0.2745436131954193
2.0032382011413574,5.2529778480529785,0.27900272607803345
1.984357237815857,5.314176559448242,0.2840800881385803
1.9623678922653198,5.372074127197266,0.2888743579387665
1.931359887123108,5.408031940460205,0.2924714982509613
1.8919824361801147,5.421801567077637,0.29490092396736145
1.880730390548706,5.512219429016113,0.301461786031723
1.8509867191314697,5.5509419441223145,0.3052428960800171
1.897109031677246,5.8272294998168945,0.32201194763183594
1.8918497562408447,5.955818176269531,0.3306877315044403
1.8705507516860962,6.040041923522949,0.3369825780391693
1.8419572114944458,6.09760856628418,0.34177476167678833
1.8071420192718506,6.136356353759766,0.3455471396446228
1.7850048542022705,6.223906993865967,0.35193488001823425
1.74982488155365,6.270223617553711,0.35594093799591064
1.717195987701416,6.327629089355469,0.36061039566993713
1.6872364282608032,6.396088600158691,0.3659377992153168
1.6523940563201904,6.44533109664917,0.37017834186553955
0.8148634433746338,3.2737436294555664,0.18870000541210175
1.5464224815368652,6.40717887878418,0.37049344182014465
0.792129635810852,3.3874449729919434,0.19650940597057343
1.4256764650344849,6.299029350280762,0.36660534143447876
1.373431921005249,6.2706074714660645,0.36612316966056824
1.3281155824661255,6.2722883224487305,0.36740776896476746
1.2640423774719238,6.18595027923584,0.3632616698741913
1.2170724868774414,6.179380416870117,0.3637964725494385
1.1646360158920288,6.145737171173096,0.36275866627693176
1.1191307306289673,6.138249397277832,0.3632418215274811
1.0710350275039673,6.115072250366211,0.3628084063529968
1.023719072341919,6.095418453216553,0.36246809363365173
0.9732113480567932,6.0562310218811035,0.3608264625072479
0.9172750115394592,5.982054710388184,0.3571155369281769
0.8787950277328491,6.011410713195801,0.3595775067806244
0.8315335512161255,5.978699207305908,0.35833942890167236
0.782219409942627,5.926294326782227,0.35592663288116455
0.7414931654930115,5.939335823059082,0.35723525285720825
0.6103443503379822,5.185338973999023,0.31231632828712463
0.5577598214149475,5.050012588500977,0.3046087622642517
0.537808358669281,5.201119422912598,0.3141818046569824
0.3975866734981537,4.125722408294678,0.2495959997177124
0.3650335371494293,4.085638523101807,0.2475288361310959
0.3430492877960205,4.169686317443848,0.2528217136859894
0.3147585988044739,4.191446304321289,0.25435879826545715
0.28540360927581787,4.193526268005371,0.2547111511230469
0.2557711899280548,4.18760347366333,0.25458773970603943
0.22834135591983795,4.2204060554504395,0.2568323612213135
0.36688849329948425,7.785545349121094,0.474141389131546
0.3103340268135071,7.75676965713501,0.47253745794296265
0.25483861565589905,7.7158613204956055,0.47021329402923584
0.20043644309043884,7.694046974182129,0.4690741002559662
0.14628289639949799,7.660151958465576,0.46721896529197693
0.09275230765342712,7.637574195861816,0.46607506275177
0.038632094860076904,7.622437953948975,0.4652101695537567
-0.014317800290882587,7.583536624908447,0.4627678394317627
-0.06682807207107544,7.555964946746826,0.46103984117507935
-0.11901707202196121,7.531930446624756,0.4595502018928528
-0.17079882323741913,7.507537841796875,0.45806100964546204
-0.22213172912597656,7.478893280029297,0.4563343822956085
-0.2745846211910248,7.469367504119873,0.4555261731147766
-0.3266524076461792,7.47510290145874,0.45558592677116394
-0.27311593294143677,5.3932623863220215,0.3285101652145386
-0.3128156065940857,5.430179595947266,0.33057913184165955
-0.3505285084247589,5.427894115447998,0.33027616143226624
-0.3867073059082031,5.3941826820373535,0.32807520031929016
-0.42210087180137634,5.368095397949219,0.3261118233203888
-0.45880329608917236,5.361203670501709,0.3253195583820343
-0.4893762469291687,5.288052082061768,0.3205265998840332
-0.254151314496994,2.5530407428741455,0.1545838862657547
-0.27137231826782227,2.5434415340423584,0.15384313464164734
-0.2969472408294678,2.61125111579895,0.15777136385440826
-0.30834636092185974,2.5549755096435547,0.15411312878131866
-0.3224678635597229,2.525740385055542,0.15210098028182983
-0.3377879559993744,2.5080227851867676,0.15079344809055328
-0.3555162250995636,2.505594253540039,0.1504078358411789
-0.676857054233551,4.543356418609619,0.27231818437576294
-0.7015809416770935,4.496242523193359,0.26900815963745117
-0.7298749089241028,4.475985527038574,0.26720526814460754
-0.7591884136199951,4.4632487297058105,0.2658677399158478
-0.7845409512519836,4.4272356033325195,0.2631562650203705
-0.8201143145561218,4.444632530212402,0.26361897587776184
-0.8421875834465027,4.392916679382324,0.2600083649158478
-0.7308523058891296,3.6756746768951416,0.21698346734046936
-0.7543750405311584,3.6630094051361084,0.2156338095664978
-0.7769461274147034,3.6463799476623535,0.21406400203704834
-0.9453788995742798,4.288296699523926,0.25104108452796936
-0.9854606986045837,4.327337265014648,0.2526357173919678
-1.0171324014663696,4.328080177307129,0.251964271068573
-1.044663906097412,4.313565731048584,0.25026577711105347
-1.066382884979248,4.27617073059082,0.24725881218910217
-1.0835517644882202,4.21959924697876,0.24314838647842407
-1.1278020143508911,4.2686004638671875,0.24513418972492218
-1.1533578634262085,4.245675563812256,0.24299310147762299
-1.182328701019287,4.237778663635254,0.24160507321357727
-1.2056221961975098,4.211009979248047,0.2391068935394287
-1.234643578529358,4.2026753425598145,0.23765245079994202
-1.263838529586792,4.194070816040039,0.23618637025356293
-1.2883294820785522,4.170367240905762,0.23388612270355225
-1.3122862577438354,4.146613121032715,0.23153647780418396
-1.337805986404419,4.130341053009033,0.2295096069574356
-1.366134762763977,4.121149063110352,0.22786813974380493
-1.3945472240447998,4.111712455749512,0.2262180745601654
-1.4231139421463013,4.102004051208496,0.22455517947673798
-1.443669080734253,4.070080280303955,0.22166520357131958
-1.471041202545166,4.060364723205566,0.21986672282218933
-1.4929333925247192,4.035829067230225,0.2172802835702896
-1.5238053798675537,4.032716751098633,0.2158145159482956
-1.5461758375167847,4.007568836212158,0.21318712830543518
-1.5709911584854126,3.9896204471588135,0.21094027161598206
-1.6005370616912842,3.9863734245300293,0.20935063064098358
-1.6241979598999023,3.9684646129608154,0.20700037479400635
-1.6503418684005737,3.953543186187744,0.20475821197032928
-1.6824032068252563,3.9528372287750244,0.20326311886310577
-1.706449270248413,3.9341182708740234,0.20081287622451782
-1.7279095649719238,3.9120559692382812,0.19811087846755981
-1.7587534189224243,3.9112348556518555,0.19649335741996765
-1.774870753288269,3.874035596847534,0.19297537207603455
-1.8017655611038208,3.8617115020751953,0.1907370388507843
-1.8244366645812988,3.8425278663635254,0.18809078633785248
-1.8532357215881348,3.8375046253204346,0.18609607219696045
-1.8721299171447754,3.8110530376434326,0.18304577469825745
-1.8886653184890747,3.776841878890991,0.17955069243907928
-1.9040879011154175,3.742952346801758,0.17611420154571533
-1.9359302520751953,3.744283676147461,0.17425324022769928
-1.9569799900054932,3.724626064300537,0.17141951620578766
-1.9828087091445923,3.711061716079712,0.16877737641334534
-2.023475170135498,3.7247402667999268,0.16736534237861633
-1.7050551176071167,3.0892951488494873,0.13700208067893982
-1.725253701210022,3.0781612396240234,0.13472077250480652
-0.8423271179199219,1.4788668155670166,0.06381551921367645
-0.8604345917701721,1.4865251779556274,0.0632195845246315
-0.8661772012710571,1.4741889238357544,0.06173551082611084
-0.867936909198761,1.455051302909851,0.05996296927332878
-0.8780354261398315,1.4490318298339844,0.05869552865624428
-0.8879366517066956,1.443036675453186,0.05742533132433891
-0.8889575004577637,1.4240821599960327,0.05562755465507507
-0.8984073996543884,1.4181902408599854,0.05431988090276718
-0.876747727394104,1.3625891208648682,0.051079582422971725
-0.9304751753807068,1.4255238771438599,0.05226783826947212
-0.9396210312843323,1.4195632934570312,0.05086316540837288
-2.402068614959717,3.5746984481811523,0.12481775134801865
-1.3631209135055542,1.9723491668701172,0.06513506174087524
-1.390237808227539,1.9820945262908936,0.06338884681463242
-1.2242695093154907,1.7505089044570923,-0.04949578270316124
-1.6049553155899048,2.3323330879211426,-0.06885889917612076
-1.289291262626648,1.9328575134277344,-0.06150386855006218
-1.1846368312835693,1.8053746223449707,-0.059438854455947876
-1.1847065687179565,1.8332164287567139,-0.06220613792538643
-1.2919255495071411,2.0656299591064453,-0.07421527802944183
-0.7833225727081299,1.3147443532943726,-0.05078858882188797
-0.8394953608512878,1.480601191520691,-0.06084578111767769
-2.111981153488159,3.7879581451416016,-0.1586015373468399
-1.7006806135177612,3.1008362770080566,-0.13215069472789764
-2.0357205867767334,3.776060104370117,-0.1636887788772583
-2.014758586883545,3.80481219291687,-0.1677289754152298
-1.991646647453308,3.825620651245117,-0.17127010226249695
-1.9613995552062988,3.8323044776916504,-0.17416958510875702
-1.926405668258667,3.832404613494873,-0.1766829639673233
-1.8795273303985596,3.8076486587524414,-0.17801614105701447
-1.8661143779754639,3.848825454711914,-0.1823750138282776
-1.864254117012024,3.9145233631134033,-0.18790067732334137
-1.8011101484298706,3.8535573482513428,-0.1872546672821045
-1.5796812772750854,3.444201946258545,-0.16938422620296478
-1.5556275844573975,3.455010175704956,-0.17187228798866272
-1.5440378189086914,3.494237184524536,-0.17578931152820587
-1.4500800371170044,3.347820520401001,-0.17024201154708862
-1.4075664281845093,3.314988136291504,-0.17033998668193817
-1.3934102058410645,3.3462228775024414,-0.1736665815114975
-1.364138126373291,3.3412957191467285,-0.1751285046339035
-1.3589502573013306,3.397984504699707,-0.17974862456321716
-1.3510624170303345,3.451338291168213,-0.18426483869552612
-1.3477342128753662,3.5152714252471924,-0.18933118879795074
-1.3286834955215454,3.5390737056732178,-0.1922650933265686
-1.3143500089645386,3.5775749683380127,-0.19595544040203094
-1.2675957679748535,3.5280418395996094,-0.1947638988494873
-1.2123514413833618,3.452341318130493,-0.19208920001983643
-1.1819268465042114,3.4421534538269043,-0.192971870303154
-1.1355160474777222,3.383654832839966,-0.19110700488090515
-1.1003972291946411,3.358217477798462,-0.19095276296138763
-1.0740164518356323,3.3584601879119873,-0.19225287437438965
-1.043123483657837,3.343578338623047,-0.1926811933517456
-1.0050876140594482,3.30214786529541,-0.19153308868408203
-0.96185702085495,3.24174427986145,-0.18918345868587494
-0.9333871603012085,3.229675769805908,-0.18956413865089417
-0.9041346311569214,3.2135989665985107,-0.18970267474651337
-0.8735477924346924,3.189626932144165,-0.1893453598022461
-0.8509984016418457,3.195631265640259,-0.19078460335731506
-0.8264979720115662,3.1939218044281006,-0.19163620471954346
-0.7972270250320435,3.1731390953063965,-0.19131255149841309
-0.7674747705459595,3.148289680480957,-0.19073230028152466
-0.7347612380981445,3.1079466342926025,-0.18919074535369873
-0.708349883556366,3.0939993858337402,-0.18926295638084412
-0.6830750107765198,3.083639621734619,-0.18938560783863068
-0.6563214063644409,3.0654585361480713,-0.18902817368507385
-0.6316481232643127,3.0546488761901855,-0.18911784887313843
-0.6073155999183655,3.043614387512207,-0.18918967247009277
-0.5820341110229492,3.028637409210205,-0.18901152908802032
-0.5578537583351135,3.0172722339630127,-0.18891043961048126
-0.5311091542243958,2.990367889404297,-0.18783719837665558
-0.5115014910697937,3.001641273498535,-0.18916133046150208
-0.4868415296077728,2.981987237930298,-0.18853935599327087
-0.4602816700935364,2.95064377784729,-0.1871596872806549
-0.4383961260318756,2.946049690246582,-0.18733805418014526
-0.41550442576408386,2.9335739612579346,-0.18702074885368347
-0.3908589780330658,2.905451774597168,-0.1857045739889145
-0.368673712015152,2.892589569091797,-0.1853632926940918
-0.34806013107299805,2.8911755084991455,-0.18573959171772003
-0.32041001319885254,2.831575632095337,-0.1822577863931656
-0.29808345437049866,2.81046199798584,-0.18124577403068542
-0.2780880331993103,2.8085625171661377,-0.18147657811641693
-0.25716155767440796,2.7948670387268066,-0.18094965815544128
-0.24006156623363495,2.8237438201904297,-0.18317432701587677
-0.2200019508600235,2.825356960296631,-0.1834934949874878
-0.19945725798606873,2.8151378631591797,-0.1830485463142395
-0.18005935847759247,2.8203306198120117,-0.1836140900850296
-0.15976384282112122,2.8098201751708984,-0.18316489458084106
-0.1407633125782013,2.822524309158325,-0.18423804640769958
-0.1205083504319191,2.819549560546875,-0.18414197862148285
-0.10054080188274384,2.81252121925354,-0.18378794193267822
-0.08070233464241028,2.8053512573242188,-0.18343283236026764
-0.06118868291378021,2.8058345317840576,-0.1835864633321762
-0.041581448167562485,2.798386812210083,-0.1832295060157776
-0.021692855283617973,2.7908148765563965,-0.18273134529590607
-0.002278640167787671,2.7753069400787354,-0.1817062944173813
0.01699143275618553,2.767460346221924,-0.18119168281555176
0.036229562014341354,2.76727557182312,-0.18118752539157867
0.055803291499614716,2.7825450897216797,-0.18220408260822296
0.07536255568265915,2.7898905277252197,-0.18259161710739136
0.09481475502252579,2.7815074920654297,-0.18192218244075775
0.11383049935102463,2.7730021476745605,-0.1812562793493271
0.1338542401790619,2.7877278327941895,-0.18211735785007477
0.1528041511774063,2.7789559364318848,-0.18145187199115753
0.17207080125808716,2.7778470516204834,-0.18118363618850708
0.1910875141620636,2.768810749053955,-0.18034520745277405
0.20969119668006897,2.7596664428710938,-0.17951363325119019
0.2288953810930252,2.7581613063812256,-0.17918738722801208
0.24596795439720154,2.7332303524017334,-0.17735005915164948
0.2641771137714386,2.7237236499786377,-0.17644183337688446
0.2829592525959015,2.7179484367370605,-0.17571184039115906
0.30004599690437317,2.7004570960998535,-0.17424169182777405
0.31789013743400574,2.690594434738159,-0.1732737123966217
0.3355880379676819,2.680617094039917,-0.1723090410232544
0.35975608229637146,2.7207765579223633,-0.17450302839279175
0.3831346333026886,2.749115467071533,-0.17585104703903198
0.4031990170478821,2.754164695739746,-0.17571938037872314
0.42709389328956604,2.782158613204956,-0.17704911530017853
0.44833052158355713,2.7907028198242188,-0.17714223265647888
0.4670383930206299,2.783724308013916,-0.17619448900222778
0.48960718512535095,2.79968523979187,-0.17661848664283752
0.5064489841461182,2.780888080596924,-0.1748480200767517
0.5315617322921753,2.8079981803894043,-0.17597518861293793
0.5525646805763245,2.811938524246216,-0.1756509244441986
0.5735576748847961,2.815744161605835,-0.17526127398014069
0.596088707447052,2.8270609378814697,-0.1752614676952362
0.620779812335968,2.8457515239715576,-0.17570631206035614
0.6414237022399902,2.845226526260376,-0.17496831715106964
0.6665346026420593,2.8635354042053223,-0.17538955807685852
0.6862878203392029,2.8589301109313965,-0.17434044182300568
0.7133650779724121,2.8845081329345703,-0.1750592291355133
0.7373179793357849,2.8946475982666016,-0.17482168972492218
0.7613978385925293,2.9046056270599365,-0.1745748668909073
0.7886720895767212,2.9256703853607178,-0.17499302327632904
0.8108309507369995,2.9277758598327637,-0.17418698966503143
0.8372079730033875,2.9447546005249023,-0.17421168088912964
0.8555295467376709,2.93143892288208,-0.17242717742919922
0.8871304988861084,2.9628450870513916,-0.17327150702476501
0.9134865999221802,2.9753103256225586,-0.1729976087808609
0.9431524276733398,2.9988508224487305,-0.17325499653816223
0.9683570265769958,3.0072879791259766,-0.17261196672916412
0.9869521260261536,2.993112087249756,-0.17064568400382996
1.0077942609786987,2.986246109008789,-0.1691126823425293
1.0094037055969238,2.9239587783813477,-0.16444846987724304
1.0214506387710571,2.895055055618286,-0.16160011291503906
1.0411115884780884,2.8881328105926514,-0.15999411046504974
1.0759196281433105,2.921210527420044,-0.1605716347694397
1.1872552633285522,3.1545934677124023,-0.1720171570777893
1.2129970788955688,3.1574275493621826,-0.17074324190616608
1.2542221546173096,3.200120449066162,-0.17156070470809937
1.2789210081100464,3.1988396644592285,-0.16998620331287384
1.3350963592529297,3.2730376720428467,-0.17235346138477325
1.3611563444137573,3.270850658416748,-0.1706208437681198
1.40605628490448,3.315582036972046,-0.17124706506729126
1.1250642538070679,2.6040761470794678,-0.13315759599208832
1.1494282484054565,2.610568046569824,-0.13210229575634003
1.150016188621521,2.563424587249756,-0.12834957242012024
1.1757370233535767,2.573289632797241,-0.1273745894432068
1.1929727792739868,2.5654354095458984,-0.1255316138267517
1.2139525413513184,2.564305305480957,-0.12398054450750351
1.2453217506408691,2.584012985229492,-0.12340662628412247
1.779960036277771,3.6303772926330566,-0.17116959393024445
1.8254719972610474,3.660252571105957,-0.1702771633863449
1.924669861793518,3.793982982635498,-0.17408369481563568
1.9474551677703857,3.773695468902588,-0.17070390284061432
1.3781520128250122,2.6268739700317383,-0.1170736625790596
1.3772145509719849,2.583310604095459,-0.11338066309690475
1.3595362901687622,2.5087099075317383,-0.10834618657827377
1.320718765258789,2.396566390991211,-0.10175880789756775
1.3213940858840942,2.360557794570923,-0.09849918633699417
1.3099170923233032,2.304370403289795,-0.09444895386695862
1.3258484601974487,2.2953290939331055,-0.0922836884856224
1.3278429508209229,2.262632369995117,-0.08917520940303802
1.3389278650283813,2.2470924854278564,-0.08670668303966522
1.3539574146270752,2.2381534576416016,-0.08449579775333405
1.357236623764038,2.208803176879883,-0.08146367222070694
1.3594945669174194,2.179936408996582,-0.07847023010253906
1.3820058107376099,2.1843199729919434,-0.07667418569326401
1.3974225521087646,2.174574851989746,-0.07420380413532257
1.3992438316345215,2.145568370819092,-0.07112330198287964
1.4023029804229736,2.1202797889709473,-0.06819184124469757
1.421223759651184,2.117137908935547,-0.06584591418504715
1.4266469478607178,2.094693660736084,-0.06287910044193268
1.4446814060211182,2.091872453689575,-0.06046028435230255
1.4658583402633667,2.0914900302886963,-0.057944390922784805
1.4592007398605347,2.053244113922119,-0.05439147353172302
1.4496474266052246,2.0121307373046875,-0.05077478662133217
1.477361798286438,2.0210444927215576,-0.048251450061798096
1.4666590690612793,1.980500340461731,-0.044548824429512024
3.1909656524658203,4.467235565185547,0.1602107435464859
2.2045490741729736,3.132232904434204,0.1163775697350502
2.175671100616455,3.1426942348480225,0.12073507159948349
2.157376766204834,3.164569854736328,0.12524421513080597
2.130216121673584,3.173351287841797,0.12911109626293182
2.1015121936798096,3.1829116344451904,0.13296271860599518
3.097651481628418,4.765567779541016,0.2038993537425995
1.643174171447754,2.5679991245269775,0.11236096918582916
1.6402689218521118,2.6066946983337402,0.11651899665594101
1.6134165525436401,2.6049251556396484,0.11873950064182281
