X,Y,Z
0.7915374040603638,5.963922500610352,1.1492254734039307
0.7413829565048218,5.900308132171631,1.1384007930755615
0.5990828275680542,5.051520824432373,0.9759092330932617
0.5684114098548889,5.097184181213379,0.9857791066169739
0.5432593822479248,5.203799724578857,1.0071022510528564
0.4018206000328064,4.130659580230713,0.8000138998031616
0.367145299911499,4.07590389251709,0.7900465726852417
0.3467007279396057,4.173700332641602,0.8096781373023987
0.317640095949173,4.175795555114746,0.810798704624176
0.28803855180740356,4.1700358390808105,0.8104321360588074
0.25881287455558777,4.17183780670166,0.8110195398330688
0.426658570766449,7.772597312927246,1.5115017890930176
0.36997514963150024,7.729229927062988,1.5036143064498901
0.3150542378425598,7.704597473144531,1.4994357824325562
0.2604518532752991,7.6757426261901855,1.494502067565918
0.20759421586990356,7.692496299743652,1.4985181093215942
0.15211807191371918,7.639988899230957,1.4886503219604492
0.09853886067867279,7.614020347595215,1.4834543466567993
0.04526020959019661,7.576175212860107,1.4760171175003052
-0.007400224916636944,7.53795862197876,1.4685795307159424
-0.05965390056371689,7.526216983795166,1.466370701789856
-0.1126021221280098,7.502597332000732,1.461921215057373
-0.16419383883476257,7.478628158569336,1.4574710130691528
-0.2152119278907776,7.446816921234131,1.4506299495697021
-0.266387939453125,7.433836936950684,1.4474413394927979
-0.3176428973674774,7.424332618713379,1.44499933719635
-0.26972663402557373,5.422983169555664,1.0550953149795532
-0.30679211020469666,5.398105621337891,1.0499199628829956
-0.343333899974823,5.380669116973877,1.0462514162063599
-0.37874144315719604,5.351566314697266,1.0400999784469604
-0.4144899547100067,5.333800315856934,1.035740613937378
-0.4506582021713257,5.323437213897705,1.0328720808029175
-0.42219579219818115,4.602365493774414,0.8922565579414368
-0.4549262523651123,4.6071882247924805,0.8925306797027588
-0.4845166504383087,4.58126163482666,0.8868929743766785
-0.5155401229858398,4.5703864097595215,0.8842151165008545
-0.5451591610908508,4.551821708679199,0.8795732259750366
-0.5779458284378052,4.55586051940918,0.8792282938957214
-0.6036377549171448,4.510293960571289,0.8693796992301941
-0.6348185539245605,4.506354331970215,0.867599368095398
-0.6650517582893372,4.4945783615112305,0.8643471598625183
-0.6951015591621399,4.482605457305908,0.8611038327217102
-0.7229558229446411,4.455262660980225,0.8546962141990662
-0.7495734691619873,4.427953243255615,0.8480134010314941
-0.7825654745101929,4.438279628753662,0.8485786318778992
-0.8095502257347107,4.414369106292725,0.8426365852355957
-0.8373976945877075,4.393989086151123,0.8373995423316956
-0.7219110727310181,3.6501834392547607,0.6945602893829346
-0.7492828369140625,3.6528866291046143,0.6939798593521118
-0.7773693203926086,3.6631765365600586,0.6944200396537781
-0.9488170742988586,4.326111793518066,0.8183357119560242
-0.9833989143371582,4.342560291290283,0.8197184205055237
-1.0083189010620117,4.313723564147949,0.8125593066215515
-1.0335330963134766,4.284599304199219,0.805367112159729
-1.0652958154678345,4.285281658172607,0.8038517236709595
-1.0917377471923828,4.2673444747924805,0.7984296679496765
-1.1207637786865234,4.260454177856445,0.795002818107605
-1.1456881761550903,4.238529205322266,0.7888177037239075
-1.1714305877685547,4.216183662414551,0.7825297117233276
-1.200870394706726,4.208540916442871,0.7790358066558838
-1.2302155494689941,4.20070219039917,0.775546669960022
-1.2544834613800049,4.178162574768066,0.7689974308013916
-1.2849828004837036,4.177663326263428,0.7663893699645996
-1.3091470003128052,4.154759407043457,0.7596623301506042
-1.3331393003463745,4.131687641143799,0.7529512047767639
-1.361997365951538,4.1230058670043945,0.7488821744918823
-1.3858659267425537,4.099530220031738,0.7421713471412659
-1.4124045372009277,4.087184906005859,0.737113893032074
-1.4412332773208618,4.082003116607666,0.7332699298858643
-1.462693691253662,4.054714679718018,0.7254484295845032
-1.4882396459579468,4.038023948669434,0.7195342183113098
-1.4974496364593506,3.977848768234253,0.7059358954429626
-1.5361920595169067,3.996915102005005,0.7064201831817627
-1.568617820739746,4.001753330230713,0.7039271593093872
-1.595942497253418,3.9918365478515625,0.6987976431846619
-1.623014211654663,3.981796979904175,0.6937025785446167
-1.645037293434143,3.956962823867798,0.6859594583511353
-1.6758604049682617,3.953300952911377,0.681922197341919
-1.7028709650039673,3.9426870346069336,0.6764360070228577
-1.7204487323760986,3.9107470512390137,0.6670673489570618
-1.7497990131378174,3.9071218967437744,0.662645161151886
-1.7771326303482056,3.895761013031006,0.6567663550376892
-1.7980560064315796,3.870116949081421,0.6485011577606201
-1.8247880935668945,3.8585891723632812,0.6424948573112488
-1.8576771020889282,3.8610758781433105,0.6384563446044922
-1.8868197202682495,3.8565571308135986,0.6333431005477905
-1.8930200338363647,3.802844285964966,0.6200258731842041
-1.9198423624038696,3.7904410362243652,0.6134685277938843
-1.9530798196792603,3.791908025741577,0.6090081930160522
-1.9818814992904663,3.7867724895477295,0.6032106876373291
-1.9965585470199585,3.7538955211639404,0.5929613709449768
-2.021130084991455,3.73746919631958,0.5851619243621826
-1.6894819736480713,3.0729873180389404,0.47682616114616394
-1.721545696258545,3.0827279090881348,0.4737890958786011
-1.7304221391677856,3.0520291328430176,0.4644589126110077
-0.8506163954734802,1.4768511056900024,0.22240561246871948
-0.8571444153785706,1.4645856618881226,0.21817338466644287
-0.8633230924606323,1.4524239301681519,0.21394583582878113
-0.8768431544303894,1.4538459777832031,0.21162451803684235
-0.8905377388000488,1.4550830125808716,0.20922976732254028
-0.8928725719451904,1.4359393119812012,0.20369474589824677
-0.9070489406585693,1.4367173910140991,0.20102839171886444
-0.8955132365226746,1.3985790014266968,0.1928689032793045
-0.8963731527328491,1.3800501823425293,0.1874595731496811
-0.8976426124572754,1.3611797094345093,0.18187293410301208
-0.933008074760437,1.3941466808319092,0.1830490380525589
-2.3899543285369873,3.5229015350341797,0.4542960524559021
-1.4777357578277588,2.1154701709747314,0.2619578540325165
-1.48151695728302,2.1054255962371826,-0.13791148364543915
-1.2974023818969727,1.8719207048416138,-0.12946540117263794
-1.431533932685852,2.306244373321533,-0.21167081594467163
-1.3716936111450195,2.2463576793670654,-0.21268479526042938
-1.2852894067764282,2.138720989227295,-0.20844626426696777
-1.2934516668319702,2.187565565109253,-0.21914489567279816
-0.8306562900543213,1.4518709182739258,-0.15307284891605377
-1.1502752304077148,2.0436296463012695,-0.2206309735774994
-1.1160603761672974,2.0175347328186035,-0.22293707728385925
-1.0698133707046509,1.9668893814086914,-0.2221379578113556
-1.017303228378296,1.9018628597259521,-0.21931758522987366
-0.9654318690299988,1.8364059925079346,-0.21607719361782074
-0.9554243087768555,1.8497810363769531,-0.22195389866828918
-0.8910881876945496,1.755605936050415,-0.21463026106357574
-0.8717106580734253,1.74740731716156,-0.2174832969903946
-0.8555409908294678,1.746176838874817,-0.22110405564308167
-0.8243609666824341,1.7132993936538696,-0.22061076760292053
-0.7989570498466492,1.6904798746109009,-0.22119736671447754
-0.7705720067024231,1.660400390625,-0.220687136054039
-0.7309670448303223,1.6055155992507935,-0.21669669449329376
-0.7098972201347351,1.588982105255127,-0.21764437854290009
-0.7048688530921936,1.6076427698135376,-0.22335073351860046
-0.6734738349914551,1.5658495426177979,-0.22056694328784943
-0.6621286869049072,1.570175051689148,-0.22413791716098785
-0.6447482109069824,1.5601311922073364,-0.22566577792167664
-0.6278784275054932,1.5498017072677612,-0.22702351212501526
-0.6025417447090149,1.5177727937698364,-0.22506782412528992
-0.5761781930923462,1.481926679611206,-0.22235561907291412
-0.562829315662384,1.4783029556274414,-0.22438651323318481
-0.5414050817489624,1.4528424739837646,-0.22306427359580994
-0.5310892462730408,1.4561872482299805,-0.22603346407413483
-0.5089679956436157,1.4267433881759644,-0.22378897666931152
-0.4987870156764984,1.4298908710479736,-0.2266051322221756
-0.47105443477630615,1.4139773845672607,-0.22863544523715973
0.5295743942260742,1.428260326385498,-0.219855397939682
0.5464600324630737,1.4430274963378906,-0.2196986973285675
0.5496481657028198,1.4215456247329712,-0.21402892470359802
0.5696697235107422,1.4432591199874878,-0.21472769975662231
0.591227114200592,1.4684536457061768,-0.2158697247505188
0.6176885962486267,1.5041301250457764,-0.21841144561767578
0.6372630000114441,1.5216403007507324,-0.21819968521595
0.6600325703620911,1.5461400747299194,-0.2188434898853302
0.6801683902740479,1.5632752180099487,-0.21827219426631927
0.6989481449127197,1.576688528060913,-0.21713219583034515
0.719641923904419,1.5934109687805176,-0.21635636687278748
0.7339484691619873,1.59591805934906,-0.21355591714382172
0.7580848932266235,1.6194299459457397,-0.21346542239189148
0.7812792658805847,1.6390305757522583,-0.21265605092048645
0.8199769854545593,1.6898373365402222,-0.21575631201267242
0.850591242313385,1.7229243516921997,-0.21635910868644714
0.879837691783905,1.7522737979888916,-0.21632109582424164
0.8991730809211731,1.760445475578308,-0.21349887549877167
0.9384679794311523,1.806298851966858,-0.21508008241653442
0.965592086315155,1.8277490139007568,-0.2134678065776825
1.0129892826080322,1.8867268562316895,-0.2160980999469757
1.0505062341690063,1.9244685173034668,-0.21591021120548248
1.0942116975784302,1.9720162153244019,-0.2165854126214981
1.1400619745254517,2.0227224826812744,-0.2173074185848236
1.1754683256149292,2.0524375438690186,-0.2154078185558319
1.225167155265808,2.1052348613739014,-0.2156514823436737
1.289130449295044,2.1811368465423584,-0.2178863137960434
1.3138145208358765,2.1897189617156982,-0.21313945949077606
1.3372485637664795,2.1943905353546143,-0.20771163702011108
1.3528974056243896,2.1854238510131836,-0.20079946517944336
1.3716709613800049,2.183509588241577,-0.19461846351623535
1.374103307723999,2.1549177169799805,-0.18594536185264587
1.3935447931289673,2.1522915363311768,-0.17938882112503052
1.7909198999404907,2.7266106605529785,-0.21916690468788147
1.8680784702301025,2.802499771118164,-0.21657298505306244
1.8615771532058716,2.7512550354003906,-0.20382297039031982
1.8422900438308716,2.6848795413970947,-0.19026227295398712
1.864799976348877,2.6794798374176025,-0.1809539645910263
1.8994317054748535,2.689221143722534,-0.17214083671569824
1.4469897747039795,2.0206105709075928,-0.12205210328102112
1.4607590436935425,2.0111560821533203,-0.11391503363847733
1.4698466062545776,1.9952970743179321,-0.10519493371248245
2.3459692001342773,3.31791090965271,0.4275282621383667
2.3020341396331787,3.309131383895874,0.4367830157279968
2.2913389205932617,3.3432977199554443,0.45080989599227905
2.3237197399139404,3.446406364440918,0.47441041469573975
2.2749862670898438,3.4307076930999756,0.48147889971733093
2.2058730125427246,3.377213716506958,0.4821401536464691
1.6545650959014893,2.573296308517456,0.3734658360481262
1.6385561227798462,2.591585397720337,0.38203760981559753
1.5902984142303467,2.5567188262939453,0.38250887393951416
3.024649143218994,4.939035892486572,0.7491313219070435
3.0052618980407715,4.989611625671387,0.7666819095611572
2.982408046722412,5.037331581115723,0.7837833166122437
2.9574475288391113,5.077008247375488,0.7991782426834106
2.9455974102020264,5.140010833740234,0.8183834552764893
2.9183287620544434,5.180300712585449,0.8335068821907043
2.886143445968628,5.214081287384033,0.8475214838981628
2.8610150814056396,5.256901264190674,0.862712562084198
2.838236093521118,5.302514553070068,0.8782704472541809
2.8257791996002197,5.37289571762085,0.8979318141937256
2.802856922149658,5.426602840423584,0.9144681096076965
2.7727487087249756,5.466236591339111,0.9286760687828064
2.763188123703003,5.542776107788086,0.9489344954490662
1.2549411058425903,2.5618269443511963,0.44193944334983826
1.2187905311584473,2.5356714725494385,0.4405282139778137
1.1931711435317993,2.530001640319824,0.442532479763031
1.1778963804244995,2.5448970794677734,0.44807496666908264
1.1550811529159546,2.54189395904541,0.4503921866416931
1.154329538345337,2.588000774383545,0.46146899461746216
2.5744376182556152,5.887303352355957,1.0556538105010986
2.548046112060547,5.947469711303711,1.072480320930481
2.5181548595428467,5.996211051940918,1.0871474742889404
2.493443727493286,6.054977893829346,1.103577971458435
2.466525077819824,6.110108852386475,1.119486689567566
2.4332001209259033,6.15507698059082,1.1329996585845947
2.40781569480896,6.225471019744873,1.1512548923492432
2.3730809688568115,6.270212650299072,1.1647745370864868
2.3449552059173584,6.328581809997559,1.1807407140731812
2.314810037612915,6.383217811584473,1.196136474609375
2.2846908569335938,6.441607475280762,1.2120238542556763
2.2506136894226074,6.49697732925415,1.2269954681396484
2.2203314304351807,6.5628485679626465,1.2440053224563599
2.1891419887542725,6.624597549438477,1.2602579593658447
2.1520261764526367,6.667699337005615,1.2730070352554321
2.0867629051208496,6.6226067543029785,1.268953800201416
2.025937080383301,6.595993518829346,1.2678508758544922
1.9626175165176392,6.557785511016846,1.2642128467559814
1.9053999185562134,6.537440776824951,1.264031171798706
1.846663475036621,6.505218505859375,1.2614755630493164
1.7898377180099487,6.476120948791504,1.2595125436782837
1.7364994287490845,6.457680702209473,1.2596436738967896
1.668994665145874,6.39115047454834,1.2497026920318604
0.82512366771698,3.2549524307250977,0.637938380241394
1.5694743394851685,6.382742404937744,1.253900408744812
0.7956898808479309,3.336266279220581,0.6569460034370422
1.4565985202789307,6.301274299621582,1.2437175512313843
1.4058641195297241,6.284317970275879,1.2434004545211792
1.3457131385803223,6.222129821777344,1.2333991527557373
1.3019828796386719,6.2345709800720215,1.2380446195602417
1.2475450038909912,6.194082736968994,1.2322264909744263
1.1966224908828735,6.164315700531006,1.2285375595092773
1.1451385021209717,6.130438327789307,1.2240791320800781
1.0982547998428345,6.114902496337891,1.2232835292816162
1.052577018737793,6.106722354888916,1.2235264778137207
1.0022886991500854,6.071874618530273,1.2181023359298706
0.9556031227111816,6.055543422698975,1.2164349555969238
0.9046667814254761,6.012414455413818,1.2094473838806152
0.8594778776168823,5.995256423950195,1.2076739072799683
0.8124364018440247,5.96259069442749,1.2028207778930664
0.7707559466362,5.967592239379883,1.2054417133331299
0.622856080532074,5.1056976318359375,1.032181978225708
0.5828000903129578,5.07539176940918,1.0269426107406616
0.5557353496551514,5.1666741371154785,1.0463825464248657
0.41099318861961365,4.088055610656738,0.8287178874015808
0.38040289282798767,4.067673206329346,0.8254039883613586
0.35638588666915894,4.119540214538574,0.8367965817451477
0.3305721879005432,4.159910202026367,0.8454800844192505
0.30029985308647156,4.154366493225098,0.8447229862213135
0.27064675092697144,4.1485724449157715,0.8439489006996155
0.2434096336364746,4.180778503417969,0.8509476184844971
0.39776289463043213,7.760408401489258,1.5804392099380493
0.34240198135375977,7.732102394104004,1.5756486654281616
0.2868143916130066,7.711127281188965,1.5722204446792603
0.23199693858623505,7.67842960357666,1.565579891204834
0.17711715400218964,7.626214504241943,1.55503511428833
0.12362494319677353,7.608053207397461,1.5515084266662598
0.07051752507686615,7.593344211578369,1.5487600564956665
0.016715064644813538,7.562955856323242,1.5428929328918457
-0.03570045158267021,7.532195091247559,1.5370160341262817
-0.08770730346441269,7.505029678344727,1.5312837362289429
-0.1393943727016449,7.481415748596191,1.52592933177948
-0.19075772166252136,7.457446098327637,1.5205787420272827
-0.2418803870677948,7.433121681213379,1.5152311325073242
-0.29443493485450745,7.431363582611084,1.5145536661148071
-0.24879758059978485,5.341583728790283,1.0884724855422974
-0.2893659770488739,5.404806137084961,1.101228952407837
-0.32628536224365234,5.395280361175537,1.0984567403793335
-0.3625102937221527,5.377867221832275,1.0941357612609863
-0.39890018105506897,5.356346130371094,1.0890233516693115
-0.43482810258865356,5.338430881500244,1.0847108364105225
-0.4169505834579468,4.713872909545898,0.9572606086730957
-0.4406222403049469,4.615787506103516,0.9368513226509094
-0.46944862604141235,4.582418918609619,0.9293614625930786
-0.4998331069946289,4.564136028289795,0.9245976805686951
-0.5330144762992859,4.576136112213135,0.9260300397872925
-0.5608051419258118,4.542277812957764,0.9182277917861938
-0.5908880233764648,4.527209281921387,0.9142691493034363
-0.6223548650741577,4.523325443267822,0.9126155376434326
-0.6510653495788574,4.496398448944092,0.9063469171524048
-0.6818469166755676,4.492274761199951,0.9041606187820435
-0.7078056335449219,4.457674980163574,0.8958351612091064
-0.7395899295806885,4.460728168487549,0.8951255679130554
-0.7678305506706238,4.440850257873535,0.8898462057113647
-0.7987454533576965,4.435846328735352,0.8875865936279297
-0.8259362578392029,4.407927989959717,0.8807700872421265
-0.8395100235939026,4.316076278686523,0.8609939217567444
-0.7371477484703064,3.656843662261963,0.7280423045158386
-0.7558448910713196,3.622159957885742,0.7197365760803223
-0.9279316067695618,4.299584865570068,0.8527086973190308
-0.9651007652282715,4.323406219482422,0.855772078037262
-0.9969127774238586,4.324615478515625,0.8544180989265442
-1.0251840353012085,4.310690402984619,0.8500303626060486
-1.0526766777038574,4.296826362609863,0.8451786041259766
-1.078105092048645,4.275351524353027,0.8388832211494446
-1.1047993898391724,4.257309436798096,0.8332746028900146
-1.135435700416565,4.25388765335083,0.8305588364601135
-1.164090871810913,4.242827415466309,0.8263890147209167
-1.1853551864624023,4.2057013511657715,0.8171980381011963
-1.2096177339553833,4.183556079864502,0.8104415535926819
-1.2428010702133179,4.190616607666016,0.8093095421791077
-1.2667222023010254,4.168147563934326,0.8025534749031067
-1.2934119701385498,4.152667045593262,0.7971312999725342
-1.324791431427002,4.151605606079102,0.7945011258125305
-1.3466243743896484,4.121091842651367,0.7862854599952698
-1.3774259090423584,4.119871139526367,0.7831404805183411
-1.402774453163147,4.104037761688232,0.777262806892395
-1.4253931045532227,4.080794811248779,0.7700366973876953
-1.4500313997268677,4.060727596282959,0.7633637189865112
-1.4784947633743286,4.051321029663086,0.7587318420410156
-1.5013906955718994,4.027345657348633,0.7513575553894043
-1.5317134857177734,4.025107383728027,0.7475464344024658
-1.5560359954833984,4.008450508117676,0.7411490082740784
-1.5833057165145874,3.998702049255371,0.736035943031311
-1.6171293258666992,4.002732276916504,0.7333792448043823
-1.6364086866378784,3.970871925354004,0.7241887450218201
-1.66708505153656,3.967466354370117,0.7199021577835083
-1.687659740447998,3.943026542663574,0.7116603851318359
-1.7202627658843994,3.9467568397521973,0.7085403800010681
-1.738325834274292,3.91459321975708,0.6988766193389893
-1.7658804655075073,3.9032979011535645,0.6929476261138916
-1.787100076675415,3.877727746963501,0.684374988079071
-1.80645751953125,3.852814197540283,0.6756576299667358
-1.8421348333358765,3.8626444339752197,0.6730613708496094
-1.865387201309204,3.8440170288085938,0.6653805375099182
-1.8959745168685913,3.8387832641601562,0.6599379181861877
-1.919934868812561,3.819380044937134,0.6519619226455688
-1.9418529272079468,3.8007938861846924,0.6438441872596741
-1.963634729385376,3.7820568084716797,0.6357412934303284
-1.9897569417953491,3.7695844173431396,0.6285529732704163
-2.0035574436187744,3.732806444168091,0.6172657608985901
-2.034959316253662,3.730217695236206,0.6115522980690002
-1.7113990783691406,3.0884854793548584,0.5016233325004578
-1.7318177223205566,3.0781054496765137,0.4953055679798126
-0.8374112844467163,1.464563250541687,0.233305424451828
-0.8400058150291443,1.4457111358642578,0.2279607206583023
-0.8614823818206787,1.4605695009231567,0.2277984768152237
-0.8712705969810486,1.4552812576293945,0.2243908941745758
-0.8813151121139526,1.449759602546692,0.22088010609149933
-0.8875613212585449,1.4373929500579834,0.2162667065858841
-0.8931858539581299,1.4253109693527222,0.2116413116455078
-0.894210934638977,1.406867265701294,0.20606154203414917
-0.8956446051597595,1.3880932331085205,0.20030513405799866
-0.909771203994751,1.388721227645874,0.19732120633125305
-0.9061174988746643,1.3638008832931519,0.19064177572727203
-2.387117624282837,3.544161319732666,0.48714399337768555
-2.425286293029785,3.5479328632354736,0.47856926918029785
-1.168810486793518,1.6846888065338135,0.22273758053779602
-1.3561580181121826,1.9288684129714966,0.24977530539035797
-1.4269648790359497,2.2812979221343994,-0.21268022060394287
-1.3897080421447754,2.2578532695770264,-0.21734990179538727
-1.2652087211608887,2.1225109100341797,-0.21660998463630676
-1.2356412410736084,2.107637405395508,-0.22108213603496552
-0.8142399787902832,1.4116554260253906,-0.1519547700881958
-0.8289626836776733,1.4609931707382202,-0.16117163002490997
-1.0832505226135254,1.941874623298645,-0.21936878561973572
-1.0543233156204224,1.9216861724853516,-0.22200113534927368
-1.0203797817230225,1.890843391418457,-0.22318556904792786
-0.9770867824554443,1.8428527116775513,-0.22216497361660004
-0.936680793762207,1.7976417541503906,-0.22110837697982788
-0.8832020163536072,1.7241493463516235,-0.2161414623260498
-0.8743173480033875,1.7367651462554932,-0.2217819094657898
-0.8220444917678833,1.6625043153762817,-0.21612855792045593
-0.8132127523422241,1.6748746633529663,-0.22159555554389954
-0.7812554240226746,1.6380234956741333,-0.2203637957572937
-0.7546114921569824,1.6114469766616821,-0.220310777425766
-0.7266445159912109,1.5811251401901245,-0.21958625316619873
-0.708952784538269,1.57159423828125,-0.22158338129520416
-0.6868348717689514,1.551226258277893,-0.22195005416870117
-0.6723706126213074,1.5485574007034302,-0.2247726321220398
-0.6490089893341064,1.5243453979492188,-0.22433190047740936
-0.6321860551834106,1.514103889465332,-0.22581906616687775
-0.6141265034675598,1.500104546546936,-0.22667884826660156
-0.5918038487434387,1.4752439260482788,-0.22572913765907288
-0.575309157371521,1.4646269083023071,-0.22691546380519867
-0.5538151860237122,1.43929922580719,-0.2256566733121872
-0.5395500063896179,1.4318244457244873,-0.22712674736976624
-0.5212875604629517,1.4134081602096558,-0.22671261429786682
-0.5085246562957764,1.409359097480774,-0.22853606939315796
-0.4983413815498352,1.4125025272369385,-0.23154261708259583
0.5414009094238281,1.4149497747421265,-0.2225501388311386
0.5427989959716797,1.3900260925292969,-0.21609066426753998
0.5611817240715027,1.4081950187683105,-0.21630622446537018
0.5784085988998413,1.4225906133651733,-0.2158743292093277
0.6092073917388916,1.4690054655075073,-0.22004374861717224
0.6314359307289124,1.4937726259231567,-0.22086235880851746
0.6388959288597107,1.4826875925064087,-0.2162991166114807
0.6696286797523499,1.524731993675232,-0.21940819919109344
0.6738871335983276,1.5064233541488647,-0.21370162069797516
0.7102137207984924,1.558577060699463,-0.21783575415611267
0.7325872778892517,1.5786911249160767,-0.2173423320055008
0.7536627650260925,1.595050573348999,-0.2162337303161621
0.7747560143470764,1.6113219261169434,-0.21496018767356873
0.7977591753005981,1.6308931112289429,-0.2140311300754547
0.8302255868911743,1.6673680543899536,-0.21502253413200378
0.8595795631408691,1.6966277360916138,-0.21497085690498352
0.887225866317749,1.7223169803619385,-0.21426324546337128
0.9135041236877441,1.744253396987915,-0.2129482626914978
0.9532166719436646,1.7897650003433228,-0.2142309695482254
0.9934995174407959,1.834884524345398,-0.21521934866905212
1.0511960983276367,1.910273790359497,-0.21932251751422882
1.0776869058609009,1.9273232221603394,-0.21648862957954407
1.1182132959365845,1.967604398727417,-0.2159850001335144
1.1570485830307007,2.0042648315429688,-0.214834064245224
1.2158945798873901,2.0741848945617676,-0.21692273020744324
1.2725175619125366,2.1363205909729004,-0.21752698719501495
1.311694860458374,2.167952060699463,-0.2147832214832306
1.3364558219909668,2.1763205528259277,-0.2095719277858734
1.355526089668274,2.174345016479492,-0.20317424833774567
1.3709053993225098,2.1653494834899902,-0.19592387974262238
1.3942222595214844,2.169613838195801,-0.18971973657608032
1.3854533433914185,2.1248626708984375,-0.17935317754745483
1.7833857536315918,2.694093704223633,-0.21876826882362366
1.8515983819961548,2.7571330070495605,-0.2149839699268341
1.8063079118728638,2.652024030685425,-0.19809332489967346
1.8719258308410645,2.7070653438568115,-0.19255033135414124
1.8900352716445923,2.6951732635498047,-0.18218915164470673
1.426466941833496,2.006035804748535,-0.12832577526569366
1.4634134769439697,2.028080940246582,-0.12188619375228882
1.4719407558441162,2.0127291679382324,-0.11311928182840347
1.4809255599975586,1.9968966245651245,-0.103957399725914
2.3282365798950195,3.2710037231445312,0.4403133690357208
2.284592628479004,3.2573800086975098,0.44875144958496094
2.279449224472046,3.301804542541504,0.46499913930892944
2.27925181388855,3.356613874435425,0.48274239897727966
2.308988332748413,3.451856851577759,0.5056807398796082
1.4965503215789795,2.2726826667785645,0.3388863503932953
1.499314546585083,2.3160274028778076,0.3513181805610657
1.590433120727539,2.4958362579345703,0.38447266817092896
1.6239594221115112,2.5880484580993652,0.4045700430870056
3.0696821212768555,4.974638938903809,0.7884075045585632
3.000723123550415,4.946529865264893,0.7945292592048645
2.998384475708008,5.022591590881348,0.816731333732605
2.9545140266418457,5.028479099273682,0.8274713754653931
2.938939332962036,5.089171409606934,0.8466874957084656
2.920642137527466,5.146522045135498,0.8655465841293335
2.8989217281341553,5.192227840423584,0.8819212317466736
2.8779754638671875,5.24151086807251,0.8991779685020447
2.860417604446411,5.301835536956787,0.9177900552749634
2.823636293411255,5.328249454498291,0.930537223815918
2.797166109085083,5.370726585388184,0.945857048034668
2.7836031913757324,5.436607360839844,0.9652357697486877
2.769435405731201,5.506722927093506,0.9854604601860046
2.7414979934692383,5.553216457366943,1.0009942054748535
1.2354774475097656,2.549988269805908,0.4629638195037842
1.2173722982406616,2.557851791381836,0.46752357482910156
1.1829432249069214,2.530655860900879,0.4656480848789215
1.1677236557006836,2.54538893699646,0.4713057279586792
1.157881498336792,2.574436902999878,0.4795476198196411
1.138680100440979,2.5821893215179443,0.48382413387298584
2.563282012939453,5.924220085144043,1.1162153482437134
2.5348477363586426,5.972329616546631,1.1315475702285767
2.506476640701294,6.024261951446533,1.1473777294158936
2.472609758377075,6.069784641265869,1.1617122888565063
2.4461488723754883,6.132669925689697,1.1794012784957886
2.419232130050659,6.191259384155273,1.196191668510437
2.393460273742676,6.2531633377075195,1.213701605796814
2.357452154159546,6.2898101806640625,1.2263743877410889
2.3302817344665527,6.3597846031188965,1.2449198961257935
2.2992172241210938,6.418520450592041,1.2613149881362915
2.2615272998809814,6.458843231201172,1.2741632461547852
2.2334542274475098,6.523935794830322,1.2918753623962402
2.208160638809204,6.599859237670898,1.3118879795074463
2.1743688583374023,6.658032417297363,1.328168272972107
2.1187782287597656,6.6503705978393555,1.330801248550415
2.054377794265747,6.612927436828613,1.3274929523468018
1.99486243724823,6.585684776306152,1.3261650800704956
1.9356448650360107,6.5540266036987305,1.3238821029663086
1.8758386373519897,6.518208980560303,1.3207722902297974
1.8180433511734009,6.493519306182861,1.319412112236023
1.7620021104812622,6.472052097320557,1.3183097839355469
1.6965638399124146,6.4130730628967285,1.309583067893982
0.8327296376228333,3.239731788635254,0.6632236838340759
1.591378092765808,6.374600887298584,1.3082480430603027
0.7996174693107605,3.302137613296509,0.6794415712356567
1.4727511405944824,6.275114059448242,1.2939467430114746
1.4337141513824463,6.310727119445801,1.3037693500518799
1.3810962438583374,6.286257266998291,1.301242709159851
1.3254787921905518,6.2425360679626465,1.2947306632995605
1.2664326429367065,6.179659843444824,1.2842755317687988
1.2173227071762085,6.157436370849609,1.2822420597076416
1.1739306449890137,6.165042400360107,1.2861502170562744
1.1224204301834106,6.13114070892334,1.2808715105056763
1.0674110651016235,6.074230670928955,1.270822286605835
1.0279678106307983,6.107483386993408,1.279714584350586
0.9829924702644348,6.0987043380737305,1.2797974348068237
0.9264739155769348,6.014006614685059,1.2639799118041992
0.8823037147521973,6.004512310028076,1.2639949321746826
0.837677538394928,5.994959831237793,1.2631632089614868
0.7904676795005798,5.9700093269348145,1.2591577768325806
0.6460710167884827,5.15933084487915,1.0892902612686157
0.5893343091011047,4.988661766052246,1.0543737411499023
0.5676818490028381,5.11001443862915,1.0812114477157593
0.5372470021247864,5.1628499031066895,1.0936434268951416
0.3984840512275696,4.108570575714111,0.8710407614707947
0.36599162220954895,4.076844215393066,0.8647823929786682
0.34519529342651367,4.174325466156006,0.885974109172821
0.31416046619415283,4.153568744659424,0.8821221590042114
0.28471890091896057,4.147819519042969,0.8814917206764221
0.2582426965236664,4.187626838684082,0.8905892968177795
0.4234888553619385,7.76019811630249,1.6516578197479248
0.36736825108528137,7.724635601043701,1.6443326473236084
0.31237131357192993,7.703953742980957,1.6402003765106201
0.2578989565372467,7.686697483062744,1.6368756294250488
0.2034674435853958,7.65759801864624,1.6311053037643433
0.14830046892166138,7.6052093505859375,1.6204555034637451
0.09519057720899582,7.586800575256348,1.6171115636825562
0.042271848767995834,7.55663537979126,1.610975742340088
-0.01025046780705452,7.533895492553711,1.60575270652771
-0.06251799315214157,7.518433094024658,1.602159857749939
-0.11499813199043274,7.4682135581970215,1.59123694896698
-0.16718921065330505,7.482584476470947,1.5941591262817383
-0.21810559928417206,7.443122386932373,1.5856890678405762
-0.26986584067344666,7.4414963722229,1.585356593132019
-0.3223811388015747,7.462574005126953,1.58919095993042
-0.2709406018257141,5.403585433959961,1.1500370502471924
-0.3081224858760834,5.386501312255859,1.1457656621932983
-0.3454357087612152,5.384451866149902,1.1447596549987793
-0.38171306252479553,5.366892337799072,1.1405119895935059
-0.4177633225917816,5.349087238311768,1.1362698078155518
-0.4513685703277588,5.304385662078857,1.1263493299484253
-0.4239439368247986,4.601206302642822,0.97603839635849
-0.45409002900123596,4.583285808563232,0.9713064432144165
-0.48642754554748535,4.587973117828369,0.9714131951332092
-0.5165376663208008,4.569613933563232,0.9666810631752014
-0.5473801493644714,4.5586419105529785,0.963560938835144
-0.5757721066474915,4.524637699127197,0.9556123614311218
-0.6065711975097656,4.517129898071289,0.9530324339866638
-0.6375433206558228,4.513309955596924,0.9509130120277405
-0.6662989258766174,4.494138240814209,0.9456061720848083
-0.6959948539733887,4.482339382171631,0.9419017434120178
-0.7228382229804993,4.447547435760498,0.9333841800689697
-0.7563535571098328,4.457937717437744,0.9344199299812317
-0.783386766910553,4.4304046630859375,0.9275537729263306
-0.8109399676322937,4.410443305969238,0.921733021736145
-0.8389303684234619,4.394084930419922,0.9166678786277771
-0.7217833995819092,3.645451784133911,0.7591590285301208
-0.7505503296852112,3.6557517051696777,0.7599595189094543
-0.7807640433311462,3.6733815670013428,0.7623241543769836
-0.9526816606521606,4.333935260772705,0.8979097604751587
-0.9825388193130493,4.327890872955322,0.8948858380317688
-1.0085201263427734,4.306861400604248,0.8885043263435364
-1.0401190519332886,4.307910442352295,0.8866909146308899
-1.0623008012771606,4.271604537963867,0.8772568702697754
-1.0920960903167725,4.264772891998291,0.8739011287689209
-1.1198480129241943,4.250331878662109,0.8690347671508789
-1.1513198614120483,4.250567436218262,0.8670714497566223
-1.177565097808838,4.232243061065674,0.8608536124229431
-1.1978588104248047,4.195445537567139,0.8509831428527832
-1.2242604494094849,4.180612087249756,0.8456206321716309
-1.257883071899414,4.187442779541016,0.8446148037910461
-1.2848854064941406,4.172012805938721,0.8391557931900024
-1.316756248474121,4.170938491821289,0.8365089297294617
-1.333148717880249,4.126317501068115,0.8247216939926147
-1.363450288772583,4.1253790855407715,0.821723222732544
-1.3889663219451904,4.109644412994385,0.8158068656921387
-1.4102321863174438,4.07894229888916,0.8068862557411194
-1.4375762939453125,4.066221237182617,0.8015758991241455
-1.467647671699524,4.060487270355225,0.7975208163261414
-1.4950578212738037,4.051469326019287,0.7924554347991943
-1.5183075666427612,4.031485557556152,0.7852947115898132
-1.5430485010147095,4.014839172363281,0.7787972092628479
-1.559992790222168,3.976280450820923,0.7680224776268005
-1.6055675745010376,4.008874893188477,0.7709577083587646
-1.627265214920044,3.9845564365386963,0.7627445459365845
-1.648110032081604,3.960401773452759,0.7543603777885437
-1.6747092008590698,3.9503040313720703,0.7487014532089233
-1.7051873207092285,3.9467391967773438,0.744183361530304
-1.7334072589874268,3.9355640411376953,0.738146185874939
-1.7452688217163086,3.889263391494751,0.7256275415420532
-1.758476734161377,3.8506243228912354,0.7141655087471008
-1.7972524166107178,3.8678488731384277,0.7130908370018005
-1.830231785774231,3.870588779449463,0.7092521786689758
-1.8647518157958984,3.8724355697631836,0.7050191164016724
-1.888719916343689,3.8534281253814697,0.6970964074134827
-1.90773606300354,3.828075885772705,0.6876589059829712
-1.9367722272872925,3.8233726024627686,0.6818935871124268
-1.955710530281067,3.7976367473602295,0.6723237037658691
-1.9826651811599731,3.7849462032318115,0.6648972034454346
-2.0063798427581787,3.7650063037872314,0.6561482548713684
-2.018653154373169,3.7290666103363037,0.6443287134170532
-1.7029037475585938,3.097367286682129,0.530541718006134
-1.720496654510498,3.0799124240875244,0.5227671265602112
-0.8167742490768433,1.4385899305343628,0.2418774515390396
-0.8462156057357788,1.4668350219726562,0.2441747933626175
-0.8676175475120544,1.4817924499511719,0.24410569667816162
-0.8735065460205078,1.4698994159698486,0.23958368599414825
-0.8719523549079895,1.4443602561950684,0.2327178418636322
-0.8902865052223206,1.4519081115722656,0.23120257258415222
-0.899979829788208,1.446522831916809,0.22739647328853607
-0.8929237127304077,1.414963960647583,0.21959267556667328
-0.9029645919799805,1.4091914892196655,0.21561701595783234
-0.9045014381408691,1.3903542757034302,0.20966175198554993
-0.896489679813385,1.359130859375,0.2017911821603775
-0.9530469179153442,1.4245781898498535,0.20807808637619019
-2.3949389457702637,3.526721715927124,0.5060456395149231
-1.1622048616409302,1.687217354774475,0.2376633584499359
-1.228602647781372,1.7600233554840088,0.24316421151161194
-1.367026925086975,2.20298433303833,-0.21500031650066376
-1.3594461679458618,2.2251741886138916,-0.2240024209022522
-1.2503271102905273,2.0812132358551025,-0.21596159040927887
-1.2033337354660034,2.0360217094421387,-0.21732081472873688
-0.8417766094207764,1.4712884426116943,-0.16540071368217468
-1.0175780057907104,1.8089287281036377,-0.2084389179944992
-1.032651662826538,1.866592526435852,-0.22017553448677063
-1.0006425380706787,1.8391587734222412,-0.22182931005954742
-0.9595547914505005,1.7944481372833252,-0.22115014493465424
-0.9284476637840271,1.76632821559906,-0.22221791744232178
-0.8891441822052002,1.720506191253662,-0.22075945138931274
-0.8570918440818787,1.688312292098999,-0.22087140381336212
-0.8377700448036194,1.6800220012664795,-0.22389793395996094
-0.7762728333473206,1.5843498706817627,-0.21491165459156036
-0.7717258334159851,1.603192925453186,-0.22124244272708893
-0.7467799186706543,1.5801341533660889,-0.22169536352157593
-0.7205745577812195,1.553297758102417,-0.22148655354976654
-0.7125547528266907,1.5649082660675049,-0.2266816943883896
-0.6887543201446533,1.5410672426223755,-0.226636603474617
-0.6682406067848206,1.5241645574569702,-0.2274351418018341
-0.6419232487678528,1.4928252696990967,-0.2259598821401596
-0.6268294453620911,1.4860726594924927,-0.2280537635087967
-0.5983432531356812,1.4471088647842407,-0.22513099014759064
-0.5849887728691101,1.4436739683151245,-0.22750461101531982
-0.5717533230781555,1.4401060342788696,-0.22982871532440186
-0.5461580157279968,1.4039666652679443,-0.22682777047157288
-0.5361952781677246,1.4072691202163696,-0.23010864853858948
0.550250768661499,1.3944355249404907,-0.22336658835411072
0.5628544688224792,1.3982598781585693,-0.2211921662092209
0.5755353569984436,1.4019744396209717,-0.2189825028181076
0.5914201140403748,1.4126615524291992,-0.21778935194015503
0.6120222210884094,1.4338783025741577,-0.21814295649528503
0.6468355655670166,1.4868465662002563,-0.22302241623401642
0.6446086764335632,1.454556941986084,-0.21511298418045044
0.6756232380867004,1.4963760375976562,-0.21807298064231873
0.6926695704460144,1.5061919689178467,-0.21624234318733215
0.7195060849189758,1.5370160341262817,-0.2172553837299347
0.7420316338539124,1.5569599866867065,-0.2165328413248062
0.7699685096740723,1.587125301361084,-0.21710018813610077
0.7948699593544006,1.6100642681121826,-0.21653230488300323
0.8250941634178162,1.6432745456695557,-0.2171454131603241
0.850602924823761,1.6657521724700928,-0.21616552770137787
0.8820953965187073,1.6981704235076904,-0.21623700857162476
0.9268292188644409,1.7542574405670166,-0.21899402141571045
0.9553827047348022,1.7792779207229614,-0.21769379079341888
0.9863980412483215,1.8072986602783203,-0.21652841567993164
1.0350242853164673,1.8654569387435913,-0.21865339577198029
1.0803349018096924,1.9164798259735107,-0.2196044623851776
1.1206793785095215,1.956831932067871,-0.21896010637283325
1.1559816598892212,1.9865297079086304,-0.21682024002075195
1.2035924196243286,2.0359504222869873,-0.2165549099445343
1.2674119472503662,2.111839771270752,-0.2186972200870514
1.3102974891662598,2.150282859802246,-0.2164938598871231
1.338067650794983,2.1613681316375732,-0.21106477081775665
1.3589916229248047,2.162785768508911,-0.20470906794071198
1.3735593557357788,2.1542487144470215,-0.19736570119857788
1.3824448585510254,2.1353440284729004,-0.18878094851970673
1.3928256034851074,2.1199350357055664,-0.18055951595306396
1.800565242767334,2.701291561126709,-0.22112393379211426
1.8436170816421509,2.7248573303222656,-0.2135743945837021
1.7828549146652222,2.5972177982330322,-0.19442735612392426
1.9202486276626587,2.7589645385742188,-0.196753591299057
1.903645634651184,2.695181369781494,-0.1819063425064087
1.4472408294677734,2.0200374126434326,-0.12840202450752258
1.4559860229492188,2.0046327114105225,-0.11948823928833008
1.470107078552246,1.9948244094848633,-0.11039089411497116
2.304108142852783,3.260193347930908,0.46782106161117554
2.28871750831604,3.29272198677063,0.4835096001625061
1.5135860443115234,2.2102506160736084,0.33110523223876953
1.5183261632919312,2.2526588439941406,0.3440896272659302
1.5281881093978882,2.3054087162017822,0.3586098551750183
1.5111464262008667,2.315434694290161,0.3661526143550873
1.5467747449874878,2.4064879417419434,0.38658615946769714
1.6270567178726196,2.5743701457977295,0.41967254877090454
1.5863887071609497,2.55289888381958,0.4221974313259125
3.0271365642547607,4.947893142700195,0.8288974165916443
2.9849178791046143,4.95763635635376,0.8409479856491089
2.964158535003662,5.008239269256592,0.8595265746116638
2.9630157947540283,5.0917277336120605,0.8837765455245972
2.929797649383545,5.117579460144043,0.8977888822555542
2.9002954959869385,5.149874687194824,0.9127353429794312
2.8888227939605713,5.220395565032959,0.9340516328811646
2.8562417030334473,5.253648281097412,0.9488435387611389
2.8405306339263916,5.312602996826172,0.9678306579589844
2.8216607570648193,5.368442535400391,0.9865670800209045
2.7920148372650146,5.407869338989258,1.0017166137695312
2.7770397663116455,5.478356838226318,1.0226130485534668
2.7641611099243164,5.551734924316406,1.0440138578414917
1.2472833395004272,2.549365282058716,0.48282763361930847
1.2188074588775635,2.5365545749664307,0.48384010791778564
1.1882703304290771,2.5203709602355957,0.48377132415771484
1.1838833093643188,2.559758186340332,0.49440497159957886
1.1557425260543823,2.5463995933532715,0.49479299783706665
1.1470754146575928,2.574751853942871,0.5032395124435425
2.573305368423462,5.886026382446289,1.1571530103683472
2.5513863563537598,5.956462860107422,1.177093267440796
2.5159709453582764,5.994662284851074,1.190695881843567
2.489760637283325,6.053630828857422,1.2084342241287231
2.465548515319824,6.115589618682861,1.2267436981201172
2.4335248470306396,6.159614562988281,1.2415895462036133
2.4001660346984863,6.207974910736084,1.2568628787994385
2.3759424686431885,6.281260013580322,1.2769943475723267
2.3415069580078125,6.32927131652832,1.2921260595321655
2.312581777572632,6.387202262878418,1.309162974357605
2.281672477722168,6.441389083862305,1.3255655765533447
2.2527592182159424,6.506682395935059,1.3443025350570679
2.218689203262329,6.561347484588623,1.3601038455963135
2.189943790435791,6.634028434753418,1.3797800540924072
2.1478850841522217,6.666323661804199,1.3911296129226685
2.0815110206604004,6.61757755279541,1.3854804039001465
2.0174190998077393,6.575780391693115,1.381348729133606
1.9618059396743774,6.559170246124268,1.3820631504058838
1.9003269672393799,6.524092674255371,1.3782966136932373
1.844677448272705,6.506896495819092,1.3783372640609741
1.7849149703979492,6.470643997192383,1.374319314956665
1.7296371459960938,6.444756984710693,1.3724514245986938
1.6710851192474365,6.407511234283447,1.368251919746399
0.8161493539810181,3.221963882446289,0.6897041201591492
1.5630263090133667,6.361586570739746,1.3645819425582886
0.7900616526603699,3.317838191986084,0.7131776809692383
1.4536936283111572,6.302955627441406,1.3577059507369995
1.4013358354568481,6.278505802154541,1.3553491830825806
1.3461244106292725,6.234816074371338,1.3488162755966187
1.2953310012817383,6.209446430206299,1.3461092710494995
1.2479361295700073,6.202724456787109,1.3466975688934326
1.1977956295013428,6.180642604827881,1.34400475025177
1.145172357559204,6.147031307220459,1.3388866186141968
1.098188042640686,6.131513595581055,1.3376686573028564
1.047593593597412,6.093064308166504,1.3314886093139648
0.9982783198356628,6.057975769042969,1.3260725736618042
0.9530141949653625,6.049159526824951,1.3257038593292236
0.8973870873451233,5.975992202758789,1.3111220598220825
0.858192503452301,6.004284858703613,1.3188281059265137
0.8087852597236633,5.956624984741211,1.3098942041397095
0.7663423418998718,5.953953266143799,1.3108867406845093
0.6225913763046265,5.117615699768066,1.1281601190567017
0.5759228467941284,5.026622295379639,1.1092993021011353
0.5618689060211182,5.235134124755859,1.1560777425765991
0.40935131907463074,4.084598541259766,0.9026336073875427
0.38019025325775146,4.083312511444092,0.9030234217643738
0.35733577609062195,4.150200366973877,0.9185354113578796
0.3296586275100708,4.16752290725708,0.9231361150741577
0.2990821897983551,4.15425443649292,0.9210190773010254
0.2694782614707947,4.14846134185791,0.9201169013977051
0.24238671362400055,4.184377193450928,0.928339958190918
0.39393842220306396,7.739413261413574,1.7176146507263184
0.3385416567325592,7.711240291595459,1.7120009660720825
0.2829307019710541,7.682695388793945,1.7063915729522705
0.22954316437244415,7.684223175048828,1.7075297832489014
0.17500387132167816,7.635837554931641,1.6975741386413574
0.12145750969648361,7.6139936447143555,1.6924948692321777
0.06812107563018799,7.580336093902588,1.6848729848861694
0.014399363659322262,7.557748317718506,1.6797937154769897
-0.03815718740224838,7.542410850524902,1.676409363746643
-0.09022827446460724,7.511458873748779,1.6696348190307617
-0.1418858915567398,7.476334571838379,1.6620128154754639
-0.19322367012500763,7.4523844718933105,1.6565351486206055
-0.24424739181995392,7.428232669830322,1.6503814458847046
-0.2964169979095459,7.418942451477051,1.6476013660430908
-0.24924761056900024,5.314143657684326,1.179720401763916
-0.2912970781326294,5.407658576965332,1.2000830173492432
-0.3274784982204437,5.382835388183594,1.1942360401153564
-0.36390772461891174,5.365376949310303,1.1900824308395386
-0.39962735772132874,5.336355209350586,1.1828535795211792
-0.43680503964424133,5.337612152099609,1.182145118713379
-0.41694748401641846,4.696460723876953,1.0393279790878296
-0.44108662009239197,4.606420993804932,1.0186448097229004
-0.4715670943260193,4.588358402252197,1.013940453529358
-0.5023466944694519,4.570039749145508,1.0092225074768066
-0.5341264009475708,4.5667338371276855,1.0078641176223755
-0.5598717331886292,4.517950057983398,0.9958534836769104
-0.5904203057289124,4.510645866394043,0.9930464625358582
-0.6229801177978516,4.518257141113281,0.9935682415962219
-0.6537090539932251,4.506645679473877,0.989881694316864
-0.6821711659431458,4.48355770111084,0.9837438464164734
-0.7085422873497009,4.448977470397949,0.9751433730125427
-0.7392580509185791,4.4444684982299805,0.9728994369506836
-0.7696483135223389,4.439877033233643,0.9702945351600647
-0.7959423661231995,4.412525177001953,0.9627688527107239
-0.8266656994819641,4.4074482917785645,0.9601296782493591
-0.7149507999420166,3.6709628105163574,0.7984521389007568
-0.7359362244606018,3.6439075469970703,0.7913743257522583
-0.7581444978713989,3.6242122650146484,0.7859452962875366
-0.9315048456192017,4.306824207305908,0.932062029838562
-0.9680077433586121,4.330803871154785,0.9352778792381287
-0.9974856376647949,4.324799060821533,0.9320831894874573
-1.0256799459457397,4.311039447784424,0.9272310137748718
-1.0539205074310303,4.297050952911377,0.9223688840866089
-1.080188512802124,4.275447368621826,0.9159237146377563
-1.108197569847107,4.261146545410156,0.9107067584991455
-1.1302056312561035,4.228461742401123,0.9013728499412537
-1.1609824895858765,4.228862762451172,0.8991401195526123
-1.1910958290100098,4.225275039672852,0.8960700631141663
-1.219583511352539,4.213986873626709,0.8913707733154297
-1.2430602312088013,4.1840057373046875,0.8827338218688965
-1.2675410509109497,4.161506175994873,0.8755640983581543
-1.3003020286560059,4.1683669090271,0.8742173910140991
-1.321558952331543,4.138481616973877,0.8652089238166809
-1.347486972808838,4.122979164123535,0.8592420220375061
-1.3768072128295898,4.114243030548096,0.8546246886253357
-1.4030735492706299,4.098198890686035,0.8485854864120483
-1.4263423681259155,4.074885368347168,0.8408962488174438
-1.442157506942749,4.033711910247803,0.8292019367218018
-1.4811989068984985,4.057335376739502,0.8308612704277039
-1.5089300870895386,4.048145771026611,0.8257712125778198
-1.5310301780700684,4.020397663116455,0.816805362701416
-1.5592820644378662,4.01058292388916,0.8115942478179932
-1.5896806716918945,4.007995128631592,0.8075847625732422
-1.6109031438827515,3.9840891361236572,0.7990509867668152
-1.6435811519622803,3.9884791374206543,0.7962285280227661
-1.6538755893707275,3.935439348220825,0.7818282246589661
-1.6876420974731445,3.9389758110046387,0.7787444591522217
-1.7215371131896973,3.9422316551208496,0.7756167650222778
-1.7386620044708252,3.910715103149414,0.7651652693748474
-1.7648921012878418,3.900181531906128,0.7588520646095276
