X,Y,Z
1.976755142211914,4.089865207672119,-0.06331894546747208
1.9969854354858398,4.0626373291015625,-0.06218285113573074
2.0215554237365723,4.041749954223633,-0.06112052500247955
2.049589157104492,4.027620792388916,-0.06016157940030098
2.0731523036956787,4.006763458251953,-0.05909259617328644
2.095989465713501,3.9860551357269287,-0.05802246183156967
2.1228621006011963,3.971822500228882,-0.05703486129641533
2.146684408187866,3.9501235485076904,-0.055921390652656555
2.1774239540100098,3.942204236984253,-0.05498281866312027
2.1994876861572266,3.9209961891174316,-0.05386928468942642
2.224074363708496,3.9026217460632324,-0.05277452990412712
2.2531239986419678,3.890451431274414,-0.05174381658434868
2.2728347778320312,3.865396499633789,-0.05052124336361885
2.2984976768493652,3.850206136703491,-0.04941024258732796
2.324981451034546,3.8342859745025635,-0.048259053379297256
2.351072311401367,3.8183584213256836,-0.047101929783821106
2.3633151054382324,3.7832016944885254,-0.04571060836315155
2.3968944549560547,3.780543804168701,-0.044684723019599915
2.419379711151123,3.756920337677002,-0.04335123300552368
2.439373016357422,3.7346558570861816,-0.042045749723911285
2.4680492877960205,3.725156307220459,-0.04086783155798912
2.5025672912597656,3.720913887023926,-0.03967709839344025
2.5001277923583984,3.665968656539917,-0.03795183449983597
2.5287349224090576,3.6558120250701904,-0.036653824150562286
2.5675208568573,3.6573636531829834,-0.03540511801838875
2.5814974308013916,3.6283669471740723,-0.033849362283945084
2.5917534828186035,3.5922014713287354,-0.032171182334423065
2.634117364883423,3.60006046295166,-0.03082641214132309
2.1748924255371094,2.9340898990631104,-0.02396499179303646
2.588209629058838,3.6236398220062256,0.026992544531822205
2.5711209774017334,3.6548941135406494,0.028490863740444183
2.5395350456237793,3.6674015522003174,0.02981005236506462
2.5117928981781006,3.6864469051361084,0.03115374967455864
2.4903922080993652,3.7103397846221924,0.032451752573251724
2.453580617904663,3.716064691543579,0.03356602042913437
2.4300718307495117,3.740788698196411,0.03482555225491524
2.403985023498535,3.757596015930176,0.035944435745477676
2.3714759349823,3.7689592838287354,0.03699316456913948
2.3315389156341553,3.7662479877471924,0.03787201642990112
2.313401937484741,3.795714855194092,0.039031799882650375
2.2847747802734375,3.813004493713379,0.0400555320084095
2.26031494140625,3.8366141319274902,0.0411238968372345
2.237499237060547,3.85898756980896,0.042130663990974426
2.2059824466705322,3.868089437484741,0.04298336058855057
2.1772189140319824,3.8843419551849365,0.04389933496713638
2.1487746238708496,3.9001388549804688,0.044801414012908936
2.1290078163146973,3.928734540939331,0.045821212232112885
2.107759952545166,3.9578752517700195,0.046839289367198944
2.0821456909179688,3.9802181720733643,0.04777875915169716
2.0557360649108887,3.998304605484009,0.048643819987773895
2.034402847290039,4.026703834533691,0.04964088648557663
2.015474319458008,4.062380790710449,0.05068478360772133
1.9993133544921875,4.1051344871521,0.051821108907461166
1.9888519048690796,4.1578826904296875,0.053072839975357056
1.9731661081314087,4.19989013671875,0.054191481322050095
1.964189052581787,4.260066986083984,0.055531471967697144
1.9454565048217773,4.3029608726501465,0.05665963515639305
1.9211022853851318,4.330976963043213,0.05757851526141167
1.8971542119979858,4.358555793762207,0.058485500514507294
1.8692857027053833,4.379065990447998,0.059277262538671494
1.8420120477676392,4.403304100036621,0.0600864477455616
1.8095438480377197,4.416737079620361,0.06076006218791008
1.7817065715789795,4.436450004577637,0.06149660423398018
1.7507859468460083,4.448734760284424,0.06213444471359253
1.721554160118103,4.468492031097412,0.06284203380346298
1.6975681781768799,4.502705097198486,0.06375445425510406
1.3352383375167847,3.6206700801849365,0.051613952964544296
1.3033549785614014,3.611506700515747,0.05181916803121567
1.280617117881775,3.627910614013672,0.05238405987620354
1.5818415880203247,4.585957050323486,0.06659793853759766
1.5513083934783936,4.604611396789551,0.06725287437438965
1.524449348449707,4.634128570556641,0.06806978583335876
1.4898080825805664,4.637168884277344,0.0684913769364357
1.4665082693099976,4.67733907699585,0.06944829970598221
1.4353177547454834,4.69516658782959,0.07004701346158981
1.4084075689315796,4.727759838104248,0.0708717331290245
1.3774234056472778,4.745007038116455,0.0714653730392456
1.3416380882263184,4.747124671936035,0.07183849066495895
1.3217653036117554,4.8053717613220215,0.07303842157125473
1.2834150791168213,4.79957914352417,0.07323180884122849
1.2472227811813354,4.801034450531006,0.07353781163692474
1.2249752283096313,4.855105876922607,0.07465127855539322
1.1989319324493408,4.897793292999268,0.07560073584318161
1.1646462678909302,4.906052589416504,0.07600384950637817
1.1315613985061646,4.921799659729004,0.07647419720888138
1.1050504446029663,4.96783447265625,0.07742143422365189
1.073339819908142,4.990757942199707,0.07801272720098495
1.0379985570907593,4.998222827911377,0.07836821675300598
1.0046968460083008,5.012984275817871,0.07883857190608978
0.9676873087882996,5.01230001449585,0.07902496308088303
0.9564504027366638,5.149579048156738,0.08139427751302719
0.9282740354537964,5.2023444175720215,0.08243859559297562
0.8914926052093506,5.208768844604492,0.08275454491376877
1.8078588247299194,11.02323055267334,0.1755855232477188
1.7111585140228271,10.912152290344238,0.17416861653327942
1.6076397895812988,10.74624252319336,0.1718154400587082
1.5182108879089355,10.660614013671875,0.17074629664421082
1.421512484550476,10.516300201416016,0.16874141991138458
1.3338866233825684,10.413583755493164,0.16739831864833832
1.243863582611084,10.279160499572754,0.1655195951461792
1.15740966796875,10.163466453552246,0.16383521258831024
1.0714012384414673,10.035419464111328,0.1619551181793213
0.9990641474723816,10.023249626159668,0.16194970905780792
0.395165354013443,4.270260810852051,0.06908170133829117
0.3647919297218323,4.265120506286621,0.06908566504716873
0.3331455588340759,4.24420166015625,0.06879745423793793
0.30397531390190125,4.254220962524414,0.06899678707122803
0.27618762850761414,4.2874250411987305,0.06957589089870453
0.24533770978450775,4.28147554397583,0.06952380388975143
0.21320410072803497,4.23626708984375,0.06883617490530014
0.1808495968580246,4.171311855316162,0.06782103329896927
0.1505577266216278,4.1412482261657715,0.06732594966888428
0.12211097031831741,4.1578145027160645,0.06759227812290192
0.09329985082149506,4.189814567565918,0.068112812936306
0.06370092928409576,4.159119129180908,0.06761743873357773
0.03481927886605263,4.167272567749023,0.06775691360235214
0.005620316602289677,4.003373146057129,0.06507295370101929
-0.48425355553627014,3.32387375831604,0.05255024880170822
-0.5025007128715515,3.2895617485046387,0.051888689398765564
-0.5198807120323181,3.2512693405151367,0.05113919451832771
-0.5434615612030029,3.2553341388702393,0.05106194689869881
-0.5551608204841614,3.189948558807373,0.04989947751164436
-0.5815437436103821,3.209066867828369,0.050061434507369995
-0.5980648398399353,3.174241304397583,0.04938478395342827
-0.6101171970367432,3.1202290058135986,0.04838421195745468
-0.6403778791427612,3.158013343811035,0.0488017313182354
-0.6988919377326965,3.3293938636779785,0.05127762630581856
-0.7178627252578735,3.30537748336792,0.05073586478829384
-0.7373586893081665,3.28507661819458,0.050255585461854935
-0.7731509208679199,3.3370089530944824,0.05086338520050049
-0.8298601508140564,3.4721298217773438,0.052706580609083176
-0.6797863841056824,2.7609894275665283,0.04174407944083214
-0.7036096453666687,2.775169610977173,0.041789308190345764
-0.7209351062774658,2.762650489807129,0.04143223911523819
-0.7380157113075256,2.7500531673431396,0.041071854531764984
-0.7570239305496216,2.7448854446411133,0.04079783707857132
-0.7756539583206177,2.7396833896636963,0.04052876681089401
-0.7987778782844543,2.749307870864868,0.04047811031341553
-0.9361515045166016,3.1404592990875244,0.04601471126079559
-0.9625297784805298,3.148820638656616,0.04591533914208412
-0.9923495054244995,3.1682183742523193,0.0459413044154644
-1.068636178970337,3.3325226306915283,0.04805915430188179
-1.1010875701904297,3.3548500537872314,0.04811371862888336
-1.1268986463546753,3.354515552520752,0.047837160527706146
-1.1628854274749756,3.383544445037842,0.047978416085243225
-1.1870198249816895,3.3792994022369385,0.047617390751838684
-1.2365951538085938,3.4445974826812744,0.04822507128119469
-1.2949836254119873,3.53144907951355,0.049124203622341156
-1.3195031881332397,3.522367000579834,0.04867595434188843
-1.3550454378128052,3.542329788208008,0.048626963049173355
-1.3844692707061768,3.5477170944213867,0.0483393594622612
-1.4057612419128418,3.5309336185455322,0.04774502292275429
-1.4489316940307617,3.568310260772705,0.04788113757967949
-1.4602633714675903,3.525674819946289,0.046937406063079834
-1.4662002325057983,3.4723942279815674,0.045856911689043045
-1.484763264656067,3.451751708984375,0.045202165842056274
-1.509789228439331,3.44515061378479,0.044727444648742676
-1.5287468433380127,3.4239587783813477,0.04406086355447769
-1.5573198795318604,3.4239416122436523,0.04366666451096535
-1.590161919593811,3.4346632957458496,0.04338797181844711
-1.612928032875061,3.4240381717681885,0.042832374572753906
-3.110706329345703,6.487647533416748,0.08032826334238052
-2.568183660507202,5.261824131011963,0.06446820497512817
-1.7997907400131226,3.6243650913238525,0.04392864927649498
-1.8149590492248535,3.594935894012451,0.043084416538476944
-1.8352434635162354,3.575852155685425,0.042367804795503616
-1.8184822797775269,3.483375310897827,0.040773436427116394
-1.8593519926071167,3.501593828201294,0.040470775216817856
-1.8656288385391235,3.458369016647339,0.039447326213121414
-1.9052287340164185,3.476860523223877,0.03912900388240814
-1.1937041282653809,2.1429715156555176,0.023771608248353004
-1.1757042407989502,2.07692813873291,0.022702259942889214
-1.9759907722473145,3.4371609687805176,0.037001531571149826
-1.9808629751205444,3.393719434738159,0.03597475588321686
-2.004369020462036,3.3798975944519043,0.035238441079854965
-1.2332183122634888,2.047881841659546,0.020985597744584084
-1.2668261528015137,2.0731852054595947,0.020865030586719513
-2.0820791721343994,3.355618953704834,0.03311948850750923
-2.2094972133636475,3.506295680999756,0.033908434212207794
-2.3374290466308594,3.656428813934326,0.0346170999109745
-2.369615316390991,3.654297113418579,0.033843252807855606
-2.4078266620635986,3.657334804534912,0.03305882588028908
-2.414910078048706,3.615149974822998,0.03185463324189186
-2.437863349914551,3.599719524383545,0.03090829588472843
-2.453880786895752,3.569884777069092,0.0297709908336401
-2.4347851276397705,3.4928486347198486,0.02825210988521576
-2.47042179107666,3.4964792728424072,0.02738819271326065
-2.6862499713897705,3.7456109523773193,0.02826698124408722
-2.700627088546753,3.715968608856201,0.02699623629450798
-2.720259189605713,3.6919305324554443,0.025716161355376244
-2.7597522735595703,3.8611867427825928,-0.020175397396087646
-2.4538261890411377,3.4891154766082764,-0.019176414236426353
-2.4239108562469482,3.500459671020508,-0.02012014202773571
-2.609809160232544,3.827704668045044,-0.022912077605724335
-2.55867338180542,3.8151233196258545,-0.02372986264526844
-2.536287307739258,3.839402914047241,-0.024693576619029045
-2.5118441581726074,3.864753484725952,-0.025670984759926796
-2.4869821071624756,3.890068531036377,-0.026627199724316597
-2.0935513973236084,3.325498342514038,-0.02338368073105812
-2.0795466899871826,3.357264757156372,-0.024220336228609085
-1.2760902643203735,2.095036029815674,-0.015490896999835968
-2.0162434577941895,3.3638100624084473,-0.025442887097597122
-2.00408935546875,3.3982975482940674,-0.026255378499627113
-1.978785514831543,3.41308856010437,-0.026905709877610207
-1.938819169998169,3.400017261505127,-0.027314305305480957
-1.2041268348693848,2.146155595779419,-0.017553234472870827
-1.1843260526657104,2.148225784301758,-0.017874091863632202
-1.8755004405975342,3.46201491355896,-0.029281605035066605
-1.8715345859527588,3.512916088104248,-0.030167121440172195
-1.8576858043670654,3.5467329025268555,-0.030909448862075806
-1.8477494716644287,3.5914955139160156,-0.03173451870679855
-1.8422596454620361,3.646902322769165,-0.032668814063072205
-2.119131565093994,4.268367290496826,-0.03872264549136162
-2.0959041118621826,4.297205924987793,-0.0394650436937809
-2.0713250637054443,4.3264312744140625,-0.04019534960389137
-2.04659104347229,4.35545015335083,-0.04092651605606079
-1.579267144203186,3.42260479927063,-0.032508883625268936
-1.546781301498413,3.41597580909729,-0.032795295119285583
-1.5156010389328003,3.4128308296203613,-0.033091407269239426
-1.490785837173462,3.423739194869995,-0.03352417051792145
-1.4606773853302002,3.4197049140930176,-0.033798906952142715
-1.4428774118423462,3.444195508956909,-0.03435583785176277
-1.448795199394226,3.53053617477417,-0.03552598878741264
-1.4086805582046509,3.5046653747558594,-0.035563692450523376
-1.3894933462142944,3.5291099548339844,-0.03610668331384659
-1.3564544916152954,3.5168282985687256,-0.036269500851631165
-1.3371480703353882,3.5409164428710938,-0.03679583966732025
-1.316616177558899,3.565258741378784,-0.03731236979365349
-1.2988665103912354,3.596687078475952,-0.0379035659134388
-1.3531591892242432,3.8303024768829346,-0.04063617065548897
-1.4055330753326416,4.068528175354004,-0.04345171898603439
-1.3765672445297241,4.078415870666504,-0.043820470571517944
-1.3467607498168945,4.088351249694824,-0.04418797791004181
-1.3212337493896484,4.108979225158691,-0.04466736689209938
-0.9721361994743347,3.0969228744506836,-0.03385509178042412
-0.9620227217674255,3.1409506797790527,-0.034529607743024826
-0.9396548271179199,3.147711992263794,-0.03477029874920845
-0.8016123175621033,2.7567481994628906,-0.030597327277064323
-0.7753897905349731,2.739887237548828,-0.030557364225387573
-0.7583425045013428,2.752756118774414,-0.030845222994685173
-0.7320328950881958,2.731569766998291,-0.03075072169303894
-0.7174744009971619,2.7556138038635254,-0.031141670420765877
-0.7054570317268372,2.790954828262329,-0.031664181500673294
-1.2834393978118896,5.235271453857422,-0.05962994322180748
-1.2551730871200562,5.278257369995117,-0.060350608080625534
-0.7105506062507629,3.083043336868286,-0.035386595875024796
-0.701434314250946,3.1451854705810547,-0.036210544407367706
-0.6840922832489014,3.1729798316955566,-0.03664355352520943
-0.6526013016700745,3.1357297897338867,-0.03632783517241478
-0.637738049030304,3.1746487617492676,-0.03689255192875862
-0.6215938329696655,3.209681510925293,-0.03741639107465744
-0.5932670831680298,3.183255434036255,-0.037200577557086945
-1.036907434463501,5.790311336517334,-0.0678321123123169
-0.5604723691940308,3.264514923095703,-0.038338977843523026
-0.5415487289428711,3.29145884513855,-0.038750987499952316
-0.5277119874954224,3.353027820587158,-0.03957503288984299
-0.5041555762290955,3.356649160385132,-0.03969217464327812
-0.47881802916526794,3.3485193252563477,-0.03965789079666138
-0.45164093375205994,3.3286423683166504,-0.03948690742254257
-0.03610694035887718,4.019079685211182,-0.04826098680496216
-0.008207101374864578,4.027044773101807,-0.04835047200322151
0.019826635718345642,4.046535015106201,-0.048552583903074265
0.04881013557314873,4.077539443969727,-0.04889426752924919
0.07883512228727341,4.166923999786377,-0.049938052892684937
0.10994251817464828,4.248272895812988,-0.050886813551187515
0.14103156328201294,4.294251918792725,-0.05141359940171242
0.16634106636047363,4.179986476898193,-0.04998910054564476
0.2589956521987915,5.540430068969727,-0.06617026031017303
0.23093335330486298,4.290359973907471,-0.0511731393635273
0.2583679258823395,4.249664783477783,-0.050624553114175797
0.28894585371017456,4.2633562088012695,-0.05072665214538574
0.3162197172641754,4.230086803436279,-0.050260648131370544
0.3454338014125824,4.2278032302856445,-0.05013911426067352
0.3799838721752167,4.279740333557129,-0.05066019669175148
0.4293561279773712,4.483081817626953,-0.05297170951962471
0.46212342381477356,4.495530128479004,-0.05302511900663376
0.499348908662796,4.546566009521484,-0.053534794598817825
0.6054511666297913,5.183152675628662,-0.06089581176638603
0.6307603716850281,5.089622974395752,-0.0596613772213459
0.6557031869888306,5.00769567489624,-0.058572519570589066
0.6781741380691528,4.914030075073242,-0.057352546602487564
0.7072284817695618,4.874415397644043,-0.05676930025219917
0.7461379170417786,4.904175281524658,-0.05696677044034004
0.7840544581413269,4.92199182510376,-0.05699659511446953
0.8139733672142029,4.893378734588623,-0.05649448558688164
0.8444731831550598,4.86838960647583,-0.05603700876235962
0.8769276142120361,4.854713439941406,-0.05571247637271881
0.9076887369155884,4.833162784576416,-0.055293675512075424
0.9333258867263794,4.788491249084473,-0.05458716303110123
0.9651452302932739,4.774212837219238,-0.054228268563747406
0.9956217408180237,4.755982398986816,-0.05383015051484108
1.028674602508545,4.748945713043213,-0.05356001481413841
1.0548075437545776,4.711195945739746,-0.05294753983616829
1.086988091468811,4.703879356384277,-0.052639830857515335
1.1106232404708862,4.658212184906006,-0.05190159007906914
1.1443653106689453,4.65808629989624,-0.05167820677161217
1.1709898710250854,4.6272969245910645,-0.051114365458488464
1.2031080722808838,4.619053363800049,-0.050803426653146744
1.2326551675796509,4.603173732757568,-0.050379473716020584
1.2634661197662354,4.590764999389648,-0.04998435452580452
1.292662262916565,4.574515342712402,-0.0495540052652359
1.3178998231887817,4.542914867401123,-0.04895687475800514
1.351635456085205,4.541147232055664,-0.04868475720286369
1.3848810195922852,4.539291858673096,-0.048401132225990295
1.4138388633728027,4.522175312042236,-0.04794817045331001
1.4397841691970825,4.497582912445068,-0.047423504292964935
1.4613178968429565,4.457763671875,-0.04673690348863602
1.4873377084732056,4.432676792144775,-0.04620968922972679
1.517472505569458,4.422455310821533,-0.04581039771437645
1.2655484676361084,3.608553171157837,-0.03713469207286835
1.2931345701217651,3.6070632934570312,-0.03686949983239174
1.3154752254486084,3.59066104888916,-0.036452747881412506
1.6210986375808716,4.331368923187256,-0.04367225244641304
1.6474287509918213,4.313065528869629,-0.04316801577806473
1.6792675256729126,4.309159278869629,-0.04280883073806763
1.7062512636184692,4.290143966674805,-0.04229167103767395
1.7331206798553467,4.27093505859375,-0.041774991899728775
1.7624790668487549,4.258907794952393,-0.04132191091775894
1.7879456281661987,4.23980712890625,-0.040781330317258835
1.8132683038711548,4.2205424308776855,-0.04024180769920349
1.8382095098495483,4.196954250335693,-0.039647363126277924
1.8689216375350952,4.187650680541992,-0.03919490799307823
1.8889769315719604,4.1572041511535645,-0.03853265568614006
1.9100902080535889,4.130342483520508,-0.0379040464758873
1.93807053565979,4.1172919273376465,-0.03739844635128975
1.957077980041504,4.082320690155029,-0.03668029233813286
1.98489511013031,4.068872928619385,-0.03616280481219292
2.01189923286438,4.0555925369262695,-0.035643644630908966
2.0354676246643066,4.035071849822998,-0.03506055846810341
2.0598461627960205,4.0139079093933105,-0.03445998951792717
2.09089732170105,4.006639003753662,-0.03397594019770622
2.1103882789611816,3.978733777999878,-0.03329905867576599
2.1367199420928955,3.9646596908569336,-0.03274581581354141
2.154794216156006,3.9326140880584717,-0.032027266919612885
2.191113233566284,3.9348692893981934,-0.03158646821975708
2.21109676361084,3.9102227687835693,-0.030923880636692047
2.2375025749206543,3.8951778411865234,-0.030324937775731087
2.2566680908203125,3.8660295009613037,-0.02960580214858055
2.2865593433380127,3.8575150966644287,-0.029046116396784782
2.3116636276245117,3.8425281047821045,-0.02843659557402134
2.3335764408111572,3.820112943649292,-0.02775472402572632
2.3646349906921387,3.810168743133545,-0.027141835540533066
2.376725435256958,3.7749760150909424,-0.026347752660512924
2.405634880065918,3.765897512435913,-0.02573101967573166
2.4359822273254395,3.7556588649749756,-0.025072740390896797
2.4648780822753906,3.7461180686950684,-0.024421630427241325
2.4805924892425537,3.7169649600982666,-0.023635027930140495
2.493211030960083,3.6802425384521484,-0.02276794984936714
2.5216877460479736,3.670275926589966,-0.022068489342927933
2.5495364665985107,3.660515308380127,-0.02136317454278469
2.574890375137329,3.6427297592163086,-0.020554110407829285
2.5984530448913574,3.6259641647338867,-0.019732847809791565
2.6175296306610107,3.602569341659546,-0.01885630562901497
2.2059834003448486,2.9937453269958496,-0.015008142217993736
2.5753982067108154,3.632835865020752,0.012296424247324467
2.5579917430877686,3.6641829013824463,0.013039983808994293
2.517911911010742,3.6634325981140137,0.013634559698402882
2.4982187747955322,3.6957623958587646,0.014344325289130211
2.4724180698394775,3.7130701541900635,0.014939600601792336
2.4575247764587402,3.7509925365448,0.015606898814439774
2.429558515548706,3.769164800643921,0.016180921345949173
2.403261184692383,3.7859840393066406,0.01671818271279335
2.3746225833892822,3.8040096759796143,0.01725601591169834
2.3381011486053467,3.8082404136657715,0.01771419867873192
2.32568097114563,3.8478217124938965,0.01831083744764328
2.2956833839416504,3.8612475395202637,0.018784591928124428
2.268801212310791,3.881627321243286,0.019291581586003304
2.235029935836792,3.8876564502716064,0.019712582230567932
2.2134413719177246,3.913454532623291,0.02021884359419346
2.174915075302124,3.912663459777832,0.020563334226608276
2.142531633377075,3.9215872287750244,0.020953185856342316
2.118917942047119,3.943264961242676,0.02139567770063877
2.099402904510498,3.97578763961792,0.0219029039144516
2.0701394081115723,3.991100549697876,0.02230876497924328
2.0413849353790283,4.005882263183594,0.022706065326929092
2.008239507675171,4.009496688842773,0.023029953241348267
1.9881861209869385,4.04125452041626,0.023505177348852158
1.961471438407898,4.062962055206299,0.0239180326461792
1.9356013536453247,4.083995342254639,0.024319196119904518
1.9038482904434204,4.09027624130249,0.024625178426504135
1.8845900297164917,4.124964237213135,0.02509281411767006
1.8545376062393188,4.138561248779297,0.025416236370801926
1.8245155811309814,4.151882171630859,0.02573828212916851
1.8043837547302246,4.186202526092529,0.026187395676970482
1.7781652212142944,4.205887317657471,0.026543330401182175
1.7476979494094849,4.218636989593506,0.026841500774025917
1.7244837284088135,4.249263286590576,0.027255753055214882
1.7031527757644653,4.283088207244873,0.027688324451446533
1.681256651878357,4.316889762878418,0.028125561773777008
1.6616852283477783,4.357919692993164,0.028596099466085434
1.6397496461868286,4.39541482925415,0.029035624116659164
1.318880558013916,3.614475727081299,0.024035772308707237
1.2911014556884766,3.6161959171295166,0.024201272055506706
1.5912272930145264,4.558271884918213,0.030704069882631302
1.5662665367126465,4.591677188873291,0.031107330694794655
1.537064790725708,4.61388635635376,0.03143460676074028
1.5066559314727783,4.632120132446289,0.03173583000898361
1.4814739227294922,4.664830207824707,0.032135285437107086
1.448357343673706,4.6752166748046875,0.032386261969804764
1.4171462059020996,4.692931175231934,0.03265716880559921
1.3945749998092651,4.740417957305908,0.033138345927000046
1.3609760999679565,4.750171184539795,0.03335712477564812
1.3310884237289429,4.770798683166504,0.033651430159807205
1.2978601455688477,4.779943466186523,0.03386664018034935
1.269214391708374,4.811870098114014,0.034217383712530136
1.238804578781128,4.835918426513672,0.034512802958488464
1.2121500968933105,4.874874114990234,0.03491657227277756
1.1827465295791626,4.902183532714844,0.035238128155469894
1.148616909980774,4.9102911949157715,0.03542369231581688
1.1165944337844849,4.933691501617432,0.035694923251867294
1.086577296257019,4.964382648468018,0.036016229540109634
1.0513778924942017,4.971955299377441,0.03617194667458534
1.0230201482772827,5.009764194488525,0.0365481935441494
0.9866843223571777,5.009084224700928,0.036645740270614624
0.9551942348480225,5.039039611816406,0.036945994943380356
0.9202544093132019,5.049507141113281,0.037092339247465134
0.8885800242424011,5.078970432281494,0.03738045319914818
0.8570132851600647,5.108157157897949,0.03766806796193123
0.8251785635948181,5.137134552001953,0.03795642778277397
0.7909978628158569,5.1583147048950195,0.038175586611032486
0.7557153701782227,5.171496391296387,0.03831010311841965
0.7208729386329651,5.188299179077148,0.03847343474626541
0.6916933059692383,5.247433662414551,0.03895281255245209
0.6571369171142578,5.267618656158447,0.03914522007107735
0.6214200854301453,5.2798171043396,0.03928036615252495
1.112532615661621,10.071273803710938,0.07498946785926819
1.035713791847229,10.020559310913086,0.07467483729124069
0.9624744057655334,9.996464729309082,0.07456150650978088
0.38305944204330444,4.291412353515625,0.03203848376870155
0.347099632024765,4.220007419586182,0.03153613954782486
0.31943991780281067,4.253528118133545,0.03180617094039917
0.2896798849105835,4.2556586265563965,0.031829576939344406
0.2603406608104706,4.265380382537842,0.03191135451197624
0.23015989363193512,4.259292125701904,0.03187635913491249
0.19868965446949005,4.221771240234375,0.03160751238465309
0.16523997485637665,4.133301258087158,0.030958399176597595
0.14013530313968658,4.247570037841797,0.03179473429918289
0.10856913775205612,4.174252510070801,0.03122825175523758
0.07773561030626297,4.085083961486816,0.03054536134004593
0.048936013132333755,4.054279327392578,0.030300863087177277
0.01996568962931633,3.9959323406219482,0.029852082952857018
-0.007759673520922661,3.956913471221924,0.029539480805397034
-0.03455915302038193,3.8747384548187256,0.028895745053887367
-0.48856043815612793,3.2761881351470947,0.023593783378601074
-0.5123785734176636,3.2804555892944336,0.023559249937534332
-0.5279632806777954,3.2344553470611572,0.023156624287366867
-0.550153911113739,3.230755567550659,0.023058880120515823
-0.5697103142738342,3.2114975452423096,0.022851137444376945
-0.593822181224823,3.2150721549987793,0.022805435582995415
-0.6102568507194519,3.180180311203003,0.022489553317427635
-0.6236302852630615,3.133787155151367,0.0220769252628088
-0.7822527289390564,3.795128107070923,0.02663467451930046
-0.79929119348526,3.7476541996002197,0.02620217390358448
-0.8274428844451904,3.7495405673980713,0.026113906875252724
-0.8535096645355225,3.743694305419922,0.025974437594413757
-0.8684344291687012,3.692124605178833,0.025510074570775032
-0.8935810327529907,3.68612003326416,0.025358187034726143
-0.6954008936882019,2.7855401039123535,0.019079947844147682
-0.711134135723114,2.7654356956481934,0.018857823684811592
-0.7273198962211609,2.7491037845611572,0.018664440140128136
-0.7472270727157593,2.7478086948394775,0.018568212166428566
-0.7606053352355957,2.7238638401031494,0.018312493339180946
-0.790910542011261,2.7599453926086426,0.018460407853126526
-0.8654012680053711,2.941690683364868,0.019572144374251366
-0.9512887597084045,3.1525001525878906,0.020865077152848244
-0.9730152487754822,3.1458632946014404,0.02070808783173561
-1.3033208847045898,4.1148505210876465,0.02692682482302189
-1.3275444507598877,4.094783782958984,0.026637086644768715
-1.3537334203720093,4.0779709815979,0.02636508084833622
-1.3745168447494507,4.046269416809082,0.02600046992301941
-1.2152107954025269,3.4979848861694336,0.02233455888926983
-1.2283204793930054,3.460261821746826,0.021941008046269417
-1.2676078081130981,3.495967388153076,0.022013410925865173
-1.320114016532898,3.5640904903411865,0.022282520309090614
-1.342513084411621,3.54736328125,0.02201465517282486
-1.369597315788269,3.545372247695923,0.021838845685124397
-1.3990843296051025,3.55064058303833,0.021703844889998436
-1.4316450357437134,3.5629096031188965,0.021610701456665993
-1.4473764896392822,3.5312328338623047,0.02124699018895626
-1.4496841430664062,3.4668636322021484,0.02068774774670601
-1.4730881452560425,3.4569852352142334,0.02045300230383873
-1.4899262189865112,3.43273663520813,0.020132413133978844
-1.5162209272384644,3.429748773574829,0.019935935735702515
-1.5368438959121704,3.4119925498962402,0.01964900828897953
-1.5819398164749146,3.4472732543945312,0.019661705940961838
-1.6048663854599,3.4366610050201416,0.01940726302564144
-1.9629892110824585,4.131539344787598,0.02309778891503811
-1.981209635734558,4.096816062927246,0.02266361005604267
-2.009666919708252,4.0829339027404785,0.022344717755913734
-2.012921094894409,4.020265579223633,0.021765075623989105
-1.8233274221420288,3.582141876220703,0.01918676309287548
-1.8153489828109741,3.5072057247161865,0.018577147275209427
-1.839651107788086,3.494521141052246,0.018297746777534485
-1.870416522026062,3.4958837032318115,0.01808007061481476
-1.9008252620697021,3.4972381591796875,0.0178550872951746
-1.1824915409088135,2.14036226272583,0.010778364725410938
-1.1897175312042236,2.118453025817871,0.010517992079257965
-1.9548009634017944,3.4269466400146484,0.016759522259235382
-1.9733004570007324,3.407304286956787,0.01640421338379383
-1.9647308588027954,3.3399412631988525,0.01581493392586708
-2.0082311630249023,3.359560489654541,0.01563044637441635
-1.268230676651001,2.0907063484191895,0.009560471400618553
-1.2612836360931396,2.0491747856140137,0.009206210263073444
-2.093380928039551,3.3487114906311035,0.014755038544535637
-2.4172070026397705,3.8095202445983887,0.016453733667731285
-2.4463236331939697,3.800184965133667,0.016074424609541893
-2.4763100147247314,3.7900502681732178,0.015679067000746727
-2.4525465965270996,3.698134422302246,0.014943624846637249
-2.425973653793335,3.607847213745117,0.014230054803192616
-2.4632089138031006,3.6109373569488525,0.013874741271138191
-2.4414985179901123,3.526325225830078,0.01316941250115633
-2.445709705352783,3.4852993488311768,0.012652844190597534
-2.691054105758667,3.780668258666992,0.013301554135978222
-2.777801275253296,3.8482532501220703,0.013086794875562191
-2.8317251205444336,3.871844530105591,0.012701965868473053
-2.8376734256744385,3.8237977027893066,0.012027030810713768
-2.566723108291626,3.619849920272827,-0.0051294732838869095
-2.436192750930786,3.4919772148132324,-0.005261542741209269
-2.4582736492156982,3.576464891433716,-0.0056788306683301926
-2.4348714351654053,3.6018717288970947,-0.006003113463521004
-2.467048406600952,3.7072834968566895,-0.006448438856750727
-2.4814393520355225,3.7867207527160645,-0.006844160612672567
-2.4696879386901855,3.8316268920898438,-0.00716739147901535
-2.429589033126831,3.8294498920440674,-0.00739116407930851
-2.081362009048462,3.333216428756714,-0.0066262511536479
-1.2673286199569702,2.063816547393799,-0.004215881694108248
-1.2483735084533691,2.0662145614624023,-0.0043290844187140465
-2.0127065181732178,3.3842079639434814,-0.007260399870574474
-1.9876577854156494,3.3989803791046143,-0.007462335284799337
-1.9621139764785767,3.4137890338897705,-0.007666565477848053
-1.176824688911438,2.0809011459350586,-0.004769825842231512
-1.1998969316482544,2.1575329303741455,-0.005041826516389847
-1.8882938623428345,3.455167531967163,-0.00822084117680788
-1.8689910173416138,3.4789552688598633,-0.008420230820775032
-1.8424752950668335,3.4886531829833984,-0.008584369905292988
-1.8585327863693237,3.5816562175750732,-0.008944089524447918
-1.821539044380188,3.5743250846862793,-0.009051702916622162
-2.004305601119995,4.002782344818115,-0.010272255167365074
-2.009213924407959,4.08320426940918,-0.0106138214468956
-1.9927642345428467,4.125988960266113,-0.010860290378332138
-1.9643199443817139,4.1439290046691895,-0.011039604432880878
-1.600333571434021,3.4388163089752197,-0.009267504326999187
-1.563395619392395,3.4214375019073486,-0.009324260987341404
-1.5340914726257324,3.4218380451202393,-0.00941599439829588
-1.4997766017913818,3.4114291667938232,-0.009470410645008087
-1.4811283349990845,3.4365875720977783,-0.009623982012271881
-1.4602206945419312,3.4540064334869385,-0.009753324091434479
-1.4463251829147339,3.4894654750823975,-0.009932742454111576
-1.4445765018463135,3.5577375888824463,-0.010203325189650059
-1.4043880701065063,3.5317883491516113,-0.01020467933267355
-1.3736909627914429,3.5270774364471436,-0.010265243239700794
-1.3463679552078247,3.5292365550994873,-0.01034450065344572
-1.3266037702560425,3.553396224975586,-0.010478745214641094
-1.3091100454330444,3.5848395824432373,-0.010633167810738087
-1.2941006422042847,3.6234850883483887,-0.010809805244207382
-1.3147544860839844,3.7653262615203857,-0.011297402903437614
-1.3906203508377075,4.073862552642822,-0.01229068823158741
-1.365077018737793,4.094847679138184,-0.012414572760462761
-1.3380954265594482,4.111959457397461,-0.012527631595730782
-1.3114323616027832,4.1287384033203125,-0.012639502994716167
-0.9700177311897278,3.130488157272339,-0.00963001511991024
-0.9480614066123962,3.13720703125,-0.00969498697668314
-0.8473130464553833,2.877843141555786,-0.008931048214435577
-0.7912263870239258,2.7599034309387207,-0.008601359091699123
-0.767646312713623,2.750335931777954,-0.008607395924627781
-0.7412880659103394,2.7292323112487793,-0.008576986379921436
-0.7267625331878662,2.75334095954895,-0.00868451502174139
-0.7110269665718079,2.7735793590545654,-0.008771172724664211
-0.6931539177894592,2.78615140914917,-0.008834218606352806
-0.8953917026519775,3.7098641395568848,-0.011794105172157288
-0.8678164482116699,3.708388090133667,-0.011820605024695396
-0.8448766469955444,3.729703664779663,-0.011918623931705952
-0.8234686851501465,3.7584853172302246,-0.012035018764436245
-0.8073234558105469,3.813908100128174,-0.012237833812832832
-0.6397969126701355,3.1305878162384033,-0.010066237300634384
-0.6247909069061279,3.169457197189331,-0.010212775319814682
-0.6023330688476562,3.173801898956299,-0.010247414000332355
-0.5841280817985535,3.2010300159454346,-0.010340952314436436
-0.5513833165168762,3.1473631858825684,-0.010173612274229527
-0.5486868023872375,3.2667243480682373,-0.010566162876784801
-0.527194082736969,3.278174638748169,-0.010610383935272694
-0.5039861798286438,3.281822681427002,-0.010630019940435886
-0.48317277431488037,3.300743579864502,-0.010702093131840229
-0.021770138293504715,4.1288275718688965,-0.013315987773239613
0.007020820863544941,4.160129070281982,-0.013398977927863598
0.0353984460234642,4.093575477600098,-0.013162312097847462
0.06421283632516861,4.116665840148926,-0.013214783743023872
0.093125119805336,4.127834796905518,-0.013229415751993656
0.12250211834907532,4.150514602661133,-0.013281431049108505
0.1509636640548706,4.126124382019043,-0.013183136470615864
0.1845080852508545,4.238151550292969,-0.013511664234101772
0.21722139418125153,4.3030924797058105,-0.013684597797691822
0.24502032995224,4.266386032104492,-0.013534678146243095
0.27462053298950195,4.264583110809326,-0.013496366329491138
0.3047764301300049,4.2625346183776855,-0.01345731969922781
0.3312990665435791,4.221373558044434,-0.013295975513756275
0.3644373118877411,4.265689373016357,-0.013403009623289108
0.49446892738342285,5.3521809577941895,-0.01677679270505905
0.5307520627975464,5.340854167938232,-0.01670193113386631
0.565227210521698,5.305890083312988,-0.016553405672311783
0.6003482341766357,5.286306381225586,-0.01645469292998314
0.6354455947875977,5.27039909362793,-0.016351018100976944
0.6677922606468201,5.234897136688232,-0.016181550920009613
0.7038969993591309,5.230165004730225,-0.01610824093222618
0.7353187203407288,5.186390399932861,-0.01591455563902855
0.768454372882843,5.161838531494141,-0.015782225877046585
0.8017919063568115,5.1409525871276855,-0.015660610049962997
0.8357926607131958,5.12761926651001,-0.015559878200292587
0.8683385252952576,5.106359958648682,-0.01543609518557787
0.8967792391777039,5.061776161193848,-0.015242761932313442
0.9325226545333862,5.055313587188721,-0.015164085663855076
0.9639812707901001,5.029524803161621,-0.01502932794392109
0.9922798871994019,4.992161273956299,-0.014853794127702713
1.0248241424560547,4.977605819702148,-0.014747096225619316
1.0556786060333252,4.955179214477539,-0.014617889188230038
1.0856729745864868,4.924696922302246,-0.01446411944925785
1.1190005540847778,4.913225173950195,-0.014368392527103424
1.1491049528121948,4.890223026275635,-0.014232149347662926
1.167718529701233,4.821528911590576,-0.013961229473352432
1.1939573287963867,4.786922454833984,-0.013790946453809738
1.2102357149124146,4.710270881652832,-0.013499137945473194
1.2279887199401855,4.645092964172363,-0.013243813998997211
1.2537652254104614,4.613919734954834,-0.013082846067845821
1.2809211015701294,4.590234756469727,-0.012939902022480965
1.3045862913131714,4.555129051208496,-0.012766041792929173
1.3344128131866455,4.538338661193848,-0.012642081826925278
1.3591597080230713,4.506514549255371,-0.012478319928050041
1.3832390308380127,4.474656581878662,-0.012314548715949059
1.4135183095932007,4.465183734893799,-0.012211780063807964
1.4401581287384033,4.4443464279174805,-0.012078586965799332
1.466408133506775,4.419295310974121,-0.01193228643387556
1.4946271181106567,4.401581287384033,-0.011807440780103207
1.497886061668396,4.313730239868164,-0.011493685655295849
1.2787890434265137,3.6040613651275635,-0.009534742683172226
1.3084123134613037,3.610037088394165,-0.009482478722929955
1.5978835821151733,4.3152079582214355,-0.011251403950154781
1.621456265449524,4.285530090332031,-0.011089579202234745
1.6548043489456177,4.285328388214111,-0.011005515232682228
1.679294228553772,4.2631988525390625,-0.01086511928588152
1.7050851583480835,4.244531631469727,-0.010734198614954948
1.7389880418777466,4.243422031402588,-0.010645530186593533
1.76141357421875,4.213001251220703,-0.010482517071068287
1.7973148822784424,4.219048976898193,-0.010412897914648056
1.8146213293075562,4.181844234466553,-0.010237280279397964
1.8462367057800293,4.1765265464782715,-0.010139002464711666
1.8752026557922363,4.163601875305176,-0.010020948946475983
1.8975579738616943,4.136277198791504,-0.009864887222647667
1.921733021736145,4.116480350494385,-0.009725742973387241
1.9525238275527954,4.110616683959961,-0.009619642980396748
1.9776729345321655,4.089900493621826,-0.00947535503655672
2.0094306468963623,4.08310079574585,-0.009363899938762188
2.033426523208618,4.062469005584717,-0.009221257641911507
2.0567803382873535,4.041932106018066,-0.009081165306270123
2.0773801803588867,4.013797760009766,-0.008921334519982338
2.105193614959717,3.9992804527282715,-0.00879173818975687
2.1242146492004395,3.971499443054199,-0.008639845065772533
2.157750368118286,3.9711713790893555,-0.008548627607524395
2.1741015911102295,3.93548846244812,-0.008376267738640308
2.205205202102661,3.927107810974121,-0.008263307623565197
2.2270331382751465,3.905780076980591,-0.008112900890409946
2.2525699138641357,3.891108512878418,-0.007976709865033627
2.279400110244751,3.875452756881714,-0.007833060808479786
2.3002395629882812,3.8494749069213867,-0.007668542675673962
2.3251757621765137,3.8344645500183105,-0.007533437572419643
2.350598096847534,3.8189334869384766,-0.007395148742944002
2.3729841709136963,3.795853614807129,-0.007237613666802645
2.3979437351226807,3.7801358699798584,-0.007098101079463959
2.426961898803711,3.7708654403686523,-0.006970166694372892
2.4530222415924072,3.753965377807617,-0.006822268478572369
2.477977991104126,3.737539052963257,-0.006681588012725115
2.488692283630371,3.7022063732147217,-0.006514345295727253
2.509553909301758,3.6786439418792725,-0.006361291743814945
2.5387818813323975,3.668039321899414,-0.006225083954632282
2.5663599967956543,3.6583445072174072,-0.006089918781071901
2.5779716968536377,3.6214401721954346,-0.005898925010114908
2.5920279026031494,3.5921425819396973,-0.005726494360715151
2.638216495513916,3.606869697570801,-0.005621280986815691
2.180817127227783,2.939517021179199,-0.004466695711016655
2.5851974487304688,3.6162900924682617,-0.0016564272809773684
2.56187105178833,3.6424078941345215,-0.0016001351177692413
2.5397770404815674,3.6673550605773926,-0.0015471148071810603
2.513192892074585,3.6856236457824707,-0.001494472729973495
2.4892497062683105,3.711247682571411,-0.00144566735252738
2.4590277671813965,3.7219810485839844,-0.0013964370591565967
2.4354028701782227,3.7468035221099854,-0.0013510980643332005
2.4156432151794434,3.778132438659668,-0.0013089575804769993
2.3892929553985596,3.794851064682007,-0.0012654844904318452
2.361506938934326,3.812204360961914,-0.0012258037459105253
2.3369150161743164,3.836479425430298,-0.0011904708808287978
2.3055639266967773,3.8462958335876465,-0.0011529427720233798
2.2840025424957275,3.8727495670318604,-0.0011209412477910519
2.2492470741271973,3.879498243331909,-0.0010826907819136977
2.2252728939056396,3.9022953510284424,-0.0010505085811018944
2.203791618347168,3.9279096126556396,-0.0010200554970651865
2.1650097370147705,3.9271302223205566,-0.0009811065392568707
2.1415114402770996,3.9533262252807617,-0.0009494823170825839
2.124934434890747,3.9888365268707275,-0.0009220301872119308
2.0969350337982178,4.003626346588135,-0.0008893528720363975
2.0746803283691406,4.032783508300781,-0.0008576082764193416
2.0376477241516113,4.034123420715332,-0.0008195188129320741
2.0164599418640137,4.0622076988220215,-0.000789280456956476
1.994678258895874,4.090338706970215,-0.0007601475808769464
1.9647551774978638,4.104795455932617,-0.0007331217639148235
1.938110113143921,4.1260762214660645,-0.0007073630695231259
1.9060685634613037,4.132373809814453,-0.0006803883006796241
1.8830797672271729,4.160057544708252,-0.0006566256051883101
1.8528372049331665,4.173614501953125,-0.0006336724618449807
1.8287006616592407,4.201292991638184,-0.0006127844681032002
1.7961046695709229,4.206838130950928,-0.0005895079812034965
1.771325945854187,4.230038642883301,-0.0005689263925887644
1.7434852123260498,4.250034809112549,-0.0005436068749986589
1.712729811668396,4.262522220611572,-0.000516352301929146
1.6851590871810913,4.281893730163574,-0.0004902944201603532
1.6497290134429932,4.278927326202393,-0.000462451484054327
1.6196972131729126,4.2903852462768555,-0.00043476198334246874
1.324428677558899,3.587553024291992,-0.0003341736737638712
1.3012206554412842,3.6043429374694824,-0.0003069081576541066
1.2811036109924316,3.628117084503174,-0.00028081113123334944
1.5095818042755127,4.371703147888184,-0.0003049818624276668
1.4886417388916016,4.411871433258057,-0.0002716663002502173
1.4625251293182373,4.441165447235107,-0.00023424733080901206
1.4330873489379883,4.458958625793457,-0.00019674196664709598
1.4043525457382202,4.476280689239502,-0.0001601557742105797
1.3754843473434448,4.493406295776367,-0.00012349218013696373
1.352576494216919,4.532976150512695,-9.997760935220867e-05
1.3223705291748047,4.550015926361084,-8.166537008946761e-05
1.289341926574707,4.55948543548584,-6.289181328611448e-05
1.266903042793274,4.602245330810547,-4.520303991739638e-05
1.2409400939941406,4.633581638336182,-2.720350312301889e-05
1.2140843868255615,4.664912700653076,-5.996383606543532e-06
1.195249080657959,4.730233192443848,1.6774161849753e-05
1.1777302026748657,4.807048797607422,4.059920320287347e-05
1.1559643745422363,4.864539623260498,6.395203672582284e-05
1.1255649328231812,4.887698650360107,8.715983858564869e-05
1.0987485647201538,4.929821968078613,0.00011215850827284157
1.0686302185058594,4.960415840148926,0.00013797056453768164
1.0359930992126465,4.98329496383667,0.00016415772552136332
1.0058114528656006,5.013381004333496,0.0001899395283544436
0.9739152789115906,5.035590171813965,0.0002155233669327572
0.942197322845459,5.061489582061768,0.00024208029208239168
0.905076265335083,5.060322284698486,0.0002682121121324599
0.8752804398536682,5.105198383331299,0.0002974438830278814
0.8408275246620178,5.118902683258057,0.00032438637572340667
0.8100547790527344,5.155498504638672,0.0003528520173858851
0.7729634642601013,5.153289794921875,0.0003780444385483861
0.743886411190033,5.208868980407715,0.0004023386863991618
0.7076008915901184,5.221806049346924,0.00042396417120471597
0.6729030013084412,5.242144584655762,0.000445895449956879
0.6401828527450562,5.277721405029297,0.00046913299593143165
0.6038964986801147,5.285927772521973,0.0004900938365608454
0.5693581104278564,5.313331604003906,0.0005196433048695326
0.5336063504219055,5.332744598388672,0.000550795579329133
0.4048539698123932,4.360150337219238,0.0004746686026919633
0.3661380410194397,4.265564918518066,0.00048756200703792274
0.33397746086120605,4.2368574142456055,0.000507311022374779
0.30557534098625183,4.254665851593018,0.0005288560059852898
0.2767830193042755,4.272293567657471,0.0005430951714515686
0.24726630747318268,4.289754390716553,0.0005576265975832939
0.21734271943569183,4.291374683380127,0.0005699227913282812
0.1815250962972641,4.15619421005249,0.0005636612768284976
0.15294058620929718,4.165161609649658,0.0005765980458818376
0.12273453176021576,4.127081871032715,0.0005882087862119079
0.0938229188323021,4.143469333648682,0.0006086471257731318
0.06453043967485428,4.1166815757751465,0.0006224054377526045
0.03562089428305626,4.085782051086426,0.0006352960481308401
0.007275134325027466,4.128900051116943,0.0006597769097425044
-0.02134334295988083,4.117132186889648,0.0006749773165211082
-0.4774927794933319,3.285799026489258,0.0007476259488612413
-0.5026891827583313,3.2978451251983643,0.0007609835593029857
-0.5283365249633789,3.309657335281372,0.0007710943464189768
-0.5426720380783081,3.255866050720215,0.0007621576078236103
-0.5503067970275879,3.167393684387207,0.0007449930999428034
-0.5721912980079651,3.163513422012329,0.0007476898608729243
-0.5941659808158875,3.1594598293304443,0.0007504011155106127
-0.6123306751251221,3.136092185974121,0.0007476441678591073
-0.6325926184654236,3.1240971088409424,0.0007403853815048933
-0.7917925715446472,3.7772796154022217,0.0008899837266653776
-0.8135801553726196,3.752664089202881,0.0008790233987383544
-0.8438811302185059,3.7659847736358643,0.0008769363048486412
-0.8638392090797424,3.733396053314209,0.0008642113534733653
-0.8825505971908569,3.696896553039551,0.0008583673625253141
-0.6698223948478699,2.7235288619995117,0.0006355179939419031
-0.7027642726898193,2.77569842338562,0.0006509498925879598
-0.7151328325271606,2.7442896366119385,0.0006469072541221976
-0.7392591238021851,2.758114814758301,0.0006535541615448892
-0.7563993334770203,2.745360851287842,0.0006523433839902282
-0.7771508097648621,2.747678756713867,0.0006537163280881941
-0.8001700639724731,2.7573368549346924,0.000656873919069767
-0.9352121949195862,3.1410763263702393,0.0007493305020034313
-0.9570429921150208,3.134493589401245,0.0007488404517062008
-0.9742637276649475,3.1128153800964355,0.000743142853025347
-1.319562315940857,4.1179633140563965,0.0009805967565625906
-1.345000982284546,4.101504325866699,0.0009742096881382167
-1.3733912706375122,4.092084884643555,0.0009694895124994218
-1.3980144262313843,4.07135009765625,0.0009621326462365687
-1.2808860540390015,3.648900032043457,0.0008555224048905075
-1.2913942337036133,3.599576234817505,0.0008334942394867539
-1.3102813959121704,3.57610821723938,0.0008178283460438251
-1.3295881748199463,3.5522961616516113,0.0008019180968403816
-1.3514466285705566,3.535675287246704,0.0007877221214585006
-1.3810523748397827,3.5409932136535645,0.0007729729986749589
-1.4109913110733032,3.545992136001587,0.0007556875934824347
-1.4408067464828491,3.5508506298065186,0.0007384513737633824
