X,Y,Z
0.12207327038049698,4.982965469360352,0.9708278179168701
0.08706822246313095,4.998946666717529,0.9742899537086487
0.05249376222491264,5.0224432945251465,0.9787333607673645
0.01751236617565155,5.038031101226807,0.9816821813583374
-0.017626628279685974,5.053374767303467,0.984630823135376
-0.053098712116479874,5.079975128173828,0.9898202419281006
-0.08899321407079697,5.07948112487793,0.9897797107696533
-0.12487024813890457,5.10174560546875,0.9942216277122498
-0.16099274158477783,5.123852252960205,0.9981784224510193
-0.19651998579502106,5.122750759124756,0.9974671602249146
-0.2313455045223236,5.106081485748291,0.9937739372253418
-0.2697514295578003,5.161932468414307,1.0042396783828735
-0.30669793486595154,5.167694091796875,1.0049974918365479
-0.2901073396205902,4.3735198974609375,0.8502878546714783
-0.3157159388065338,4.30652379989624,0.8369171023368835
-0.34607237577438354,4.312109470367432,0.8372468948364258
-0.37718746066093445,4.3251237869262695,0.839055061340332
-0.4003455340862274,4.246226787567139,0.8230718374252319
-0.42556560039520264,4.201589107513428,0.813795268535614
-0.4547755718231201,4.198747634887695,0.8126587867736816
-0.47297731041908264,4.100433349609375,0.7930952906608582
-0.4975021183490753,4.066904067993164,0.7856985926628113
-0.5195354223251343,4.014181613922119,0.7744965553283691
-0.5419275760650635,3.972808599472046,0.7655608057975769
-0.5654537081718445,3.942702531814575,0.7588460445404053
-0.5826120376586914,3.8706727027893066,0.744110107421875
-0.6053685545921326,3.840287923812866,0.7374374270439148
-0.6286621689796448,3.8135452270507812,0.7313106060028076
-0.646970808506012,3.7641427516937256,0.7205824255943298
-0.6639155149459839,3.710888385772705,0.7091835141181946
-0.6865196824073792,3.691533327102661,0.7043153643608093
-0.7026574015617371,3.638052225112915,0.6929750442504883
-0.7204276323318481,3.595797300338745,0.6838298439979553
-0.7388288974761963,3.557150363922119,0.6753870248794556
-0.7485439777374268,3.484886646270752,0.6602054238319397
-0.768126904964447,3.461392402648926,0.654329776763916
-0.7942861914634705,3.4677469730377197,0.654130220413208
-0.8137592077255249,3.443934679031372,0.6482587456703186
-0.8290868401527405,3.4011898040771484,0.6388375759124756
-0.8471972942352295,3.3733930587768555,0.6323021054267883
-0.8634594082832336,3.341981887817383,0.6247742772102356
-0.8842085003852844,3.3291027545928955,0.6206856966018677
-0.8967248201370239,3.2864174842834473,0.6110910773277283
-0.9134625196456909,3.2583582401275635,0.6042299866676331
-0.9319451451301575,3.2376184463500977,0.5987766981124878
-0.9425546526908875,3.190950632095337,0.5885846614837646
-0.9643215537071228,3.1849863529205322,0.5856221914291382
-0.9790387749671936,3.1568870544433594,0.5785481333732605
-0.9926340579986572,3.124946355819702,0.570792019367218
-1.0141041278839111,3.1185989379882812,0.5677589774131775
-1.0213520526885986,3.0681445598602295,0.5567142963409424
-1.0403255224227905,3.0541813373565674,0.5523518323898315
-1.058487892150879,3.0403847694396973,0.5476959347724915
-1.0699940919876099,3.0083587169647217,0.5397727489471436
-1.077487826347351,2.9653351306915283,0.5299116969108582
-1.108743667602539,2.9872958660125732,0.5316756367683411
-1.1023705005645752,2.9079833030700684,0.5154452323913574
-1.1364725828170776,2.93680477142334,0.5183451175689697
-1.126489520072937,2.8544390201568604,0.5014097094535828
-1.1460483074188232,2.8472888469696045,0.4977264106273651
-1.14772629737854,2.797285795211792,0.48664426803588867
-1.1301441192626953,2.700831651687622,0.4675264060497284
-1.1263771057128906,2.640218734741211,0.45476198196411133
-1.1380937099456787,2.6190085411071777,0.4486083984375
-1.1590683460235596,2.6188929080963135,0.4459824860095978
-1.182935118675232,2.6257870197296143,0.44459784030914307
-1.2108954191207886,2.639190912246704,0.4441952109336853
-1.2392878532409668,2.6522555351257324,0.4436870217323303
-1.2756600379943848,2.682784080505371,0.445884644985199
-1.2585455179214478,2.6017332077026367,0.4294196665287018
-1.2656943798065186,2.5731403827667236,0.42178910970687866
-1.3077822923660278,2.6133811473846436,0.42531344294548035
-1.291114091873169,2.5359044075012207,0.40968072414398193
-1.3030024766921997,2.5174858570098877,0.4035201370716095
-1.3197104930877686,2.509498119354248,0.39895203709602356
-1.325705885887146,2.480781078338623,0.39107829332351685
-1.3320965766906738,2.451716423034668,0.38307908177375793
-1.3419798612594604,2.429393768310547,0.37618061900138855
-1.3505523204803467,2.4076573848724365,0.3691754639148712
-1.3607383966445923,2.38930344581604,0.3627328872680664
-1.3695244789123535,2.3671669960021973,0.35560113191604614
-1.3783806562423706,2.3448362350463867,0.3484274744987488
-1.3942488431930542,2.3362109661102295,0.3431939482688904
-1.3975093364715576,2.307884693145752,0.33501705527305603
-1.4088106155395508,2.2926759719848633,0.32874149084091187
-1.41712486743927,2.2700984477996826,0.32112234830856323
-1.4574819803237915,2.300509214401245,0.32092878222465515
-1.4514981508255005,2.259106397628784,0.3106059432029724
-1.4432930946350098,2.214367151260376,0.29985761642456055
-1.4997661113739014,2.26636004447937,0.301861435174942
-1.4696499109268188,2.1892902851104736,0.2864690124988556
-1.505689024925232,2.2126266956329346,0.28434237837791443
-1.4857258796691895,2.1518073081970215,0.27109506726264954
-1.4872199296951294,2.1232171058654785,0.261902779340744
-1.4963182210922241,2.1081180572509766,0.25433745980262756
-1.5039863586425781,2.0891647338867188,0.2459436058998108
-1.5139636993408203,2.073197841644287,0.2376832664012909
-1.527072787284851,2.064415454864502,0.23014295101165771
-1.520478367805481,2.130920171737671,-0.13212494552135468
-1.4906344413757324,2.1227850914001465,-0.14003939926624298
-1.4733439683914185,2.129514694213867,-0.14820179343223572
-1.4855238199234009,2.182030439376831,-0.15971072018146515
-1.482459306716919,2.2117087841033936,-0.16946133971214294
-1.4621633291244507,2.2152178287506104,-0.1769736409187317
-1.4620411396026611,2.25188946723938,-0.18733973801136017
-1.4457212686538696,2.261744260787964,-0.1951170414686203
-1.4313452243804932,2.2748029232025146,-0.2030545026063919
-1.4183043241500854,2.2914257049560547,-0.21134589612483978
-1.405765414237976,2.307569980621338,-0.2193761020898819
-1.3928496837615967,2.323756456375122,-0.22743631899356842
-1.395271897315979,2.366863965988159,-0.2381221354007721
-1.3584991693496704,2.3425564765930176,-0.24189013242721558
-1.3379786014556885,2.344658374786377,-0.24813798069953918
-1.3072589635849,2.33001971244812,-0.2525026202201843
-1.2747267484664917,2.3117613792419434,-0.2564340829849243
-1.2583211660385132,2.3200061321258545,-0.2629203200340271
-1.2451493740081787,2.3351738452911377,-0.27018165588378906
-1.235174298286438,2.3572683334350586,-0.2782740294933319
-1.2270524501800537,2.3826115131378174,-0.28672903776168823
-1.2168488502502441,2.4044792652130127,-0.29485607147216797
-1.2026569843292236,2.4195029735565186,-0.30203142762184143
-1.198534369468689,2.4553487300872803,-0.31189385056495667
-1.187785267829895,2.476996898651123,-0.3198970556259155
-1.1783465147018433,2.502150774002075,-0.3283851146697998
-1.1796278953552246,2.5520882606506348,-0.34018275141716003
-1.1768022775650024,2.595168113708496,-0.3513087034225464
-1.148928165435791,2.5813536643981934,-0.3545757532119751
-1.15058434009552,2.6348350048065186,-0.3670707046985626
-1.3159592151641846,3.0731325149536133,-0.4340289235115051
-1.316306710243225,3.135080337524414,-0.44873711466789246
-1.308478832244873,3.1792311668395996,-0.4610846936702728
-1.291537880897522,3.2018306255340576,-0.4701918959617615
-1.2741411924362183,3.2244176864624023,-0.4792657494544983
-1.248242974281311,3.225203514099121,-0.48510223627090454
-1.2432562112808228,3.279919385910034,-0.4990696609020233
-1.2140588760375977,3.2732954025268555,-0.5037378072738647
-1.1839284896850586,3.2627382278442383,-0.5075443983078003
-1.1347408294677734,3.1972579956054688,-0.5026549696922302
-1.0855762958526611,3.127540349960327,-0.49680858850479126
-1.039811372756958,3.0647048950195312,-0.4917009770870209
-0.9920386075973511,2.994266986846924,-0.4850761294364929
-0.9457509517669678,2.9232234954833984,-0.478049635887146
-0.9088477492332458,2.87742018699646,-0.47493651509284973
-0.8714183568954468,2.827619791030884,-0.4709289073944092
-0.8279624581336975,2.7553720474243164,-0.4627779424190521
-0.7964131832122803,2.7196927070617676,-0.46062570810317993
-0.7579127550125122,2.657799005508423,-0.45392489433288574
-0.7454334497451782,2.6845664978027344,-0.4622153639793396
-0.6992985010147095,2.5886244773864746,-0.44900643825531006
-0.6829315423965454,2.6002509593963623,-0.4543595016002655
-0.6370134949684143,2.4960811138153076,-0.43935444951057434
-0.6145370006561279,2.4811904430389404,-0.43997472524642944
-0.5916537642478943,2.4623751640319824,-0.4394995868206024
-0.5603055953979492,2.4059085845947266,-0.4321853220462799
-0.5357428789138794,2.375412940979004,-0.4294441044330597
-0.519051730632782,2.3785159587860107,-0.43275362253189087
-0.4901193678379059,2.3251593112945557,-0.4255768060684204
-0.4721900224685669,2.32049298286438,-0.4270693361759186
-0.4484647810459137,2.2855124473571777,-0.42295292019844055
-0.4253394305706024,2.2503154277801514,-0.4187279939651489
-0.4088989198207855,2.2489616870880127,-0.42067238688468933
-0.39020785689353943,2.2362310886383057,-0.4202544391155243
-0.3694538176059723,2.208164691925049,-0.41690218448638916
-0.35523414611816406,2.2178335189819336,-0.4206688702106476
-0.33510616421699524,2.189458131790161,-0.4172176420688629
-0.31979936361312866,2.1913764476776123,-0.4191557765007019
-0.3021053671836853,2.1780149936676025,-0.4181932806968689
-0.28538092970848083,2.168292999267578,-0.4179036021232605
-0.2673845887184143,2.147026300430298,-0.41538405418395996
-0.25237029790878296,2.148526668548584,-0.41701647639274597
-0.2322898507118225,2.104206085205078,-0.40960031747817993
-0.21758750081062317,2.1054937839508057,-0.4110550582408905
-0.20267029106616974,2.1066935062408447,-0.41253021359443665
-0.1879846453666687,2.1077933311462402,-0.41386398673057556
-0.1717333048582077,2.08974289894104,-0.4111553132534027
-0.1537310630083084,2.04481840133667,-0.40315261483192444
-0.13999739289283752,2.05328631401062,-0.40568169951438904
-0.12543529272079468,2.0540218353271484,-0.4067213833332062
-0.11111679673194885,2.0547194480895996,-0.4073612689971924
-0.09641843289136887,2.0476670265197754,-0.406460702419281
-0.08400490880012512,2.094106435775757,-0.41620659828186035
-0.06944232434034348,2.094515323638916,-0.41683492064476013
-0.05422275885939598,2.079557180404663,-0.414174348115921
-0.03990760073065758,2.0875024795532227,-0.4159119129180908
-0.025407256558537483,2.0876870155334473,-0.41612374782562256
-0.010990319773554802,2.1069250106811523,-0.4201553761959076
0.003609962295740843,2.087772846221924,-0.41645359992980957
0.018614089116454124,2.1145517826080322,-0.42159080505371094
0.033177755773067474,2.1067519187927246,-0.41985613107681274
0.047389086335897446,2.0873615741729736,-0.41583380103111267
0.06246819347143173,2.1061694622039795,-0.4194414019584656
0.07767293602228165,2.1211137771606445,-0.42191198468208313
0.09242159128189087,2.1206486225128174,-0.4212765693664551
0.10781315714120865,2.1277236938476562,-0.42214855551719666
0.12304983288049698,2.134700298309326,-0.423026978969574
0.13838598132133484,2.1416101455688477,-0.42368876934051514
0.1554640233516693,2.171387195587158,-0.4286728501319885
0.1717616319656372,2.1857492923736572,-0.43061551451683044
0.18889479339122772,2.203789234161377,-0.43327251076698303
0.2035428136587143,2.195011854171753,-0.4306168854236603
0.2203545868396759,2.2090961933135986,-0.432098925113678
2.870861768722534,26.886384963989258,-5.243619918823242
0.2537446916103363,2.2292637825012207,-0.43351584672927856
0.2755383849143982,2.2772152423858643,-0.4415583908557892
0.2943117916584015,2.2984423637390137,-0.44406652450561523
0.3133898377418518,2.31953763961792,-0.44646137952804565
0.3306322991847992,2.3252835273742676,-0.4458996057510376
0.35195478796958923,2.357473850250244,-0.4503990113735199
0.3734433054924011,2.385694980621338,-0.45387452840805054
0.39936456084251404,2.4403507709503174,-0.46213215589523315
0.42283231019973755,2.4758493900299072,-0.4667017161846161
0.44548696279525757,2.5035839080810547,-0.4697689414024353
0.46644389629364014,2.519808292388916,-0.47060051560401917
0.49125176668167114,2.5548064708709717,-0.4745333790779114
0.5221296548843384,2.615929365158081,-0.48319539427757263
0.5481827855110168,2.6504569053649902,-0.48690223693847656
0.5756089091300964,2.6885085105895996,-0.49119213223457336
0.6043440699577332,2.730151891708374,-0.4957336485385895
0.6362457275390625,2.782808303833008,-0.5021051168441772
0.6701794266700745,2.8388407230377197,-0.5089145302772522
0.7091869115829468,2.913315773010254,-0.5189450979232788
0.7435882687568665,2.965060234069824,-0.5245789885520935
0.7863869071006775,3.0463671684265137,-0.5350849032402039
0.8244454264640808,3.1049139499664307,-0.5414252281188965
0.8720008730888367,3.1927132606506348,-0.5525996088981628
0.9183323383331299,3.272733449935913,-0.5621912479400635
0.9614246487617493,3.337571620941162,-0.5686646103858948
1.009834885597229,3.4167869091033936,-0.5773981809616089
1.0707387924194336,3.5323948860168457,-0.5919902324676514
1.122322916984558,3.610403537750244,-0.599930465221405
1.1942824125289917,3.750671863555908,-0.6175709366798401
1.2670483589172363,3.8865127563476562,-0.6340732574462891
1.352936863899231,4.054500102996826,-0.6553308963775635
1.4052025079727173,4.115516185760498,-0.6589257121086121
1.444063425064087,4.136059761047363,-0.6556073427200317
1.482438325881958,4.152497291564941,-0.6513630151748657
1.5141242742538452,4.1505584716796875,-0.644299328327179
1.543331265449524,4.141064167022705,-0.6360402703285217
1.561220645904541,4.102560520172119,-0.6231687664985657
1.5770751237869263,4.060454845428467,-0.6097473502159119
1.3491475582122803,3.4029572010040283,-0.5049931406974792
1.3586081266403198,3.358541250228882,-0.4924924075603485
1.3820397853851318,3.350029468536377,-0.4852137863636017
1.4112104177474976,3.355722427368164,-0.47987255454063416
1.4284297227859497,3.332637071609497,-0.4704076647758484
1.4554473161697388,3.3304624557495117,-0.4637305736541748
1.4786856174468994,3.3212690353393555,-0.4560861587524414
1.4983991384506226,3.3049657344818115,-0.4473962187767029
1.5213381052017212,3.2955150604248047,-0.439630389213562
1.544618844985962,3.2857160568237305,-0.4317237436771393
1.5678876638412476,3.2757363319396973,-0.4236070215702057
1.5938090085983276,3.272871255874634,-0.41646191477775574
1.6268922090530396,3.283596992492676,-0.41093501448631287
1.6029077768325806,3.1794161796569824,-0.3910847306251526
1.6319760084152222,3.1830601692199707,-0.3845926523208618
1.6250470876693726,3.1176557540893555,-0.36982813477516174
1.681747555732727,3.1722426414489746,-0.369039922952652
1.7336355447769165,3.215998888015747,-0.3667752146720886
1.740596890449524,3.1778030395507812,-0.355021595954895
1.7300764322280884,3.109055995941162,-0.3400684595108032
1.7692171335220337,3.1281845569610596,-0.334543377161026
1.8107417821884155,3.1502480506896973,-0.32900935411453247
1.3318877220153809,2.281859874725342,-0.23263278603553772
0.9705098867416382,1.6371694803237915,-0.16273869574069977
0.9479315280914307,1.5740509033203125,-0.15232792496681213
0.966683566570282,1.5813429355621338,-0.1488383263349533
0.9836646914482117,1.5850573778152466,-0.14487648010253906
0.9948573112487793,1.5785126686096191,-0.13981641829013824
1.0056297779083252,1.5721126794815063,-0.1347670555114746
1.0055041313171387,1.5494405031204224,-0.12837035953998566
1.0270146131515503,1.5590842962265015,-0.12445314973592758
1.0356895923614502,1.549072027206421,-0.11879465728998184
1.0459064245224,1.542590618133545,-0.11350337415933609
1.0632392168045044,1.5453202724456787,-0.10861022770404816
2.5693743228912354,3.6813738346099854,-0.24629658460617065
2.58890962600708,3.6589932441711426,-0.23234647512435913
2.6286118030548096,3.6603505611419678,-0.21872535347938538
2.5906965732574463,3.558593511581421,-0.199354350566864
2.6675221920013428,3.6143670082092285,-0.18850965797901154
2.6336793899536133,3.732743978500366,0.4825897812843323
2.6048660278320312,3.7511026859283447,0.49642518162727356
2.5791680812835693,3.7763822078704834,0.5110844373703003
1.0504777431488037,1.5618107318878174,0.21562214195728302
1.0385751724243164,1.5690454244613647,0.2206954061985016
1.0346240997314453,1.5894800424575806,0.22760291397571564
1.0103962421417236,1.5767524242401123,0.2294744998216629
1.0154529809951782,1.6096181869506836,0.2378833293914795
1.0067681074142456,1.6235041618347168,0.2434866577386856
0.9943097829818726,1.6304885149002075,0.24796846508979797
0.9826664328575134,1.6368952989578247,0.25213849544525146
0.9784173369407654,1.6568095684051514,0.25834032893180847
1.3445560932159424,2.316361427307129,0.36540862917900085
2.5557615756988525,4.479981422424316,0.7148563861846924
1.8005785942077637,3.2078685760498047,0.5172614455223083
1.7601817846298218,3.1893603801727295,0.5194605588912964
1.7856223583221436,3.2932872772216797,0.5414977073669434
1.7496979236602783,3.2850899696350098,0.5452242493629456
2.392650842666626,4.5699357986450195,0.7651833295822144
2.36000919342041,4.585343837738037,0.7743221521377563
2.325411796569824,4.601500988006592,0.7830997109413147
2.287226438522339,4.6104841232299805,0.7906986474990845
2.2569382190704346,4.6325178146362305,0.8003791570663452
2.230172634124756,4.661126136779785,0.8111949563026428
2.1930150985717773,4.668790340423584,0.8180596232414246
2.161292791366577,4.69067907333374,0.8271328806877136
2.1357545852661133,4.726377487182617,0.8387124538421631
2.098670244216919,4.733182907104492,0.8450212478637695
2.0682570934295654,4.753629207611084,0.8537309169769287
2.0150463581085205,4.724881172180176,0.8533801436424255
1.7379169464111328,4.158998489379883,0.7550724148750305
1.7070668935775757,4.170656204223633,0.7611229419708252
1.6799513101577759,4.188879489898682,0.7682979702949524
1.6532546281814575,4.206705093383789,0.7753757238388062
1.6254332065582275,4.224724292755127,0.7824399471282959
1.5943634510040283,4.235558986663818,0.7877703309059143
1.568536639213562,4.260602951049805,0.7957972884178162
1.532422661781311,4.2563886642456055,0.7983565330505371
1.5075494050979614,4.280616760253906,0.8061951994895935
1.4769363403320312,4.290295124053955,0.811396062374115
1.4469841718673706,4.303657531738281,0.8167811632156372
1.4180008172988892,4.320508003234863,0.8227933645248413
1.38884699344635,4.337157249450684,0.828820526599884
1.3603235483169556,4.353375434875488,0.8347454071044922
1.3292648792266846,4.362087726593018,0.8392900228500366
1.2941288948059082,4.355773448944092,0.8408175110816956
1.2754257917404175,4.408522129058838,0.8533180952072144
1.2434924840927124,4.416865825653076,0.8572947978973389
1.2095229625701904,4.417557716369629,0.8598236441612244
1.186415195465088,4.4548563957214355,0.8694629669189453
1.1546790599822998,4.4624199867248535,0.8733938336372375
1.1250803470611572,4.4771647453308105,0.8785484433174133
1.0992316007614136,4.510580062866211,0.8869874477386475
1.0633103847503662,4.5027642250061035,0.8873658776283264
1.0309771299362183,4.50962495803833,0.8906760215759277
1.0037633180618286,4.538680076599121,0.8984134197235107
0.9735704064369202,4.55245304107666,0.9031470417976379
0.9314889907836914,4.50974702835083,0.8965483903884888
0.7622499465942383,3.827680826187134,0.7621572613716125
0.7392433881759644,3.855170726776123,0.7688809037208557
0.8501092791557312,4.613892555236816,0.921769380569458
0.8177244067192078,4.619218826293945,0.9243908524513245
0.7886675596237183,4.643182277679443,0.9307863712310791
0.758742094039917,4.663172721862793,0.9364290237426758
0.7268017530441284,4.675605297088623,0.9399793744087219
0.6952679753303528,4.695474147796631,0.9450970888137817
0.6640654802322388,4.715053558349609,0.950192391872406
0.6329379081726074,4.7343831062316895,0.9552814364433289
0.5999659299850464,4.73826789855957,0.9572930335998535
0.5692436695098877,4.760936260223389,0.9631510376930237
0.5366860032081604,4.772102355957031,0.9662802815437317
0.505678653717041,4.8060078620910645,0.9738578200340271
0.4733199179172516,4.824410915374756,0.9783374071121216
0.4393388032913208,4.827341556549072,0.9797303080558777
0.4086068570613861,4.864339828491211,0.9880819916725159
0.3747357428073883,4.866785049438477,0.9894687533378601
0.3412511348724365,4.88434362411499,0.9938241243362427
0.30790308117866516,4.901755332946777,0.9976560473442078
0.27395695447921753,4.911290168762207,0.9999349117279053
0.240637868642807,4.935882568359375,1.0053308010101318
0.20683756470680237,4.952591419219971,1.009171485900879
0.17243866622447968,4.972907543182373,1.0138070583343506
0.1383393555879593,4.989141464233398,1.017653465270996
0.10389763861894608,5.005242824554443,1.0210092067718506
0.06931900233030319,5.028796672821045,1.0257489681243896
0.03431803360581398,5.029146194458008,1.025805115699768
-0.0013804188929498196,5.052215576171875,1.03054678440094
-0.036678243428468704,5.078864574432373,1.0360684394836426
-0.07196681946516037,5.078475475311279,1.0361250638961792
-0.10762006789445877,5.093172550201416,1.039176344871521
-0.14336639642715454,5.107736110687256,1.0416680574417114
-0.17905202507972717,5.11439847946167,1.0425962209701538
-0.21547946333885193,5.120786190032959,1.043511152267456
-0.25310856103897095,5.161350727081299,1.0514440536499023
-0.28944411873817444,5.167239189147949,1.0523601770401
-0.2765355110168457,4.389681816101074,0.8938052654266357
-0.305293470621109,4.364938735961914,0.8882198333740234
-0.329830527305603,4.282758712768555,0.8707656264305115
-0.36354538798332214,4.330204010009766,0.8797286152839661
-0.38896676898002625,4.2782464027404785,0.8685373067855835
-0.41425204277038574,4.2299346923828125,0.8581375479698181
-0.4408349096775055,4.200521469116211,0.851624071598053
-0.4645683467388153,4.144262313842773,0.8396350741386414
-0.4871937036514282,4.091861248016357,0.827994167804718
-0.510556697845459,4.05073881149292,0.8186962008476257
-0.5287864804267883,3.9753174781799316,0.8025322556495667
-0.5562736392021179,3.971883773803711,0.8009500503540039
-0.5749169588088989,3.903738260269165,0.786350667476654
-0.5962414741516113,3.8620920181274414,0.7771645784378052
-0.6185669898986816,3.831792116165161,0.7699608206748962
-0.6333596706390381,3.759854316711426,0.7542768716812134
-0.6544821858406067,3.729403018951416,0.7469817399978638
-0.6745286583900452,3.6950626373291016,0.7389606237411499
-0.6935538053512573,3.652937173843384,0.7294012904167175
-0.7152832746505737,3.629606246948242,0.7236672639846802
-0.7312414050102234,3.579899549484253,0.7125845551490784
-0.7437602877616882,3.519031047821045,0.6989953517913818
-0.7661230564117432,3.5068511962890625,0.6951364278793335
-0.7837402820587158,3.471985101699829,0.6868018507957458
-0.8017054796218872,3.440786838531494,0.679253101348877
-0.8239057064056396,3.4281179904937744,0.6754000186920166
-0.8422636389732361,3.4004108905792236,0.6686179637908936
-0.854005753993988,3.3505239486694336,0.6570878624916077
-0.8703935742378235,3.3190832138061523,0.649211049079895
-0.8909640312194824,3.306201934814453,0.645043134689331
-0.8973703980445862,3.241309404373169,0.6307684183120728
-0.9220613241195679,3.242889165878296,0.6294684410095215
-0.9392856359481812,3.218474864959717,0.6231589317321777
-0.9527233839035034,3.1830666065216064,0.6143385767936707
-0.971992015838623,3.169795036315918,0.6098394989967346
-0.9842169880867004,3.1344072818756104,0.6011357307434082
-1.008151650428772,3.1354615688323975,0.599428117275238
-1.0168739557266235,3.0887644290924072,0.5886095762252808
-1.03150475025177,3.0601820945739746,0.5812776684761047
-1.0471508502960205,3.0392513275146484,0.5750938057899475
-1.0561901330947876,3.0000977516174316,0.5655115246772766
-1.0634452104568481,2.9573256969451904,0.5553227066993713
-1.0865795612335205,2.9577479362487793,0.5532390475273132
-1.1100037097930908,2.9579102993011475,0.5510985255241394
-1.1281242370605469,2.943479061126709,0.5461390018463135
-1.1241205930709839,2.8755557537078857,0.5310800671577454
-1.1491655111312866,2.8829128742218018,0.5299919843673706
-1.1483153104782104,2.8258211612701416,0.5171031355857849
-1.134259581565857,2.736520767211914,0.49835848808288574
-1.1253318786621094,2.661586046218872,0.4823451340198517
-1.1373355388641357,2.640394926071167,0.475965291261673
-1.155060052871704,2.633388042449951,0.47208407521247864
-1.1727396249771118,2.6262576580047607,0.46820202469825745
-1.1877741813659668,2.6117360591888428,0.46294358372688293
-1.2308424711227417,2.656360387802124,0.4680536687374115
-1.2441760301589966,2.6380975246429443,0.4619685411453247
-1.2551487684249878,2.6165478229522705,0.45517632365226746
-1.265885829925537,2.594956159591675,0.4484293758869171
-1.2803516387939453,2.580000877380371,0.4427819848060608
-1.2814902067184448,2.5370357036590576,0.43227070569992065
-1.3236693143844604,2.577021598815918,0.43580809235572815
-1.3479827642440796,2.582645893096924,0.433298259973526
-1.3198986053466797,2.48905611038208,0.41426223516464233
-1.3298845291137695,2.4669928550720215,0.40712928771972656
-1.3362040519714355,2.437964916229248,0.3988548517227173
-1.3416926860809326,2.4092540740966797,0.3904504179954529
-1.357681393623352,2.401094675064087,0.3854103982448578
-1.364109754562378,2.3759751319885254,0.3776615858078003
-1.3770201206207275,2.360403299331665,0.3712705969810486
-1.389444351196289,2.3449552059173584,0.36486947536468506
-1.3971281051635742,2.323185443878174,0.3572810888290405
-1.4002652168273926,2.2949390411376953,0.3488472104072571
-1.412368893623352,2.2792716026306152,0.34208205342292786
-1.44080650806427,2.289802074432373,0.3391548991203308
-1.4599716663360596,2.2877180576324463,0.3341193199157715
-1.4794304370880127,2.2853171825408936,0.3289405405521393
-1.4785853624343872,2.2497496604919434,0.31873807311058044
-1.50270676612854,2.253310203552246,0.3140197694301605
-1.499929666519165,2.2186882495880127,0.3038797080516815
-1.473034143447876,2.1486752033233643,0.28895869851112366
-1.4797024726867676,2.1261348724365234,0.28017404675483704
-1.4979509115219116,2.123746395111084,0.27401238679885864
-1.5025159120559692,2.102339744567871,0.26538899540901184
-1.517584204673767,2.0924668312072754,0.25756460428237915
-1.519831895828247,2.0677073001861572,0.24784399569034576
-1.5237776041030884,2.0463650226593018,0.23853379487991333
-1.482731819152832,2.094996690750122,-0.1378479301929474
-1.5009649991989136,2.1530776023864746,-0.15002931654453278
-1.4981365203857422,2.1828439235687256,-0.16033205389976501
-1.4856327772140503,2.200106143951416,-0.16987881064414978
-1.4743181467056274,2.2164149284362793,-0.1787409484386444
-1.4575717449188232,2.2267723083496094,-0.18715542554855347
-1.4536525011062622,2.2564806938171387,-0.1971217542886734
-1.4375483989715576,2.266066789627075,-0.2050928920507431
-1.4304416179656982,2.2927887439727783,-0.21480026841163635
-1.4215809106826782,2.3158302307128906,-0.22401393949985504
-1.4050999879837036,2.325117349624634,-0.2316621094942093
-1.3718972206115723,2.3079514503479004,-0.23657506704330444
-1.3586639165878296,2.3240015506744385,-0.24481381475925446
-1.3243763446807861,2.3026373386383057,-0.24889010190963745
-1.2960326671600342,2.291166067123413,-0.25377586483955383
-1.271448016166687,2.286334991455078,-0.25930652022361755
-1.2699466943740845,2.3218884468078613,-0.2692606747150421
-1.2533334493637085,2.330103874206543,-0.2760481834411621
-1.239505410194397,2.3454558849334717,-0.2837608754634857
-1.2330975532531738,2.3742921352386475,-0.2930450141429901
-1.2214992046356201,2.392540216445923,-0.3009578585624695
-1.2145752906799316,2.4213030338287354,-0.31022655963897705
-1.200213074684143,2.4362497329711914,-0.3177783489227295
-1.1823439598083496,2.4440982341766357,-0.32442715764045715
-1.1782735586166382,2.479588508605957,-0.3346545696258545
-1.1880534887313843,2.5469462871551514,-0.34927690029144287
-1.1759072542190552,2.568726062774658,-0.3578193783760071
-1.1575937271118164,2.5761260986328125,-0.3642767369747162
-1.1861555576324463,2.689681053161621,-0.38594022393226624
-1.17245614528656,2.7116005420684814,-0.3946680426597595
-1.3189903497695923,3.111055374145508,-0.4590914249420166
-1.3013737201690674,3.129948616027832,-0.46805623173713684
-1.2849482297897339,3.1523399353027344,-0.4775625765323639
-1.2736937999725342,3.189145565032959,-0.4891633689403534
-1.2587376832962036,3.218858003616333,-0.4999054968357086
-1.2248907089233398,3.1976840496063232,-0.5025409460067749
-1.1682847738265991,3.114729642868042,-0.4952085614204407
-1.120635986328125,3.053070306777954,-0.49078312516212463
-1.0687083005905151,2.9763898849487305,-0.4836999475955963
-1.0204075574874878,2.906481981277466,-0.47748130559921265
-0.9797879457473755,2.8542308807373047,-0.47381117939949036
-0.9335996508598328,2.7834064960479736,-0.4666103422641754
-0.8908926248550415,2.7194371223449707,-0.46033841371536255
-0.8469511270523071,2.647653818130493,-0.45249107480049133
-0.818708062171936,2.6233386993408203,-0.4526655375957489
-0.7854111790657043,2.5803511142730713,-0.44913846254348755
-0.7560346722602844,2.548130512237549,-0.44738441705703735
-0.7176971435546875,2.482304334640503,-0.4395553469657898
-0.6929198503494263,2.4605557918548584,-0.43939316272735596
-0.65006422996521,2.3718552589416504,-0.42685264348983765
-0.6329519748687744,2.3757529258728027,-0.4308766722679138
-0.6065278649330139,2.3422067165374756,-0.4280116558074951
-0.5797725915908813,2.304673910140991,-0.42431145906448364
-0.5580644011497498,2.285627603530884,-0.423743337392807
-0.531308650970459,2.243988275527954,-0.4187984764575958
-0.5117723941802979,2.232119083404541,-0.4194038212299347
-0.4919162392616272,2.2162821292877197,-0.41918638348579407
-0.46985509991645813,2.1890511512756348,-0.41663646697998047
-0.4481733739376068,2.1616790294647217,-0.4137902855873108
-0.43068113923072815,2.152939796447754,-0.4144836366176605
-0.4095100462436676,2.125253200531006,-0.41153430938720703
-0.39041730761528015,2.104902505874634,-0.4098753333091736
-0.36890581250190735,2.0693578720092773,-0.4048973023891449
-0.3556722104549408,2.078991174697876,-0.40875062346458435
-0.3392826020717621,2.069607973098755,-0.408873051404953
-0.32340213656425476,2.0639164447784424,-0.4097587764263153
-0.30785244703292847,2.058140754699707,-0.4102708697319031
-0.2891535460948944,2.0295004844665527,-0.40615832805633545
-0.27599388360977173,2.0386767387390137,-0.4096175730228424
-0.25979524850845337,2.024967908859253,-0.40849247574806213
-0.2396487295627594,1.9769630432128906,-0.4002018868923187
-0.22949346899986267,2.012547731399536,-0.4086807668209076
-0.21257488429546356,1.9871443510055542,-0.40477851033210754
-0.1964474618434906,1.9654167890548706,-0.4016091227531433
-0.17744415998458862,1.9092891216278076,-0.39127999544143677
-0.16707712411880493,1.944577693939209,-0.3993922173976898
-0.15329791605472565,1.9454861879348755,-0.4004928469657898
-0.13808977603912354,1.9233866930007935,-0.39685145020484924
-0.12469594180583954,1.9240808486938477,-0.3979204297065735
-0.11018522828817368,1.9056652784347534,-0.39465516805648804
-0.09614579379558563,1.8909682035446167,-0.3921481966972351
-0.08309382200241089,1.8991049528121948,-0.39440324902534485
-0.06874065846204758,1.8689249753952026,-0.38870400190353394
-0.05641920864582062,1.8922115564346313,-0.39387428760528564
-0.043426044285297394,1.900149941444397,-0.3957301080226898
-0.03008204884827137,1.892703652381897,-0.3944009840488434
-0.016645466908812523,1.8851655721664429,-0.393073707818985
-0.0035578589886426926,1.8852096796035767,-0.39319851994514465
0.009566997177898884,1.8928653001785278,-0.39465707540512085
0.022981446236371994,1.915724515914917,-0.39930257201194763
0.03653990104794502,1.927017331123352,-0.40155407786369324
0.04976114258170128,1.9191011190414429,-0.3998129665851593
0.0638623759150505,1.9341046810150146,-0.40244293212890625
0.07916705310344696,1.9795855283737183,-0.41142764687538147
0.0922076478600502,1.9638206958770752,-0.40769675374031067
0.10812211781740189,2.0052623748779297,-0.4158560037612915
0.12182793021202087,2.0008230209350586,-0.4142012298107147
0.13780896365642548,2.0268356800079346,-0.41872385144233704
0.15132750570774078,2.018402099609375,-0.4161580204963684
0.16664151847362518,2.0327579975128174,-0.4183063209056854
0.18146727979183197,2.0394129753112793,-0.4187016785144806
0.20004867017269135,2.0841119289398193,-0.42664384841918945
0.21167856454849243,2.0524797439575195,-0.41894954442977905
0.23059268295764923,2.0931079387664795,-0.42604029178619385
0.24428792297840118,2.084149122238159,-0.4229900538921356
0.2597574293613434,2.0903732776641846,-0.42267045378685
0.27283141016960144,2.077493190765381,-0.41851136088371277
0.2901924252510071,2.0948598384857178,-0.4204337000846863
0.312528520822525,2.146247148513794,-0.42917826771736145
0.3349854350090027,2.193720579147339,-0.4367459714412689
0.3551068603992462,2.2220866680145264,-0.44038206338882446
0.37567320466041565,2.2502827644348145,-0.44394704699516296
0.39469388127326965,2.266972303390503,-0.4452172517776489
0.41768378019332886,2.3023786544799805,-0.4498768746852875
0.4415784180164337,2.341444969177246,-0.455036997795105
0.46679359674453735,2.384068250656128,-0.46081653237342834
0.4933893084526062,2.4302313327789307,-0.46720436215400696
0.516691267490387,2.4573891162872314,-0.4697830379009247
0.5357574820518494,2.4618468284606934,-0.4676331579685211
0.5655732154846191,2.5149357318878174,-0.47471845149993896
0.6031849384307861,2.5976808071136475,-0.48724231123924255
0.6339443325996399,2.646414041519165,-0.4932425022125244
0.6561039090156555,2.657632827758789,-0.49179962277412415
0.6930056810379028,2.724510908126831,-0.500484824180603
0.7345150709152222,2.805975914001465,-0.5117149353027344
0.769240140914917,2.85729718208313,-0.51727694272995
0.8148924112319946,2.9454619884490967,-0.5290513038635254
0.8459924459457397,2.977649450302124,-0.5304967761039734
0.8995543122291565,3.083401679992676,-0.5447738766670227
0.9422510266304016,3.1480672359466553,-0.5516047477722168
1.0016130208969116,3.2639567852020264,-0.5669615864753723
1.0463584661483765,3.3278157711029053,-0.5728055834770203
1.1015206575393677,3.4205944538116455,-0.5833832621574402
1.1719390153884888,3.552927017211914,-0.600218653678894
1.2499535083770752,3.7029504776000977,-0.6195717453956604
1.3235958814620972,3.8340206146240234,-0.6350225806236267
1.4196757078170776,4.022561550140381,-0.6594563126564026
1.472943902015686,4.082806587219238,-0.6623536944389343
1.5217576026916504,4.128049373626709,-0.6625781059265137
1.5510166883468628,4.118595600128174,-0.6535008549690247
1.5796784162521362,4.109096527099609,-0.6445866823196411
1.6057764291763306,4.092070579528809,-0.6344524025917053
1.6245535612106323,4.056899070739746,-0.6215652227401733
1.6292835474014282,3.989630937576294,-0.6036369204521179
1.3985480070114136,3.357858419418335,-0.5015147924423218
1.4161138534545898,3.334834098815918,-0.4915974736213684
1.4396804571151733,3.325875759124756,-0.48377010226249695
1.4658377170562744,3.3240580558776855,-0.47677406668663025
1.4856820106506348,3.307888984680176,-0.4677426517009735
1.5061419010162354,3.291266679763794,-0.45847082138061523
1.532626748085022,3.2887048721313477,-0.4512639343738556
1.5586283206939697,3.2861828804016113,-0.44388487935066223
1.5778939723968506,3.2694830894470215,-0.43461874127388
1.6043651103973389,3.266347646713257,-0.4270112216472626
1.627762794494629,3.2558865547180176,-0.41826435923576355
1.6255089044570923,3.1972665786743164,-0.40347912907600403
1.6278858184814453,3.1491212844848633,-0.3902246356010437
1.6465460062026978,3.1317005157470703,-0.3806934952735901
1.7178186178207397,3.213681697845459,-0.38301968574523926
1.7286453247070312,3.1824233531951904,-0.37164047360420227
1.7228647470474243,3.1201794147491455,-0.35660234093666077
1.7297383546829224,3.0817856788635254,-0.34445470571517944
1.7874637842178345,3.135019302368164,-0.3424208164215088
1.3643742799758911,2.356294870376587,-0.2513236403465271
0.9764924049377441,1.6599533557891846,-0.1726345270872116
0.9463558793067932,1.583349347114563,-0.16030938923358917
0.9449253082275391,1.557438611984253,-0.15343382954597473
0.9596943259239197,1.5580151081085205,-0.1491377055644989
0.9830772280693054,1.5714812278747559,-0.14588141441345215
0.9977818727493286,1.5718917846679688,-0.14133881032466888
1.0106263160705566,1.568768858909607,-0.136345773935318
1.0153124332427979,1.5522575378417969,-0.13004948198795319
1.0257974863052368,1.5457954406738281,-0.12462525814771652
1.0404086112976074,1.5458356142044067,-0.11971326917409897
1.0513020753860474,1.538886547088623,-0.1139352098107338
2.5433602333068848,3.6700055599212646,-0.2589082419872284
2.5720574855804443,3.66044545173645,-0.24548012018203735
2.58888578414917,3.6303861141204834,-0.22977860271930695
2.6172237396240234,3.620551586151123,-0.2154044508934021
2.6161303520202637,3.569131851196289,-0.19822387397289276
2.6754119396209717,3.5989835262298584,-0.18481972813606262
2.650603771209717,3.7276885509490967,0.50300532579422
2.602726697921753,3.7214295864105225,0.5143280029296875
2.591393232345581,3.76509690284729,0.5320760607719421
1.0601069927215576,1.5634174346923828,0.2254132330417633
1.0520217418670654,1.5774163007736206,0.23174361884593964
1.0396860837936401,1.5847880840301514,0.23705817759037018
1.0323125123977661,1.5980864763259888,0.24301151931285858
1.0077108144760132,1.585505723953247,0.24482546746730804
1.0076024532318115,1.6122957468032837,0.2526727318763733
0.9875428676605225,1.6057950258255005,0.2551342844963074
0.9840378165245056,1.6253671646118164,0.2616407573223114
0.9751895666122437,1.638991117477417,0.2671082019805908
0.9507533311843872,1.6257576942443848,0.2681262791156769
1.341909646987915,2.332303047180176,0.3888997733592987
1.8469603061676025,3.2624258995056152,0.5498266816139221
1.7618951797485352,3.1671016216278076,0.5390249490737915
1.761306643486023,3.2234902381896973,0.5540515780448914
1.7724251747131348,3.2996819019317627,0.5723655223846436
1.7705698013305664,3.351928472518921,0.5865775942802429
2.38027286529541,4.586627960205078,0.8092923760414124
2.342026710510254,4.5959672927856445,0.817395806312561
2.3034543991088867,4.6051225662231445,0.8255523443222046
2.27414870262146,4.626693248748779,0.835519552230835
2.244540214538574,4.648117542266846,0.8454859256744385
2.213001012802124,4.670235633850098,0.85505610704422
2.1844563484191895,4.699129104614258,0.8659465312957764
2.1434895992279053,4.699519634246826,0.8715245127677917
2.117464065551758,4.730921268463135,0.8827953338623047
2.083698034286499,4.744431495666504,0.8905999660491943
2.0438308715820312,4.7477874755859375,0.8959763646125793
1.7722159624099731,4.20127534866333,0.7970610857009888
1.7252801656723022,4.173801898956299,0.7959959506988525
1.69527006149292,4.18489408493042,0.8022138476371765
1.668578028678894,4.202711582183838,0.8096928000450134
1.6404412984848022,4.2209320068359375,0.816740095615387
1.6120363473892212,4.23898983001709,0.8237966299057007
1.580814003944397,4.249630928039551,0.829457700252533
1.5502748489379883,4.2597880363464355,0.8349810242652893
1.5215455293655396,4.273148536682129,0.8411093950271606
1.4908297061920166,4.282948017120361,0.8462543487548828
1.4644384384155273,4.30729866027832,0.8540322184562683
1.4353502988815308,4.324193954467773,0.8603925704956055
1.4012727737426758,4.326307773590088,0.8638662099838257
1.3754628896713257,4.349738121032715,0.8715214133262634
1.349390983581543,4.373007297515869,0.8792075514793396
1.3178222179412842,4.38176155090332,0.8834983110427856
1.2903114557266235,4.405076026916504,0.890691339969635
1.2562693357467651,4.406077861785889,0.8934199213981628
1.2335495948791504,4.447449684143066,0.9043964147567749
1.202348232269287,4.4551496505737305,0.9085074067115784
1.1701725721359253,4.45890998840332,0.911853551864624
1.1409022808074951,4.477624893188477,0.917685866355896
1.114148497581482,4.507312297821045,0.9258060455322266
1.081084132194519,4.514613628387451,0.9294240474700928
1.0491465330123901,4.52142333984375,0.9329134225845337
1.0192372798919678,4.535398006439209,0.9379045367240906
0.9875565767288208,4.54168701171875,0.9413557052612305
0.9551510810852051,4.548008918762207,0.9442692399024963
0.777800440788269,3.841452121734619,0.7989193201065063
0.7518377900123596,3.8539185523986816,0.8028783202171326
0.7245379686355591,3.8586480617523193,0.8052581548690796
0.833575963973999,4.616165637969971,0.9650319814682007
0.805921196937561,4.647669315338135,0.9733610153198242
0.7737825512886047,4.660369396209717,0.9773980975151062
0.7430741190910339,4.680395126342773,0.9827669858932495
0.7109740972518921,4.692652225494385,0.986560046672821
0.6798825860023499,4.712250232696533,0.9919498562812805
0.6491340398788452,4.731565475463867,0.9973151087760925
0.6170687675476074,4.74695348739624,1.0019325017929077
0.5848169326782227,4.758317470550537,1.0055328607559204
0.5538302063941956,4.784789085388184,1.0118871927261353
0.5200767517089844,4.788249969482422,1.013427972793579
0.48861777782440186,4.81428861618042,1.0198016166687012
0.4548819959163666,4.817267417907715,1.0213394165039062
0.42379048466682434,4.854300498962402,1.0301638841629028
0.3905581533908844,4.86442756652832,1.0333231687545776
0.3564840257167816,4.866835117340088,1.0343046188354492
0.3233531415462494,4.884286403656006,1.0383962392807007
0.29044631123542786,4.909139633178711,1.044115662574768
0.25618696212768555,4.926165580749512,1.0482345819473267
0.22226320207118988,4.935281276702881,1.0507110357284546
0.18889474868774414,4.963253021240234,1.0572580099105835
0.15457910299301147,4.971940517425537,1.0595637559890747
0.1200023889541626,4.980502605438232,1.0613584518432617
0.08525803685188293,5.019392490386963,1.0696688890457153
0.0501677468419075,5.019829750061035,1.0698370933532715
0.01526049803942442,5.042944431304932,1.0748908519744873
-0.019804822281003,5.054354667663574,1.0775020122528076
-0.05512774735689163,5.069338798522949,1.0809290409088135
-0.09161748737096786,5.107089519500732,1.0887523889541626
-0.12721368670463562,5.11408805847168,1.0898284912109375
-0.16321323812007904,5.12847375869751,1.0925291776657104
-0.1984715759754181,5.119701385498047,1.0903488397598267
-0.2356538027524948,5.152665615081787,1.0971076488494873
-0.27517417073249817,5.219698429107666,1.1111685037612915
-0.31023767590522766,5.187244892120361,1.1040375232696533
-0.290926456451416,4.357895374298096,0.9267880916595459
-0.31628066301345825,4.291223526000977,0.9119312763214111
-0.3484078645706177,4.319635391235352,0.9173301458358765
-0.377656489610672,4.3097333908081055,0.9146321415901184
-0.405211478471756,4.27675199508667,0.907074511051178
-0.42912557721138,4.217021942138672,0.8939075469970703
-0.4516162872314453,4.153444290161133,0.8796825408935547
-0.47534510493278503,4.108808517456055,0.8692339062690735
-0.4979698359966278,4.060248374938965,0.8580183386802673
-0.5209868550300598,4.015293121337891,0.8476074934005737
-0.5395011305809021,3.943722724914551,0.8316525816917419
-0.5663938522338867,3.9364147186279297,0.8293019533157349
-0.591498076915741,3.9175777435302734,0.8245665431022644
-0.6070075631141663,3.8420848846435547,0.8074180483818054
-0.6275686621665955,3.80045223236084,0.7974211573600769
-0.6471173763275146,3.7587838172912598,0.7875007390975952
-0.6615235209465027,3.690636157989502,0.7720955014228821
-0.6872667074203491,3.6863481998443604,0.7700923681259155
-0.7056660652160645,3.6443164348602295,0.760254442691803
-0.72403883934021,3.606051206588745,0.7509824633598328
-0.7327581644058228,3.522740364074707,0.7321419715881348
-0.758419394493103,3.525632858276367,0.7313101887702942
-0.7725624442100525,3.476004123687744,0.719631016254425
-0.7967924475669861,3.4710285663604736,0.7172223329544067
-0.8130451440811157,3.432342052459717,0.7078956365585327
-0.8336142897605896,3.4121553897857666,0.7023043036460876
-0.8474660515785217,3.3698301315307617,0.6918624043464661
-0.8636592030525208,3.338589906692505,0.6837606430053711
-0.880450963973999,3.3109793663024902,0.6764580011367798
-0.8993478417396545,3.290576219558716,0.6706476211547852
-0.9071918725967407,3.2293148040771484,0.6565356850624084
-0.9308053851127625,3.227144241333008,0.6544994711875916
-0.9494419693946838,3.210357904434204,0.6490969061851501
-0.9667472839355469,3.1897988319396973,0.6429803371429443
-0.9770249128341675,3.147153615951538,0.6324695944786072
-0.992159366607666,3.1189117431640625,0.6248530745506287
-1.008036732673645,3.0942792892456055,0.6180238723754883
-1.0247660875320435,3.073233127593994,0.6119450926780701
-1.0356149673461914,3.0378615856170654,0.6026646494865417
-1.0485278367996216,3.009730339050293,0.5948887467384338
-1.0598492622375488,2.9779224395751953,0.5864444375038147
-1.0887447595596313,2.9927244186401367,0.5871136784553528
-1.1016865968704224,2.9641034603118896,0.5793088674545288
-1.122294545173645,2.9570727348327637,0.5756691098213196
-1.1158241033554077,2.8820912837982178,0.5585801005363464
-1.156428337097168,2.928874969482422,0.5651251077651978
-1.143494963645935,2.839569330215454,0.5454167127609253
-1.145915150642395,2.7895071506500244,0.5333234667778015
-1.1060601472854614,2.6401655673980713,0.5024389028549194
-1.1240984201431274,2.6332693099975586,0.4985833168029785
-1.1509881019592285,2.6475770473480225,0.4986293315887451
-1.1534959077835083,2.6051924228668213,0.48798850178718567
-1.1746610403060913,2.6049251556396484,0.48526015877723694
-1.209096908569336,2.6323416233062744,0.48761552572250366
-1.230633020401001,2.6316425800323486,0.4846285581588745
-1.254860758781433,2.6380772590637207,0.48272502422332764
-1.2560179233551025,2.595595359802246,0.4718652069568634
-1.2670032978057861,2.5738914012908936,0.46483907103538513
-1.2817808389663696,2.5587778091430664,0.4589492380619049
-1.296134114265442,2.5437211990356445,0.453024685382843
-1.3060165643692017,2.52215313911438,0.4457453787326813
-1.313867449760437,2.4971349239349365,0.4379182457923889
-1.3277156352996826,2.4819254875183105,0.4316975176334381
-1.3416540622711182,2.466512441635132,0.425432413816452
-1.3436616659164429,2.4310519695281982,0.41564106941223145
-1.3522409200668335,2.4094667434692383,0.40815111994743347
-1.3625013828277588,2.3912160396575928,0.4012812077999115
-1.3679850101470947,2.3622403144836426,0.3923875689506531
-1.3847243785858154,2.3533711433410645,0.3869272768497467
-1.3962476253509521,2.338465690612793,0.38022616505622864
-1.3996065855026245,2.3102569580078125,0.37142667174339294
-1.407389521598816,2.288294553756714,0.3635176122188568
-1.4444981813430786,2.31181001663208,0.36257362365722656
-1.4640289545059204,2.309633731842041,0.35740819573402405
-1.4624024629592896,2.274855613708496,0.34720900654792786
-1.4611263275146484,2.239722967147827,0.3368382155895233
-1.4578518867492676,2.20111083984375,0.32590019702911377
-1.5005912780761719,2.2341954708099365,0.32523590326309204
-1.4780128002166748,2.170832395553589,0.310661643743515
-1.4845761060714722,2.148529529571533,0.30166447162628174
-1.52152419090271,2.171116352081299,0.29878947138786316
-1.5085196495056152,2.1242754459381104,0.2862783968448639
