X,Y,Z
-1.4681870937347412,2.206543445587158,-0.10256829857826233
-1.4568740129470825,2.223172903060913,-0.10701201856136322
-1.4485052824020386,2.2470269203186035,-0.11183399707078934
-1.4404349327087402,2.270512580871582,-0.11656223237514496
-1.4198875427246094,2.2740156650543213,-0.12019587308168411
-1.4171531200408936,2.307626962661743,-0.12536412477493286
-1.4084300994873047,2.3310046195983887,-0.12994138896465302
-1.3999754190444946,2.354058027267456,-0.1344292163848877
-1.3903244733810425,2.377650022506714,-0.138955757021904
-1.3686888217926025,2.3809525966644287,-0.14232087135314941
-1.3674010038375854,2.4173972606658936,-0.14750024676322937
-1.3346682786941528,2.39976167678833,-0.14934711158275604
-1.3207472562789917,2.4161252975463867,-0.15327921509742737
-1.3110097646713257,2.438931941986084,-0.1575445532798767
-1.2988736629486084,2.4584336280822754,-0.16163526475429535
-1.1712552309036255,2.256540536880493,-0.15085646510124207
-1.2841659784317017,2.518341064453125,-0.17110416293144226
-1.270018458366394,2.5340092182159424,-0.1748228222131729
-1.2845737934112549,2.6092631816864014,-0.18269498646259308
-1.248258113861084,2.5833680629730225,-0.18353809416294098
-1.2047101259231567,2.539165735244751,-0.18290841579437256
-1.1869803667068481,2.5472822189331055,-0.18594416975975037
-1.1881669759750366,2.598027467727661,-0.1920684278011322
-1.1869275569915771,2.645427942276001,-0.19799955189228058
-1.1586802005767822,2.632169485092163,-0.19937901198863983
-1.1398916244506836,2.6401333808898926,-0.20236395299434662
-1.117917776107788,2.6408326625823975,-0.20466561615467072
-1.13615083694458,2.738579750061035,-0.21453778445720673
-1.1342650651931763,2.7896668910980225,-0.22084151208400726
-1.1234315633773804,2.818995714187622,-0.22544409334659576
-1.1271109580993652,2.888495683670044,-0.23329557478427887
-1.109142541885376,2.9035534858703613,-0.23672348260879517
-1.0993311405181885,2.940338611602783,-0.24194858968257904
-1.0854848623275757,2.965991497039795,-0.24625806510448456
-1.0698177814483643,2.9879987239837646,-0.2502443492412567
-1.0532180070877075,3.0101683139801025,-0.2542043924331665
-1.0417654514312744,3.046861410140991,-0.25939881801605225
-1.026545524597168,3.0723273754119873,-0.2636444568634033
-1.012249231338501,3.1014180183410645,-0.2682386040687561
-0.9877206087112427,3.100929021835327,-0.27010080218315125
-0.9720697999000549,3.130112409591675,-0.2746069133281708
-0.9623852968215942,3.177647590637207,-0.28071630001068115
-0.9446167349815369,3.1989903450012207,-0.28453782200813293
-0.9306734800338745,3.2352709770202637,-0.2896140217781067
-0.9097813367843628,3.249082088470459,-0.29262086749076843
-0.8907850980758667,3.270265817642212,-0.29631876945495605
-0.8695940375328064,3.2838032245635986,-0.2993469536304474
-0.8496493697166443,3.3008639812469482,-0.3026885390281677
-0.8338531255722046,3.3367905616760254,-0.3075543940067291
-0.8139517307281494,3.3575220108032227,-0.3110542297363281
-0.7956889271736145,3.3856844902038574,-0.31526851654052734
-0.7793809771537781,3.4251911640167236,-0.32060083746910095
-0.7495003342628479,3.4037868976593018,-0.32012927532196045
-0.7480976581573486,3.5153486728668213,-0.33205485343933105
-0.7248035669326782,3.5279855728149414,-0.3346991539001465
-0.7137283682823181,3.6014578342437744,-0.3431474268436432
-0.6896917223930359,3.6138694286346436,-0.34584370255470276
-0.6678662896156311,3.637571096420288,-0.3494206666946411
-0.6477150321006775,3.6726486682891846,-0.3540268838405609
-0.6257759928703308,3.6999545097351074,-0.3579210638999939
-0.6030497550964355,3.723261833190918,-0.3614513874053955
-0.580185055732727,3.7503364086151123,-0.3654014468193054
-0.5594719648361206,3.792651891708374,-0.37056276202201843
-0.5360145568847656,3.8194596767425537,-0.37422147393226624
-0.5148712992668152,3.8653783798217773,-0.37978532910346985
-0.4928539991378784,3.9072978496551514,-0.38498806953430176
-0.47163623571395874,3.9606800079345703,-0.3913239538669586
-0.4486279785633087,4.010185241699219,-0.3970338702201843
-0.4242047369480133,4.047911643981934,-0.401600182056427
-0.40312620997428894,4.124170780181885,-0.41002944111824036
-0.36916762590408325,4.068692207336426,-0.4053809940814972
-0.3450123071670532,4.121420383453369,-0.411429226398468
-0.31747639179229736,4.146945476531982,-0.414537250995636
-0.28904855251312256,4.156739234924316,-0.41608726978302
-0.26150521636009216,4.181851863861084,-0.41919469833374023
-0.23021240532398224,4.144686222076416,-0.4160764813423157
-0.20001700520515442,4.11895227432251,-0.41396236419677734
-0.1710696667432785,4.127994537353516,-0.415155291557312
-0.14142747223377228,4.10574197769165,-0.41321539878845215
-0.11242257058620453,4.09104585647583,-0.4120520353317261
-0.08366385847330093,4.076145172119141,-0.41088512539863586
-0.05466865375638008,4.026088714599609,-0.4059813618659973
-0.026235569268465042,4.034145832061768,-0.40678054094314575
0.0018381660338491201,4.069207668304443,-0.4103228449821472
0.01937318779528141,2.6155693531036377,-0.26376083493232727
0.05741248279809952,3.9949488639831543,-0.40290674567222595
0.0860106498003006,4.033331394195557,-0.40660959482192993
0.11275476962327957,3.986048936843872,-0.401572048664093
0.1406552940607071,3.9774184226989746,-0.40044769644737244
0.16648653149604797,3.9336636066436768,-0.39581382274627686
0.1926397681236267,3.9091548919677734,-0.3931396007537842
0.22018784284591675,3.9155466556549072,-0.3933160603046417
0.24533317983150482,3.882964611053467,-0.3895135521888733
0.2727087140083313,3.8812079429626465,-0.3888168931007385
0.2985110282897949,3.863783121109009,-0.3865785002708435
0.3293059766292572,3.908160924911499,-0.39053842425346375
0.3550022840499878,3.8903965950012207,-0.38800400495529175
0.3804197907447815,3.872472047805786,-0.3854372799396515
0.41179805994033813,3.9084551334381104,-0.3882361650466919
0.43899309635162354,3.905597448348999,-0.38719844818115234
0.46247678995132446,3.8716702461242676,-0.3830997347831726
0.5819251537322998,4.60133171081543,-0.4540505111217499
0.6049943566322327,4.5318450927734375,-0.4459829032421112
0.6396468877792358,4.546875953674316,-0.446243554353714
0.6695334911346436,4.530938625335693,-0.44350191950798035
0.7009685635566711,4.526346206665039,-0.4418262243270874
0.7284297347068787,4.498569488525391,-0.4375979006290436
0.7620209455490112,4.508968830108643,-0.4371066093444824
0.7864975929260254,4.465476989746094,-0.4314122200012207
0.8181260228157043,4.459985733032227,-0.4293893277645111
0.722339391708374,3.789684772491455,-0.3635120987892151
0.7393860816955566,3.7390224933624268,-0.3571551740169525
0.7620149850845337,3.7187840938568115,-0.35374563932418823
0.9339126348495483,4.402279853820801,-0.4170176386833191
0.9617327451705933,4.380582332611084,-0.4132063686847687
0.9937142729759216,4.381654739379883,-0.41138577461242676
1.0185173749923706,4.352237224578857,-0.4065993130207062
1.0447875261306763,4.330246448516846,-0.4025435447692871
1.0787004232406616,4.33820915222168,-0.40126556158065796
1.1113755702972412,4.338239669799805,-0.39922773838043213
1.1412097215652466,4.330759048461914,-0.39626482129096985
1.1688863039016724,4.315581321716309,-0.3925973176956177
1.1986325979232788,4.307685852050781,-0.38960424065589905
1.2222201824188232,4.277045726776123,-0.3845609128475189
1.2501879930496216,4.261124610900879,-0.38075563311576843
1.279353141784668,4.252751350402832,-0.37748029828071594
1.3084615468978882,4.244175910949707,-0.3742048442363739
1.3331563472747803,4.2204484939575195,-0.3695911169052124
1.36737060546875,4.2261481285095215,-0.36755502223968506
1.3919992446899414,4.202007293701172,-0.3627117872238159
1.4119139909744263,4.166898250579834,-0.35693928599357605
1.440464735031128,4.157418727874756,-0.35338354110717773
1.4642630815505981,4.132882118225098,-0.3485253155231476
1.492936372756958,4.122919082641602,-0.34486714005470276
1.5182923078536987,4.105664253234863,-0.34043946862220764
1.5495110750198364,4.102632999420166,-0.337150901556015
1.5723206996917725,4.07757043838501,-0.3320767283439636
1.6035693883895874,4.07407283782959,-0.32876381278038025
1.625512719154358,4.048907279968262,-0.3235464096069336
1.6499994993209839,4.0308966636657715,-0.3189070224761963
1.6751124858856201,4.012412071228027,-0.3141631484031677
1.7092028856277466,4.015279293060303,-0.3111005425453186
1.9987372159957886,4.607944965362549,-0.3531215488910675
2.0440831184387207,4.626760005950928,-0.3505505323410034
2.073948621749878,4.609559059143066,-0.3452209532260895
2.108264684677124,4.59864616394043,-0.3402057886123657
2.138150930404663,4.580912113189697,-0.33470332622528076
2.165605306625366,4.559754371643066,-0.3288816213607788
2.201537609100342,4.555890083312988,-0.3242926299571991
2.228163003921509,4.5302886962890625,-0.3180358409881592
2.2632927894592285,4.521956443786621,-0.3128669857978821
2.2936534881591797,4.507020473480225,-0.30723869800567627
2.3205373287200928,4.484842300415039,-0.30110621452331543
2.357219696044922,4.479284763336182,-0.29595947265625
1.736480712890625,3.2461957931518555,-0.2109583467245102
1.7469249963760376,3.214256525039673,-0.20533205568790436
1.7333056926727295,3.137497901916504,-0.1968144327402115
1.7475485801696777,3.111978530883789,-0.19157832860946655
1.7838101387023926,3.1275832653045654,-0.18880748748779297
1.3353413343429565,2.3057126998901367,-0.1364167183637619
1.2978349924087524,2.205836296081543,-0.12773114442825317
0.956874430179596,1.6008031368255615,-0.09060416370630264
0.9633657932281494,1.5879207849502563,-0.08780010789632797
0.9781366586685181,1.5881739854812622,-0.08568117767572403
0.9850722551345825,1.574820637702942,-0.08275303244590759
1.001666784286499,1.5783357620239258,-0.0806942880153656
1.0164682865142822,1.5782709121704102,-0.07837262749671936
1.021077036857605,1.561456561088562,-0.0751304104924202
1.0270442962646484,1.5483086109161377,-0.07208184897899628
1.0480412244796753,1.5578800439834595,-0.07006053626537323
1.0522611141204834,1.5410027503967285,-0.06668223440647125
2.549398183822632,3.681277275085449,-0.1528569459915161
2.5779519081115723,3.6711761951446533,-0.1459340900182724
2.616887092590332,3.6726269721984863,-0.1389915496110916
2.6355836391448975,3.649887800216675,-0.1311069130897522
2.6117403507232666,3.5661203861236572,-0.12072890996932983
2.660672426223755,3.583678722381592,-0.11358032375574112
2.6400110721588135,3.705441474914551,0.21265825629234314
2.604820489883423,3.710747003555298,0.21989545226097107
2.580120086669922,3.736970901489258,0.22825302183628082
1.0635401010513306,1.5647622346878052,0.09823562949895859
1.0565882921218872,1.5786720514297485,0.10162623971700668
1.040108323097229,1.5800540447235107,0.10417702794075012
1.0283905267715454,1.587515950202942,0.10702741891145706
1.029571533203125,1.6143876314163208,0.11108262836933136
1.0047849416732788,1.602192997932434,0.11239882558584213
0.9806635975837708,1.5894639492034912,0.11355723440647125
0.9776049852371216,1.6094471216201782,0.11694689840078354
0.9573231339454651,1.6032785177230835,0.11841483414173126
1.3398489952087402,2.2826313972473145,0.17124639451503754
1.3315049409866333,2.3052918910980225,0.17544248700141907
1.8059158325195312,3.178657054901123,0.24527789652347565
1.7630106210708618,3.1577627658843994,0.24688631296157837
1.7540963888168335,3.1979916095733643,0.2533022165298462
1.766858696937561,3.275012254714966,0.26249000430107117
2.3950982093811035,4.516093730926514,0.36609774827957153
2.3687164783477783,4.547127723693848,0.3726068139076233
2.338627338409424,4.570988655090332,0.37854641675949097
2.299060106277466,4.573153972625732,0.38255733251571655
2.263186454772949,4.581904888153076,0.38699087500572205
2.2327160835266113,4.605073928833008,0.39247408509254456
2.2054083347320557,4.635053634643555,0.3985714018344879
2.169259786605835,4.643080711364746,0.40266597270965576
2.1431429386138916,4.671929836273193,0.4085608720779419
2.1019928455352783,4.673115253448486,0.4118790924549103
2.067535161972046,4.688069820404053,0.4163236618041992
2.0242085456848145,4.681111812591553,0.41878437995910645
1.7437362670898438,4.1105756759643555,0.3703429698944092
1.717747688293457,4.129609107971191,0.3746223747730255
1.6812427043914795,4.12747859954834,0.37682563066482544
1.6540182828903198,4.146529674530029,0.3809393346309662
1.6300901174545288,4.172400951385498,0.3856603801250458
1.5981159210205078,4.176111698150635,0.3883105516433716
1.5739656686782837,4.201597690582275,0.3929113447666168
1.5455706119537354,4.220119476318359,0.39674535393714905
1.5175625085830688,4.238247394561768,0.400532066822052
1.4822745323181152,4.233944416046143,0.4021744430065155
1.457739233970642,4.2586236000061035,0.40655288100242615
1.431403398513794,4.279577732086182,0.4105204641819
1.3999717235565186,4.289697170257568,0.41328832507133484
1.3666307926177979,4.292008399963379,0.4152928590774536
1.3383457660675049,4.3087992668151855,0.4186965227127075
1.312793493270874,4.332655429840088,0.42277905344963074
1.2847355604171753,4.348912715911865,0.42613813281059265
1.2534592151641846,4.357797622680664,0.42850345373153687
1.225807547569275,4.381574630737305,0.4323849678039551
1.194385290145874,4.390010356903076,0.43475180864334106
1.1657410860061646,4.405519962310791,0.4378020167350769
1.1350017786026,4.413309574127197,0.4401089549064636
1.107502818107605,4.43610954284668,0.4437480866909027
1.077042579650879,4.451396465301514,0.4465702474117279
1.04521644115448,4.458773136138916,0.448601096868515
1.0163180828094482,4.477206707000732,0.4517541825771332
0.9867762923240662,4.491570472717285,0.45450785756111145
0.9553899765014648,4.4981513023376465,0.4564819931983948
0.7988138198852539,3.8993091583251953,0.39659038186073303
0.7537205219268799,3.8170454502105713,0.3890892267227173
0.7236682176589966,3.806889533996582,0.38893336057662964
0.8341330289840698,4.561047554016113,0.46703681349754333
0.805076003074646,4.581882953643799,0.4702465236186981
0.7762629985809326,4.610340595245361,0.47416412830352783
0.7455042004585266,4.627087593078613,0.4766710102558136
0.7139087915420532,4.639794826507568,0.4787900149822235
0.6845213770866394,4.667651176452637,0.4824993312358856
0.6509595513343811,4.6644673347473145,0.4830140769481659
0.6189423203468323,4.676524639129639,0.4851461350917816
0.5890210270881653,4.703769207000732,0.48866549134254456
0.5567966103553772,4.715417385101318,0.4904327988624573
0.5244372487068176,4.72684383392334,0.49220332503318787
0.4932467043399811,4.749631881713867,0.49518290162086487
0.4609350562095642,4.760583400726318,0.49695056676864624
0.4285961091518402,4.779104709625244,0.4995475709438324
0.3970670998096466,4.805142879486084,0.5027047395706177
0.3645651638507843,4.823239326477051,0.504936695098877
0.330716073513031,4.825613975524902,0.5055491924285889
0.2978558838367462,4.843259334564209,0.5077869892120361
0.2646712362766266,4.864574909210205,0.510441243648529
0.23152615129947662,4.881757736206055,0.5126836895942688
0.1981046497821808,4.898744583129883,0.5146582722663879
0.16441570222377777,4.915514945983887,0.5165231823921204
0.13070771098136902,4.9398193359375,0.5192060470581055
0.09602069109678268,4.960018157958984,0.5214866399765015
0.061491459608078,4.960541725158691,0.5217216610908508
0.027170706540346146,4.9996724128723145,0.5260440707206726
-0.007591276429593563,4.999743461608887,0.5260153412818909
-0.042673587799072266,5.030661106109619,0.5291480422019958
-0.07840809226036072,5.038016319274902,0.5298256874084473
-0.11357930302619934,5.0412468910217285,0.5300967693328857
-0.14954796433448792,5.071414470672607,0.5332258939743042
-0.18475638329982758,5.070268630981445,0.5330880880355835
-0.22126559913158417,5.099958896636963,0.535933792591095
-0.2573747932910919,5.113880157470703,0.5370225310325623
-0.2944994866847992,5.131392002105713,0.5385059714317322
-0.28044605255126953,4.357757091522217,0.4570426642894745
-0.30496203899383545,4.274369239807129,0.44804736971855164
-0.33587250113487244,4.287687301635742,0.44921496510505676
-0.3662073612213135,4.293072700500488,0.4493444859981537
-0.3935224711894989,4.259525299072266,0.44531330466270447
-0.4175098240375519,4.202662944793701,0.4388861060142517
-0.44127169251441956,4.1495232582092285,0.43287819623947144
-0.46527791023254395,4.103968620300293,0.42769113183021545
-0.48727908730506897,4.046707630157471,0.42131471633911133
-0.5117195248603821,4.01245641708374,0.41712915897369385
-0.5335715413093567,3.96659255027771,0.41169434785842896
-0.5553622245788574,3.9244651794433594,0.4066801071166992
-0.5750059485435486,3.8706765174865723,0.4004881680011749
-0.5983137488365173,3.84365177154541,0.39709174633026123
-0.6198297142982483,3.804914712905884,0.39250409603118896
-0.6368157863616943,3.747058868408203,0.3857520818710327
-0.6597365736961365,3.7274348735809326,0.3829154074192047
-0.6788636445999146,3.6885669231414795,0.378131628036499
-0.6955220699310303,3.6381168365478516,0.3721884787082672
-0.7155528664588928,3.6066246032714844,0.368210107088089
-0.7347925305366516,3.5711417198181152,0.36384254693984985
-0.7494381070137024,3.5205695629119873,0.35773801803588867
-0.7734379172325134,3.5155231952667236,0.3562815487384796
-0.786208987236023,3.461031436920166,0.34984368085861206
-0.8048216700553894,3.4329442977905273,0.3460971713066101
-0.823589026927948,3.404644727706909,0.3423389196395874
-0.8443179726600647,3.387695074081421,0.3397023379802704
-0.8595589995384216,3.351926326751709,0.33501482009887695
-0.8743855953216553,3.316096067428589,0.3303546905517578
-0.8928009867668152,3.2952377796173096,0.3272174596786499
-0.9088557362556458,3.262767791748047,0.32290852069854736
-0.9251272082328796,3.2340946197509766,0.3190278112888336
-0.9406927227973938,3.2054669857025146,0.31503862142562866
-0.9601275324821472,3.1917593479156494,0.31245601177215576
-0.9691395163536072,3.1444735527038574,0.30661749839782715
-0.984052836894989,3.115556240081787,0.3025723993778229
-1.0056768655776978,3.1088240146636963,0.30071184039115906
-1.0173991918563843,3.072425127029419,0.2959761917591095
-1.0355476140975952,3.0583372116088867,0.29324793815612793
-1.0497628450393677,3.0331034660339355,0.28947392106056213
-1.0624423027038574,3.004127264022827,0.2853702902793884
-1.0784538984298706,2.9820709228515625,0.2818860113620758
-1.0938280820846558,2.9600720405578613,0.27845942974090576
-1.1165815591812134,2.960089683532715,0.27695003151893616
-1.1098812818527222,2.8837239742279053,0.26830822229385376
-1.1292530298233032,2.8763952255249023,0.2661358416080475
-1.1379995346069336,2.839639902114868,0.26119160652160645
-1.1519038677215576,2.8174195289611816,0.25764167308807373
-1.1484993696212769,2.755869150161743,0.2504204511642456
-1.1380128860473633,2.6802494525909424,0.24195630848407745
-1.1373835802078247,2.629897117614746,0.2358500361442566
-1.1590955257415771,2.629122734069824,0.23413397371768951
-1.1726323366165161,2.6105196475982666,0.23086540400981903
-1.1982131004333496,2.6205146312713623,0.23000305891036987
-1.22547447681427,2.6338858604431152,0.22938700020313263
-1.2363665103912354,2.6117823123931885,0.22568030655384064
-1.248158574104309,2.589110851287842,0.22183750569820404
-1.279853105545044,2.6085665225982666,0.22162410616874695
-1.293639898300171,2.5932836532592773,0.21832206845283508
-1.3143264055252075,2.5918266773223877,0.21619364619255066
-1.294437289237976,2.5103423595428467,0.20739905536174774
-1.3300021886825562,2.5359888076782227,0.20744597911834717
-1.3106671571731567,2.458300828933716,0.1989569514989853
-1.3212144374847412,2.4395899772644043,0.19530770182609558
-1.337379813194275,2.430992603302002,0.19246238470077515
-1.3505852222442627,2.4149913787841797,0.18892501294612885
-1.3516554832458496,2.378830671310425,0.1838049739599228
-1.371395468711853,2.3767478466033936,0.18123158812522888
-1.3791853189468384,2.3544154167175293,0.1771530956029892
-1.3916163444519043,2.3382620811462402,0.1734309196472168
-1.4074169397354126,2.32902455329895,0.17019064724445343
-1.4265687465667725,2.326733112335205,0.16739684343338013
-1.4339925050735474,2.3040578365325928,0.1630459427833557
-1.437573790550232,2.274440288543701,0.15815095603466034
-1.4504178762435913,2.2618825435638428,0.1544094681739807
-1.467079520225525,2.2560040950775146,0.15110601484775543
-1.4803401231765747,2.2429020404815674,0.1471419632434845
-1.482785940170288,2.213423013687134,0.14199529588222504
-1.4924709796905518,2.197721481323242,0.13777601718902588
-1.4717121124267578,2.136542558670044,0.13064223527908325
-1.4864047765731812,2.1265945434570312,0.12654666602611542
-1.4930379390716553,2.1078546047210693,0.12189727276563644
-1.493648886680603,2.0789084434509277,0.1164473295211792
-1.502989411354065,2.062763214111328,0.11162292957305908
-1.5203962326049805,2.0599148273468018,0.10748197138309479
-1.493210792541504,2.090366840362549,-0.08481904119253159
-1.4863642454147339,2.114143133163452,-0.09051750600337982
-1.5040392875671387,2.172987461090088,-0.0976555198431015
-1.4927369356155396,2.1899991035461426,-0.10279872268438339
-1.4673244953155518,2.188100814819336,-0.10704782605171204
-1.4689851999282837,2.2242743968963623,-0.11288825422525406
-1.456547737121582,2.241513967514038,-0.11784928292036057
-1.4480894804000854,2.2652926445007324,-0.1231006309390068
-1.4321423768997192,2.2751729488372803,-0.12737001478672028
-1.421484351158142,2.2953832149505615,-0.1322193741798401
-1.4083787202835083,2.3123390674591064,-0.1368943601846695
-1.4038952589035034,2.3421483039855957,-0.142213836312294
-1.4026694297790527,2.3789310455322266,-0.14794377982616425
-1.3849966526031494,2.389005661010742,-0.15204544365406036
-1.3565019369125366,2.3781473636627197,-0.15462970733642578
-1.343366026878357,2.3942883014678955,-0.15890757739543915
-1.3254276514053345,2.4040045738220215,-0.16279762983322144
-1.319233775138855,2.4337966442108154,-0.16796258091926575
-1.3021843433380127,2.4427061080932617,-0.17163068056106567
-1.289814829826355,2.4622135162353516,-0.17600800096988678
-1.3074405193328857,2.5406429767608643,-0.18469363451004028
-1.289170742034912,2.5496931076049805,-0.1883709728717804
-1.2711237668991089,2.558471918106079,-0.1919483095407486
-1.2524387836456299,2.56740403175354,-0.19547957181930542
-1.2135618925094604,2.5339884757995605,-0.19573943316936493
-1.1676111221313477,2.4822168350219727,-0.19437816739082336
-1.187575340270996,2.5715246200561523,-0.20405526459217072
-1.186275601387024,2.61897611618042,-0.21053144335746765
-1.156319260597229,2.6022610664367676,-0.21181327104568481
-1.1614097356796265,2.6635961532592773,-0.21941637992858887
-1.1225850582122803,2.6249444484710693,-0.218745157122612
-1.100585699081421,2.6255414485931396,-0.22123436629772186
-1.128700613975525,2.7485246658325195,-0.2341790348291397
-1.129822850227356,2.8066489696502686,-0.24164935946464539
-1.134293556213379,2.875847578048706,-0.2501356303691864
-1.1304579973220825,2.9272232055664062,-0.25707361102104187
-1.1039402484893799,2.920408010482788,-0.25893619656562805
-1.077730417251587,2.913308620452881,-0.2607443034648895
-1.0745395421981812,2.968085527420044,-0.26806533336639404
-1.066288948059082,3.012110710144043,-0.27434754371643066
-1.0421924591064453,3.012026071548462,-0.27664849162101746
-1.0309407711029053,3.04850697517395,-0.28230372071266174
-1.0129339694976807,3.066556215286255,-0.2863170802593231
-0.9899813532829285,3.0696942806243896,-0.28875547647476196
-0.9762582182884216,3.1023881435394287,-0.29396164417266846
-0.956558346748352,3.1163971424102783,-0.2974209189414978
-0.936978280544281,3.1302008628845215,-0.3008595108985901
-0.9214992523193359,3.1588540077209473,-0.3056814670562744
-0.898625373840332,3.1651864051818848,-0.3082629442214966
-0.8802292346954346,3.1862452030181885,-0.31227099895477295
-0.8609269261360168,3.2033495903015137,-0.3158923387527466
-0.8385554552078247,3.2090306282043457,-0.3184027671813965
-0.8216425180435181,3.2372472286224365,-0.32296326756477356
-0.800153911113739,3.250401258468628,-0.3260464072227478
-0.7898783087730408,3.308666229248047,-0.3336637318134308
-0.7816674113273621,3.378249406814575,-0.3424851894378662
-0.7563260793685913,3.3758163452148438,-0.34397968649864197
-0.7406811714172363,3.4188530445098877,-0.3499327003955841
-0.7200899124145508,3.442888021469116,-0.35401034355163574
-0.7036893367767334,3.48572039604187,-0.3600226044654846
-0.6838985681533813,3.5131986141204834,-0.36448511481285095
-0.6671879887580872,3.559709310531616,-0.3707834482192993
-0.646313488483429,3.5870602130889893,-0.375007688999176
-0.6266242861747742,3.625849723815918,-0.3804933726787567
-0.6064146757125854,3.6606006622314453,-0.38556474447250366
-0.5845036506652832,3.687570571899414,-0.38985803723335266
-0.5649632215499878,3.733675003051758,-0.3959149718284607
-0.5475834012031555,3.798907995223999,-0.4040156304836273
-0.5251761078834534,3.8371894359588623,-0.4093203544616699
-0.503460168838501,3.879103660583496,-0.41502439975738525
-0.48116061091423035,3.9209043979644775,-0.4207049310207367
-0.45949751138687134,3.9742026329040527,-0.42734694480895996
-0.43333953619003296,3.992631673812866,-0.43027573823928833
-0.41132640838623047,4.053384780883789,-0.4378020763397217
-0.3848233222961426,4.07925271987915,-0.4416150152683258
-0.35942476987838745,4.116532325744629,-0.4465341567993164
-0.32598739862442017,4.060779094696045,-0.44112399220466614
-0.3035602569580078,4.144196510314941,-0.4508574903011322
-0.2731580436229706,4.122862815856934,-0.44922366738319397
-0.24491199851036072,4.1400980949401855,-0.4518241882324219
-0.21567288041114807,4.13387393951416,-0.45164918899536133
-0.18527373671531677,4.100310802459717,-0.4483214020729065
-0.15639075636863708,4.09368896484375,-0.4479575753211975
-0.1276780664920807,4.086862564086914,-0.44759076833724976
-0.09858588874340057,4.079845428466797,-0.4472302794456482
-0.06968521326780319,4.049351692199707,-0.44401973485946655
-0.04152071475982666,4.049729347229004,-0.4441034495830536
-0.013320105150341988,4.049911022186279,-0.44418731331825256
0.01474156603217125,4.030481815338135,-0.4421411454677582
0.027935942634940147,2.6053080558776855,-0.28587043285369873
0.07139930874109268,4.041548252105713,-0.4432292878627777
0.0974467545747757,3.9594719409942627,-0.43396928906440735
0.12493031471967697,3.958735227584839,-0.43365049362182617
0.15250864624977112,3.957803726196289,-0.4333305060863495
0.17972604930400848,3.948922634124756,-0.4321550726890564
0.20622146129608154,3.920485496520996,-0.42847949266433716
0.23301908373832703,3.9112794399261475,-0.4269409477710724
0.26073017716407776,3.917389392852783,-0.4270949363708496
0.28625884652137756,3.8923187255859375,-0.42387205362319946
0.31264516711235046,3.8825788497924805,-0.4222714900970459
0.3400171995162964,3.8803961277008057,-0.4211796224117279
0.36395925283432007,3.847132682800293,-0.41675642132759094
0.3914472758769989,3.852356195449829,-0.41652554273605347
0.41744428873062134,3.841928243637085,-0.4146195948123932
0.4432591199874878,3.831345558166504,-0.4125850200653076
0.46790844202041626,3.8090038299560547,-0.4090577960014343
0.49526068568229675,3.813530683517456,-0.4084606170654297
0.5217394232749939,3.8101513385772705,-0.4070301651954651
0.546011745929718,3.791203260421753,-0.40395915508270264
0.5722274780273438,3.7875075340270996,-0.4023370146751404
0.596377968788147,3.7682383060455322,-0.39890962839126587
0.619850754737854,3.7488842010498047,-0.39552634954452515
0.6419185400009155,3.7217001914978027,-0.39134159684181213
0.6705704927444458,3.7326221466064453,-0.3911823332309723
0.6963537931442261,3.7281105518341064,-0.3891516625881195
0.7205477356910706,3.7158117294311523,-0.38626551628112793
0.7497217655181885,3.7261149883270264,-0.3857119083404541
0.7852060794830322,3.766671895980835,-0.3882960081100464
0.9450323581695557,4.380622863769531,-0.4496977925300598
0.9718310236930847,4.359119892120361,-0.4452938139438629
1.0018655061721802,4.35260534286499,-0.4424498379230499
1.034323811531067,4.353292942047119,-0.440307080745697
1.0572378635406494,4.316061019897461,-0.43438720703125
1.0871243476867676,4.308931827545166,-0.43139082193374634
1.1167150735855103,4.301677227020264,-0.4281938374042511
1.146256923675537,4.294217109680176,-0.4249967038631439
1.1745480298995972,4.278825759887695,-0.420968234539032
1.202268362045288,4.263356685638428,-0.41699567437171936
1.2272887229919434,4.240366458892822,-0.4120778441429138
1.2563776969909668,4.232179641723633,-0.4085634648799896
1.2877428531646729,4.2312140464782715,-0.40575453639030457
1.3154512643814087,4.214879989624023,-0.40140485763549805
1.3411058187484741,4.194880962371826,-0.3967195153236389
1.3697876930236816,4.185964584350586,-0.3928881883621216
1.3984092473983765,4.176848411560059,-0.38905659317970276
1.4197903871536255,4.145317554473877,-0.383131206035614
1.4487113952636719,4.13565731048584,-0.37924179434776306
1.4802082777023315,4.133136749267578,-0.37576720118522644
1.503068447113037,4.108678340911865,-0.3703192472457886
1.528541088104248,4.091331481933594,-0.3655290901660919
1.5598279237747192,4.08821439743042,-0.3619779348373413
1.5880382061004639,4.077716827392578,-0.35769379138946533
1.6162256002426147,4.067019462585449,-0.3532072901725769
1.635055422782898,4.034668922424316,-0.3469398021697998
1.6602373123168945,4.016331672668457,-0.3418211042881012
1.697245478630066,4.026587009429932,-0.3391156494617462
1.8982267379760742,4.419764995574951,-0.36810415983200073
1.9911953210830688,4.549713134765625,-0.37459826469421387
2.022721529006958,4.536231517791748,-0.3691469132900238
2.070526361465454,4.557882308959961,-0.3665022850036621
2.120950698852539,4.586655139923096,-0.3641916513442993
2.148594617843628,4.565612316131592,-0.35790055990219116
2.1840131282806396,4.557884693145752,-0.35248488187789917
2.2124030590057373,4.535958290100098,-0.34601694345474243
2.2464206218719482,4.528368949890137,-0.34050628542900085
2.2733137607574463,4.506649971008301,-0.3339442312717438
2.3044111728668213,4.491285800933838,-0.32773885130882263
2.3356544971466064,4.475572109222412,-0.32146933674812317
2.3788528442382812,4.4841413497924805,-0.31669121980667114
1.73907470703125,3.226158857345581,-0.22401544451713562
1.7577382326126099,3.207470178604126,-0.2187378853559494
1.7361677885055542,3.11724591255188,-0.2086576223373413
1.7818413972854614,3.150062322616577,-0.20681440830230713
1.8073079586029053,3.144843816757202,-0.20229148864746094
1.3395121097564697,2.293748617172241,-0.14441658556461334
0.9530174136161804,1.607157826423645,-0.09896159917116165
0.9636581540107727,1.6009602546691895,-0.09633828699588776
0.974689781665802,1.5944308042526245,-0.09360738098621368
0.97959965467453,1.577820897102356,-0.09022844582796097
0.9941032528877258,1.5781095027923584,-0.08785250037908554
1.011069893836975,1.5813628435134888,-0.08554647862911224
1.0156407356262207,1.5646487474441528,-0.08208046853542328
1.0258210897445679,1.5581445693969727,-0.07915351539850235
1.038581371307373,1.5545179843902588,-0.07625363767147064
1.0427523851394653,1.5377466678619385,-0.07265196740627289
1.0681395530700684,1.5536428689956665,-0.07056280970573425
2.5657122135162354,3.6791536808013916,-0.16005469858646393
2.5951507091522217,3.6683623790740967,-0.15221168100833893
2.6325387954711914,3.6708242893218994,-0.144743412733078
2.6163554191589355,3.5961520671844482,-0.13387061655521393
2.6488234996795654,3.5920462608337402,-0.12557418644428253
2.617783308029175,3.7005553245544434,0.23704779148101807
2.584219217300415,3.7139999866485596,0.2454412877559662
1.0736867189407349,1.5667742490768433,0.10642928630113602
1.0748522281646729,1.5940425395965576,0.1111508309841156
1.0495119094848633,1.582606554031372,0.11310755461454391
1.0340663194656372,1.5832195281982422,0.11563429236412048
1.0180879831314087,1.5840624570846558,0.11811118572950363
1.0184085369110107,1.6113725900650024,0.12255372852087021
0.9943193793296814,1.598656177520752,0.12383510172367096
0.9909332990646362,1.6188548803329468,0.1275610327720642
0.9705946445465088,1.612751841545105,0.1291719675064087
0.9626501202583313,1.6263607740402222,0.13230237364768982
1.3513271808624268,2.3196821212768555,0.19145768880844116
1.8565486669540405,3.242344856262207,0.2713736891746521
1.784354329109192,3.1709368228912354,0.2689509987831116
1.7501745223999023,3.1628658771514893,0.27164575457572937
1.7782477140426636,3.267045736312866,0.2839799225330353
1.7503257989883423,3.2728817462921143,0.28770560026168823
2.3862740993499756,4.544107913970947,0.4039624333381653
2.3465163707733154,4.5467352867126465,0.4084429144859314
2.3180906772613525,4.569522857666016,0.4146598279476166
2.2845640182495117,4.585882663726807,0.42008867859840393
2.2470555305480957,4.595217704772949,0.42483165860176086
2.2232251167297363,4.6322174072265625,0.4321424663066864
2.1841461658477783,4.6330885887146,0.43591105937957764
2.15431547164917,4.655143737792969,0.4415588974952698
2.1200368404388428,4.670392036437988,0.44641584157943726
2.0904347896575928,4.696033000946045,0.4522939920425415
2.0557146072387695,4.706639289855957,0.4566168189048767
1.9945900440216064,4.656319618225098,0.45503491163253784
1.7303431034088135,4.121433734893799,0.405421644449234
1.7001688480377197,4.133596897125244,0.4092322289943695
1.6700525283813477,4.145480155944824,0.413024365901947
1.646759033203125,4.1711554527282715,0.41811707615852356
1.617065191268921,4.182383060455322,0.42183536291122437
1.5839128494262695,4.186392307281494,0.42449715733528137
1.5588387250900269,4.212038516998291,0.42936718463897705
1.531019687652588,4.230156898498535,0.43348994851112366
1.5015002489089966,4.240390300750732,0.4367503821849823
1.4662479162216187,4.235912799835205,0.43855273723602295
1.4407238960266113,4.260769367218018,0.4430854022502899
1.4111223220825195,4.274446487426758,0.44646021723747253
1.3850135803222656,4.2990031242370605,0.45100048184394836
1.3549314737319946,4.3082733154296875,0.45390498638153076
1.322021722793579,4.310044765472412,0.4560696482658386
1.3024753332138062,4.356283664703369,0.4627211093902588
1.271105170249939,4.365261077880859,0.4653407037258148
1.2396728992462158,4.374011993408203,0.4679601192474365
1.2087726593017578,4.382376670837402,0.4705301523208618
1.1822248697280884,4.405433177947998,0.4746856987476349
1.1507543325424194,4.413486480712891,0.4772057831287384
1.1229363679885864,4.436435699462891,0.48107168078422546
1.093966007232666,4.455426216125488,0.4845392405986786
1.063926100730896,4.470438003540039,0.4876028001308441
1.0344822406768799,4.485076427459717,0.49062085151672363
1.002658724784851,4.492053508758545,0.4928518533706665
0.9676056504249573,4.483625411987305,0.4931609332561493
0.9348590970039368,4.486396312713623,0.49459773302078247
0.7689843773841858,3.826439380645752,0.4228256642818451
0.7405121922492981,3.823967933654785,0.42354464530944824
0.7404484152793884,3.974005937576294,0.44121766090393066
0.8209145665168762,4.582796096801758,0.5100281834602356
0.7917858958244324,4.607452869415283,0.5136550664901733
0.7604166269302368,4.620439529418945,0.5159828662872314
0.7258385419845581,4.614042282104492,0.5161722898483276
0.699263870716095,4.661167144775391,0.5223870277404785
0.6645900011062622,4.650387287139893,0.5221214294433594
0.6352865695953369,4.677829265594482,0.5261390209197998
0.6052917838096619,4.705169200897217,0.5298221111297607
0.5720851421356201,4.70919942855835,0.5309106111526489
0.5410564541816711,4.732279300689697,0.5341759324073792
0.5074149966239929,4.735879898071289,0.5352770090103149
0.4760371744632721,4.754619598388672,0.5381023287773132
0.4436051547527313,4.76543664932251,0.5399985909461975
0.41212165355682373,4.791558742523193,0.5433320999145508
0.3803436756134033,4.817467212677002,0.546671450138092
0.3465000092983246,4.827720642089844,0.548271656036377
0.314095675945282,4.849305152893066,0.5511778593063354
0.2807866930961609,4.859042644500732,0.5527662634849548
0.24777600169181824,4.876310348510742,0.5551736354827881
0.21435044705867767,4.893397808074951,0.5572522878646851
0.18012742698192596,4.910275936126709,0.5593381524085999
0.14647802710533142,4.934656620025635,0.5623049736022949
0.11238913983106613,4.9471611976623535,0.5639463663101196
0.07843893766403198,4.978832244873047,0.5678020119667053
0.04389704391360283,4.9869890213012695,0.5689541697502136
0.008542493917047977,5.002709865570068,0.5706324577331543
-0.026383908465504646,5.025944709777832,0.5731972455978394
-0.06173398718237877,5.052814960479736,0.5762035846710205
-0.0969805046916008,5.060035228729248,0.5769968628883362
-0.13218115270137787,5.059248924255371,0.576904833316803
-0.16782867908477783,5.073738098144531,0.5785558819770813
-0.20391646027565002,5.080244541168213,0.5789143443107605
-0.23982590436935425,5.0942769050598145,0.5801637172698975
-0.2778237760066986,5.142935752868652,0.5853800773620605
-0.31141823530197144,5.106074333190918,0.5808883905410767
-0.29266586899757385,4.306128978729248,0.48965707421302795
-0.3222874104976654,4.292387962341309,0.4878811836242676
-0.35224640369415283,4.294017314910889,0.4875326156616211
-0.38254231214523315,4.2993083000183105,0.48762232065200806
-0.40592944622039795,4.230966091156006,0.47938981652259827
-0.43011173605918884,4.177939414978027,0.4729262888431549
-0.4545639157295227,4.1285786628723145,0.46690264344215393
-0.47918182611465454,4.0907063484191895,0.4622171223163605
-0.500639796257019,4.033498764038086,0.45504844188690186
-0.5217944979667664,3.980043649673462,0.44834163784980774
-0.5459968447685242,3.953401565551758,0.4446878135204315
-0.570466935634613,3.9265284538269043,0.441022664308548
-0.5889586806297302,3.8650169372558594,0.43350961804389954
-0.6109361052513123,3.8302714824676514,0.42902645468711853
-0.6301136016845703,3.7840209007263184,0.42298611998558044
-0.6506789326667786,3.7491626739501953,0.41825538873672485
-0.6708346605300903,3.7141919136047363,0.4135439991950989
-0.6905002593994141,3.675180435180664,0.408395379781723
-0.7056726217269897,3.6170661449432373,0.4011709988117218
-0.726905882358551,3.5931968688964844,0.39774513244628906
-0.7418848872184753,3.5427052974700928,0.39114829897880554
-0.7537423372268677,3.4807863235473633,0.3833369314670563
-0.7778893709182739,3.4756391048431396,0.3817964196205139
-0.80021733045578,3.4627625942230225,0.3794286847114563
-0.817102313041687,3.4270482063293457,0.37458303570747375
-0.834241509437561,3.3950979709625244,0.37009575963020325
-0.8496882915496826,3.359410047531128,0.3650527000427246
-0.8650455474853516,3.3235762119293213,0.360013484954834
-0.8816677331924438,3.295269012451172,0.3558390140533447
-0.9045723676681519,3.28924560546875,0.3540732264518738
-0.9200416207313538,3.256887912750244,0.34949854016304016
-0.9336472153663635,3.2208633422851562,0.3444066047668457
-0.9513805508613586,3.1996688842773438,0.3408275544643402
-0.9684735536575317,3.178497076034546,0.33730223774909973
-0.984495222568512,3.153427839279175,0.33337292075157166
-0.9969335794448853,3.1170969009399414,0.32827267050743103
-1.006441354751587,3.0733742713928223,0.3224070370197296
-1.0250444412231445,3.0592503547668457,0.31945231556892395
-1.0418485403060913,3.04146671295166,0.316166490316391
-1.0597996711730957,3.027243137359619,0.31326985359191895
-1.0756508111953735,3.005361557006836,0.30955982208251953
-1.0912202596664429,2.983412981033325,0.3058738708496094
-1.103240966796875,2.954333543777466,0.30132654309272766
-1.126153826713562,2.9542438983917236,0.29967764019966125
-1.113537073135376,2.863489866256714,0.2889144718647003
-1.1247570514678955,2.834247350692749,0.28437724709510803
-1.1474781036376953,2.833756446838379,0.2827325761318207
-1.1534168720245361,2.7937498092651367,0.27706417441368103
-1.137734293937683,2.703601121902466,0.2663973271846771
-1.134361982345581,2.646094560623169,0.25907331705093384
-1.152626872062683,2.638429641723633,0.25662004947662354
-1.1567760705947876,2.5985658168792725,0.25105157494544983
-1.1824004650115967,2.6086292266845703,0.25021618604660034
-1.2065478563308716,2.614956855773926,0.24890899658203125
-1.2404600381851196,2.6423511505126953,0.24961461126804352
-1.2655184268951416,2.6479709148406982,0.24815301597118378
-1.2771973609924316,2.625314950942993,0.24404209852218628
-1.3085256814956665,2.6449031829833984,0.24371831119060516
-1.28262197971344,2.549328088760376,0.23278090357780457
-1.31924569606781,2.5790369510650635,0.2333446443080902
-1.2994718551635742,2.497497797012329,0.2238038033246994
-1.305583119392395,2.468172073364258,0.21898771822452545
-1.318100929260254,2.452937602996826,0.2153625786304474
-1.3248754739761353,2.427384614944458,0.21086306869983673
-1.3382576704025269,2.411405324935913,0.20705364644527435
-1.351237177848816,2.3954880237579346,0.20328518748283386
-1.3591734170913696,2.3733270168304443,0.19889560341835022
-1.3903909921646118,2.391570568084717,0.19788381457328796
-1.4068520069122314,2.3822083473205566,0.1944393664598465
-1.4116816520690918,2.3524107933044434,0.18925777077674866
-1.4229073524475098,2.336799383163452,0.1851910799741745
-1.4298902750015259,2.314504623413086,0.18062663078308105
-1.4376353025436401,2.2916057109832764,0.17586950957775116
-1.4532111883163452,2.2820472717285156,0.1721029132604599
-1.4490852355957031,2.2432971000671387,0.1660616248846054
-1.4681857824325562,2.240455389022827,0.16268174350261688
-1.4838303327560425,2.230419158935547,0.15859724581241608
-1.4938308000564575,2.2146215438842773,0.15403488278388977
-1.4991453886032104,2.192436456680298,0.14904838800430298
-1.505856990814209,2.169172763824463,0.1436338573694229
-1.4907511472702026,2.118152379989624,0.13649603724479675
-1.495074987411499,2.0962436199188232,0.13130585849285126
-1.5051770210266113,2.0796759128570557,0.1260802298784256
-1.5137208700180054,2.064084053039551,0.12088104337453842
-1.5177819728851318,2.0419721603393555,0.1151503473520279
-1.485360860824585,2.095611810684204,-0.09285008162260056
-1.482605218887329,2.125925064086914,-0.09931519627571106
-1.4698288440704346,2.139270305633545,-0.10461048036813736
-1.475117564201355,2.1826300621032715,-0.11153402179479599
-1.4849989414215088,2.2321231365203857,-0.11865831911563873
-1.469017744064331,2.2424073219299316,-0.1235770583152771
-1.4478572607040405,2.2465736865997314,-0.1281440705060959
-1.435848355293274,2.26324200630188,-0.13323311507701874
-1.4254642724990845,2.283324956893921,-0.1385187804698944
-1.436927318572998,2.3401732444763184,-0.14604666829109192
-1.4080270528793335,2.330089569091797,-0.14928102493286133
-1.3953962326049805,2.346471071243286,-0.15410645306110382
-1.3897671699523926,2.376661777496338,-0.1598636955022812
-1.3839352130889893,2.4067890644073486,-0.16565270721912384
-1.3478847742080688,2.3821730613708496,-0.16748063266277313
-1.3304003477096558,2.3916890621185303,-0.17161250114440918
-1.324052095413208,2.4216012954711914,-0.17724183201789856
-1.3106731176376343,2.4374287128448486,-0.18174834549427032
-1.301923394203186,2.4638707637786865,-0.18710944056510925
-1.2909775972366333,2.4868953227996826,-0.19216597080230713
-1.276615023612976,2.5027451515197754,-0.19663481414318085
-1.2887283563613892,2.5705406665802,-0.20519855618476868
-1.2546085119247437,2.548029661178589,-0.20651642978191376
-1.2119543552398682,2.5078394412994385,-0.20635715126991272
-1.1758326292037964,2.4773313999176025,-0.2067543864250183
-1.179848313331604,2.531099796295166,-0.21416714787483215
-1.1744544506072998,2.5676071643829346,-0.22011539340019226
-1.171779751777649,2.611262321472168,-0.22675885260105133
-1.1549707651138306,2.622690200805664,-0.23057369887828827
-1.1424039602279663,2.644847869873047,-0.23538431525230408
-1.120274543762207,2.645538806915283,-0.23815329372882843
-1.093697428703308,2.6352689266204834,-0.23992496728897095
-1.1030055284500122,2.711092233657837,-0.24952909350395203
-1.1272457838058472,2.8268837928771973,-0.26298239827156067
-1.1065635681152344,2.8347246646881104,-0.26639968156814575
-1.0917418003082275,2.8568167686462402,-0.2711371183395386
-1.0688225030899048,2.8568482398986816,-0.27375707030296326
-1.0541099309921265,2.878570079803467,-0.2784591317176819
-1.044007420539856,2.9150187969207764,-0.284476637840271
-1.0175819396972656,2.90755558013916,-0.2862459719181061
-1.0019874572753906,2.9291059970855713,-0.2908155918121338
-0.9914073944091797,2.9652185440063477,-0.29684245586395264
-0.9656313061714172,2.9570529460906982,-0.2983606457710266
-0.9516371488571167,2.9857850074768066,-0.30353474617004395
-0.9311835765838623,2.9959945678710938,-0.3068960905075073
-0.9170430302619934,3.0244383811950684,-0.31207773089408875
-0.9024961590766907,3.0528416633605957,-0.3172677457332611
-0.8894429206848145,3.088759183883667,-0.323089063167572
-0.8727778792381287,3.1134095191955566,-0.32778093218803406
-0.8590737581253052,3.149167537689209,-0.33367255330085754
-0.8406233787536621,3.1699304580688477,-0.33805137872695923
-0.8259821534156799,3.2056102752685547,-0.34384965896606445
-0.8116894364356995,3.2450430393218994,-0.35002362728118896
-0.7942084670066833,3.2730813026428223,-0.3550134301185608
-0.7784942388534546,3.308513879776001,-0.36082524061203003
-0.7575685977935791,3.3250420093536377,-0.36461132764816284
-0.7424583435058594,3.3679821491241455,-0.3710483908653259
-0.7324727177619934,3.437448263168335,-0.38047704100608826
-0.7099173665046692,3.44985032081604,-0.38363730907440186
-0.6918730139732361,3.4849331378936768,-0.389350026845932
-0.6750086545944214,3.5314860343933105,-0.3962525427341461
-0.6557331681251526,3.5664734840393066,-0.40171802043914795
-0.6346476674079895,3.593712091445923,-0.4063537120819092
-0.61801677942276,3.6475744247436523,-0.4140350818634033
-0.596312940120697,3.674548387527466,-0.4187162518501282
-0.576004147529602,3.7168643474578857,-0.42490750551223755
-0.556123673915863,3.762855291366577,-0.4314945638179779
-0.5351160764694214,3.8048956394195557,-0.4376769959926605
-0.5163686275482178,3.866021156311035,-0.4460976719856262
-0.49433743953704834,3.907819986343384,-0.4522821009159088
-0.47299423813819885,3.961108684539795,-0.4594994783401489
-0.44653594493865967,3.9796295166015625,-0.46274298429489136
-0.4264553189277649,4.055804252624512,-0.4727171063423157
-0.41487324237823486,4.228415012359619,-0.4940192401409149
-0.37727090716362,4.142179489135742,-0.48494723439216614
-0.34829068183898926,4.144592761993408,-0.48600319027900696
-0.31877654790878296,4.146841049194336,-0.4870780110359192
-0.29450252652168274,4.214629173278809,-0.4958697259426117
-0.3160920739173889,5.0256667137146,-0.5923075079917908
-0.23084895312786102,4.12901496887207,-0.48719915747642517
-0.2020675092935562,4.130451679229736,-0.48780500888824463
-0.17246967554092407,4.123955249786377,-0.48750463128089905
-0.14335504174232483,4.113353729248047,-0.4867323338985443
-0.11407199501991272,4.090915203094482,-0.4845786690711975
-0.08524782955646515,4.076072692871094,-0.4829466640949249
-0.056524354964494705,4.053277969360352,-0.4803350865840912
-0.027703959494829178,4.038043022155762,-0.47864383459091187
0.00032613336225040257,4.02648401260376,-0.4774084687232971
0.018791425973176956,2.6726105213165283,-0.3169660270214081
0.036693278700113297,2.6258933544158936,-0.31126102805137634
0.0842403769493103,4.025656700134277,-0.4769529700279236
0.11045484989881516,3.962965726852417,-0.4693225026130676
0.13751167058944702,3.9349820613861084,-0.4658263027667999
0.16448715329170227,3.9262282848358154,-0.464512437582016
0.19210375845432281,3.932825803756714,-0.4647204577922821
