X,Y,Z
2.2943027019500732,4.619515419006348,0.7137419581413269
2.259965181350708,4.6351637840271,0.7217971682548523
2.229952096939087,4.657037734985352,0.7306897044181824
2.196751356124878,4.671594619750977,0.7382984161376953
2.161884307861328,4.686678886413574,0.7455822825431824
2.1333248615264893,4.71556282043457,0.7551118731498718
2.0927927494049072,4.715643882751465,0.7599464654922485
2.0657131671905518,4.743319511413574,0.7691249847412109
2.003906488418579,4.693129062652588,0.7655812501907349
1.741145372390747,4.16160774230957,0.6825277805328369
1.7074666023254395,4.166270732879639,0.6869655847549438
1.677308201789856,4.1775970458984375,0.6924581527709961
1.6507165431976318,4.19558572769165,0.6989983320236206
1.6204630136489868,4.2064666748046875,0.7043725252151489
1.5922749042510986,4.224638938903809,0.7105221748352051
1.5639467239379883,4.24260139465332,0.7166813015937805
1.543534278869629,4.282057762145996,0.7265114188194275
1.5057594776153564,4.270148754119873,0.7275592684745789
1.4802567958831787,4.294551372528076,0.7348808646202087
1.4491677284240723,4.304388046264648,0.7392775416374207
1.420236587524414,4.3213982582092285,0.7448371052742004
1.3923099040985107,4.341878890991211,0.7510454058647156
1.3580412864685059,4.339878559112549,0.753337025642395
1.3225711584091187,4.333974838256836,0.7549883723258972
1.3018566370010376,4.375725746154785,0.7648307681083679
1.2723872661590576,4.391764163970947,0.7698050141334534
1.2447985410690308,4.415025234222412,0.7760998010635376
1.2108741998672485,4.415814399719238,0.778485119342804
1.1858543157577515,4.4458818435668945,0.786014199256897
1.154213786125183,4.453555107116699,0.7896672487258911
1.1245646476745605,4.468473434448242,0.7943729162216187
1.0942822694778442,4.483361721038818,0.7987897396087646
1.0621193647384644,4.490540027618408,0.8018743395805359
1.0316272974014282,4.504988193511963,0.8063014149665833
1.0038145780563354,4.530426025390625,0.8127279877662659
0.972144603729248,4.536784648895264,0.8157514929771423
0.9378305673599243,4.531718730926514,0.8164891004562378
0.7677718997001648,3.8475451469421387,0.6943820714950562
0.7381227612495422,3.841215133666992,0.6944336295127869
0.8478696942329407,4.591087818145752,0.831487238407135
0.8212193250656128,4.626734256744385,0.839424729347229
0.7889979481697083,4.631892681121826,0.8418787717819214
0.7589856386184692,4.652075290679932,0.8469102382659912
0.7289520502090454,4.675985336303711,0.8522711396217346
0.6975352764129639,4.695967674255371,0.8569830656051636
0.6642360091209412,4.70044469833374,0.8588958978652954
0.6334190368652344,4.7198638916015625,0.8635697960853577
0.6014458537101746,4.731447219848633,0.8668557405471802
0.5693567395210266,4.74282169342041,0.870087742805481
0.5384538769721985,4.7693963050842285,0.8755870461463928
0.5054590106010437,4.784355640411377,0.8790130615234375
0.473188191652298,4.802860260009766,0.8831280469894409
0.4395497739315033,4.805817127227783,0.8844241499900818
0.4079934060573578,4.831496238708496,0.8899452090263367
0.3755071461200714,4.84930419921875,0.8940660357475281
0.34199652075767517,4.867032051086426,0.8977399468421936
0.309576153755188,4.896019458770752,0.903384268283844
0.2752024829387665,4.897943496704102,0.904081404209137
0.2420036494731903,4.922644138336182,0.9090286493301392
0.20815694332122803,4.931753158569336,0.9111393094062805
0.17380042374134064,4.948327541351318,0.9146848320960999
0.13984601199626923,4.964687824249268,0.9179900884628296
0.1056290790438652,4.984727382659912,0.9216296076774597
0.0711410865187645,5.000688552856445,0.9245595932006836
0.036490973085165024,5.03177547454834,0.9303308725357056
0.0008362439693883061,5.031890392303467,0.9304229021072388
-0.03424340486526489,5.047122001647949,0.9333543181419373
-0.06969302892684937,5.0736308097839355,0.9384174942970276
-0.105596162378788,5.10383939743042,0.943594217300415
-0.14058806002140045,5.087725639343262,0.9402090907096863
-0.17695440351963043,5.117440700531006,0.9453375339508057
-0.21315419673919678,5.116163730621338,0.9447783827781677
-0.24989019334316254,5.137679100036621,0.9484782814979553
-0.2870914340019226,5.162769317626953,0.9528820514678955
-0.27230310440063477,4.351799488067627,0.8027728796005249
-0.2989513576030731,4.300173282623291,0.7925782799720764
-0.32918643951416016,4.298151969909668,0.7915623188018799
-0.3614875376224518,4.326585292816162,0.7961992025375366
-0.3880583941936493,4.285890102386475,0.7881518006324768
-0.4130098223686218,4.233555316925049,0.7780122756958008
-0.4368323087692261,4.17726469039917,0.7671595811843872
-0.4604998528957367,4.124734878540039,0.756539523601532
-0.48436206579208374,4.0835723876953125,0.7480762600898743
-0.5091161131858826,4.053712844848633,0.7417333722114563
-0.5280129909515381,3.9817795753479004,0.7277444005012512
-0.5520064830780029,3.951620578765869,0.7214386463165283
-0.5721710920333862,3.8946290016174316,0.7102718949317932
-0.5936871767044067,3.856720209121704,0.702304482460022
-0.6128015518188477,3.8073437213897705,0.6921610236167908
-0.6350473165512085,3.7806382179260254,0.6861939430236816
-0.6537228226661682,3.7348504066467285,0.6768108010292053
-0.6756075620651245,3.707834243774414,0.6708651185035706
-0.6940472722053528,3.6617114543914795,0.6614943742752075
-0.7119262218475342,3.6194419860839844,0.6527017951011658
-0.7320387959480286,3.592273712158203,0.6464189887046814
-0.7446681261062622,3.531114101409912,0.6340798139572144
-0.7589545249938965,3.4812164306640625,0.6238307356834412
-0.7869760394096375,3.491166353225708,0.6243016123771667
-0.8034611344337463,3.4522476196289062,0.6160906553268433
-0.827351450920105,3.447003126144409,0.6138306260108948
-0.8397139310836792,3.3969032764434814,0.6033040285110474
-0.8551943898200989,3.361715793609619,0.595491349697113
-0.8735761046409607,3.3375403881073,0.589651346206665
-0.888696014881134,3.3021013736724854,0.5818698406219482
-0.9034683704376221,3.2665786743164062,0.5741220712661743
-0.9261196851730347,3.260681629180908,0.5715457201004028
-0.9427874088287354,3.2363438606262207,0.5654578804969788
-0.9584554433822632,3.208122491836548,0.5587084293365479
-0.9711359143257141,3.1725714206695557,0.5507692098617554
-0.9862580299377441,3.1441738605499268,0.544079601764679
-0.9952303767204285,3.0973334312438965,0.5342522263526917
-1.0142199993133545,3.0835556983947754,0.5300693511962891
-1.0279996395111084,3.055138111114502,0.5231203436851501
-1.0410802364349365,3.026780128479004,0.5162702202796936
-1.0615565776824951,3.020188808441162,0.5131650567054749
-1.0735971927642822,2.9877970218658447,0.505646288394928
-1.0945444107055664,2.980726718902588,0.502454936504364
-1.1013776063919067,2.9375970363616943,0.49302786588668823
-1.1160228252410889,2.9161269664764404,0.48711809515953064
-1.1202423572540283,2.869542360305786,0.4771187901496887
-1.1313713788986206,2.84082293510437,0.4701194167137146
-1.1483432054519653,2.8262455463409424,0.46546295285224915
-1.1562094688415527,2.7901957035064697,0.4572784900665283
-1.1301329135894775,2.676096200942993,0.4361357092857361
-1.126703143119812,2.6193346977233887,0.4245384931564331
-1.1505411863327026,2.6264021396636963,0.42332834005355835
-1.1627041101455688,2.604708194732666,0.41739895939826965
-1.1810181140899658,2.5970394611358643,0.4137510657310486
-1.2020153999328613,2.596534490585327,0.41095083951950073
-1.2490193843841553,2.6520256996154785,0.4169667661190033
-1.2566858530044556,2.6233136653900146,0.40972182154655457
-1.2684154510498047,2.6011056900024414,0.40339159965515137
-1.276450753211975,2.5719189643859863,0.39603742957115173
-1.3149445056915283,2.605257511138916,0.3980197608470917
-1.3252369165420532,2.58331036567688,0.3915657699108124
-1.312186360359192,2.516616106033325,0.37840405106544495
-1.3153387308120728,2.480624198913574,0.36985015869140625
-1.325240135192871,2.458420991897583,0.36338526010513306
-1.3339855670928955,2.436704635620117,0.35683271288871765
-1.3427927494049072,2.4148147106170654,0.3502465784549713
-1.3574645519256592,2.402827024459839,0.3450561463832855
-1.3706096410751343,2.3871095180511475,0.3392547369003296
-1.374996542930603,2.358388662338257,0.331494003534317
-1.3865902423858643,2.3432717323303223,0.32563433051109314
-1.394637107849121,2.3211121559143066,0.3186990022659302
-1.4110151529312134,2.311908721923828,0.31346049904823303
-1.4389145374298096,2.3228037357330322,0.31081879138946533
-1.4457792043685913,2.3009324073791504,0.30370840430259705
-1.4653111696243286,2.2984790802001953,0.29908087849617004
-1.460768699645996,2.256000280380249,0.288967490196228
-1.475801944732666,2.246934175491333,0.283161461353302
-1.483893871307373,2.2283356189727783,0.27612853050231934
-1.494834303855896,2.212393045425415,0.26919031143188477
-1.4795637130737305,2.1577186584472656,0.25746601819992065
-1.484799861907959,2.1359565258026123,0.2495945394039154
-1.4989278316497803,2.1268093585968018,0.2431786060333252
-1.5049675703048706,2.1042158603668213,0.23487722873687744
-1.5183634757995605,2.095329761505127,0.22799958288669586
-1.5158802270889282,2.064178466796875,0.2185893952846527
-1.5304827690124512,2.0541775226593018,0.21091094613075256
-1.4926230907440186,2.1079230308532715,-0.1257377713918686
-1.5056841373443604,2.1602272987365723,-0.1364508867263794
-1.5027589797973633,2.190183401107788,-0.1457507312297821
-1.4649384021759033,2.1682252883911133,-0.1512821614742279
-1.4700217247009277,2.2112154960632324,-0.16122429072856903
-1.4667412042617798,2.240854024887085,-0.17005561292171478
-1.4567773342132568,2.260707378387451,-0.1780749261379242
-1.4396729469299316,2.2710535526275635,-0.18538403511047363
-1.431275486946106,2.2941577434539795,-0.19357794523239136
-1.4187837839126587,2.3104636669158936,-0.20102496445178986
-1.3974909782409668,2.31370210647583,-0.207326740026474
-1.3966411352157593,2.3499209880828857,-0.2164621502161026
-1.3955116271972656,2.3861265182495117,-0.22561690211296082
-1.3618937730789185,2.3689727783203125,-0.22979521751403809
-1.3368875980377197,2.364673137664795,-0.23493462800979614
-1.3315154314041138,2.3938262462615967,-0.24323388934135437
-1.3065357208251953,2.389190435409546,-0.24807345867156982
-1.2778759002685547,2.377530813217163,-0.2521163523197174
-1.251570463180542,2.3688690662384033,-0.2563173770904541
-1.2310073375701904,2.370222806930542,-0.2614210247993469
-1.2189133167266846,2.3889167308807373,-0.26839613914489746
-1.2154872417449951,2.4248321056365967,-0.2773493230342865
-1.2017686367034912,2.4396700859069824,-0.2838461399078369
-1.1872130632400513,2.454744815826416,-0.29042184352874756
-1.1859543323516846,2.4977385997772217,-0.30027568340301514
-1.182849407196045,2.537137985229492,-0.3097453713417053
-1.1746528148651123,2.565892457962036,-0.3179611265659332
-1.1593273878097534,2.580674886703491,-0.32438188791275024
-1.1766270399093628,2.669949769973755,-0.3403274416923523
-1.1188021898269653,2.588644027709961,-0.33453887701034546
-1.1125869750976562,2.6243507862091064,-0.34367555379867554
-1.141228437423706,2.746190071105957,-0.3641631305217743
-1.160826325416565,2.8505630493164062,-0.382703959941864
-1.2540693283081055,3.1423215866088867,-0.4269525408744812
-1.2498271465301514,3.197300434112549,-0.4396476447582245
-1.2475993633270264,3.259634494781494,-0.4531857967376709
-1.23774254322052,3.3039276599884033,-0.4643767178058624
-1.224985122680664,3.3408327102661133,-0.47458013892173767
-1.2014521360397339,3.3484997749328613,-0.4806664288043976
-1.1861058473587036,3.3818345069885254,-0.4902983605861664
-1.171958327293396,3.418651819229126,-0.5004292726516724
-1.1526565551757812,3.4406728744506836,-0.5084362626075745
-1.130820631980896,3.455185890197754,-0.5153647065162659
-1.0968223810195923,3.4328315258026123,-0.5165256261825562
-1.0569554567337036,3.391873598098755,-0.5147973895072937
-1.0115721225738525,3.3281924724578857,-0.50938880443573
-0.9706557393074036,3.275125503540039,-0.505424439907074
-0.935764729976654,3.2402961254119873,-0.503976047039032
-0.8939788341522217,3.1791815757751465,-0.49816009402275085
-0.8602625727653503,3.143733024597168,-0.4962616264820099
-0.8239015936851501,3.0968375205993652,-0.4925073981285095
-0.7818111181259155,3.023386240005493,-0.48424533009529114
-0.7500573396682739,2.9870386123657227,-0.4815317392349243
-0.7179429531097412,2.94665789604187,-0.47810235619544983
-0.6928238868713379,2.932234287261963,-0.4788150489330292
-0.6633060574531555,2.898874044418335,-0.47644999623298645
-0.6328827142715454,2.857739210128784,-0.4723167419433594
-0.6070986986160278,2.835193395614624,-0.47118622064590454
-0.5809252262115479,2.8086509704589844,-0.46935713291168213
-0.5529763102531433,2.770535945892334,-0.46553996205329895
-0.5273576378822327,2.743642807006836,-0.4633781909942627
-0.5052458643913269,2.731672525405884,-0.4635046422481537
-0.4820218086242676,2.711937665939331,-0.4623018503189087
-0.4611460864543915,2.7033934593200684,-0.462990403175354
-0.438556969165802,2.6833009719848633,-0.46162116527557373
-0.4111259877681732,2.6327075958251953,-0.4546557664871216
-0.38759472966194153,2.600874423980713,-0.45086485147476196
-0.36943668127059937,2.6031482219696045,-0.452982097864151
-0.3492082953453064,2.5900356769561768,-0.4524337947368622
-0.32721102237701416,2.5615594387054443,-0.4488641023635864
-0.30746015906333923,2.548210382461548,-0.4478393495082855
-0.28933238983154297,2.550036668777466,-0.449519544839859
-0.27155017852783203,2.5517008304595947,-0.451166570186615
-0.25298643112182617,2.545610189437866,-0.45131367444992065
-0.2366398423910141,2.562417984008789,-0.45525190234184265
-0.21514639258384705,2.521635055541992,-0.44897109270095825
-0.1948637068271637,2.492205858230591,-0.444720983505249
-0.17861157655715942,2.5086328983306885,-0.44865092635154724
-0.16211827099323273,2.525022268295288,-0.45220252871513367
-0.14582210779190063,2.548987627029419,-0.45709583163261414
-0.12827500700950623,2.553642988204956,-0.4585535526275635
-0.109046071767807,2.5274581909179688,-0.4545005261898041
-0.09173079580068588,2.535738229751587,-0.4564487636089325
-0.07409317791461945,2.5362565517425537,-0.4567718207836151
-0.0562620535492897,2.528966188430786,-0.4557100534439087
-0.0387907512485981,2.536925792694092,-0.45741820335388184
-0.020989419892430305,2.556297540664673,-0.4612148106098175
-0.0032071571331471205,2.5564043521881104,-0.46109098196029663
0.014575616456568241,2.5563876628875732,-0.46096357703208923
0.03274727240204811,2.5869994163513184,-0.4663800597190857
0.05074232444167137,2.5867321491241455,-0.4662511348724365
0.06850789487361908,2.5786967277526855,-0.4645021855831146
0.0867602676153183,2.578254222869873,-0.46390849351882935
0.10624916851520538,2.6161088943481445,-0.47023019194602966
0.12791331112384796,2.6883833408355713,-0.48274120688438416
0.14702634513378143,2.6952219009399414,-0.4834817349910736
0.16528183221817017,2.686652660369873,-0.4810267984867096
0.18770736455917358,2.735487937927246,-0.48884284496307373
0.2072964757680893,2.741982936859131,-0.48911330103874207
0.22953911125659943,2.779001474380493,-0.4948365092277527
0.24885685741901398,2.777587413787842,-0.4934363067150116
0.27035248279571533,2.7990481853485107,-0.4959242045879364
0.2921333312988281,2.8164870738983154,-0.4976789355278015
0.31511473655700684,2.845264434814453,-0.5014604330062866
0.3349251449108124,2.8433003425598145,-0.49975818395614624
0.36134111881256104,2.8947370052337646,-0.5070325136184692
0.3890134394168854,2.9497668743133545,-0.514891505241394
0.4178410470485687,3.004517078399658,-0.5226263403892517
0.44657382369041443,3.055250644683838,-0.5296498537063599
0.4678182601928711,3.052520990371704,-0.5270455479621887
0.5042709708213806,3.1447317600250244,-0.5406489372253418
0.5343931317329407,3.1910195350646973,-0.5462772250175476
0.5646201372146606,3.233240842819214,-0.5511562824249268
0.6020461320877075,3.3092854022979736,-0.5615485310554504
0.6314986348152161,3.3396849632263184,-0.5638180375099182
0.6665986180305481,3.3963167667388916,-0.5704618692398071
0.6987523436546326,3.433734893798828,-0.5738090872764587
0.7394375801086426,3.5086004734039307,-0.583335816860199
0.7782348394393921,3.5680277347564697,-0.5897035598754883
0.8216581344604492,3.6460189819335938,-0.599025309085846
0.8733083009719849,3.753638982772827,-0.6130369305610657
0.9292886257171631,3.8719863891601562,-0.6285872459411621
0.9933491349220276,4.016059398651123,-0.6478255391120911
1.0494041442871094,4.118279933929443,-0.659724235534668
1.0887831449508667,4.152847766876221,-0.660735547542572
1.1470736265182495,4.254117965698242,-0.6721838712692261
1.2005738019943237,4.3325066566467285,-0.6797671914100647
1.224318027496338,4.302761554718018,-0.6699055433273315
1.247169017791748,4.269027233123779,-0.6594187021255493
1.2725778818130493,4.246366024017334,-0.6507859826087952
1.306875228881836,4.253086090087891,-0.6466771960258484
1.3294181823730469,4.222798824310303,-0.6366073489189148
1.343237280845642,4.166647911071777,-0.622687578201294
1.1472163200378418,3.4748189449310303,-0.5146471261978149
1.171622395515442,3.467503547668457,-0.508974015712738
1.193221926689148,3.452796459197998,-0.5020710229873657
1.2209930419921875,3.4562556743621826,-0.49768689274787903
1.2410286664962769,3.4376258850097656,-0.4901356101036072
1.2651584148406982,3.4296774864196777,-0.4840899705886841
1.2867785692214966,3.4142260551452637,-0.4768255650997162
1.3131219148635864,3.413360357284546,-0.47152671217918396
1.33101487159729,3.3906447887420654,-0.46324285864830017
1.3490910530090332,3.367668390274048,-0.4548930823802948
1.3814411163330078,3.3805325031280518,-0.45135337114334106
1.4051254987716675,3.3716514110565186,-0.444622278213501
1.4222543239593506,3.348479986190796,-0.43615221977233887
1.4488927125930786,3.346369504928589,-0.43033525347709656
1.489616870880127,3.3760170936584473,-0.4285052716732025
1.5048497915267944,3.348872423171997,-0.41930049657821655
1.5395970344543457,3.3638319969177246,-0.4152645468711853
1.5533677339553833,3.332688331604004,-0.4055338501930237
1.586662769317627,3.3436431884765625,-0.40089958906173706
1.5909379720687866,3.2950963973999023,-0.3890458941459656
1.6066070795059204,3.271027088165283,-0.3801967203617096
1.6195859909057617,3.2394425868988037,-0.37027519941329956
2.2904741764068604,4.503871917724609,-0.5061789155006409
2.3318190574645996,4.510040760040283,-0.49808597564697266
1.7240793704986572,3.280111312866211,-0.3557952344417572
1.7270441055297852,3.2309694290161133,-0.3438832461833954
1.7418917417526245,3.20611834526062,-0.33462363481521606
1.7207854986190796,3.116472005844116,-0.31865113973617554
1.7499662637710571,3.1188313961029053,-0.31222715973854065
1.8047088384628296,3.1646728515625,-0.30989623069763184
1.324649453163147,2.2874228954315186,-0.21892529726028442
0.9394142031669617,1.5976455211639404,-0.14934925734996796
0.9548637270927429,1.597947359085083,-0.1455632448196411
0.9617945551872253,1.5850708484649658,-0.14063124358654022
0.9826233983039856,1.595545768737793,-0.13774603605270386
0.9895151853561401,1.582480549812317,-0.13268880546092987
1.0088649988174438,1.5890904664993286,-0.1291927844285965
1.0111392736434937,1.5695018768310547,-0.12350409477949142
1.0196878910064697,1.5596671104431152,-0.11859270185232162
1.0305920839309692,1.5528439283370972,-0.11377523094415665
1.023393154144287,1.5204764604568481,-0.10716363042593002
1.0622578859329224,1.5557178258895874,-0.10515791177749634
2.5574445724487305,3.69020938873291,-0.238097682595253
2.585872173309326,3.680656909942627,-0.22627723217010498
2.606403112411499,3.6573386192321777,-0.2130567580461502
2.587616205215454,3.5803046226501465,-0.19657012820243835
2.631315231323242,3.5926365852355957,-0.1851232349872589
2.689173698425293,3.6185696125030518,-0.17292626202106476
2.6480395793914795,3.723179817199707,0.39577943086624146
2.6076712608337402,3.7217533588409424,0.40621450543403625
2.5834755897521973,3.7466909885406494,0.4191862642765045
1.0542523860931396,1.5545248985290527,0.17807921767234802
1.0647969245910645,1.59377121925354,0.186371847987175
1.0441988706588745,1.5882307291030884,0.18939125537872314
1.0315673351287842,1.5959126949310303,0.1939816176891327
1.020025372505188,1.6028035879135132,0.19815532863140106
1.000032663345337,1.5965420007705688,0.20059020817279816
0.991732120513916,1.6103330850601196,0.205442875623703
0.9836262464523315,1.62388014793396,0.2102140486240387
0.9639329314231873,1.6171081066131592,0.21223406493663788
0.9439733028411865,1.6103965044021606,0.21407070755958557
1.3480650186538696,2.339905023574829,0.31490835547447205
1.8222655057907104,3.2164740562438965,0.43796393275260925
1.7597967386245728,3.157261848449707,0.4346994459629059
1.7582074403762817,3.2104198932647705,0.44673097133636475
1.7724287509918213,3.2944533824920654,0.46307647228240967
1.768070101737976,3.34421706199646,0.4746534526348114
2.375339984893799,4.569465637207031,0.6545542478561401
2.338554620742798,4.578543663024902,0.6616232395172119
2.3035662174224854,4.595085620880127,0.6696372032165527
2.2759079933166504,4.6249680519104,0.6795520186424255
2.2432332038879395,4.639810085296631,0.686983048915863
2.2071361541748047,4.647417068481445,0.6933691501617432
2.182431936264038,4.683646202087402,0.7035953402519226
2.1443605422973633,4.691627502441406,0.7095922827720642
2.1156580448150635,4.7205328941345215,0.7188174724578857
2.082364797592163,4.7342915534973145,0.7255202531814575
2.0365591049194336,4.719476699829102,0.7277800440788269
1.7682138681411743,4.181364059448242,0.6484132409095764
1.7195465564727783,4.150581359863281,0.6472416520118713
1.6888307332992554,4.162321090698242,0.6527036428451538
1.6680957078933716,4.19482421875,0.6612972021102905
1.632921814918518,4.191236972808838,0.6642071604728699
1.6021597385406494,4.202330589294434,0.6690092086791992
1.579460859298706,4.234897136688232,0.6772773861885071
1.5480223894119263,4.245708465576172,0.6821593046188354
1.5234085321426392,4.270264148712158,0.6891239881515503
1.488348126411438,4.265507698059082,0.6913918852806091
1.4675463438034058,4.304656505584717,0.7004415392875671
1.4337797164916992,4.307198524475098,0.7034578323364258
1.4018813371658325,4.316986560821533,0.7077373266220093
1.3759090900421143,4.340857982635498,0.7142595648765564
1.345452904701233,4.349724292755127,0.7183279395103455
1.3158814907073975,4.362136363983154,0.7229019403457642
1.29300856590271,4.400545120239258,0.7314394116401672
1.2612075805664062,4.4091596603393555,0.7350744605064392
1.2267396450042725,4.410251617431641,0.7375280261039734
1.1978862285614014,4.4255781173706055,0.7422915101051331
1.170885682106018,4.44815731048584,0.7483158707618713
1.1431667804718018,4.47072696685791,0.7541220188140869
1.1073331832885742,4.463338851928711,0.7546362280845642
1.0837150812149048,4.5082597732543945,0.7640746831893921
1.048073172569275,4.500337600708008,0.7645607590675354
1.0183463096618652,4.514554500579834,0.7688049077987671
0.9884239435195923,4.528581142425537,0.7730630040168762
0.9563981890678406,4.534997463226318,0.7757299542427063
0.7806803584098816,3.839231491088867,0.6579042077064514
0.7503301501274109,3.8292229175567627,0.657383382320404
0.7231404185295105,3.834097146987915,0.6594406962394714
0.8359705209732056,4.607949256896973,0.7940138578414917
0.8051243424415588,4.620838165283203,0.7977518439292908
0.7745490670204163,4.641302108764648,0.80255526304245
0.7428544759750366,4.6539506912231445,0.8057706952095032
0.7115483283996582,4.670193672180176,0.8096548914909363
0.6795470714569092,4.682407379150391,0.8128839731216431
0.6500765681266785,4.709580898284912,0.818738579750061
0.6176435947418213,4.721374034881592,0.8219888806343079
0.5864837765693665,4.740567207336426,0.8263335824012756
0.5529887676239014,4.744357109069824,0.827675998210907
0.5220336318016052,4.770860195159912,0.8330245018005371
0.4902874827384949,4.7933349609375,0.8377187252044678
0.45685040950775146,4.796403408050537,0.8390559554100037
0.42483821511268616,4.822285175323486,0.8444439172744751
0.39309558272361755,4.847916126251221,0.8497591018676758
0.35963523387908936,4.858096599578857,0.8518685698509216
0.32656562328338623,4.875722885131836,0.8553274869918823
0.29275161027908325,4.885443687438965,0.8574441075325012
0.258638858795166,4.8987908363342285,0.860246479511261
0.2256443053483963,4.923396110534668,0.8650611639022827
0.1916675865650177,4.932401180267334,0.8671807646751404
0.15803048014640808,4.956633567810059,0.8715539574623108
0.12397990375757217,4.980662822723389,0.8757851123809814
0.08883760869503021,4.992925643920898,0.8779914975166321
0.054266639053821564,5.016475200653076,0.8822253346443176
0.019424501806497574,5.024394512176514,0.8837534189224243
-0.015596329234540462,5.055154800415039,0.8893429040908813
-0.05080106854438782,5.06262731552124,0.8906437158584595
-0.08658205717802048,5.062222003936768,0.890191376209259
-0.12238669395446777,5.088499546051025,0.8944796919822693
-0.15796440839767456,5.095296382904053,0.8953844308853149
-0.19422611594200134,5.117222785949707,0.8989894986152649
-0.2304547131061554,5.131203651428223,0.901240348815918
-0.2672855854034424,5.152613162994385,0.904837965965271
-0.3051556348800659,5.177675724029541,0.9084927439689636
-0.28528258204460144,4.330943584442139,0.7593282461166382
-0.31128883361816406,4.275296688079834,0.7490208745002747
-0.3433661162853241,4.303878307342529,0.7535074353218079
-0.37528520822525024,4.3245463371276855,0.756636917591095
-0.3994026482105255,4.2529754638671875,0.743661642074585
-0.42532193660736084,4.21585750579834,0.7364556789398193
-0.44815829396247864,4.155669212341309,0.7250670790672302
-0.4741370677947998,4.129776954650879,0.7197133898735046
-0.4946616291999817,4.0616912841796875,0.7070580124855042
-0.5184634327888489,4.020148754119873,0.6990566253662109
-0.541221559047699,3.9785315990448,0.6911036968231201
-0.5616899132728577,3.9253907203674316,0.6810735464096069
-0.5863191485404968,3.906517505645752,0.676692008972168
-0.602947473526001,3.8380391597747803,0.6637716889381409
-0.6209858059883118,3.780839681625366,0.6528480648994446
-0.6426469087600708,3.750164747238159,0.6465638875961304
-0.664669930934906,3.7231454849243164,0.6409510970115662
-0.684979259967804,3.68841814994812,0.6340522170066833
-0.7021336555480957,3.642406463623047,0.6248283982276917
-0.7194465398788452,3.6001031398773193,0.616298258304596
-0.7374498248100281,3.5614113807678223,0.6084175109863281
-0.755569338798523,3.526442527770996,0.6012337803840637
-0.7735010385513306,3.491333484649658,0.594062864780426
-0.7918761372566223,3.4598894119262695,0.5875616073608398
-0.8119933009147644,3.4397823810577393,0.5826760530471802
-0.8321809768676758,3.419499158859253,0.5777144432067871
-0.8480245471000671,3.384221315383911,0.5702892541885376
-0.8626360893249512,3.345104455947876,0.5622602701187134
-0.8780130743980408,3.3095970153808594,0.5548750162124634
-0.8969957232475281,3.2889130115509033,0.5500208735466003
-0.9176893830299377,3.27563738822937,0.5460995435714722
-0.9281473159790039,3.2290101051330566,0.5366353988647461
-0.9500457048416138,3.223076820373535,0.5339776873588562
-0.9677014946937561,3.20214581489563,0.5288479924201965
-0.9786166548728943,3.158900260925293,0.5200585126876831
-0.9986976385116577,3.1449618339538574,0.516114354133606
-1.0092062950134277,3.105587959289551,0.5077259540557861
-1.0204540491104126,3.0698671340942383,0.49998313188552856
-1.036204218864441,3.0487570762634277,0.4946728050708771
-1.0509514808654785,3.0237576961517334,0.488728791475296
-1.0721025466918945,3.0168099403381348,0.48571640253067017
-1.0854564905166626,2.9878904819488525,0.4790767729282379
-1.1002076864242554,2.966538190841675,0.47349128127098083
-1.1174547672271729,2.9523427486419678,0.4690853953361511
-1.1318857669830322,2.9307942390441895,0.46353641152381897
-1.1254712343215942,2.8550002574920654,0.449420690536499
-1.1400099992752075,2.833089590072632,0.4438370168209076
-1.1503674983978271,2.8043837547302246,0.4370265603065491
-1.1437863111495972,2.7365007400512695,0.4241393506526947
-1.1454613208770752,2.69014835357666,0.41468948125839233
-1.1456457376480103,2.6400797367095947,0.40467697381973267
-1.1582250595092773,2.6182119846343994,0.3989914357662201
-1.1793190240859985,2.6178112030029297,0.39649832248687744
-1.2000263929367065,2.6174557209014893,0.3938930630683899
-1.2273480892181396,2.63096022605896,0.39336061477661133
-1.2488056421279907,2.6299889087677,0.39057525992393494
-1.2608259916305542,2.6076412200927734,0.38454997539520264
-1.2683565616607666,2.5786993503570557,0.3775193989276886
-1.2785165309906006,2.5569536685943604,0.3714725375175476
-1.290217399597168,2.5386197566986084,0.36596155166625977
-1.3042881488800049,2.5232999324798584,0.36078906059265137
-1.3112564086914062,2.494046211242676,0.353629469871521
-1.3210525512695312,2.4719231128692627,0.34731525182724
-1.337445855140686,2.4636991024017334,0.34298092126846313
-1.3352088928222656,2.421323776245117,0.3339223861694336
-1.3522469997406006,2.412473678588867,0.3293849527835846
-1.3593205213546753,2.386817455291748,0.3225405812263489
-1.3791533708572388,2.3850176334381104,0.3187192678451538
-1.3790839910507202,2.3497421741485596,0.31053298711776733
-1.395503044128418,2.3406729698181152,0.3056369125843048
-1.399935007095337,2.311475992202759,0.29809871315956116
-1.427258849143982,2.3227450847625732,0.2956007122993469
-1.4427471160888672,2.3138110637664795,0.29043471813201904
-1.4276728630065918,2.2551300525665283,0.27895188331604004
-1.458081841468811,2.268656015396118,0.2763689458370209
-1.4451918601989746,2.217475414276123,0.26580771803855896
-1.478926658630371,2.2378287315368652,0.2638334333896637
-1.4928210973739624,2.2246105670928955,0.2574104368686676
-1.4770152568817139,2.1702587604522705,0.24634823203086853
-1.4820683002471924,2.148592948913574,0.23906897008419037
-1.5235589742660522,2.177304983139038,0.2369975596666336
-1.497986912727356,2.110337495803833,0.2243414968252182
-1.5002647638320923,2.085474729537964,0.21616797149181366
-1.5144163370132446,2.0759196281433105,0.2093541920185089
-1.5239228010177612,2.0599820613861084,0.2015911191701889
-1.5051957368850708,2.1090340614318848,-0.11790281534194946
-1.4913017749786377,2.1231939792633057,-0.12603217363357544
-1.4755936861038208,2.1336774826049805,-0.13364695012569427
-1.499574065208435,2.2019031047821045,-0.14476720988750458
-1.478409767150879,2.2062814235687256,-0.15184642374515533
-1.462612509727478,2.2162928581237793,-0.1588754653930664
-1.4629342555999756,2.252840518951416,-0.16793064773082733
-1.44169282913208,2.2567124366760254,-0.17449097335338593
-1.4485713243484497,2.302593946456909,-0.18397212028503418
-1.4152425527572632,2.286104202270508,-0.18848194181919098
-1.4183918237686157,2.329333543777466,-0.19793112576007843
-1.3975236415863037,2.332277774810791,-0.20384179055690765
-1.3923722505569458,2.3619604110717773,-0.21199670433998108
-1.3786627054214478,2.378413677215576,-0.21901486814022064
-1.3538846969604492,2.37412166595459,-0.2239094078540802
-1.344571828842163,2.3967015743255615,-0.23125210404396057
-1.326587200164795,2.4061031341552734,-0.2374088615179062
-1.3053553104400635,2.40824556350708,-0.24269361793994904
-1.277337908744812,2.396217107772827,-0.2463615983724594
-1.2635014057159424,2.411736488342285,-0.2527810335159302
-1.2279821634292603,2.3857603073120117,-0.254788339138031
-1.2211655378341675,2.414827585220337,-0.2626093924045563
-1.2074832916259766,2.4297871589660645,-0.26881644129753113
-1.203360915184021,2.4658730030059814,-0.27734827995300293
-1.1920888423919678,2.487971305847168,-0.28439009189605713
-1.1828025579452515,2.513275146484375,-0.29172155261039734
-1.1811871528625488,2.5562667846679688,-0.30115970969200134
-1.1799417734146118,2.6031746864318848,-0.3111981749534607
-1.1611521244049072,2.6109676361083984,-0.31654226779937744
-1.167587399482727,2.6753625869750977,-0.328756183385849
-1.1225507259368896,2.622304677963257,-0.3264617323875427
-1.1051075458526611,2.633277177810669,-0.33198437094688416
-1.0947303771972656,2.6621413230895996,-0.3398652672767639
-1.0817588567733765,2.6835317611694336,-0.3467206358909607
-1.0740478038787842,2.7193684577941895,-0.3554205000400543
-1.10761296749115,2.8637800216674805,-0.3784806430339813
-1.2188724279403687,3.218942642211914,-0.43009835481643677
-1.2092396020889282,3.2631609439849854,-0.4407583177089691
-1.2058950662612915,3.325526714324951,-0.45380792021751404
-1.196291208267212,3.373478412628174,-0.46488454937934875
-1.1772549152374268,3.3957955837249756,-0.4725118577480316
-1.163283348083496,3.4325578212738037,-0.48216500878334045
-1.1483583450317383,3.469430685043335,-0.49191367626190186
-1.118798017501831,3.462052583694458,-0.4951239824295044
-1.1045563220977783,3.5024001598358154,-0.5052032470703125
-1.0959091186523438,3.561068296432495,-0.517981231212616
-1.0598441362380981,3.5308265686035156,-0.5178468227386475
-1.032636046409607,3.5301008224487305,-0.5216459631919861
-0.9997653365135193,3.510679244995117,-0.5227384567260742
-0.9605534672737122,3.464756488800049,-0.5197365880012512
-0.9251349568367004,3.4296505451202393,-0.5182673335075378
-0.8851782083511353,3.375629425048828,-0.5135559439659119
-0.8507147431373596,3.3399932384490967,-0.5114666819572449
-0.8118879199028015,3.285360336303711,-0.5064321756362915
-0.7862156629562378,3.2790610790252686,-0.5087125301361084
-0.7527254223823547,3.2387523651123047,-0.505516767501831
-0.7171860933303833,3.1869099140167236,-0.5002081990242004
-0.6848775148391724,3.1460630893707275,-0.4965611696243286
-0.6592938899993896,3.1351964473724365,-0.49764835834503174
-0.6258355975151062,3.0824573040008545,-0.49199211597442627
-0.5974727869033813,3.052232503890991,-0.4894508421421051
-0.5717095732688904,3.033144950866699,-0.48867711424827576
-0.5435621738433838,2.9986572265625,-0.4853927493095398
-0.5162875652313232,2.967780113220215,-0.48269471526145935
-0.4929293096065521,2.9556989669799805,-0.4827406704425812
-0.4685314893722534,2.9358532428741455,-0.4813462793827057
-0.44559815526008606,2.9234390258789062,-0.4811699092388153
-0.4202488362789154,2.8917553424835205,-0.4777994155883789
-0.40132275223731995,2.905745267868042,-0.4819447100162506
-0.37852147221565247,2.8890626430511475,-0.48061054944992065
-0.3536026179790497,2.8530845642089844,-0.47606125473976135
-0.3336775302886963,2.8551814556121826,-0.47786909341812134
-0.3129214346408844,2.8494760990142822,-0.4783887267112732
-0.2930108308792114,2.8513405323028564,-0.4798866808414459
-0.26941391825675964,2.818607807159424,-0.4754418730735779
-0.250746488571167,2.8317062854766846,-0.4787225127220154
-0.23105916380882263,2.8331546783447266,-0.4800564646720886
-0.21708503365516663,2.911296844482422,-0.49434515833854675
-0.19421660900115967,2.874160051345825,-0.48871004581451416
-0.171984001994133,2.8445584774017334,-0.4843761622905731
-0.14827245473861694,2.7724764347076416,-0.47279396653175354
-0.1300448179244995,2.7963738441467285,-0.47758999466896057
-0.11025851964950562,2.7894248962402344,-0.47681447863578796
-0.09154808521270752,2.813148260116577,-0.4811627268791199
-0.07200375199317932,2.8290529251098633,-0.4842063784599304
-0.05240531638264656,2.833265542984009,-0.4852687120437622
-0.03270680084824562,2.833507776260376,-0.4855805039405823
-0.013075447641313076,2.8490781784057617,-0.48815420269966125
0.0067568570375442505,2.849111557006836,-0.4880886673927307
0.026975421234965324,2.856703996658325,-0.4893411099910736
0.047112610191106796,2.871856927871704,-0.4919130504131317
0.0676368847489357,2.894622802734375,-0.49546951055526733
0.08798845112323761,2.901873826980591,-0.4962369501590729
0.10875390470027924,2.916677236557007,-0.49831560254096985
0.12832200527191162,2.9005584716796875,-0.4951362609863281
0.14980752766132355,2.9189181327819824,-0.4977690279483795
0.17453575134277344,2.9948740005493164,-0.5098293423652649
0.19658781588077545,3.0129847526550293,-0.5120375752449036
0.2186223566532135,3.027092933654785,-0.5135803818702698
0.2439277619123459,3.079437017440796,-0.5216149687767029
0.2663419246673584,3.0855560302734375,-0.5214701294898987
0.2909846007823944,3.1184215545654297,-0.5257019996643066
0.3180440068244934,3.170261859893799,-0.5331196188926697
0.3429845869541168,3.1950631141662598,-0.5359811782836914
0.36611199378967285,3.200543165206909,-0.5355297327041626
0.3975662887096405,3.2709271907806396,-0.5454651117324829
0.42224180698394775,3.2837438583374023,-0.545810341835022
0.45133715867996216,3.3269245624542236,-0.5511898994445801
0.4837783873081207,3.3889474868774414,-0.5596585869789124
0.5107625126838684,3.408813238143921,-0.560791552066803
0.5426345467567444,3.455108165740967,-0.5660427808761597
0.5785247683525085,3.524024248123169,-0.5749846696853638
0.6070162653923035,3.543187141418457,-0.5757654309272766
0.6411996483802795,3.5925285816192627,-0.5813210606575012
0.6633269190788269,3.573375940322876,-0.5753968358039856
0.6990981698036194,3.626072883605957,-0.5810372233390808
0.727844774723053,3.636732578277588,-0.5798534154891968
0.8237879276275635,3.972280263900757,-0.6302673816680908
0.871647834777832,4.061499118804932,-0.6408702731132507
0.9224149584770203,4.157836437225342,-0.6523241400718689
0.9711434245109558,4.238626003265381,-0.6611964702606201
1.0235172510147095,4.326329708099365,-0.6709280610084534
1.0637378692626953,4.361149787902832,-0.6722518801689148
1.0920902490615845,4.34700345993042,-0.6656780242919922
1.1261337995529175,4.355105876922607,-0.6625310182571411
1.1456040143966675,4.306873321533203,-0.6508482694625854
1.180344820022583,4.314350128173828,-0.6475571393966675
1.210200309753418,4.306953430175781,-0.6416595578193665
1.227167010307312,4.254749298095703,-0.6291422843933105
1.2457891702651978,4.209877967834473,-0.617810070514679
1.0663093328475952,3.513300895690918,-0.5116462707519531
1.0888550281524658,3.499030351638794,-0.5053707957267761
1.1130621433258057,3.4921603202819824,-0.5001282095909119
1.1360752582550049,3.4814200401306152,-0.49435076117515564
1.1617043018341064,3.477785587310791,-0.4895605444908142
1.1859703063964844,3.470344066619873,-0.4841553270816803
1.2086290121078491,3.4591941833496094,-0.4780433773994446
1.2251040935516357,3.429504632949829,-0.46934378147125244
1.246509075164795,3.4143054485321045,-0.4626944065093994
1.273167371749878,3.4134957790374756,-0.4579925835132599
1.3022515773773193,3.4198954105377197,-0.45399773120880127
1.3202204704284668,3.3971493244171143,-0.4461604058742523
1.3415294885635376,3.3812458515167236,-0.4391227960586548
1.3652684688568115,3.3725078105926514,-0.4331139028072357
1.3914462327957153,3.3709805011749268,-0.4278251528739929
1.420658826828003,3.376408338546753,-0.42338335514068604
1.4640403985977173,3.4135875701904297,-0.4227919280529022
1.4946680068969727,3.4180569648742676,-0.41793134808540344
1.5244743824005127,3.4226858615875244,-0.4129970669746399
1.547924280166626,3.412949562072754,-0.4062907099723816
1.5618888139724731,3.381732702255249,-0.3969975411891937
1.5790742635726929,3.3573756217956543,-0.38852107524871826
1.5924514532089233,3.3260297775268555,-0.3790819048881531
1.6287908554077148,3.343787908554077,-0.3753250539302826
1.6158082485198975,3.2600016593933105,-0.36016079783439636
2.275988817214966,4.512940883636475,-0.49050602316856384
2.30307674407959,4.491499423980713,-0.4799393117427826
1.7205191850662231,3.3006696701049805,-0.34660959243774414
1.713020920753479,3.230687141418457,-0.332995742559433
1.7355421781539917,3.21940016746521,-0.325610488653183
1.7180465459823608,3.136641263961792,-0.3110869526863098
1.7204571962356567,3.091566324234009,-0.30048394203186035
1.7652349472045898,3.1207275390625,-0.2968747019767761
1.3582062721252441,2.3630034923553467,-0.21976585686206818
1.2916643619537354,2.213062286376953,-0.20115691423416138
0.951422393321991,1.6048413515090942,-0.14237818121910095
0.9605895280838013,1.5951868295669556,-0.13797113299369812
0.9712162017822266,1.5890899896621704,-0.13387109339237213
0.9821397662162781,1.582714319229126,-0.12963822484016418
0.9953441619873047,1.5794031620025635,-0.1255694180727005
1.005902886390686,1.573038935661316,-0.12124238908290863
1.0142273902893066,1.563368558883667,-0.1166631206870079
1.03164541721344,1.5662935972213745,-0.11278687417507172
1.03580641746521,1.5498226881027222,-0.10744011402130127
1.045995831489563,1.5432753562927246,-0.10287590324878693
2.535973310470581,3.6862101554870605,-0.23514483869075775
2.5692176818847656,3.682889461517334,-0.22428765892982483
2.5890326499938965,3.6601381301879883,-0.21205520629882812
2.601348638534546,3.6233327388763428,-0.1981804072856903
2.59932804107666,3.5724828243255615,-0.18395303189754486
2.662958860397339,3.6087706089019775,-0.17347660660743713
2.627397298812866,3.720670700073242,0.375698447227478
2.595881462097168,3.7320430278778076,0.3868597149848938
2.570629596710205,3.7576825618743896,0.3993023633956909
1.0537621974945068,1.565205454826355,0.17019417881965637
1.055284857749939,1.5917752981185913,0.1767183244228363
1.0343266725540161,1.5864466428756714,0.17963111400604248
1.022405743598938,1.5936790704727173,0.18380750715732574
1.0111106634140015,1.6004120111465454,0.187746062874794
0.9986379146575928,1.607758641242981,0.19169263541698456
0.9862337112426758,1.6149332523345947,0.19556473195552826
0.9787560105323792,1.6281135082244873,0.19995033740997314
0.9669249653816223,1.6347296237945557,0.20350001752376556
1.3467445373535156,2.316394567489624,0.2920704782009125
1.352088451385498,2.3664612770080566,0.30217674374580383
1.7956537008285522,3.1942222118377686,0.41258740425109863
1.7573964595794678,3.1792032718658447,0.4151979982852936
1.7796316146850586,3.2768452167510986,0.43244484066963196
1.7513338327407837,3.2824549674987793,0.43765032291412354
2.390700578689575,4.558245658874512,0.6136725544929504
2.3616251945495605,4.581040859222412,0.622488260269165
2.3237385749816895,4.590643882751465,0.629185676574707
2.289285898208618,4.60687255859375,0.636818528175354
2.2561943531036377,4.622157096862793,0.6441239714622498
2.2296977043151855,4.651172161102295,0.6533917784690857
2.198819875717163,4.673436641693115,0.6613280773162842
2.1640114784240723,4.688685894012451,0.668170690536499
2.1228675842285156,4.689484596252441,0.6729548573493958
2.089862108230591,4.703359127044678,0.6794015169143677
2.062953472137451,4.731191635131836,0.6879112720489502
1.9986302852630615,4.67793607711792,0.6842190623283386
1.7369170188903809,4.148934841156006,0.6103663444519043
1.7036417722702026,4.153571128845215,0.6145560145378113
1.6801809072494507,4.179056167602539,0.6217367053031921
1.6479345560073853,4.182806968688965,0.6257205009460449
1.6195799112319946,4.201446056365967,0.6315732002258301
1.5887435674667358,4.212500095367432,0.6362447142601013
1.557870626449585,4.2233099937438965,0.6409094929695129
1.5335354804992676,4.247976779937744,0.6475865840911865
1.5037797689437866,4.257918834686279,0.6520604491233826
1.4801722764968872,4.290070533752441,0.6597020626068115
1.4440683126449585,4.2854180335998535,0.6615250706672668
1.4153125286102295,4.302508354187012,0.6667385697364807
1.3895083665847778,4.3265299797058105,0.6730107069015503
1.3614633083343506,4.342920303344727,0.6781138777732849
1.3325130939483643,4.359355926513672,0.6831990480422974
1.2987439632415771,4.360918998718262,0.6855823397636414
1.2704440355300903,4.380756855010986,0.6908732652664185
1.2409199476242065,4.396678447723389,0.6955887079238892
1.2142587900161743,4.419591903686523,0.7013881206512451
1.183349609375,4.427420616149902,0.704835057258606
1.1552484035491943,4.450275421142578,0.7104565501213074
1.1270534992218018,4.47294807434082,0.7158335447311401
1.0930944681167603,4.472943305969238,0.7176212072372437
1.0630300045013428,4.487640857696533,0.7217887043952942
1.0316922664642334,4.494481086730957,0.7246965765953064
1.003096103668213,4.51628303527832,0.7300916910171509
0.9726697206497192,4.530411720275879,0.7338753938674927
0.9278057217597961,4.4763994216918945,0.7264983654022217
0.7658261656761169,3.8318865299224854,0.623100221157074
0.7357679605484009,3.8217291831970215,0.6226677298545837
0.8469729423522949,4.5736260414123535,0.7466700673103333
0.8204771876335144,4.609403610229492,0.7540259957313538
0.7878618836402893,4.61475944519043,0.7560509443283081
0.7588434219360352,4.642755508422852,0.7616816163063049
0.7282267212867737,4.662955284118652,0.7660820484161377
0.6947370767593384,4.667746543884277,0.7680051326751709
0.6649296283721924,4.691248893737793,0.7730152606964111
0.6342632174491882,4.7107439041137695,0.7774129509925842
0.6002129912376404,4.707174301147461,0.7777053117752075
0.5715548992156982,4.749342441558838,0.7853921055793762
0.5389146208763123,4.7606892585754395,0.7880269885063171
0.5064332485198975,4.779527187347412,0.791957676410675
0.47465378046035767,4.7980546951293945,0.7958587408065796
0.442340612411499,4.812527656555176,0.7991291284561157
0.40875205397605896,4.815307140350342,0.8002689480781555
0.3767087757587433,4.840977191925049,0.8049113750457764
0.34324511885643005,4.858780384063721,0.8082953691482544
0.30959516763687134,4.868627548217773,0.8103916645050049
0.27658212184906006,4.8859171867370605,0.8137640953063965
0.24391639232635498,4.914527893066406,0.8190659284591675
0.20997583866119385,4.923683166503906,0.8211039900779724
0.17498129606246948,4.925009250640869,0.8213509917259216
0.14145763218402863,4.956882953643799,0.8267327547073364
0.10733117908239365,4.9808220863342285,0.8308324217796326
0.0728764608502388,5.00067138671875,0.8342912197113037
0.038173165172338486,5.008722305297852,0.835822343826294
0.0027034301310777664,5.031942844390869,0.8399314284324646
-0.03237291797995567,5.039581775665283,0.8409994840621948
-0.06776036322116852,5.062406539916992,0.8445184230804443
-0.10325418412685394,5.077279090881348,0.8467498421669006
-0.13890916109085083,5.088048458099365,0.8483365774154663
-0.1750018149614334,5.110124588012695,0.8518486618995667
-0.21044161915779114,5.093420028686523,0.8489348888397217
-0.2471948117017746,5.122730731964111,0.8534664511680603
-0.28709280490875244,5.201849937438965,0.8659902215003967
-0.31896016001701355,5.134515285491943,0.8541727066040039
-0.29575178027153015,4.282719612121582,0.7119953632354736
-0.32662561535835266,4.288337707519531,0.712478756904602
-0.35962826013565063,4.324498653411865,0.7180746793746948
-0.3862006366252899,4.283651351928711,0.7108672857284546
-0.4108717441558838,4.231226444244385,0.7013447880744934
-0.4344397783279419,4.174829006195068,0.6912168264389038
-0.4598740339279175,4.1374077796936035,0.6842670440673828
-0.4830895960330963,4.0883893966674805,0.6754558086395264
-0.5043439269065857,4.027753829956055,0.6647721529006958
-0.5293281078338623,4.001412868499756,0.6597940921783447
-0.5510149002075195,3.9559261798858643,0.6513302326202393
-0.5742124915122986,3.9217255115509033,0.6446662545204163
-0.5911927223205566,3.8531618118286133,0.6324276328086853
-0.6140612363815308,3.8264122009277344,0.6271008849143982
-0.6330509781837463,3.776663064956665,0.6180413961410522
-0.6533696055412292,3.738227367401123,0.6108821630477905
-0.6736056208610535,3.7035701274871826,0.604136049747467
-0.6900500059127808,3.6498444080352783,0.5941353440284729
-0.7120425701141357,3.6302073001861572,0.5897541642189026
-0.7323001027107239,3.6028687953948975,0.5841599702835083
-0.7454425096511841,3.541365385055542,0.5730618238449097
-0.7586225271224976,3.4836084842681885,0.5626304149627686
