X,Y,Z
-0.8290475010871887,1.9105942249298096,-0.2147071361541748
-0.809421956539154,1.9017378091812134,-0.2164085954427719
-0.7612928748130798,1.824700951576233,-0.210147887468338
-0.7393943071365356,1.808178424835205,-0.21070751547813416
-0.7151140570640564,1.784145474433899,-0.210289865732193
-0.6994385123252869,1.7816593647003174,-0.21238821744918823
-0.689416766166687,1.7935446500778198,-0.21607153117656708
-0.6669977307319641,1.7726643085479736,-0.21578870713710785
-0.6464995741844177,1.7551190853118896,-0.21581989526748657
-0.6262674927711487,1.73738431930542,-0.2157771736383438
-0.608469545841217,1.726934790611267,-0.21650677919387817
-0.5796963572502136,1.6832499504089355,-0.21297501027584076
-0.5629104375839233,1.6722756624221802,-0.21348805725574493
-0.5463190078735352,1.6611474752426147,-0.2139565646648407
-0.5297625660896301,1.64993417263031,-0.2142707109451294
-0.5201066732406616,1.6608392000198364,-0.21746137738227844
-0.5027517080307007,1.6456396579742432,-0.21718120574951172
-0.4801786541938782,1.6116944551467896,-0.21436893939971924
-0.470992773771286,1.6222048997879028,-0.2173740714788437
-0.45947808027267456,1.625243067741394,-0.21931606531143188
-0.4459388852119446,1.620715856552124,-0.22023436427116394
-0.4304088354110718,1.6086156368255615,-0.22012348473072052
-0.4094120264053345,1.573853850364685,-0.21683205664157867
-0.3973456621170044,1.5727192163467407,-0.2179887294769287
-0.38439351320266724,1.5677326917648315,-0.218612939119339
-0.36980172991752625,1.555098533630371,-0.21815530955791473
-0.3534993529319763,1.534833550453186,-0.2166265994310379
-0.3393179774284363,1.5219653844833374,-0.21598395705223083
-0.33181047439575195,1.539251685142517,-0.2195667028427124
-0.31625011563301086,1.5186190605163574,-0.21773949265480042
-0.30868926644325256,1.5357568264007568,-0.2213253676891327
-0.29113852977752686,1.5035388469696045,-0.21778817474842072
-0.2826853394508362,1.5167789459228516,-0.22064705193042755
-0.2672427296638489,1.4919114112854004,-0.21796368062496185
-0.25157874822616577,1.4630873203277588,-0.21467077732086182
-0.24766799807548523,1.5027762651443481,-0.221443772315979
-0.23336054384708405,1.4814316034317017,-0.21914081275463104
-0.22182050347328186,1.4752429723739624,-0.21897993981838226
-0.21149800717830658,1.4766145944595337,-0.21994635462760925
0.2534855604171753,1.4627617597579956,-0.21464625000953674
0.26656922698020935,1.4763245582580566,-0.2156984955072403
0.28712841868400574,1.472804307937622,-0.2133641391992569
0.2957986295223236,1.4633879661560059,-0.2109437733888626
0.31225767731666565,1.4917889833450317,-0.2139487862586975
0.3195439279079437,1.4746148586273193,-0.21039095520973206
0.3357672691345215,1.4989694356918335,-0.2127753645181656
0.34794116020202637,1.5043412446975708,-0.21238891780376434
0.35656535625457764,1.4945850372314453,-0.2097601294517517
0.368767648935318,1.4998139142990112,-0.2092445343732834
0.39274224638938904,1.549916386604309,-0.21491634845733643
0.40356624126434326,1.5473604202270508,-0.21327552199363708
0.41227492690086365,1.537290096282959,-0.2104719579219818
0.42906543612480164,1.557051658630371,-0.2117268145084381
0.43991634249687195,1.5542696714401245,-0.20989245176315308
0.45854800939559937,1.577390432357788,-0.21151095628738403
0.4783894717693329,1.6041210889816284,-0.21352989971637726
0.4894580841064453,1.601051926612854,-0.21147069334983826
0.507495105266571,1.6200860738754272,-0.21231268346309662
0.5069668292999268,1.5798612833023071,-0.20539964735507965
0.5375778675079346,1.6354176998138428,-0.21089240908622742
0.5550044775009155,1.6503490209579468,-0.21096284687519073
0.5613085031509399,1.632111668586731,-0.20679911971092224
0.5855625867843628,1.665038824081421,-0.20907697081565857
0.6051032543182373,1.6830940246582031,-0.20942269265651703
0.619408369064331,1.6864612102508545,-0.20783035457134247
0.633914053440094,1.689672827720642,-0.20613202452659607
0.6581375002861023,1.7181634902954102,-0.2074917107820511
0.6843289136886597,1.7499746084213257,-0.2091546654701233
0.7051260471343994,1.7671363353729248,-0.20895284414291382
0.7304139137268066,1.7949647903442383,-0.2098834365606308
0.7460086345672607,1.7973008155822754,-0.2077312022447586
0.773731529712677,1.8281458616256714,-0.2088364213705063
0.789534330368042,1.8301923274993896,-0.20657186210155487
0.8160896301269531,1.8571290969848633,-0.206990584731102
0.8351879119873047,1.866023302078247,-0.20532624423503876
0.8694926500320435,1.906347393989563,-0.20693254470825195
0.8991694450378418,1.9358566999435425,-0.20728589594364166
0.937276303768158,1.9827920198440552,-0.20930570363998413
0.9609714150428772,1.9977293014526367,-0.20782707631587982
1.0040587186813354,2.050712823867798,-0.21011753380298615
1.0289760828018188,2.064845323562622,-0.20823124051094055
1.0605546236038208,2.0929245948791504,-0.20766355097293854
1.0980454683303833,2.130985736846924,-0.20793214440345764
1.1382546424865723,2.1719162464141846,-0.20825335383415222
1.1879854202270508,2.2297122478485107,-0.2099786400794983
1.2196630239486694,2.2529006004333496,-0.20824691653251648
1.2542164325714111,2.2788453102111816,-0.20650102198123932
1.2778234481811523,2.284003257751465,-0.20278319716453552
1.3010443449020386,2.2892332077026367,-0.19898441433906555
1.3164007663726807,2.2808690071105957,-0.193976491689682
1.3244495391845703,2.258594512939453,-0.1876426488161087
1.3403754234313965,2.24961519241333,-0.1823483109474182
1.3432341814041138,2.2210419178009033,-0.17556357383728027
1.4012153148651123,2.281977415084839,-0.17564135789871216
1.4728935956954956,2.3618266582489014,-0.17671796679496765
1.524074673652649,2.4083781242370605,-0.17496684193611145
1.5804916620254517,2.4607133865356445,-0.1732158362865448
1.6935611963272095,2.597027063369751,-0.17673975229263306
1.743187665939331,2.634885787963867,-0.17310425639152527
1.7844537496566772,2.65940523147583,-0.16833554208278656
1.7921391725540161,2.631134271621704,-0.15976589918136597
1.4173650741577148,2.051187515258789,-0.11912243813276291
1.4488590955734253,2.0676441192626953,-0.11454930156469345
1.467863917350769,2.064128875732422,-0.1084628477692604
1.4629287719726562,2.029587507247925,-0.10079912841320038
1.4674136638641357,2.007359027862549,-0.0935460701584816
1.4669967889785767,1.9788885116577148,-0.08587728440761566
2.0826773643493652,2.9208335876464844,0.27261215448379517
2.0574049949645996,2.928325891494751,0.28101488947868347
2.302014112472534,3.3312084674835205,0.3281588554382324
2.314467668533325,3.401960611343384,0.34317833185195923
2.249080181121826,3.355947494506836,0.3460436165332794
2.276433229446411,3.4536402225494385,0.3635628819465637
3.1117820739746094,4.798352241516113,0.5151160359382629
1.6351903676986694,2.560297966003418,0.2798078656196594
1.6323299407958984,2.598271131515503,0.2887967526912689
1.5694525241851807,2.540557861328125,0.28702646493911743
3.0301766395568848,4.98236608505249,0.5712552666664124
2.9896280765533447,4.996501922607422,0.5812713503837585
2.9671103954315186,5.0447893142700195,0.5948446393013
2.9372918605804443,5.0789642333984375,0.606635332107544
2.9263830184936523,5.142282485961914,0.621621310710907
2.9082155227661133,5.195961952209473,0.6354347467422485
2.879460334777832,5.237362861633301,0.6476925611495972
2.8572614192962646,5.28809118270874,0.6609448194503784
2.8198211193084717,5.307016372680664,0.6699873208999634
2.803436279296875,5.367154598236084,0.6842398643493652
2.7772057056427,5.414566993713379,0.696574330329895
2.76889705657959,5.500325679779053,0.7141004204750061
2.7456302642822266,5.549870491027832,0.7265575528144836
1.2328847646713257,2.5362627506256104,0.33478161692619324
1.2143173217773438,2.5447142124176025,0.33848968148231506
1.1921268701553345,2.546137571334839,0.34120121598243713
1.176804542541504,2.5613112449645996,0.3457270562648773
1.1504991054534912,2.551511764526367,0.3468458652496338
1.1435208320617676,2.583876371383667,0.35367923974990845
2.560467004776001,5.901734352111816,0.8128105998039246
2.53049373626709,5.951535224914551,0.8246945142745972
2.508507013320923,6.01862907409668,0.838958203792572
2.48167085647583,6.07478141784668,0.8517695069313049
2.450610399246216,6.119756698608398,0.8630232810974121
2.415712356567383,6.16179084777832,0.8733417391777039
2.3872311115264893,6.221715450286865,0.8862809538841248
2.0375492572784424,5.425876617431641,0.7767468690872192
2.3231868743896484,6.322422504425049,0.9095534682273865
2.3063080310821533,6.414092063903809,0.9272071719169617
2.272749423980713,6.466191291809082,0.938762903213501
2.241900682449341,6.52926778793335,0.9518508911132812
2.2091493606567383,6.588508129119873,0.9644747972488403
2.175485134124756,6.64360237121582,0.9765063524246216
2.1290342807769775,6.657748222351074,0.9825208187103271
2.071568012237549,6.638535976409912,0.9834215044975281
2.007863998413086,6.600715160369873,0.9810774326324463
1.9459116458892822,6.5660400390625,0.9792023301124573
1.8863584995269775,6.5343427658081055,0.9777248501777649
1.8304259777069092,6.513322830200195,0.9778599739074707
1.774715781211853,6.48789644241333,0.9772860407829285
1.711578369140625,6.43617582321167,0.9722882509231567
1.6576075553894043,6.417703628540039,0.972085177898407
1.605869174003601,6.406290054321289,0.9729800820350647
0.8114861249923706,3.3380236625671387,0.5083597898483276
1.4814761877059937,6.284152507781982,0.9596179723739624
0.35529404878616333,1.5555413961410522,0.23818759620189667
0.3408862352371216,1.5428067445755005,0.23674771189689636
0.3250255584716797,1.5224052667617798,0.23410427570343018
0.30850398540496826,1.4981147050857544,0.23086756467819214
0.30478301644325256,1.5342077016830444,0.23693208396434784
0.2926176190376282,1.5285851955413818,0.23657305538654327
0.2847268581390381,1.545657753944397,0.23974141478538513
0.26636090874671936,1.505707859992981,0.2339189052581787
0.8896632790565491,6.0146026611328125,0.9404188394546509
0.8354285955429077,5.932343006134033,0.9291239976882935
0.7919216752052307,5.930208206176758,0.9299082159996033
0.7520326972007751,5.950679302215576,0.9341071844100952
0.5962368249893188,5.001288890838623,0.7859468460083008
0.5737137198448181,5.116325378417969,0.8049447536468506
0.5441341996192932,5.177525997161865,0.8155381679534912
0.4048825800418854,4.128625869750977,0.6511204242706299
0.37054699659347534,4.07744836807251,0.6436218023300171
0.3499392867088318,4.175962448120117,0.6595707535743713
0.3205849528312683,4.178195476531982,0.6603540778160095
0.28916266560554504,4.149421215057373,0.6562648415565491
0.26229602098464966,4.182013034820557,0.6619085669517517
0.4313669800758362,7.754755020141602,1.228368878364563
0.37626582384109497,7.73425817489624,1.2258992195129395
0.3220078647136688,7.728891849517822,1.225256323814392
0.26722288131713867,7.707725524902344,1.2221676111221313
0.21304789185523987,7.693883419036865,1.2202978134155273
0.15783162415027618,7.660391807556152,1.2153751850128174
0.10376588255167007,7.607207775115967,1.2073757648468018
0.05065438151359558,7.584508895874023,1.2042686939239502
-0.0020782840438187122,7.5731425285339355,1.2021862268447876
-0.05465170741081238,7.549843788146973,1.198222279548645
-0.10759630054235458,7.510737419128418,1.1918067932128906
-0.15924301743507385,7.482852935791016,1.1872353553771973
-0.2105335146188736,7.4584736824035645,1.1832785606384277
-0.26157552003860474,7.433741092681885,1.1793229579925537
-0.31467944383621216,7.470418930053711,1.1846685409545898
-0.2629936635494232,5.360328197479248,0.8495054841041565
-0.3028680384159088,5.396994113922119,0.8548035025596619
-0.34024348855018616,5.394893169403076,0.8540070652961731
-0.37718409299850464,5.384827136993408,0.8519902229309082
-0.4122231602668762,5.351424694061279,0.8463249206542969
-0.44668206572532654,5.317829608917236,0.8405235409736633
-0.42167481780052185,4.630744457244873,0.7311229705810547
-0.4528302550315857,4.620235919952393,0.7287120223045349
-0.48144352436065674,4.586489200592041,0.7226764559745789
-0.512439489364624,4.575551509857178,0.7202698588371277
-0.5428505539894104,4.560572147369385,0.7172645926475525
-0.5750751495361328,4.556811809539795,0.7160497307777405
-0.604313313961029,4.537712097167969,0.7119873762130737
-0.6332516670227051,4.518435955047607,0.7079189419746399
-0.6620029211044312,4.498968124389648,0.7038590312004089
-0.692032516002655,4.486897945404053,0.7009842991828918
-0.7213244438171387,4.466907501220703,0.6968919038772583
-0.7510747909545898,4.454432487487793,0.6940286755561829
-0.7769666910171509,4.422861576080322,0.6878834366798401
-0.8086057901382446,4.425368309020996,0.6869365572929382
-0.8316279649734497,4.382128715515137,0.678931713104248
-0.7201394438743591,3.6566402912139893,0.5654623508453369
-0.7444995641708374,3.6441569328308105,0.5624666213989258
-0.7698544263839722,3.6391613483428955,0.5606755018234253
-0.9467878341674805,4.3284430503845215,0.6654101610183716
-0.9779715538024902,4.329822540283203,0.6639863848686218
-1.0057551860809326,4.315916061401367,0.6602468490600586
-1.0260709524154663,4.267834663391113,0.6512855887413025
-1.061341404914856,4.283489227294922,0.6521015167236328
-1.0911462306976318,4.276393890380859,0.6494774222373962
-1.1145800352096558,4.246809005737305,0.6432186365127563
-1.1433478593826294,4.239614486694336,0.6401801109313965
-1.1725401878356934,4.232099533081055,0.6370911598205566
-1.1974518299102783,4.209507465362549,0.6317696571350098
-1.2246564626693726,4.19408655166626,0.6275396347045898
-1.2516613006591797,4.1784987449646,0.6233248114585876
-1.2756869792938232,4.155548572540283,0.6177589893341064
-1.3008190393447876,4.13611364364624,0.612578272819519
-1.3311843872070312,4.135083198547363,0.6101931929588318
-1.3597419261932373,4.1263041496276855,0.6066440939903259
-1.3884433507919312,4.117260456085205,0.6030693650245667
-1.4120360612869263,4.093382358551025,0.5973589420318604
-1.4395296573638916,4.084366798400879,0.5934357047080994
-1.462182641029358,4.060441493988037,0.5873183012008667
-1.4895737171173096,4.051043510437012,0.5833716988563538
-1.5151773691177368,4.033855438232422,0.5782413482666016
-1.537876844406128,4.009257793426514,0.5720879435539246
-1.5682368278503418,4.006398677825928,0.5688997507095337
-1.5956436395645142,3.996197462081909,0.564419150352478
-1.6166688203811646,3.971635103225708,0.5579990148544312
-1.638153076171875,3.946681261062622,0.5514916777610779
-1.662673830986023,3.928633213043213,0.5459609627723694
-1.6868691444396973,3.9105019569396973,0.540395200252533
-1.7258503437042236,3.928025007247925,0.5393790602684021
-1.734593391418457,3.878173351287842,0.529205858707428
-1.7611548900604248,3.8668580055236816,0.5242535471916199
-1.7964692115783691,3.8726491928100586,0.5215434432029724
-1.8152662515640259,3.8431291580200195,0.5140714049339294
-1.8345893621444702,3.8174643516540527,0.5067583918571472
-1.870240330696106,3.8267574310302734,0.5041682720184326
-1.886126160621643,3.7937002182006836,0.49590861797332764
-1.923220157623291,3.801875114440918,0.49297815561294556
-1.935207486152649,3.7616426944732666,0.483718603849411
-1.9708213806152344,3.770153760910034,0.4805251955986023
-1.9888559579849243,3.7438535690307617,0.47283288836479187
-2.011324405670166,3.723784923553467,0.46579837799072266
-1.6972591876983643,3.090801239013672,0.3828606605529785
-1.7179348468780518,3.080009937286377,0.3775733709335327
-1.722867727279663,3.042239189147949,0.36895331740379333
-0.8448347449302673,1.468298316001892,0.176036536693573
-0.8591011762619019,1.469335675239563,0.1740819662809372
-0.8691064715385437,1.4637694358825684,0.17128939926624298
-0.8746733665466309,1.451709270477295,0.16769328713417053
-0.884436845779419,1.446114420890808,0.1648004949092865
-0.878367006778717,1.413659930229187,0.1587541252374649
-0.9003503322601318,1.4277631044387817,0.15794426202774048
-0.9137778282165527,1.4287877082824707,0.15559770166873932
-0.9107971787452698,1.403288722038269,0.1502637416124344
-0.8928712606430054,1.3549197912216187,0.14250843226909637
-0.9473150372505188,1.4172230958938599,0.14621961116790771
-2.3977887630462646,3.5381550788879395,0.3579446077346802
-1.142985463142395,1.6615787744522095,0.1644371747970581
-1.2833716869354248,1.8395118713378906,0.17791417241096497
-1.3407607078552246,1.9049369096755981,-0.10929591953754425
-1.3049170970916748,1.8820126056671143,-0.11368951201438904
-1.4273957014083862,2.090932846069336,-0.1325104832649231
-1.5641320943832397,2.5606346130371094,-0.20875248312950134
-1.5637309551239014,2.6013174057006836,-0.21806436777114868
-1.3272277116775513,2.358250617980957,-0.21793773770332336
-1.2699322700500488,2.29606294631958,-0.2169526368379593
-1.2237985134124756,2.249830961227417,-0.21698862314224243
-1.1950719356536865,2.2338755130767822,-0.21975591778755188
-1.1333814859390259,2.15598464012146,-0.21616995334625244
-1.096242070198059,2.122210741043091,-0.21674291789531708
-1.0686728954315186,2.105260133743286,-0.21886681020259857
-1.0189183950424194,2.0427567958831787,-0.21599794924259186
-0.9954367280006409,2.0322182178497314,-0.21843446791172028
-0.9538822770118713,1.9827947616577148,-0.21651387214660645
-0.9183036088943481,1.9433398246765137,-0.2154628187417984
-0.8879960775375366,1.914188027381897,-0.21537351608276367
-0.8625549674034119,1.8955111503601074,-0.21639080345630646
-0.8427139520645142,1.8869919776916504,-0.2183980792760849
-0.8138387799263,1.8568799495697021,-0.21780426800251007
-0.7805987000465393,1.8158695697784424,-0.2157447636127472
-0.7433544993400574,1.7638115882873535,-0.21219368278980255
-0.7305997014045715,1.7687422037124634,-0.2154269963502884
-0.7079575061798096,1.7482659816741943,-0.2154693901538849
-0.6954647898674011,1.7528977394104004,-0.21850226819515228
-0.6603770852088928,1.6996134519577026,-0.2142021656036377
-0.6414080858230591,1.6857666969299316,-0.21475036442279816
-0.621228039264679,1.6681361198425293,-0.21478955447673798
-0.6040738821029663,1.657578706741333,-0.21558889746665955
-0.5896005630493164,1.6542118787765503,-0.21724428236484528
-0.5727527141571045,1.6433708667755127,-0.21788395941257477
-0.5549715757369995,1.6286674737930298,-0.21795733273029327
-0.5432763695716858,1.6322702169418335,-0.220457524061203
-0.5196669697761536,1.5989347696304321,-0.21780329942703247
-0.5036223530769348,1.5875002145767212,-0.2180779129266739
-0.4924781918525696,1.590681791305542,-0.22033265233039856
-0.4768318235874176,1.578958511352539,-0.22051219642162323
-0.4634280204772949,1.5745841264724731,-0.22154706716537476
-0.44457364082336426,1.5515496730804443,-0.21996264159679413
-0.42327359318733215,1.5170708894729614,-0.21665270626544952
-0.4126288592815399,1.5197197198867798,-0.21861515939235687
-0.40189990401268005,1.5223257541656494,-0.22046324610710144
-0.38727331161499023,1.5098845958709717,-0.2200743705034256
-0.37083467841148376,1.489842414855957,-0.21857202053070068
-0.35586217045783997,1.4733532667160034,-0.21752898395061493
-0.3499273955821991,1.4943879842758179,-0.2219865769147873
-0.3333888053894043,1.4701999425888062,-0.2196035236120224
-0.3196936249732971,1.4571864604949951,-0.21886631846427917
-0.2975764572620392,1.4535201787948608,-0.2207428514957428
0.34289872646331787,1.4603019952774048,-0.2169276624917984
0.3670464754104614,1.4708396196365356,-0.2159496545791626
0.3753187656402588,1.461023211479187,-0.2130933552980423
0.38939061760902405,1.473602056503296,-0.21350811421871185
0.4069753885269165,1.4971909523010254,-0.21545042097568512
0.41745081543922424,1.4945653676986694,-0.21362940967082977
0.42782074213027954,1.4919054508209229,-0.21169891953468323
0.45123791694641113,1.5337547063827515,-0.216002956032753
0.4574424922466278,1.516033411026001,-0.2118835598230362
0.47054335474967957,1.5204170942306519,-0.21083271503448486
0.4905054271221161,1.5469224452972412,-0.21279959380626678
0.5047875046730042,1.5548511743545532,-0.21207056939601898
0.5326517820358276,1.6030985116958618,-0.21677573025226593
0.5363840460777283,1.577632188796997,-0.21146877110004425
0.5601540207862854,1.6107542514801025,-0.2140084058046341
0.568834662437439,1.5998200178146362,-0.21049953997135162
0.5851391553878784,1.610767126083374,-0.20990358293056488
0.6031503081321716,1.6251410245895386,-0.20968952775001526
0.617289662361145,1.628455638885498,-0.2080216407775879
0.6425526738166809,1.6606637239456177,-0.20990324020385742
0.6541696786880493,1.6564782857894897,-0.20707175135612488
0.6874523758888245,1.7062245607376099,-0.21092943847179413
0.7053160071372986,1.7160775661468506,-0.20975351333618164
0.7292125821113586,1.74015212059021,-0.2102004885673523
0.7579056620597839,1.7747637033462524,-0.21178074181079865
0.770427405834198,1.7697527408599854,-0.2085070013999939
0.8017526865005493,1.8072820901870728,-0.21020488440990448
0.8206953406333923,1.8162177801132202,-0.2084529846906662
0.8477139472961426,1.842726469039917,-0.2086038589477539
0.8703407049179077,1.8583309650421143,-0.20741131901741028
0.9087113738059998,1.9050976037979126,-0.2094886302947998
0.9388731718063354,1.9341421127319336,-0.20949147641658783
0.9847456216812134,1.994362711906433,-0.21266211569309235
1.0159739255905151,2.022690534591675,-0.212221160531044
1.0390074253082275,2.0332634449005127,-0.20978385210037231
1.0780919790267944,2.0748355388641357,-0.21039418876171112
1.1123501062393188,2.105659008026123,-0.20967890322208405
1.1564385890960693,2.153182029724121,-0.2104259431362152
1.207018494606018,2.210359811782837,-0.21185444295406342
1.2465803623199463,2.246825933456421,-0.21104396879673004
1.2770286798477173,2.265960454940796,-0.20846810936927795
1.3048087358474731,2.2775444984436035,-0.204859659075737
1.312766671180725,2.2554380893707275,-0.19827812910079956
1.331803798675537,2.2537715435028076,-0.19348721206188202
1.3432117700576782,2.2383759021759033,-0.1874157339334488
1.3508163690567017,2.216026544570923,-0.1806870400905609
1.3864609003067017,2.240330457687378,-0.17761297523975372
1.4491322040557861,2.3073549270629883,-0.17773132026195526
1.544969916343689,2.4224915504455566,-0.18084320425987244
1.6143395900726318,2.4942641258239746,-0.18021824955940247
1.7869606018066406,2.722029447555542,-0.19009344279766083
1.7609248161315918,2.6415998935699463,-0.17749916017055511
1.787601113319397,2.6429872512817383,-0.1706511378288269
1.820306420326233,2.654238700866699,-0.16436056792736053
1.424286961555481,2.0462844371795654,-0.12087102234363556
1.4559146165847778,2.0626072883605957,-0.11588869243860245
1.4651459455490112,2.046837091445923,-0.10882725566625595
1.4748940467834473,2.0305471420288086,-0.10147534310817719
1.4531583786010742,1.9742424488067627,-0.0923001691699028
2.0665082931518555,2.9204750061035156,0.2955454885959625
2.3266959190368652,3.340786933898926,0.3471514880657196
2.3271708488464355,3.391442060470581,0.36091920733451843
2.321906328201294,3.4409780502319336,0.3746805191040039
2.3002841472625732,3.4637434482574463,0.38512685894966125
2.245832681655884,3.4333949089050293,0.3891638219356537
3.0757994651794434,4.780150413513184,0.5517488718032837
1.6275986433029175,2.571899890899658,0.3020748198032379
1.6131302118301392,2.5894317626953125,0.30903443694114685
3.0401711463928223,4.958974838256836,0.6008473634719849
2.994023084640503,4.967452526092529,0.6105979084968567
2.987074851989746,5.038133144378662,0.6277415752410889
2.9591686725616455,5.071241855621338,0.6400142908096313
2.94612455368042,5.135749816894531,0.6562334895133972
2.9031472206115723,5.149919509887695,0.6657819151878357
2.884397506713867,5.203568458557129,0.6801746487617493
2.8587636947631836,5.242952823638916,0.6925845742225647
2.8406591415405273,5.299978256225586,0.7071914076805115
2.8181040287017822,5.354583263397217,0.7214680910110474
2.7929091453552246,5.401454925537109,0.7345526814460754
2.766979694366455,5.444016456604004,0.7468880414962769
2.764551877975464,5.535157680511475,0.7659738659858704
2.7333459854125977,5.5753278732299805,0.777658224105835
1.217747688293457,2.531947374343872,0.35599711537361145
1.1997623443603516,2.5399866104125977,0.35977742075920105
1.1916757822036743,2.568903684616089,0.3665293753147125
1.1635093688964844,2.555744171142578,0.367177277803421
1.1603540182113647,2.5991342067718506,0.37584352493286133
2.56795072555542,5.866878509521484,0.8538601398468018
2.5488531589508057,5.937305927276611,0.8695042133331299
2.5221128463745117,5.989595890045166,0.8825219869613647
2.498102903366089,6.053000450134277,0.8969405889511108
2.468043565750122,6.105984687805176,0.9096353650093079
2.433065176010132,6.148038387298584,0.9207996129989624
2.4086525440216064,6.2146782875061035,0.9356167912483215
2.380167245864868,6.2700958251953125,0.9487662315368652
2.354328155517578,6.336575984954834,0.9634507894515991
2.317270278930664,6.3780131340026855,0.9739922881126404
2.2861995697021484,6.4374470710754395,0.9873801469802856
2.252350330352783,6.489276885986328,0.9996613264083862
2.2254087924957275,6.558812618255615,1.0146582126617432
2.1915194988250732,6.609923362731934,1.0269148349761963
2.1542298793792725,6.657804012298584,1.0380338430404663
2.0965452194213867,6.642858505249023,1.039393663406372
2.0352513790130615,6.6165080070495605,1.0390256643295288
1.9723279476165771,6.5741777420043945,1.0359679460525513
1.9154492616653442,6.549856662750244,1.0357531309127808
1.8585724830627441,6.525231838226318,1.0352245569229126
1.7960360050201416,6.481861591339111,1.0312573909759521
1.738237977027893,6.452853679656982,1.0295850038528442
1.679906964302063,6.419639587402344,1.0272599458694458
0.8284426927566528,3.2582571506500244,0.5228636860847473
1.5762323141098022,6.384774208068848,1.0275282859802246
1.5067726373672485,6.293752670288086,1.0154078006744385
1.4651509523391724,6.318793296813965,1.0217033624649048
0.32950934767723083,1.5194334983825684,0.2467997521162033
1.2922041416168213,6.165482997894287,1.0037269592285156
1.2529699802398682,6.192656517028809,1.0104786157608032
1.209207534790039,6.200814723968506,1.0137656927108765
0.28360939025878906,1.5124253034591675,0.24768903851509094
0.26666462421417236,1.4801316261291504,0.2428203821182251
0.24213482439517975,1.4606653451919556,0.2404734492301941
0.862244725227356,5.9827423095703125,0.9894179701805115
0.8146668076515198,5.950149059295654,0.9852308630943298
0.7777730822563171,5.99360466003418,0.9936776161193848
0.732255756855011,5.967922687530518,0.990700364112854
0.5853036046028137,5.061336517333984,0.8413282036781311
0.5589410662651062,5.153209686279297,0.8576400876045227
0.4122878611087799,4.0679402351379395,0.6775102615356445
0.3843614459037781,4.078254699707031,0.6797522306442261
0.35974711179733276,4.126757621765137,0.6883983612060547
0.335625559091568,4.186615467071533,0.698982298374176
0.3031533658504486,4.150292873382568,0.6935558915138245
0.2758226990699768,4.175205230712891,0.6983820796012878
0.2495165467262268,4.226949691772461,0.7072612047195435
0.4038514196872711,7.764449596405029,1.2995997667312622
0.3487401306629181,7.751539707183838,1.2979395389556885
0.29220491647720337,7.711312294006348,1.291771411895752
0.23787836730480194,7.689901828765869,1.288802981376648
0.1840483546257019,7.675812721252441,1.2871205806732178
0.12977135181427002,7.626772880554199,1.2790849208831787
0.07633499056100845,7.59667444229126,1.2739086151123047
0.02241799235343933,7.573911666870117,1.270024061203003
-0.0302071962505579,7.562328338623047,1.2680778503417969
-0.0823749452829361,7.523414611816406,1.261609673500061
-0.13414089381694794,7.491846084594727,1.2564334869384766
-0.1857347935438156,7.471505641937256,1.2530287504196167
-0.23658455908298492,7.4393792152404785,1.2469924688339233
-0.2888026535511017,7.429971694946289,1.2448179721832275
-0.34334129095077515,7.493362903594971,1.2549065351486206
-0.28594261407852173,5.417178630828857,0.9068684577941895
-0.32197216153144836,5.388245105743408,0.9017284512519836
-0.3578700125217438,5.362916946411133,0.8972379565238953
-0.3967122435569763,5.375828266143799,0.8986685872077942
-0.43194425106048584,5.35012674331665,0.8935731053352356
-0.4577527344226837,5.220550060272217,0.8711926341056824
-0.43687501549720764,4.615148067474365,0.7695456147193909
-0.46741601824760437,4.596841812133789,0.7659097909927368
-0.4982299506664276,4.578280448913574,0.76226407289505
-0.5276471376419067,4.555802345275879,0.7577763199806213
-0.5570961236953735,4.537027835845947,0.7536407113075256
-0.5872543454170227,4.525712966918945,0.7507866621017456
-0.6205160617828369,4.537098407745361,0.7517293095588684
-0.648166835308075,4.502346992492676,0.745043933391571
-0.6771721839904785,4.482745170593262,0.7409254908561707
-0.7094382643699646,4.485832214355469,0.7405286431312561
-0.7376289367675781,4.465998649597168,0.7359249591827393
-0.764879047870636,4.442193508148193,0.7307136654853821
-0.7938787341117859,4.429609298706055,0.7273897528648376
-0.8167173862457275,4.378739833831787,0.7177866101264954
-0.8456509113311768,4.365728855133057,0.7144622206687927
-0.7346932291984558,3.656719207763672,0.5974579453468323
-0.7580954432487488,3.644402265548706,0.5941292643547058
-0.9297410845756531,4.322144508361816,0.7030388712882996
-0.9672406911849976,4.3499040603637695,0.7059644460678101
-0.9922162294387817,4.320945739746094,0.699714720249176
-1.020531415939331,4.306835174560547,0.6959068179130554
-1.0495681762695312,4.2962965965271,0.6927161812782288
-1.07890784740448,4.289496898651123,0.6897720694541931
-1.1007909774780273,4.25253963470459,0.6818865537643433
-1.1257073879241943,4.230518817901611,0.6764801144599915
-1.1611238718032837,4.245446681976318,0.6769738793373108
-1.1823967695236206,4.20798921585083,0.6691362261772156
-1.2139074802398682,4.2075371742248535,0.6672256588935852
-1.2342936992645264,4.1699442863464355,0.6590397953987122
-1.2625372409820557,4.162032127380371,0.6555473208427429
-1.290729284286499,4.15392541885376,0.6520543098449707
-1.3219175338745117,4.152777194976807,0.6496251821517944
-1.3448923826217651,4.125640869140625,0.6431584358215332
-1.3802409172058105,4.134896755218506,0.6423406600952148
-1.401853322982788,4.10782527923584,0.635516881942749
-1.4269416332244873,4.091604709625244,0.6304206848144531
-1.4468802213668823,4.060594081878662,0.623074471950531
-1.4805113077163696,4.065544605255127,0.6212037205696106
-1.5007963180541992,4.033979415893555,0.6137883067131042
-1.5372332334518433,4.0457258224487305,0.6127627491950989
-1.553184151649475,4.007132530212402,0.6039449572563171
-1.5857511758804321,4.011670112609863,0.6016659140586853
-1.601792573928833,3.9726192951202393,0.5928105115890503
-1.6266770362854004,3.95481538772583,0.5871291160583496
-1.6548298597335815,3.943814754486084,0.5824308395385742
-1.6872689723968506,3.947619676589966,0.5795838236808777
-1.7105942964553833,3.929851770401001,0.5735848546028137
-1.7231857776641846,3.8869874477386475,0.5639292597770691
-1.7552202939987183,3.8861262798309326,0.5603065490722656
-1.7716139554977417,3.849607229232788,0.5515220165252686
-1.8122291564941406,3.869961738586426,0.5506370067596436
-1.8230414390563965,3.8270628452301025,0.5407187938690186
-1.8675109148025513,3.853766679763794,0.5405987501144409
-1.88422429561615,3.8205130100250244,0.5319360494613647
-1.906257152557373,3.797368288040161,0.5246683955192566
-1.9349794387817383,3.7923433780670166,0.5196566581726074
-1.9600340127944946,3.7802720069885254,0.5136796832084656
-1.9750279188156128,3.747009515762329,0.5047197341918945
-1.9977242946624756,3.7270076274871826,0.49747413396835327
-2.03088641166687,3.7275753021240234,0.49290063977241516
-1.7063781023025513,3.0831382274627686,0.4035519063472748
-1.7343255281448364,3.086038827896118,0.3998565673828125
-0.8433833718299866,1.47655189037323,0.1892261654138565
-0.8537946343421936,1.4709151983261108,0.186415433883667
-0.8595525026321411,1.4589126110076904,0.18269723653793335
-0.873265266418457,1.4601707458496094,0.1805998533964157
-0.8834325671195984,1.454419493675232,0.1775326430797577
-0.8692247867584229,1.4088202714920044,0.169640451669693
-0.8991310000419617,1.436362385749817,0.1704740971326828
-0.9043280482292175,1.4242675304412842,0.1665460467338562
-0.8975918292999268,1.3920480012893677,0.1601088047027588
-0.8987955451011658,1.373097538948059,0.15529201924800873
-0.9033178091049194,1.361175537109375,0.15122449398040771
-2.421983480453491,3.598632335662842,0.39236196875572205
-2.425555467605591,3.550251007080078,0.37915948033332825
-1.234749436378479,1.7817883491516113,0.18613970279693604
-1.5548927783966064,2.213944435119629,0.22613047063350677
-1.3162792921066284,1.8835514783859253,-0.11505149304866791
-1.55256187915802,2.521594762802124,-0.2111576348543167
-1.5084055662155151,2.4886271953582764,-0.21444904804229736
-1.4103971719741821,2.405302047729492,-0.21865825355052948
-0.8413933515548706,1.483020544052124,-0.14147229492664337
-1.2626889944076538,2.2638330459594727,-0.22091563045978546
-1.2073884010314941,2.2004895210266113,-0.2193097174167633
-1.160265564918518,2.1502926349639893,-0.21873942017555237
-1.111371636390686,2.096496820449829,-0.21759794652462006
-1.0836694240570068,2.0797836780548096,-0.21998393535614014
-1.04062819480896,2.0314838886260986,-0.21879640221595764
-1.0102169513702393,2.0071825981140137,-0.2199936956167221
-0.9748715162277222,1.9721884727478027,-0.21987038850784302
-0.9351397156715393,1.9262480735778809,-0.2183249145746231
-0.8981348276138306,1.883213758468628,-0.21684442460536957
-0.8729292750358582,1.8645849227905273,-0.21797113120555878
-0.8399010300636292,1.8280651569366455,-0.2168939709663391
-0.8126227259635925,1.8016388416290283,-0.2168034315109253
-0.7904444336891174,1.7855913639068604,-0.21788142621517181
-0.768001914024353,1.769558310508728,-0.2188490629196167
-0.7384762167930603,1.7353508472442627,-0.21742813289165497
-0.7113052010536194,1.704280138015747,-0.21621674299240112
-0.6992798447608948,1.7088346481323242,-0.21947158873081207
-0.671095609664917,1.6738170385360718,-0.21748250722885132
-0.6446759700775146,1.6421765089035034,-0.21587017178535461
-0.6331138014793396,1.6462794542312622,-0.21881815791130066
-0.6160600781440735,1.6357884407043457,-0.2198159396648407
-0.5895777940750122,1.5997893810272217,-0.2171947956085205
-0.5781033635139465,1.6035988330841064,-0.21992985904216766
-0.5588765740394592,1.5854036808013916,-0.2196280062198639
-0.5477206110954285,1.5889244079589844,-0.22227433323860168
-0.528995156288147,1.570407509803772,-0.22169934213161469
-0.5129368305206299,1.559083104133606,-0.22208015620708466
-0.49126386642456055,1.52915620803833,-0.2197410613298416
-0.4757011830806732,1.5175102949142456,-0.2200021743774414
-0.46042975783348083,1.5057116746902466,-0.22009076178073883
-0.44970932602882385,1.508630633354187,-0.2222570776939392
-0.4390389323234558,1.5114524364471436,-0.22440899908542633
-0.4221266210079193,1.491850733757019,-0.22320224344730377
-0.40753573179244995,1.47956120967865,-0.22301533818244934
-0.39387619495391846,1.470961093902588,-0.22326798737049103
-0.37957924604415894,1.4584593772888184,-0.22288426756858826
-0.36555615067481995,1.445816159248352,-0.22244736552238464
0.40017756819725037,1.453494906425476,-0.219253271818161
0.4184173047542572,1.440900206565857,-0.21413280069828033
0.4351477324962616,1.4604638814926147,-0.21541790664196014
0.4475714862346649,1.465108036994934,-0.2143835425376892
0.46581223607063293,1.488135814666748,-0.2159523069858551
0.4809051752090454,1.4999154806137085,-0.2158402055501938
0.4940425753593445,1.5041226148605347,-0.2145746797323227
0.507022500038147,1.5082995891571045,-0.21328553557395935
0.5288021564483643,1.5380486249923706,-0.21546535193920135
0.5394572615623474,1.534691572189331,-0.2129741907119751
0.5554558634757996,1.5457990169525146,-0.2124572992324829
0.5743017196655273,1.56403648853302,-0.21287918090820312
0.5961442589759827,1.5893722772598267,-0.2140437364578247
0.6126346588134766,1.6000727415084839,-0.21322357654571533
0.6266769170761108,1.603329062461853,-0.2113499641418457
0.6480008363723755,1.6244665384292603,-0.2117922455072403
0.6650556921958923,1.6347079277038574,-0.2106701284646988
0.6824522614479065,1.644730806350708,-0.20941901206970215
0.710567057132721,1.6796209812164307,-0.21126936376094818
0.7315649390220642,1.69637131690979,-0.210743710398674
0.7588808536529541,1.7272233963012695,-0.21181157231330872
0.7849707007408142,1.7542916536331177,-0.21228840947151184
0.8006370663642883,1.7561674118041992,-0.2095584124326706
0.8358850479125977,1.8002293109893799,-0.21180468797683716
0.856592059135437,1.812412142753601,-0.21013353765010834
0.8891791105270386,1.848966121673584,-0.21116603910923004
0.915738046169281,1.871084451675415,-0.21037018299102783
0.9551405310630798,1.9171150922775269,-0.21203723549842834
0.9911238551139832,1.9560599327087402,-0.21275179088115692
1.0222405195236206,1.984294056892395,-0.21214626729488373
1.0505576133728027,2.0051236152648926,-0.21053892374038696
1.1030727624893188,2.070249319076538,-0.21337933838367462
1.137449026107788,2.100856304168701,-0.21240130066871643
1.1782249212265015,2.1411681175231934,-0.21214917302131653
1.2370123863220215,2.211440086364746,-0.21452979743480682
1.2735161781311035,2.2405354976654053,-0.21267057955265045
1.2964011430740356,2.2458927631378174,-0.20841610431671143
1.319737434387207,2.250857353210449,-0.20397406816482544
1.3358092308044434,2.2418863773345947,-0.19806410372257233
1.3508827686309814,2.2333426475524902,-0.19226694107055664
1.3495266437530518,2.1981618404388428,-0.1842145025730133
1.3856139183044434,2.2221593856811523,-0.18085181713104248
1.4362823963165283,2.269068479537964,-0.17913036048412323
1.5569366216659546,2.4237916469573975,-0.1852777600288391
1.7974095344543457,2.7563161849975586,-0.20353133976459503
1.8249567747116089,2.7574706077575684,-0.19633042812347412
1.7800060510635376,2.652082681655884,-0.18176020681858063
1.8115216493606567,2.6595804691314697,-0.1747376024723053
1.8167402744293213,2.628166913986206,-0.16490615904331207
1.4263044595718384,2.035282850265503,-0.12174595892429352
1.4404810667037964,2.0256824493408203,-0.11475764960050583
1.467665672302246,2.0354011058807373,-0.10877081751823425
1.4671828746795654,2.007185697555542,-0.10061528533697128
1.4649218320846558,1.975287675857544,-0.09195218235254288
2.080186367034912,2.918792486190796,0.3108147382736206
2.110722064971924,3.0057520866394043,0.3285767734050751
2.312699794769287,3.347475290298462,0.37512028217315674
2.300201177597046,3.3831300735473633,0.3879041373729706
2.3280670642852783,3.4757490158081055,0.40685728192329407
2.930175304412842,4.446520805358887,0.530799388885498
3.0686469078063965,4.735156536102295,0.5760790705680847
1.6365975141525269,2.564347505569458,0.31727901101112366
1.634126901626587,2.601870059967041,0.32716360688209534
1.5670208930969238,2.5376057624816895,0.3240422010421753
3.024320363998413,4.976962566375732,0.6446730494499207
2.9784162044525146,4.980457305908203,0.6541072726249695
2.962446689605713,5.038077354431152,0.6702020168304443
2.951029062271118,5.106107234954834,0.6877532601356506
2.9201486110687256,5.135787010192871,0.6997324824333191
2.9102680683135986,5.202259063720703,0.7167499661445618
2.8818585872650146,5.243160247802734,0.7300946712493896
2.8347361087799072,5.249732494354248,0.7384713292121887
2.8203816413879395,5.313185691833496,0.7545900344848633
2.800673723220825,5.365971088409424,0.7691890001296997
2.780838966369629,5.422840595245361,0.784217894077301
2.7706499099731445,5.504831314086914,0.8028796315193176
2.7419321537017822,5.5480780601501465,0.8158113360404968
1.2363626956939697,2.546126127243042,0.3772948086261749
1.2150483131408691,2.5471816062927246,0.38035503029823303
1.1846323013305664,2.5310018062591553,0.38057637214660645
1.1770766973495483,2.563778877258301,0.3881669342517853
1.1582262516021729,2.5717663764953613,0.3920161724090576
1.1463699340820312,2.5934362411499023,0.3978744149208069
2.565356969833374,5.915017604827881,0.9132290482521057
2.5397427082061768,5.975291728973389,0.9277657866477966
2.5059967041015625,6.017613410949707,0.9396185874938965
2.4854063987731934,6.091762542724609,0.9565037488937378
2.4483487606048584,6.122199058532715,0.9664340019226074
2.4236721992492676,6.184781551361084,0.9815380573272705
2.394988536834717,6.244490146636963,0.9956005215644836
2.3614556789398193,6.293246269226074,1.008014440536499
2.3311426639556885,6.3527655601501465,1.0222811698913574
2.3034210205078125,6.415108680725098,1.0369160175323486
2.276214361190796,6.480993270874023,1.052245020866394
2.238386869430542,6.5216474533081055,1.0630923509597778
2.2055156230926514,6.580652236938477,1.0767511129379272
2.1770358085632324,6.658106327056885,1.0936254262924194
2.12308669090271,6.650160789489746,1.0963395833969116
2.0684731006622314,6.638027667999268,1.0983655452728271
2.006124258041382,6.599674224853516,1.0960197448730469
1.9419856071472168,6.557590484619141,1.0923142433166504
1.8817647695541382,6.526055812835693,1.0903725624084473
1.826704978942871,6.512726306915283,1.0915369987487793
1.7669066190719604,6.472381114959717,1.0880405902862549
1.7136309146881104,6.45390510559082,1.0882370471954346
1.6575345993041992,6.423914909362793,1.0862821340560913
1.599135160446167,6.386305332183838,1.0824912786483765
0.8007608652114868,3.299652338027954,0.5606712698936462
1.4812393188476562,6.2984232902526855,1.0728214979171753
1.4355535507202148,6.3003716468811035,1.0757492780685425
1.3832073211669922,6.2719035148620605,1.0735208988189697
1.3334887027740479,6.254415988922119,1.0729411840438843
1.2787513732910156,6.2180495262146,1.0686721801757812
1.2245973348617554,6.177312850952148,1.0636448860168457
1.1764768362045288,6.162552356719971,1.0631060600280762
0.23881952464580536,1.4746065139770508,0.25616419315338135
0.931706964969635,6.022559642791748,1.047627568244934
0.8868338465690613,6.013331890106201,1.0474742650985718
0.8460078835487366,6.026557445526123,1.0512590408325195
0.7946571111679077,5.967103958129883,1.042428731918335
0.6578079462051392,5.216005802154541,0.9125789999961853
0.5991918444633484,5.036815166473389,0.8819714188575745
0.5727015137672424,5.120967388153076,0.8975036144256592
0.5405896306037903,5.1628899574279785,0.9056992530822754
0.3975589871406555,4.070982456207275,0.7148482203483582
0.37010136246681213,4.0888166427612305,0.7187243700027466
0.3483099043369293,4.171610355377197,0.7340604066848755
0.31793731451034546,4.158452033996582,0.7322055101394653
0.2881748080253601,4.1527886390686035,0.7315288186073303
0.2609480917453766,4.185307502746582,0.737615704536438
0.42880722880363464,7.766960144042969,1.3695870637893677
0.37371909618377686,7.746478080749512,1.3667652606964111
0.31900832056999207,7.729452610015869,1.3646166324615479
0.2644587755203247,7.708243370056152,1.361530065536499
0.20937125384807587,7.663703441619873,1.353684663772583
0.15429534018039703,7.63032865524292,1.3478788137435913
0.10099976509809494,7.623472690582275,1.3468213081359863
0.047784700989723206,7.5854716300964355,1.3403249979019165
-0.004894905257970095,7.543254375457764,1.3331458568572998
-0.057105470448732376,7.5276007652282715,1.330722689628601
-0.11019393801689148,7.519400119781494,1.328892469406128
-0.16140411794185638,7.472413539886475,1.3201199769973755
-0.21273554861545563,7.451995372772217,1.3161089420318604
-0.2647465169429779,7.458135604858398,1.3168525695800781
-0.3169322609901428,7.46776008605957,1.3182743787765503
-0.26552826166152954,5.37530517578125,0.9487414956092834
-0.30451685190200806,5.392626762390137,0.9514279365539551
-0.3400479853153229,5.363711833953857,0.9455943703651428
-0.3770838677883148,5.3614277839660645,0.94450443983078
-0.41469714045524597,5.3665595054626465,0.9447649121284485
-0.4488219618797302,5.3253960609436035,0.9369191527366638
-0.422742635011673,4.624906539916992,0.8131903409957886
-0.45418307185173035,4.614358901977539,0.8108950257301331
-0.48353222012519836,4.588418006896973,0.805400550365448
-0.5134415030479431,4.569937705993652,0.801235020160675
-0.5448925495147705,4.566553592681885,0.7997587323188782
-0.5737487077713013,4.536128520965576,0.79356849193573
-0.6052699685096741,4.532289505004883,0.7920864820480347
-0.6346215605735779,4.512984275817871,0.7879424691200256
-0.662397027015686,4.485957145690918,0.7821739315986633
-0.6931195855140686,4.481661319732666,0.7801773548126221
-0.7218919396400452,4.4618706703186035,0.7755034565925598
-0.7513649463653564,4.449541091918945,0.7721830010414124
-0.7789899706840515,4.425590515136719,0.7668788433074951
-0.8111752867698669,4.427982330322266,0.766179621219635
-0.8274279236793518,4.3469648361206055,0.7509535551071167
-0.7198511362075806,3.6463723182678223,0.6286094188690186
-0.746722400188446,3.6491942405700684,0.6277847290039062
-0.7732762098312378,3.6518959999084473,0.6269838213920593
-0.950343132019043,4.339266300201416,0.7434983849525452
-0.9839365482330322,4.348010540008545,0.7435275316238403
-1.0088756084442139,4.318994998931885,0.7370973229408264
-1.038757562637329,4.312428951263428,0.7340298891067505
-1.06429922580719,4.290825366973877,0.7284818291664124
-1.0924997329711914,4.2802629470825195,0.7248473167419434
-1.1184264421463013,4.258141040802002,0.7192498445510864
-1.1480742692947388,4.250760078430176,0.7161866426467896
-1.1761564016342163,4.235601902008057,0.7117981314659119
-1.2069306373596191,4.235546112060547,0.7095288038253784
-1.2269800901412964,4.198233604431152,0.7010592818260193
-1.2553926706314087,4.190408229827881,0.6975648999214172
-1.2801166772842407,4.1673808097839355,0.6915120482444763
-1.3050432205200195,4.144068717956543,0.6854268312454224
-1.3314377069473267,4.12815523147583,0.6805840134620667
-1.3556442260742188,4.108734607696533,0.6747974157333374
-1.3833500146865845,4.100140571594238,0.67082679271698
-1.4149786233901978,4.102241039276123,0.6686111092567444
-1.4397996664047241,4.081986427307129,0.6627098917961121
-1.4661952257156372,4.065049171447754,0.6573483347892761
-1.4808006286621094,4.0193047523498535,0.6472351551055908
-1.515986680984497,4.031656742095947,0.6462497115135193
-1.543100118637085,4.022075653076172,0.6417617797851562
-1.573615550994873,4.01926851272583,0.6383087635040283
-1.5993766784667969,4.001519680023193,0.6324114203453064
-1.6128332614898682,3.9551384449005127,0.6221019625663757
-1.6512833833694458,3.97353458404541,0.6216109395027161
-1.665842056274414,3.9346659183502197,0.6121573448181152
-1.6894241571426392,3.916959285736084,0.6060181856155396
-1.7267104387283325,3.926852226257324,0.6039847135543823
-1.754230260848999,3.915440082550049,0.598748505115509
-1.7711470127105713,3.8831448554992676,0.5900893807411194
-1.797057032585144,3.8720619678497314,0.5845524072647095
-1.8295389413833618,3.874786138534546,0.5811070203781128
-1.8471958637237549,3.8415322303771973,0.5720289945602417
-1.8741873502731323,3.829301357269287,0.5662064552307129
-1.8949695825576782,3.8069710731506348,0.558675229549408
-1.9132895469665527,3.781331777572632,0.5505644679069519
-1.9545996189117432,3.8002912998199463,0.5489146709442139
-1.9812934398651123,3.7873754501342773,0.5424417853355408
-1.991971731185913,3.743239402770996,0.5314828157424927
-2.0131425857543945,3.724025249481201,0.5238789916038513
-1.70181405544281,3.0997812747955322,0.4319625496864319
-1.7249233722686768,3.0922257900238037,0.42665332555770874
-1.7295100688934326,3.0504112243652344,0.4165479242801666
-0.848272442817688,1.472476601600647,0.19888082146644592
-0.8696998953819275,1.4873555898666382,0.1986258178949356
-0.8598293662071228,1.448525071144104,0.19118890166282654
