X,Y,Z
1.9093017578125,5.948810577392578,0.47357961535453796
1.88064444065094,6.002591609954834,0.48002418875694275
1.8592441082000732,6.082345008850098,0.4886109530925751
1.8256880044937134,6.128847599029541,0.494256854057312
1.7881478071212769,6.164004325866699,0.4989842474460602
1.7613623142242432,6.240290641784668,0.507114052772522
1.7261340618133545,6.282208442687988,0.51242595911026
1.6993967294692993,6.357807159423828,0.5205413103103638
1.670162558555603,6.429718494415283,0.5282091498374939
0.8206782937049866,3.2546141147613525,0.2681891620159149
1.5560526847839355,6.365702152252197,0.5262047052383423
0.7966145873069763,3.360492467880249,0.2786366641521454
1.4548629522323608,6.333261966705322,0.5267406105995178
1.3946408033370972,6.270832538604736,0.5231558084487915
1.3468033075332642,6.2651824951171875,0.5239203572273254
1.298246145248413,6.259347438812256,0.5247146487236023
1.2440266609191895,6.218574523925781,0.522563636302948
1.1837531328201294,6.139000415802002,0.5171298980712891
1.1409889459609985,6.146928310394287,0.5190742611885071
1.095078468322754,6.139305591583252,0.5195679664611816
1.0357452630996704,6.058648586273193,0.5136646032333374
0.9903025031089783,6.05033540725708,0.5138894319534302
0.9514133334159851,6.080083847045898,0.5173658132553101
0.8993003964424133,6.020984649658203,0.513292133808136
0.8518939018249512,5.988434791564941,0.5114900469779968
0.8080015182495117,5.986551284790039,0.512091875076294
0.22055712342262268,1.7257896661758423,0.14781250059604645
0.2093190997838974,1.7350019216537476,0.1487974226474762
0.19148150086402893,1.6861205101013184,0.14480070769786835
0.18345756828784943,1.7222164869308472,0.14810620248317719
0.1722254604101181,1.7311712503433228,0.1490902304649353
0.15915966033935547,1.7245852947235107,0.1486455351114273
0.14472298324108124,1.6984989643096924,0.14650501310825348
0.1303577572107315,1.6684166193008423,0.14402323961257935
0.11875028163194656,1.6692664623260498,0.14421536028385162
0.1034165695309639,1.6117773056030273,0.13936974108219147
0.09845124185085297,1.7251291275024414,0.14931043982505798
0.0873606726527214,1.745201587677002,0.15108612179756165
0.07517333328723907,1.7457610368728638,0.1511768251657486
0.06242135539650917,1.730678915977478,0.14991992712020874
0.22398073971271515,7.694478511810303,0.6667834520339966
0.16892750561237335,7.664708137512207,0.6644893884658813
0.1153135597705841,7.638424873352051,0.6625080704689026
0.06190183758735657,7.607919692993164,0.6596963405609131
0.009008209221065044,7.5848259925842285,0.6575605869293213
-0.04353906586766243,7.557474136352539,0.6550880670547485
-0.09687246382236481,7.541419982910156,0.6536259651184082
-0.148734450340271,7.509446144104004,0.6508176326751709
-0.2003549039363861,7.48490047454834,0.6486499309539795
-0.25138992071151733,7.456152439117432,0.645711362361908
-0.30345872044563293,7.462055206298828,0.645805835723877
-0.35525137186050415,7.4598188400268555,0.6452265977859497
-0.29655906558036804,5.420926094055176,0.4686131477355957
-0.3337041735649109,5.411004543304443,0.4675208032131195
-0.37021881341934204,5.393064498901367,0.46571460366249084
-0.40564432740211487,5.367165565490723,0.4629287123680115
-0.4420657157897949,5.3565449714660645,0.46148502826690674
-0.47172537446022034,5.264214515686035,0.4530242681503296
-0.4480304419994354,4.6371636390686035,0.39864015579223633
-0.47743239998817444,4.606896877288818,0.3956378102302551
-0.508513867855072,4.595800399780273,0.3942497968673706
-0.5392540097236633,4.584537982940674,0.3926427960395813
-0.5665218234062195,4.542108535766602,0.38838157057762146
-0.5967844724655151,4.530459880828857,0.3867873251438141
-0.6282600164413452,4.526282787322998,0.38584524393081665
-0.6574586629867554,4.506479740142822,0.38359174132347107
-0.6879937648773193,4.498068809509277,0.3822396397590637
-0.7181144952774048,4.485579013824463,0.38035067915916443
-0.7449437975883484,4.457625865936279,0.3771894574165344
-0.7743191719055176,4.444817066192627,0.3753272593021393
-0.802431046962738,4.424106597900391,0.37281304597854614
-0.8267296552658081,4.384084224700928,0.3686968684196472
-0.8494385480880737,4.340190887451172,0.3641500174999237
-0.7441071271896362,3.666604995727539,0.3067987859249115
-0.7675260901451111,3.653921127319336,0.30493178963661194
-0.9357558488845825,4.306835651397705,0.35847339034080505
-0.9724778532981873,4.330744743347168,0.3595210015773773
-0.9990662336349487,4.308825969696045,0.3567768335342407
-1.0289462804794312,4.3019304275512695,0.35506609082221985
-1.0563271045684814,4.287411689758301,0.3527100086212158
-1.0816023349761963,4.2651801109313965,0.34974348545074463
-1.1111719608306885,4.257717132568359,0.34798428416252136
-1.136692762374878,4.234992504119873,0.34499701857566833
-1.1664189100265503,4.22705078125,0.34316280484199524
-1.1928794384002686,4.21172571182251,0.34057167172431946
-1.2137529850006104,4.1775360107421875,0.3364813029766083
-1.2445005178451538,4.176768779754639,0.33509159088134766
-1.2689756155014038,4.1532721519470215,0.33187317848205566
-1.3006360530853271,4.15179443359375,0.3304113447666168
-1.3264222145080566,4.135621070861816,0.3276461064815521
-1.3542605638504028,4.12676477432251,0.3254200518131256
-1.379597783088684,4.110321998596191,0.3226112127304077
-1.3980419635772705,4.0713276863098145,0.3180144429206848
-1.423755168914795,4.054327487945557,0.3151649832725525
-1.4572855234146118,4.059144020080566,0.31390175223350525
-1.4898831844329834,4.064086437225342,0.31255781650543213
-1.5144187211990356,4.046878814697266,0.309521347284317
-1.5395705699920654,4.029229640960693,0.30642247200012207
-1.5647974014282227,4.011330604553223,0.3033100664615631
-1.5957404375076294,4.007712364196777,0.3012021481990814
-1.6254653930664062,4.004365921020508,0.2990139126777649
-1.6462769508361816,3.979194164276123,0.2952127456665039
-1.6706562042236328,3.9607691764831543,0.2918781042098999
-1.692047119140625,3.934922218322754,0.2880019545555115
-1.719440221786499,3.9232430458068848,0.2850795090198517
-1.7344043254852295,3.887007236480713,0.2803090810775757
-1.7666927576065063,3.889782667160034,0.27837029099464417
-1.7773466110229492,3.842238426208496,0.27275967597961426
-1.8140966892242432,3.85111403465271,0.2711679935455322
-1.8304569721221924,3.817667007446289,0.2664628326892853
-1.842089056968689,3.777620553970337,0.2613156735897064
-1.8709672689437866,3.7723307609558105,0.2585620880126953
-1.8901567459106445,3.7455191612243652,0.2542710304260254
-1.926719307899475,3.753387212753296,0.2523247003555298
-1.9585906267166138,3.7546889781951904,0.24977873265743256
-1.9764118194580078,3.7279272079467773,0.24532748758792877
-1.9947956800460815,3.7006499767303467,0.24078384041786194
-2.0355472564697266,3.714247703552246,0.238883838057518
-1.714882493019104,3.080681085586548,0.1957251876592636
-1.7350329160690308,3.069575786590576,0.19259272515773773
-0.8471259474754333,1.4746800661087036,0.09127752482891083
-0.8574132323265076,1.4688217639923096,0.08966574817895889
-0.8631100058555603,1.4565187692642212,0.08762723952531815
-0.8685451149940491,1.4442847967147827,0.08559773862361908
-0.8866508603096008,1.451661229133606,0.08464512228965759
-0.8969331979751587,1.4454346895217896,0.08284760266542435
-0.8938096165657043,1.4198815822601318,0.07994499057531357
-0.8989244103431702,1.407497525215149,0.07779327034950256
-0.8895779252052307,1.3718515634536743,0.07431504130363464
-0.898668110370636,1.3660132884979248,0.07247099280357361
-0.9096686244010925,1.3635051250457764,0.07076114416122437
-2.4092047214508057,3.55808424949646,0.18024729192256927
-1.4078173637390137,2.049232006072998,0.10120196640491486
-1.344927430152893,1.9315218925476074,0.09287940710783005
-1.2364802360534668,1.7502737045288086,0.08168914914131165
-1.3646981716156006,1.937911033630371,-0.06469375640153885
-1.2862473726272583,1.8544732332229614,-0.06491382420063019
-1.2719998359680176,1.864155888557434,-0.06823763996362686
-1.2720342874526978,1.8923124074935913,-0.07200271636247635
-1.348617434501648,2.038212776184082,-0.08045964688062668
-1.1649503707885742,1.7897216081619263,-0.07317300140857697
-1.3377655744552612,2.086949586868286,-0.08803662657737732
-1.407665491104126,2.23203182220459,-0.09701558947563171
-2.142144203186035,3.6842710971832275,-0.18144704401493073
-0.8118223547935486,1.4193998575210571,-0.0713924765586853
-0.9256395697593689,1.6463638544082642,-0.08450216799974442
-1.7104071378707886,3.0940680503845215,-0.16190682351589203
-1.9702444076538086,3.6233575344085693,-0.1930919736623764
-1.9860645532608032,3.716555118560791,-0.2015393227338791
-1.6142960786819458,3.0743751525878906,-0.16956306993961334
-1.8344281911849976,3.553377389907837,-0.1991165578365326
-1.6465363502502441,3.24613356590271,-0.18478012084960938
-1.7254860401153564,3.463853597640991,-0.2001028209924698
-1.5857027769088745,3.2411839962005615,-0.18993480503559113
-1.5072448253631592,3.1359808444976807,-0.18629954755306244
-1.460008144378662,3.093489170074463,-0.18621917068958282
-1.4342150688171387,3.0967555046081543,-0.18878987431526184
-1.4487613439559937,3.1885883808135986,-0.19682933390140533
-1.3995126485824585,3.1378698348999023,-0.19599400460720062
-1.3585820198059082,3.104613780975342,-0.19613978266716003
-1.3253896236419678,3.0890724658966064,-0.19729483127593994
-1.2851593494415283,3.0551507472991943,-0.19721737504005432
-1.2471020221710205,3.024367570877075,-0.19728316366672516
-1.2258373498916626,3.032881736755371,-0.19983449578285217
-1.183910846710205,2.990701675415039,-0.19892464578151703
-1.144108533859253,2.951700210571289,-0.19817139208316803
-1.1097004413604736,2.922989845275879,-0.19801265001296997
-1.0767295360565186,2.897738456726074,-0.19808870553970337
-1.045363426208496,2.8758952617645264,-0.19821198284626007
-1.0169291496276855,2.8611178398132324,-0.19879169762134552
-0.9865797162055969,2.838590383529663,-0.1987847238779068
-0.9554752707481384,2.8120462894439697,-0.19846150279045105
-0.9279162287712097,2.7964940071105957,-0.19884784519672394
-0.9007452130317688,2.780662775039673,-0.19910091161727905
-0.8751104474067688,2.7682769298553467,-0.19958433508872986
-0.8466264009475708,2.7443840503692627,-0.19919796288013458
-0.8184957504272461,2.7202389240264893,-0.19877539575099945
-0.799160361289978,2.7258644104003906,-0.20037972927093506
-0.7676682472229004,2.690236806869507,-0.19895526766777039
-0.7404263615608215,2.665410041809082,-0.1982731819152832
-0.7136790752410889,2.6403086185455322,-0.19754761457443237
-0.6941719651222229,2.641366720199585,-0.1987241804599762
-0.6657701730728149,2.608377695083618,-0.19722694158554077
-0.6506791114807129,2.628135919570923,-0.19973604381084442
-0.6251015663146973,2.602196216583252,-0.19874021410942078
-0.6034721732139587,2.5912017822265625,-0.19887715578079224
-0.5835834741592407,2.5876753330230713,-0.19949211180210114
-0.5578535795211792,2.557387351989746,-0.1979730725288391
-0.5331055521965027,2.5307374000549316,-0.19673758745193481
-0.5108069181442261,2.511404037475586,-0.19604085385799408
-0.4963005483150482,2.530104398727417,-0.19832012057304382
-0.4756275713443756,2.5181446075439453,-0.1980697512626648
-0.45438507199287415,2.502203941345215,-0.1974712312221527
-0.4338257610797882,2.489966630935669,-0.19717460870742798
-0.41521379351615906,2.485171318054199,-0.19745317101478577
-0.39174845814704895,2.4494783878326416,-0.19527491927146912
-0.37217897176742554,2.4367144107818604,-0.19477012753486633
-0.35728317499160767,2.454627513885498,-0.19671495258808136
-0.3366059958934784,2.433906316757202,-0.19557806849479675
-0.3191705346107483,2.4322707653045654,-0.19596648216247559
-0.29457661509513855,2.372549057006836,-0.19166894257068634
-0.2788584530353546,2.38224720954895,-0.19280940294265747
-0.26725369691848755,2.4305455684661865,-0.19709226489067078
-0.24951256811618805,2.424560308456421,-0.19698648154735565
-0.23087337613105774,2.4107184410095215,-0.19625407457351685
-0.21204154193401337,2.3889548778533936,-0.19486571848392487
-0.1978960782289505,2.4213926792144775,-0.19774135947227478
-0.17748630046844482,2.376098155975342,-0.1942773461341858
-0.16093623638153076,2.377249002456665,-0.19461481273174286
-0.1429312378168106,2.358869791030884,-0.1933649629354477
-0.12797963619232178,2.386993408203125,-0.19592496752738953
-0.11023624986410141,2.36448073387146,-0.19417443871498108
-0.09329640120267868,2.3535077571868896,-0.19337938725948334
-0.07715032994747162,2.3618693351745605,-0.19418223202228546
-0.06022405996918678,2.3545589447021484,-0.19370810687541962
-0.04419960826635361,2.3743703365325928,-0.19546771049499512
-0.02731347270309925,2.347371816635132,-0.1932150274515152
-0.01091748010367155,2.3397200107574463,-0.19256459176540375
0.0054036518558859825,2.3553123474121094,-0.19383658468723297
0.022065935656428337,2.3552160263061523,-0.1938267946243286
0.038310542702674866,2.3472213745117188,-0.19317540526390076
0.05460698902606964,2.3469135761260986,-0.19299781322479248
0.07090099900960922,2.346492290496826,-0.19282019138336182
0.08721236884593964,2.3459572792053223,-0.19264236092567444
0.10319686681032181,2.337529182434082,-0.1918259710073471
0.12054965645074844,2.352306842803955,-0.19292087852954865
0.13076937198638916,2.2465012073516846,-0.18398255109786987
0.1491476446390152,2.288301944732666,-0.18714575469493866
0.17091435194015503,2.3687872886657715,-0.193467915058136
0.18643414974212646,2.355928421020508,-0.19216787815093994
0.20175638794898987,2.3390636444091797,-0.19054873287677765
0.21971683204174042,2.3570384979248047,-0.1916218101978302
0.2390962690114975,2.386500120162964,-0.19362305104732513
0.2523161470890045,2.3538553714752197,-0.1905931830406189
0.2731102406978607,2.3907699584960938,-0.1932021975517273
0.28627821803092957,2.357896327972412,-0.19017314910888672
0.30009153485298157,2.336604356765747,-0.18794314563274384
0.3162533938884735,2.334526538848877,-0.1872645616531372
0.3340694308280945,2.3438990116119385,-0.18751031160354614
0.34976619482040405,2.3377254009246826,-0.18651849031448364
0.36690235137939453,2.339094638824463,-0.1861284375190735
0.38552987575531006,2.351950168609619,-0.18650701642036438
0.40170490741729736,2.349308729171753,-0.18566091358661652
0.4179622530937195,2.3465380668640137,-0.18480953574180603
0.43855854868888855,2.3666131496429443,-0.18575632572174072
0.4579726457595825,2.378868818283081,-0.1860806941986084
0.4814950227737427,2.410057783126831,-0.18772220611572266
0.49729371070861816,2.4029502868652344,-0.18639309704303741
0.5261709094047546,2.456658124923706,-0.18976832926273346
0.5449512600898743,2.460623025894165,-0.189285546541214
0.5680909752845764,2.483448028564453,-0.19022630155086517
0.5925774574279785,2.5098471641540527,-0.19128982722759247
0.6079521775245667,2.498243808746338,-0.18947334587574005
0.6328560709953308,2.524290084838867,-0.19050264358520508
0.6504455804824829,2.5199108123779297,-0.18922916054725647
0.6698948740959167,2.522972583770752,-0.188467875123024
0.6987560987472534,2.5596940517425537,-0.19010120630264282
0.7141891717910767,2.5474448204040527,-0.18811024725437164
0.746982991695404,2.5949454307556152,-0.19050553441047668
0.7738692164421082,2.619685411453247,-0.1912025362253189
0.7952566146850586,2.625605344772339,-0.19043025374412537
0.8227266073226929,2.6499104499816895,-0.19090943038463593
0.847994863986969,2.666600227355957,-0.19083881378173828
0.8774101734161377,2.6941027641296387,-0.1915065199136734
0.9085034728050232,2.725015163421631,-0.19239048659801483
0.9320846199989319,2.7336490154266357,-0.19155529141426086
0.958365797996521,2.7494571208953857,-0.19121284782886505
0.9868652820587158,2.7684781551361084,-0.19102713465690613
1.0221542119979858,2.8056180477142334,-0.19207845628261566
1.046901822090149,2.8132615089416504,-0.1910286545753479
1.0756745338439941,2.8317413330078125,-0.19062687456607819
1.1034235954284668,2.8462917804718018,-0.1899341642856598
1.1450793743133545,2.8929331302642822,-0.1912822425365448
1.182725191116333,2.9284188747406006,-0.19187040627002716
1.2188258171081543,2.9601728916168213,-0.19206400215625763
1.2599129676818848,3.0023694038391113,-0.192888543009758
1.2009382247924805,2.8072896003723145,-0.17851755023002625
1.146005630493164,2.627265691757202,-0.16530507802963257
1.1512106657028198,2.5910279750823975,-0.16124556958675385
1.163851022720337,2.5726799964904785,-0.1583026647567749
1.181484580039978,2.5647716522216797,-0.15598629415035248
1.199320673942566,2.55662202835083,-0.1536358743906021
1.2322046756744385,2.5800416469573975,-0.15309110283851624
1.5733397006988525,3.238521099090576,-0.1897033452987671
1.6420780420303345,3.322312116622925,-0.19203372299671173
1.7125244140625,3.4050753116607666,-0.19411060214042664
1.796156406402588,3.5115818977355957,-0.19733987748622894
1.391202688217163,2.675849199295044,-0.1481712907552719
1.4206870794296265,2.6869781017303467,-0.14647641777992249
1.4467493295669556,2.6909239292144775,-0.14436066150665283
1.4499448537826538,2.653839349746704,-0.1400238424539566
1.4315434694290161,2.5794825553894043,-0.1337869018316269
1.4127870798110962,2.5051651000976562,-0.12759742140769958
1.3528391122817993,2.35982608795166,-0.11791501194238663
1.3487637042999268,2.317244291305542,-0.11353576928377151
1.3263623714447021,2.244546413421631,-0.10776221007108688
1.3379597663879395,2.228684425354004,-0.10467682033777237
1.349022388458252,2.212996482849121,-0.10160534083843231
1.367862582206726,2.210714817047119,-0.09909239411354065
1.3746793270111084,2.188192367553711,-0.09561742842197418
1.3856130838394165,2.172157049179077,-0.09240514785051346
1.386993169784546,2.1435515880584717,-0.08868222683668137
1.401412010192871,2.13427472114563,-0.08569519221782684
1.4100111722946167,2.1146647930145264,-0.08216787874698639
1.4279872179031372,2.1121180057525635,-0.07934235036373138
1.4288777112960815,2.083287000656128,-0.07543815672397614
1.4475971460342407,2.0799617767333984,-0.07237828522920609
1.4607658386230469,2.0708460807800293,-0.06911936402320862
1.4705334901809692,2.054440498352051,-0.06535810977220535
1.4657272100448608,2.019505262374878,-0.061039429157972336
1.4578648805618286,1.9818261861801147,-0.05664221569895744
2.1121723651885986,2.977141857147217,0.12234888970851898
2.0799829959869385,2.980482816696167,0.12694306671619415
2.6139333248138428,3.802349805831909,0.16706399619579315
3.1692593097686768,4.684889793395996,0.2120741903781891
3.1291518211364746,4.702076435089111,0.21881134808063507
3.1154348850250244,4.752930164337158,0.22666774690151215
3.0717625617980957,4.762393474578857,0.23249150812625885
1.6243795156478882,2.5607075691223145,0.12783439457416534
1.6309787034988403,2.611727476119995,0.13305604457855225
1.599823236465454,2.6033213138580322,0.13519494235515594
3.008957862854004,4.979791641235352,0.26338714361190796
2.9773237705230713,5.0075507164001465,0.2693799138069153
2.9501187801361084,5.04141902923584,0.2756405472755432
2.8767340183258057,5.002492427825928,0.2778063416481018
2.799168586730957,4.952104091644287,0.2791188955307007
2.7322919368743896,4.91328239440918,0.28074654936790466
2.66569185256958,4.873996257781982,0.28222957253456116
2.5998339653015137,4.8384270668029785,0.2837050259113312
2.5364034175872803,4.805639743804932,0.28528842329978943
2.4794423580169678,4.77795934677124,0.28690069913864136
2.4137537479400635,4.732541561126709,0.28735077381134033
2.359544038772583,4.711617469787598,0.28908097743988037
2.2973852157592773,4.672550201416016,0.2896352708339691
1.2329535484313965,2.553231954574585,0.1598271280527115
1.2067172527313232,2.544041395187378,0.16077813506126404
1.1962554454803467,2.570375919342041,0.16387222707271576
1.1741129159927368,2.5718681812286377,0.16539037227630615
1.1622823476791382,2.594214916229248,0.16820891201496124
1.1504459381103516,2.616410732269287,0.17102210223674774
2.069972515106201,4.801536560058594,0.3163112998008728
2.05311918258667,4.8593831062316895,0.3224485516548157
2.023847818374634,4.888311386108398,0.32669520378112793
1.999985694885254,4.927375793457031,0.3315677046775818
1.979999303817749,4.977207660675049,0.33720898628234863
2.0171310901641846,5.180233478546143,0.3531898558139801
2.00587797164917,5.26372766494751,0.361050546169281
1.9831359386444092,5.317911624908447,0.3669355511665344
1.9593703746795654,5.368016719818115,0.37253260612487793
1.9297574758529663,5.403359889984131,0.37714657187461853
1.8991926908493042,5.4428791999816895,0.38187769055366516
1.8775012493133545,5.507880687713623,0.38836607336997986
1.9132384061813354,5.746511936187744,0.40719443559646606
1.931020736694336,5.9373955726623535,0.42275044322013855
1.889561653137207,5.950506210327148,0.42573282122612
1.8728158473968506,6.049489974975586,0.4347052276134491
1.8428360223770142,6.107355117797852,0.4406799376010895
1.8111940622329712,6.161306381225586,0.4464133083820343
1.7822387218475342,6.222260475158691,0.4526521563529968
1.7514164447784424,6.2793660163879395,0.4586629271507263
1.728480577468872,6.370354652404785,0.46702298521995544
1.686120629310608,6.397634983062744,0.47060027718544006
1.649990439414978,6.44709587097168,0.4758214056491852
0.8080569505691528,3.251840353012085,0.24078914523124695
1.541532039642334,6.393404006958008,0.47497788071632385
0.7795011401176453,3.334691286087036,0.24855026602745056
1.4289816617965698,6.319351673126221,0.47227370738983154
1.371518850326538,6.272116661071777,0.46999308466911316
1.3222923278808594,6.258642673492432,0.47024303674697876
1.2747766971588135,6.248469829559326,0.47073641419410706
1.216185212135315,6.180606842041016,0.4668869376182556
1.1552212238311768,6.10099458694458,0.46196332573890686
1.1098382472991943,6.097419261932373,0.46261894702911377
1.0739495754241943,6.1472296714782715,0.46735307574272156
1.0173739194869995,6.073805809020996,0.4627230167388916
0.9726638793945312,6.065232753753662,0.46303418278694153
0.9261581897735596,6.048750400543213,0.46277618408203125
0.8835676908493042,6.055028915405273,0.463949590921402
0.8349214792251587,6.018588066101074,0.4618310332298279
0.22047269344329834,1.6759735345840454,0.12879766523838043
0.20880798995494843,1.677443027496338,0.1291075348854065
0.1980248987674713,1.6865695714950562,0.13001422584056854
0.18777315318584442,1.703392744064331,0.13151350617408752
0.17579622566699982,1.7046537399291992,0.1317305862903595
0.161577045917511,1.6825690269470215,0.13014836609363556
0.14769409596920013,1.6603689193725586,0.1285599321126938
0.13932053744792938,1.700156331062317,0.1317775547504425
0.12553754448890686,1.6777806282043457,0.13018706440925598
0.11438443511724472,1.6863709688186646,0.13097095489501953
0.1035219132900238,1.7026711702346802,0.13229233026504517
0.09285501390695572,1.726678729057312,0.1342204064130783
0.08171101659536362,1.7467271089553833,0.13584868609905243
0.06702148914337158,1.688881278038025,0.13142487406730652
0.2526484727859497,7.722505569458008,0.6013140678405762
0.19804392755031586,7.69290828704834,0.599199116230011
0.14356693625450134,7.655162811279297,0.5962120890617371
0.09002653509378433,7.644291877746582,0.59534752368927
0.0358034186065197,7.621367454528809,0.5935735702514648
-0.017116013914346695,7.582484245300293,0.5905851721763611
-0.06960048526525497,7.5549187660217285,0.5885064601898193
-0.1217707097530365,7.538693428039551,0.5870984196662903
-0.17357945442199707,7.514336585998535,0.5848765969276428
-0.22439411282539368,7.470163345336914,0.5811434984207153
-0.2763199210166931,7.445071697235107,0.5789206027984619
-0.3283579647541046,7.4507856369018555,0.5791265964508057
-0.27410274744033813,5.371374130249023,0.41734856367111206
-0.31494271755218506,5.4315900802612305,0.4216952621936798
-0.3519609272480011,5.421558856964111,0.42048612236976624
-0.38784244656562805,5.387920379638672,0.41746217012405396
-0.4245595633983612,5.377385139465332,0.4162573516368866
-0.46053728461265564,5.358834266662598,0.4144531786441803
-0.43572989106178284,4.688534259796143,0.3623071014881134
-0.46147575974464417,4.619589805603027,0.3565066456794739
-0.49215829372406006,4.600814342498779,0.3545243740081787
-0.5211606025695801,4.574158668518066,0.35196545720100403
-0.5509858131408691,4.555029392242432,0.3500030040740967
-0.5836305618286133,4.558874607086182,0.34982219338417053
-0.6132266521453857,4.539326190948486,0.34786394238471985
-0.641631007194519,4.511871337890625,0.3450844883918762
-0.6720134019851685,4.5035858154296875,0.34377139806747437
-0.7005084753036499,4.48354959487915,0.34158042073249817
-0.7291627526283264,4.46327018737793,0.3393831253051758
-0.7614974975585938,4.465848922729492,0.3389414846897125
-0.7884044647216797,4.4375200271606445,0.3361491560935974
-0.8136002421379089,4.401379108428955,0.33254456520080566
-0.842220664024353,4.38815450668335,0.3307093381881714
-0.7308868169784546,3.671706438064575,0.2760235667228699
-0.7547746896743774,3.6589953899383545,0.2743835151195526
-0.7793707847595215,3.6499319076538086,0.2730313241481781
-0.9561827182769775,4.329228401184082,0.32295116782188416
-0.9856006503105164,4.322737216949463,0.32145968079566956
-1.0150161981582642,4.316035747528076,0.31996604800224304
-1.0410053730010986,4.293918132781982,0.3173381984233856
-1.0727344751358032,4.294246673583984,0.3163750469684601
-1.0991485118865967,4.2715840339660645,0.31372034549713135
-1.1262181997299194,4.256589412689209,0.3114858865737915
-1.153033971786499,4.241454601287842,0.30921411514282227
-1.1817513704299927,4.233668804168701,0.307496041059494
-1.2068778276443481,4.210489749908447,0.3046482801437378
-1.2355527877807617,4.1982316970825195,0.3025904893875122
-1.2599509954452515,4.174825191497803,0.2996993362903595
-1.2812354564666748,4.144012451171875,0.29616010189056396
-1.3139623403549194,4.150245189666748,0.2952825725078583
-1.344846487045288,4.148675441741943,0.29383692145347595
-1.3667824268341064,4.117011547088623,0.2902399003505707
-1.3928637504577637,4.1001691818237305,0.2877340018749237
-1.4152655601501465,4.076141357421875,0.2845454514026642
-1.4400497674942017,4.059330463409424,0.2818797528743744
-1.4756196737289429,4.071572780609131,0.28122133016586304
-1.495757818222046,4.039440155029297,0.2774799168109894
-1.5215712785720825,4.021607875823975,0.2747166156768799
-1.5486623048782349,4.011414051055908,0.27236345410346985
-1.5812286138534546,4.015614986419678,0.27096322178840637
-1.605476975440979,3.9977428913116455,0.2680656909942627
-1.6229466199874878,3.9613702297210693,0.26390525698661804
-1.6449673175811768,3.9355452060699463,0.2604484260082245
-1.6790134906768799,3.9425103664398193,0.25905081629753113
-1.7052974700927734,3.9313838481903076,0.2564413249492645
-1.731924057006836,3.9198992252349854,0.25379014015197754
-1.7544057369232178,3.8972389698028564,0.2503799796104431
-1.7688853740692139,3.856569528579712,0.24580252170562744
-1.7944917678833008,3.8448996543884277,0.24298885464668274
-1.8099836111068726,3.8119208812713623,0.23885059356689453
-1.842881679534912,3.8136401176452637,0.23683589696884155
-1.8590607643127441,3.7798995971679688,0.23260298371315002
-1.8885911703109741,3.7741427421569824,0.23000147938728333
-1.9028480052947998,3.740920305252075,0.2257053405046463
-1.9385771751403809,3.7490830421447754,0.22388537228107452
-1.9647161960601807,3.735642671585083,0.22067049145698547
-1.9795247316360474,3.701483726501465,0.2162390798330307
-2.0150399208068848,3.7091221809387207,0.21414554119110107
-1.7118306159973145,3.101397752761841,0.17688940465450287
-1.7257511615753174,3.0759570598602295,0.17319585382938385
-0.838758111000061,1.4710153341293335,0.0817493200302124
-0.848325788974762,1.4655976295471191,0.0803215354681015
-0.8499608039855957,1.4466537237167358,0.07816515117883682
-0.8682076930999756,1.45406973361969,0.07733716070652008
-0.8822394609451294,1.4548155069351196,0.07615721225738525
-0.8957356214523315,1.4557979106903076,0.07494854182004929
-0.8888136744499207,1.423437237739563,0.07201708853244781
-0.8819997906684875,1.3909181356430054,0.06906084716320038
-0.895627498626709,1.391555905342102,0.06773179769515991
-0.8725433349609375,1.3368275165557861,0.06376220285892487
-0.8989860415458679,1.3568915128707886,0.06328664720058441
-2.3915164470672607,3.5567474365234375,0.16202865540981293
-1.1770225763320923,1.701587438583374,0.0735662430524826
-1.3904523849487305,1.9812113046646118,0.08320128917694092
-1.3173747062683105,1.8853893280029297,-0.05852657929062843
-1.279355525970459,1.8593881130218506,-0.06035315990447998
-1.5263162851333618,2.253309488296509,-0.07623609900474548
-1.2103893756866455,1.8163039684295654,-0.06386850774288177
-1.2748234272003174,1.9421191215515137,-0.07065259665250778
-1.2860466241836548,1.9906213283538818,-0.07480652630329132
-1.2104460000991821,1.9044920206069946,-0.07380963116884232
-1.252816081047058,2.002293109893799,-0.0798252671957016
-1.1502394676208496,1.8682867288589478,-0.07649068534374237
-0.8380647301673889,1.454209566116333,-0.06535796076059341
-2.1463088989257812,3.785938024520874,-0.17361238598823547
-1.7262852191925049,3.095048666000366,-0.14469516277313232
-2.0524098873138428,3.744074821472168,-0.17828647792339325
-2.0529253482818604,3.8102340698242188,-0.18468299508094788
-2.01497483253479,3.803774118423462,-0.1875091791152954
-1.9843780994415283,3.810842514038086,-0.1908966600894928
-1.944146752357483,3.8006815910339355,-0.1933397352695465
-1.8767223358154297,3.734060287475586,-0.19277802109718323
-1.8143490552902222,3.6734113693237305,-0.1923603117465973
-1.8029062747955322,3.7179291248321533,-0.19741792976856232
-1.5024958848953247,3.156526565551758,-0.16984181106090546
-1.4966098070144653,3.202291250228882,-0.17450694739818573
-1.5181787014007568,3.308236837387085,-0.1825139820575714
-1.4993369579315186,3.329505681991577,-0.18585942685604095
-1.4342100620269775,3.2473418712615967,-0.18334819376468658
-1.4216291904449463,3.2824978828430176,-0.18741683661937714
-1.3880153894424438,3.2670578956604004,-0.18854078650474548
-1.3722987174987793,3.2946829795837402,-0.19209416210651398
-1.3352530002593994,3.2718420028686523,-0.19264927506446838
-1.3032723665237427,3.2593793869018555,-0.19376854598522186
-1.2687404155731201,3.239346981048584,-0.19441479444503784
-1.2250311374664307,3.193410634994507,-0.19340014457702637
-1.1815301179885864,3.147219657897949,-0.1922181397676468
-1.1509040594100952,3.133502960205078,-0.1929865926504135
-1.1185052394866943,3.1119563579559326,-0.19321277737617493
-1.0873939990997314,3.093916654586792,-0.19366465508937836
-1.0653455257415771,3.1014583110809326,-0.19556914269924164
-1.0257980823516846,3.057117223739624,-0.19416825473308563
-1.0042771100997925,3.0641379356384277,-0.1959938108921051
-0.965100884437561,3.0152366161346436,-0.19421295821666718
-0.9342550039291382,2.9921629428863525,-0.1940450817346573
-0.9106760621070862,2.9911680221557617,-0.19518589973449707
-0.8772019147872925,2.9563443660736084,-0.19410815834999084
-0.8565386533737183,2.962293863296509,-0.19567985832691193
-0.8231786489486694,2.923063278198242,-0.19425727427005768
-0.7983852028846741,2.9136722087860107,-0.19469350576400757
-0.7722816467285156,2.9004404544830322,-0.19484010338783264
-0.7420344352722168,2.867988109588623,-0.1936606466770172
-0.7201443314552307,2.8654353618621826,-0.19448085129261017
-0.6965020298957825,2.855138063430786,-0.1947757750749588
-0.6700352430343628,2.8333559036254883,-0.1941348910331726
-0.6478936672210693,2.830423355102539,-0.19479621946811676
-0.6229835152626038,2.8119845390319824,-0.19436858594417572
-0.6050616502761841,2.82378888130188,-0.1960292011499405
-0.5774821043014526,2.789694309234619,-0.1944774091243744
-0.5524511933326721,2.766879081726074,-0.19356727600097656
-0.5333503484725952,2.7745254039764404,-0.1948031336069107
-0.5047445893287659,2.728301525115967,-0.19223731756210327
-0.4857723116874695,2.731678009033203,-0.19315993785858154
-0.4693180322647095,2.7503044605255127,-0.19512872397899628
-0.44055652618408203,2.6957950592041016,-0.19178873300552368
-0.42425966262817383,2.718074321746826,-0.19392386078834534
-0.40127652883529663,2.6939353942871094,-0.1927413046360016
-0.38031575083732605,2.681180477142334,-0.1923733800649643
-0.35744014382362366,2.6528279781341553,-0.19083119928836823
-0.3368225693702698,2.639772653579712,-0.19028311967849731
-0.31596308946609497,2.6226890087127686,-0.1894482970237732
-0.2947390675544739,2.601592779159546,-0.1883305460214615
-0.27581530809402466,2.5957913398742676,-0.18831680715084076
-0.2569684386253357,2.5898592472076416,-0.18824312090873718
-0.23954692482948303,2.5993258953094482,-0.18918929994106293
-0.2213447242975235,2.6009111404418945,-0.18957190215587616
-0.20413728058338165,2.6179215908050537,-0.19109287858009338
-0.18592147529125214,2.6192502975463867,-0.19147533178329468
-0.16767394542694092,2.620457410812378,-0.19180741906166077
-0.1489243507385254,2.613769292831421,-0.19145841896533966
-0.12910974025726318,2.583601713180542,-0.1893966794013977
-0.11181190609931946,2.607788562774658,-0.19133064150810242
-0.09336231648921967,2.6007018089294434,-0.1909777671098709
-0.07458055764436722,2.577910900115967,-0.18943580985069275
-0.05695103108882904,2.5939438343048096,-0.19063055515289307
-0.03872852399945259,2.586483955383301,-0.19010816514492035
-0.020484695211052895,2.594480514526367,-0.19073167443275452
-0.0024457178078591824,2.5711822509765625,-0.18906287848949432
0.015477973967790604,2.5789270401000977,-0.18965382874011993
0.03330596908926964,2.5709750652313232,-0.1889595091342926
0.05131148919463158,2.5784807205200195,-0.18941058218479156
0.06839986145496368,2.5469157695770264,-0.18700139224529266
0.08668515831232071,2.554163932800293,-0.18745051324367523
0.10473164916038513,2.561295986175537,-0.1878843456506729
0.12398214638233185,2.5916597843170166,-0.18988294899463654
0.14067478477954865,2.567418336868286,-0.18788917362689972
0.15898087620735168,2.5741772651672363,-0.18817418813705444
0.18040628731250763,2.619649648666382,-0.19129015505313873
0.19451148808002472,2.56396484375,-0.1870269775390625
0.21289634704589844,2.57035493850708,-0.18714627623558044
0.2299850583076477,2.561091423034668,-0.18613477051258087
0.25000372529029846,2.5827343463897705,-0.18737559020519257
0.2650381624698639,2.5499329566955566,-0.18467044830322266
0.2870689630508423,2.5867841243743896,-0.18702316284179688
0.30309486389160156,2.5693068504333496,-0.18529532849788666
0.3227563202381134,2.582662582397461,-0.18579690158367157
0.3406447768211365,2.5804085731506348,-0.1851799190044403
0.3631986677646637,2.608851909637451,-0.1867598444223404
0.3813365399837494,2.6063072681427,-0.18613305687904358
0.39457497000694275,2.5728578567504883,-0.18316718935966492
0.4123009443283081,2.570131778717041,-0.1823972761631012
0.43136245012283325,2.5749588012695312,-0.18216820061206818
0.45198559761047363,2.58729887008667,-0.18247011303901672
0.47658318281173706,2.61859393119812,-0.18409763276576996
0.500415563583374,2.6459455490112305,-0.18530498445034027
0.5216163992881775,2.6578023433685303,-0.18542027473449707
0.5400102734565735,2.654193162918091,-0.184456929564476
0.5705232620239258,2.707641363143921,-0.18744896352291107
0.5896672010421753,2.7036068439483643,-0.18643637001514435
0.6116390824317932,2.714782238006592,-0.1863435059785843
0.6320265531539917,2.7181904315948486,-0.1857190579175949
0.649014413356781,2.706247568130493,-0.18404722213745117
0.6715700626373291,2.7168807983398438,-0.18391306698322296
0.7013279795646667,2.75370192527771,-0.18550291657447815
0.7320018410682678,2.7941784858703613,-0.18722043931484222
0.7571799159049988,2.811779737472534,-0.1873895227909088
0.7818748354911804,2.825333595275879,-0.18726813793182373
0.8079538941383362,2.842402935028076,-0.1873689442873001
0.832307755947113,2.8517119884490967,-0.18688447773456573
0.8584975004196167,2.8684632778167725,-0.1868152916431427
0.883811354637146,2.8812623023986816,-0.18648074567317963
0.9085004925727844,2.890026807785034,-0.18586087226867676
0.9333775043487549,2.8985798358917236,-0.18522275984287262
0.9559911489486694,2.8995213508605957,-0.18399114906787872
0.9806761741638184,2.90783953666687,-0.18320444226264954
1.00819993019104,2.923281192779541,-0.18284909427165985
1.0181957483291626,2.886866569519043,-0.17923776805400848
1.0356162786483765,2.872483253479004,-0.17701490223407745
1.103606939315796,2.9972469806671143,-0.183202862739563
1.1545052528381348,3.069974422454834,-0.18608435988426208
1.1827181577682495,3.08023738861084,-0.18513648211956024
1.221186637878418,3.115638256072998,-0.18566974997520447
1.2526214122772217,3.1326851844787598,-0.18501482903957367
1.2884563207626343,3.1604108810424805,-0.18491630256175995
1.3478084802627563,3.2415661811828613,-0.18783147633075714
1.3825620412826538,3.2609565258026123,-0.18710146844387054
1.1281205415725708,2.6104605197906494,-0.14827704429626465
1.148831844329834,2.6100518703460693,-0.14668352901935577
1.1600333452224731,2.588113307952881,-0.14388927817344666
1.1734695434570312,2.569303035736084,-0.14121374487876892
1.1929826736450195,2.5647168159484863,-0.1393583118915558
1.223527193069458,2.5849764347076416,-0.13876862823963165
1.244197964668274,2.5838687419891357,-0.1370142251253128
1.7720494270324707,3.6159353256225586,-0.18928079307079315
1.797614336013794,3.603459596633911,-0.18611349165439606
1.899392008781433,3.7446208000183105,-0.19074928760528564
1.952928066253662,3.7875373363494873,-0.19023026525974274
1.3810173273086548,2.633578062057495,-0.13031214475631714
1.388333797454834,2.6033411026000977,-0.1268554925918579
1.3554322719573975,2.501512050628662,-0.11994988471269608
1.3252698183059692,2.4069230556488037,-0.11349683254957199
1.3095680475234985,2.3398618698120117,-0.1084105521440506
1.3179084062576294,2.317338228225708,-0.10544368624687195
1.3253403902053833,2.29518985748291,-0.10248813033103943
1.3308645486831665,2.2694993019104004,-0.0993657037615776
1.3349586725234985,2.2399792671203613,-0.09600146859884262
1.3499559164047241,2.231076717376709,-0.09356003999710083
1.3523192405700684,2.202305793762207,-0.09029809385538101
1.3551404476165771,2.1731176376342773,-0.08694907277822495
1.3553158044815063,2.1408324241638184,-0.08350802212953568
1.3884199857711792,2.161494731903076,-0.08207911252975464
1.3988373279571533,2.1455514430999756,-0.0791718140244484
1.398497462272644,2.113173007965088,-0.07563643902540207
1.41645085811615,2.110687732696533,-0.07317095249891281
1.435079574584961,2.1076178550720215,-0.07055909931659698
1.4452226161956787,2.0912866592407227,-0.06738921999931335
1.4584914445877075,2.082145929336548,-0.06450940668582916
1.4546607732772827,2.046708583831787,-0.06064362823963165
1.4590357542037964,2.0244576930999756,-0.057176344096660614
1.4536558389663696,1.9898476600646973,-0.053346212953329086
1.4672538042068481,1.9799292087554932,-0.05001254007220268
2.1235299110412598,2.969728469848633,0.10462316125631332
2.100188732147217,2.986111879348755,0.10934679210186005
2.1035172939300537,3.0360071659088135,0.1149369329214096
2.5913240909576416,3.799656629562378,0.14842209219932556
3.138946294784546,4.678055763244629,0.18817222118377686
3.1341865062713623,4.741961479187012,0.19578953087329865
3.106625556945801,4.77844762802124,0.20235151052474976
3.0834105014801025,4.821038722991943,0.20900335907936096
1.6288453340530396,2.5862600803375244,0.11453194916248322
1.6221612691879272,2.6179213523864746,0.11830926686525345
1.5820084810256958,2.5966498851776123,0.11965721845626831
2.9844136238098145,4.9778008460998535,0.2335323840379715
2.974778652191162,5.042327880859375,0.24062523245811462
2.9408388137817383,5.070982456207275,0.24594978988170624
2.8381519317626953,4.97673225402832,0.24512949585914612
2.7155349254608154,4.839620590209961,0.24185766279697418
2.6722769737243652,4.84559965133667,0.24559292197227478
2.6175920963287354,4.8308024406433105,0.248112291097641
2.5555338859558105,4.797488212585449,0.24950671195983887
2.5221195220947266,4.814932823181152,0.25344008207321167
2.4462413787841797,4.753008842468262,0.25305619835853577
2.3841118812561035,4.718789577484131,0.2540701627731323
2.3434345722198486,4.721510887145996,0.2569088041782379
1.2501063346862793,2.5634119510650635,0.14090928435325623
1.2351187467575073,2.5792179107666016,0.14316561818122864
1.2028464078903198,2.5598814487457275,0.14341731369495392
1.182660698890686,2.5648741722106934,0.14500199258327484
1.16441810131073,2.573108196258545,0.14675140380859375
1.1606121063232422,2.6131906509399414,0.15031076967716217
1.1274709701538086,2.5893185138702393,0.1500985473394394
2.0624399185180664,4.832425594329834,0.2822932302951813
2.037390947341919,4.8682475090026855,0.2864924669265747
2.0102155208587646,4.900443077087402,0.29052460193634033
1.9899134635925293,4.950613498687744,0.29552537202835083
1.9896080493927002,5.055501937866211,0.3037465214729309
2.0146520137786865,5.229731559753418,0.31623995304107666
1.9919559955596924,5.279952526092529,0.3212489187717438
1.9693666696548462,5.33399772644043,0.32656949758529663
1.9498486518859863,5.399082183837891,0.3324206471443176
1.9082345962524414,5.405497074127197,0.33460238575935364
1.8884893655776978,5.474177837371826,0.3406604826450348
1.8664997816085815,5.535078048706055,0.3462333381175995
1.837004542350769,5.57762336730957,0.3507300913333893
1.9095497131347656,5.939303398132324,0.37522652745246887
1.8761887550354004,5.982466220855713,0.37962809205055237
1.8502856492996216,6.051551818847656,0.38571828603744507
1.8270083665847778,6.127659320831299,0.3922581374645233
1.7973192930221558,6.185009479522705,0.3976462185382843
1.7708826065063477,6.261380672454834,0.4041989743709564
1.721881628036499,6.258714199066162,0.40548211336135864
1.7102770805358887,6.395017623901367,0.4158150851726532
1.6713120937347412,6.429336071014404,0.41954028606414795
0.8275509476661682,3.277036428451538,0.21460482478141785
1.5574957132339478,6.357263088226318,0.41780683398246765
0.7988433241844177,3.364197254180908,0.22173738479614258
1.4544563293457031,6.325387001037598,0.4181295931339264
1.3970485925674438,6.2783002853393555,0.4162308871746063
1.3582652807235718,6.310608863830566,0.41959118843078613
1.30085289478302,6.258881568908691,0.41739901900291443
1.239120364189148,6.179876804351807,0.4131467044353485
1.1901127099990845,6.161614894866943,0.41284579038619995
1.1392900943756104,6.131474018096924,0.4117598831653595
1.0923566818237305,6.116156101226807,0.41166606545448303
1.0542452335357666,6.154378890991211,0.4152122735977173
1.003138780593872,6.111478328704834,0.4132649004459381
0.9550979137420654,6.087532997131348,0.41231900453567505
0.9051381945610046,6.047797203063965,0.4103155732154846
0.8575574159622192,6.019222736358643,0.4090784192085266
0.22149823606014252,1.6375813484191895,0.1114901527762413
0.21604880690574646,1.6854504346847534,0.11495358496904373
0.20846977829933167,1.721723198890686,0.11760713160037994
0.1941494196653366,1.7037702798843384,0.11650805920362473
0.1850600242614746,1.7322046756744385,0.11858749389648438
0.1721518188714981,1.72568678855896,0.11828082799911499
0.15453310310840607,1.668639063835144,0.11451268941164017
0.13726213574409485,1.6036499738693237,0.11019205302000046
0.12787574529647827,1.6278709173202515,0.11194873601198196
0.11840444803237915,1.6559290885925293,0.11394448578357697
0.10503628849983215,1.6294869184494019,0.11219558119773865
0.09927640110254288,1.7313392162322998,0.11929020285606384
0.08802482485771179,1.7475467920303345,0.120493583381176
0.07503180205821991,1.7286406755447388,0.11928144097328186
0.2802864909172058,7.6953535079956055,0.5311123728752136
0.22728483378887177,7.720480442047119,0.5329071283340454
0.1714305430650711,7.675134658813477,0.5298649072647095
0.11782011389732361,7.656644821166992,0.5286998152732849
0.06437612324953079,7.626091480255127,0.5267264246940613
0.01133891474455595,7.579578876495361,0.5236745476722717
-0.041182830929756165,7.5716962814331055,0.5229253172874451
-0.09425771236419678,7.53616189956665,0.520272433757782
-0.14614051580429077,7.511963844299316,0.5184323191642761
-0.19769176840782166,7.4874091148376465,0.5165936350822449
-0.2491152286529541,7.466394424438477,0.5150246620178223
-0.3006334900856018,7.456715106964111,0.5142268538475037
-0.3526743948459625,7.462279796600342,0.5141551494598389
-0.2945108711719513,5.420600891113281,0.3731639087200165
-0.3320727050304413,5.418459892272949,0.3727215528488159
-0.3681367337703705,5.392723083496094,0.37067437171936035
-0.40438932180404663,5.374523639678955,0.3691655695438385
-0.44103142619132996,5.363855361938477,0.3681240975856781
-0.47278234362602234,5.294687747955322,0.36287182569503784
-0.4450758993625641,4.624110698699951,0.31649482250213623
-0.47545909881591797,4.605456829071045,0.31481412053108215
-0.5048902630805969,4.578840732574463,0.3126058876514435
-0.5358368158340454,4.567516803741455,0.3114588260650635
-0.5679630041122437,4.563683032989502,0.31072697043418884
-0.596312940120697,4.536538600921631,0.3083000183105469
-0.6253399848937988,4.516948223114014,0.306406706571579
-0.6565504670143127,4.512574672698975,0.3055589199066162
-0.6861016750335693,4.496406078338623,0.30392616987228394
-0.7141517400741577,4.468413829803467,0.30150407552719116
-0.7474108934402466,4.478845596313477,0.3015426993370056
-0.7766914963722229,4.4660210609436035,0.299955278635025
-0.8030553460121155,4.437662601470947,0.29734355211257935
-0.8308995962142944,4.416742324829102,0.2952412962913513
-0.8503594398498535,4.353549957275391,0.290336936712265
-0.7440952658653259,3.6713035106658936,0.24426457285881042
-0.7675172686576843,3.658583641052246,0.24269680678844452
-0.9403605461120605,4.335239887237549,0.2867374122142792
-0.9750996828079224,4.351614475250244,0.2869795858860016
-1.0017828941345215,4.3296308517456055,0.2846912443637848
-1.0269376039505005,4.299775123596191,0.2818916440010071
-1.0583746433258057,4.30026388168335,0.2810314893722534
-1.0817978382110596,4.270401954650879,0.2780783772468567
-1.112728476524353,4.27060079574585,0.2770991623401642
-1.1380610466003418,4.247873783111572,0.27463340759277344
-1.1680735349655151,4.2398176193237305,0.2731059789657593
-1.1932629346847534,4.216689109802246,0.27064192295074463
-1.2185866832733154,4.1973676681518555,0.2682683765888214
-1.2425233125686646,4.1741814613342285,0.2656501829624176
-1.27314293384552,4.17320442199707,0.26445508003234863
-1.2979729175567627,4.149318695068359,0.2617773711681366
-1.3220351934432983,4.125446796417236,0.2591411769390106
-1.3598792552947998,4.146082401275635,0.2592077851295471
-1.3877915143966675,4.136940002441406,0.25733405351638794
-1.4055211544036865,4.098100185394287,0.253633975982666
-1.4262042045593262,4.066279411315918,0.25035756826400757
-1.4576224088668823,4.0635294914245605,0.24886131286621094
-1.4734712839126587,4.02056884765625,0.24488024413585663
-1.5045932531356812,4.0216450691223145,0.24349264800548553
-1.5344046354293823,4.018840312957764,0.24187448620796204
-1.552191138267517,3.982844114303589,0.23823966085910797
-1.5903854370117188,3.997274398803711,0.23759791254997253
-1.6074544191360474,3.9611194133758545,0.2339305877685547
-1.6383205652236938,3.9612514972686768,0.23232106864452362
-1.667744755744934,3.957552671432495,0.23048987984657288
-1.6873950958251953,3.928131580352783,0.22711589932441711
-1.7151552438735962,3.916227340698242,0.2247357815504074
-1.7449381351470947,3.9117302894592285,0.22273927927017212
-1.7644540071487427,3.885974884033203,0.21947622299194336
