X,Y,Z
1.2519378662109375,4.2186455726623535,-0.434350848197937
1.2865264415740967,4.228945732116699,-0.4323814809322357
1.3127824068069458,4.209059238433838,-0.42726555466651917
1.3397753238677979,4.1927809715271,-0.42257437109947205
1.372384786605835,4.194905757904053,-0.41961926221847534
1.3949247598648071,4.167383193969727,-0.4135775566101074
1.4234492778778076,4.15814208984375,-0.4093840420246124
1.447279453277588,4.133845329284668,-0.4036809504032135
1.4792078733444214,4.131216526031494,-0.4000428020954132
1.5020564794540405,4.106832981109619,-0.3941309452056885
1.5300536155700684,4.096913814544678,-0.38964223861694336
1.558382511138916,4.086653709411621,-0.3850889205932617
1.5897403955459595,4.083342552185059,-0.38116776943206787
1.6124680042266846,4.058122158050537,-0.37501224875450134
1.637155532836914,4.040267467498779,-0.3695778548717499
1.658906102180481,4.014980792999268,-0.3634727895259857
1.6990492343902588,4.032416343688965,-0.36116600036621094
1.9541914463043213,4.550509929656982,-0.40307676792144775
1.9762661457061768,4.515992164611816,-0.3953472971916199
2.0276291370391846,4.549148082733154,-0.39360302686691284
2.081859588623047,4.585047245025635,-0.39190882444381714
2.1167044639587402,4.578164577484131,-0.38644492626190186
2.1475613117218018,4.564290523529053,-0.3802672326564789
2.178950548171997,4.5499114990234375,-0.3739630877971649
2.21077036857605,4.535059928894043,-0.3675512671470642
2.247291326522827,4.530646324157715,-0.3619332015514374
2.2725653648376465,4.505451679229736,-0.35457664728164673
2.306638479232788,4.497376441955566,-0.348561555147171
2.3470919132232666,4.498910903930664,-0.3431043326854706
1.724454641342163,3.250309705734253,-0.2437179833650589
1.7351210117340088,3.2184524536132812,-0.2372182160615921
1.7176817655563354,3.135122299194336,-0.22698916494846344
1.7357709407806396,3.116583824157715,-0.221458300948143
1.7720704078674316,3.1323349475860596,-0.2182895541191101
1.3308594226837158,2.315946578979492,-0.15814335644245148
1.2937583923339844,2.216022253036499,-0.1481265425682068
0.9529068470001221,1.6068370342254639,-0.10504588484764099
0.9615134596824646,1.5973317623138428,-0.10204055160284042
0.9681817889213562,1.584342122077942,-0.09879104793071747
0.9856249690055847,1.5875266790390015,-0.09640656411647797
0.996115505695343,1.5811419486999512,-0.09346522390842438
1.0065364837646484,1.5747010707855225,-0.09051311016082764
1.011155128479004,1.5579792261123657,-0.08683809638023376
1.0279432535171509,1.561160922050476,-0.08426473289728165
1.0317771434783936,1.5447386503219604,-0.08058475703001022
1.0534926652908325,1.553816556930542,-0.07807749509811401
2.5364906787872314,3.68904447555542,-0.178229421377182
2.569422483444214,3.6856155395507812,-0.17078426480293274
2.5996313095092773,3.6743314266204834,-0.16241636872291565
2.6143338680267334,3.64506196975708,-0.15313197672367096
2.6157066822052,3.5962774753570557,-0.14287427067756653
2.667442798614502,3.6168198585510254,-0.13498343527317047
2.6179604530334473,3.7005622386932373,0.2349664717912674
2.612264394760132,3.751652956008911,0.2457691729068756
2.5654852390289307,3.745465040206909,0.252684086561203
1.062150001525879,1.5744400024414062,0.1090293899178505
1.0630444288253784,1.6017659902572632,0.11364846676588058
1.0338186025619507,1.5834301710128784,0.11496497690677643
1.026885986328125,1.5969982147216797,0.11837971955537796
1.01067316532135,1.597872018814087,0.12080301344394684
0.9940922260284424,1.5988426208496094,0.12324889004230499
0.9909694790840149,1.6188807487487793,0.12695030868053436
0.9710981845855713,1.6124989986419678,0.12854263186454773
0.9548619985580444,1.6129069328308105,0.13060764968395233
1.3469454050064087,2.313281297683716,0.19011269509792328
1.355641484260559,2.3664605617523193,0.19725020229816437
1.7853659391403198,3.1704695224761963,0.26774659752845764
1.7540489435195923,3.1697216033935547,0.27111706137657166
1.774099349975586,3.2605323791503906,0.28225624561309814
1.754824161529541,3.2794058322906494,0.2872031331062317
2.3929977416992188,4.553919315338135,0.40322744846343994
2.3499984741210938,4.553840160369873,0.407516747713089
2.3137614727020264,4.563128471374512,0.41247352957725525
2.281780242919922,4.578710556030273,0.41791343688964844
2.251722574234009,4.601751327514648,0.42385414242744446
2.220433473587036,4.625074863433838,0.429845929145813
2.183436632156372,4.633569240570068,0.4343562424182892
2.154271364212036,4.655312538146973,0.4399868845939636
2.1179425716400146,4.662942409515381,0.4441964626312256
2.083627700805664,4.6779279708862305,0.4488982558250427
2.0554733276367188,4.70690393447876,0.454973042011261
1.9939100742340088,4.6567769050598145,0.45333465933799744
1.733871579170227,4.128534317016602,0.40466779470443726
1.707079529762268,4.147729396820068,0.4091344177722931
1.6680155992507935,4.1380767822265625,0.41066640615463257
1.6406421661376953,4.15700626373291,0.41504520177841187
1.6165447235107422,4.182759761810303,0.4200855493545532
1.5927907228469849,4.208146095275879,0.42507511377334595
1.5543755292892456,4.197277545928955,0.42618510127067566
1.5265190601348877,4.21543025970459,0.4301832914352417
1.5010746717453003,4.240726470947266,0.43494439125061035
1.4708027839660645,4.250990867614746,0.43815529346466064
1.4423280954360962,4.264515399932861,0.4416816234588623
1.4118361473083496,4.274400234222412,0.44464582204818726
1.3833144903182983,4.291585445404053,0.44828954339027405
1.3569492101669312,4.3159942626953125,0.4527208209037781
1.3282291889190674,4.3327484130859375,0.456370085477829
1.298014760017395,4.341602325439453,0.45915815234184265
1.2673710584640503,4.350363254547119,0.46183085441589355
1.2425119876861572,4.381505966186523,0.46668747067451477
1.2110282182693481,4.390047550201416,0.4691707491874695
1.1817978620529175,4.405789375305176,0.47243526577949524
1.1524475812911987,4.421324253082275,0.4757045805454254
1.1254031658172607,4.444057464599609,0.47975146770477295
1.0946100950241089,4.455513000488281,0.4822864830493927
1.0662916898727417,4.478121757507324,0.48602673411369324
1.0325136184692383,4.477829456329346,0.4873066544532776
1.0039576292037964,4.500010967254639,0.4910556674003601
0.9726252555847168,4.506662368774414,0.49310699105262756
0.9322972893714905,4.471330642700195,0.49047335982322693
0.7680540680885315,3.8189492225646973,0.41976115107536316
0.7394072413444519,3.816528797149658,0.42036399245262146
0.8377434015274048,4.497347831726074,0.4964127540588379
0.8220897912979126,4.590816974639893,0.5078003406524658
0.7900886535644531,4.596245288848877,0.5094931721687317
0.7596679925918579,4.613010883331299,0.5122705101966858
0.7293688654899597,4.633472919464111,0.5153191685676575
0.69944167137146,4.661491394042969,0.5192537903785706
0.6643835306167603,4.6507792472839355,0.5188839435577393
0.636161744594574,4.685922622680664,0.5236486196517944
0.6035183668136597,4.690089225769043,0.5249826312065125
0.572447657585144,4.709505081176758,0.5277950763702393
0.5401743054389954,4.721022129058838,0.5296329855918884
0.5100202560424805,4.759404182434082,0.5345274209976196
0.4766155183315277,4.762755393981934,0.5355057120323181
0.4449761211872101,4.781302452087402,0.5382141470909119
0.4137175977230072,4.807376384735107,0.5418020486831665
0.3794715404510498,4.8023362159729,0.5416087508201599
0.34686586260795593,4.828085899353027,0.5448146462440491
0.31432491540908813,4.849698066711426,0.5475775003433228
0.2801547348499298,4.847838401794434,0.5477179884910583
0.24741187691688538,4.868988037109375,0.5504838228225708
0.21484674513339996,4.901550769805908,0.5545713305473328
0.18031731247901917,4.910677433013916,0.5557384490966797
0.14643698930740356,4.9273176193237305,0.5576746463775635
0.11247317492961884,4.947601795196533,0.5600508451461792
0.07829437404870987,4.971531867980957,0.5628679394721985
0.043876875191926956,4.987460613250732,0.5648068189620972
0.008541489019989967,4.995387554168701,0.565871000289917
-0.02629578486084938,5.018627643585205,0.5683978199958801
-0.06146053969860077,5.037755012512207,0.5703640580177307
-0.09666971862316132,5.0449934005737305,0.5710107088088989
-0.13172662258148193,5.044225215911865,0.5707789063453674
-0.16806040704250336,5.0820088386535645,0.5749359130859375
-0.20401708781719208,5.080718994140625,0.5746980905532837
-0.2399609088897705,5.094749450683594,0.575940728187561
-0.2779463529586792,5.143428802490234,0.5809726715087891
-0.31307294964790344,5.1337080001831055,0.5794320106506348
-0.295767605304718,4.353052139282227,0.4909682273864746
-0.32305046916007996,4.3044657707214355,0.48515650629997253
-0.35202550888061523,4.290572166442871,0.48328840732574463
-0.382738322019577,4.299718856811523,0.48383086919784546
-0.4068644046783447,4.239109992980957,0.4764162003993988
-0.4309232234954834,4.186100482940674,0.4698941111564636
-0.45355692505836487,4.121323585510254,0.4620779752731323
-0.4772625267505646,4.075749397277832,0.45645642280578613
-11.884649276733398,95.72319793701172,10.708831787109375
-0.5241491198539734,3.995811939239502,0.4463673233985901
-0.5441681742668152,3.938399314880371,0.43919581174850464
-0.5678111910820007,3.9077279567718506,0.43502968549728394
-0.5865583419799805,3.850106954574585,0.42791011929512024
-0.6084022521972656,3.8153884410858154,0.4233666956424713
-0.6304304003715515,3.7843823432922363,0.4192658066749573
-0.6484272480010986,3.734196901321411,0.412882000207901
-0.6711798906326294,3.7145442962646484,0.4097997844219208
-0.6891244053840637,3.6679553985595703,0.4037632942199707
-0.7069025039672852,3.6251611709594727,0.3981936573982239
-0.7266886830329895,3.593665361404419,0.39389047026634216
-0.7404976487159729,3.535457134246826,0.3866969645023346
-0.7573038935661316,3.4963042736053467,0.3814148008823395
-0.7840561866760254,3.5025222301483154,0.38102614879608154
-0.7965229153633118,3.4480721950531006,0.3740849196910858
-0.8148572444915771,3.420001983642578,0.3700326681137085
-0.8340054154396057,3.3955576419830322,0.3663925528526306
-0.8538368940353394,3.374769449234009,0.36317217350006104
-0.8692919015884399,3.338911294937134,0.3580922484397888
-0.8859490156173706,3.310595750808716,0.35387587547302246
-0.9011994004249573,3.2784674167633057,0.349287211894989
-0.9175511002540588,3.2499008178710938,0.34508875012397766
-0.9358391165733337,3.2286927700042725,0.34169507026672363
-0.9517861604690552,3.1999099254608154,0.33741727471351624
-0.9688858389854431,3.178736448287964,0.3338432013988495
-0.982267439365387,3.1463444232940674,0.3291234076023102
-0.9942180514335632,3.110166072845459,0.3240368068218231
-1.0086034536361694,3.0812084674835205,0.3197110593318939
-1.0242432355880737,3.055762767791748,0.31575992703437805
-1.0461297035217285,3.0526742935180664,0.3139631748199463
-1.062811017036438,3.034775972366333,0.31063953042030334
-1.0701297521591187,2.9911603927612305,0.30472078919410706
-1.085511326789856,2.96928334236145,0.30101272463798523
-1.0980266332626343,2.9400081634521484,0.2965797483921051
-1.1170390844345093,2.92891263961792,0.29386046528816223
-1.1366732120513916,2.9215874671936035,0.2914772033691406
-1.1246981620788574,2.834587574005127,0.28120285272598267
-1.136875033378601,2.8089888095855713,0.2770484983921051
-1.1534501314163208,2.7940430641174316,0.27395209670066833
-1.1456825733184814,2.7216532230377197,0.2651669383049011
-1.1316380500793457,2.6390841007232666,0.25541871786117554
-1.1492221355438232,2.631707191467285,0.2530100345611572
-1.1704498529434204,2.631093740463257,0.25120723247528076
-1.1920100450515747,2.63018536567688,0.24935117363929749
-1.1922706365585327,2.583238363265991,0.24304865300655365
-1.2309619188308716,2.621285915374756,0.24470673501491547
-1.2450207471847534,2.606260299682617,0.2413947582244873
-1.2834908962249756,2.6398327350616455,0.242487832903862
-1.301913857460022,2.6310551166534424,0.23965400457382202
-1.309281587600708,2.6015396118164062,0.23479212820529938
-1.2927790880203247,2.527212142944336,0.2259824275970459
-1.298966646194458,2.497987747192383,0.22125466167926788
-1.3164359331130981,2.4890894889831543,0.21826700866222382
-1.3223904371261597,2.4596939086914062,0.21346010267734528
-1.3292453289031982,2.434091567993164,0.20894356071949005
-1.3379837274551392,2.411757707595825,0.2047063708305359
-1.3471287488937378,2.389056444168091,0.20038039982318878
-1.3674851655960083,2.3867151737213135,0.19775113463401794
-1.3713041543960571,2.3577845096588135,0.1928333342075348
-1.3985576629638672,2.3691768646240234,0.19122426211833954
-1.4112789630889893,2.35282039642334,0.18715745210647583
-1.4314976930618286,2.3499836921691895,0.18417787551879883
-1.4344419240951538,2.3210151195526123,0.1790870875120163
-1.4330254793167114,2.2854342460632324,0.1735316663980484
-1.4531282186508179,2.2822370529174805,0.17027805745601654
-1.4580111503601074,2.256228446960449,0.16523805260658264
-1.4639174938201904,2.2340495586395264,0.16054098308086395
-1.457382321357727,2.1919186115264893,0.15432164072990417
-1.4812182188034058,2.1950085163116455,0.15118828415870667
-1.5083837509155273,2.2051196098327637,0.14843237400054932
-1.4831221103668213,2.1375505924224854,0.1403343230485916
-1.491278886795044,2.117856025695801,0.13532115519046783
-1.500078797340393,2.1023309230804443,0.1305408477783203
-1.504772424697876,2.080021858215332,0.12520450353622437
-1.5142425298690796,2.063751697540283,0.12001933157444
-1.5130207538604736,2.0358216762542725,0.11417778581380844
-1.5191861391067505,2.1436996459960938,-0.08817031979560852
-1.5116040706634521,2.1678926944732666,-0.09402339905500412
-1.4960896968841553,2.1784088611602783,-0.09897371381521225
-1.4883673191070557,2.20233154296875,-0.10454367846250534
-1.4718505144119263,2.2131707668304443,-0.10937070101499557
-1.4691320657730103,2.2427940368652344,-0.11489597707986832
-1.4564365148544312,2.260111093521118,-0.11982322484254837
-1.4460947513580322,2.2803754806518555,-0.12483013421297073
-1.4380525350570679,2.303632974624634,-0.12992456555366516
-1.4208611249923706,2.314030647277832,-0.1342294067144394
-1.40796959400177,2.3307695388793945,-0.13884612917900085
-1.3955612182617188,2.3470563888549805,-0.14332446455955505
-1.3900097608566284,2.3772480487823486,-0.1486455649137497
-1.356575846672058,2.360302448272705,-0.15105462074279785
-1.3515501022338867,2.3898568153381348,-0.15619975328445435
-1.334303617477417,2.3992760181427,-0.1600300520658493
-1.327852487564087,2.429291248321533,-0.16525128483772278
-1.3160676956176758,2.4487268924713135,-0.16969941556453705
-1.3058037757873535,2.471604824066162,-0.17442071437835693
-1.2912925481796265,2.4877448081970215,-0.17857421934604645
-1.3014352321624756,2.5523993968963623,-0.18628951907157898
-1.2887766361236572,2.571636438369751,-0.19065305590629578
-1.2618482112884521,2.5629873275756836,-0.19291315972805023
-1.2360472679138184,2.557957172393799,-0.19541628658771515
-1.1791809797286987,2.4855520725250244,-0.19259832799434662
-1.1716234683990479,2.5146842002868652,-0.1975172609090805
-1.1779422760009766,2.575878143310547,-0.2049773931503296
-1.1927626132965088,2.65871524810791,-0.2142498791217804
-1.1862586736679077,2.6954379081726074,-0.21989180147647858
-1.1392490863800049,2.6391732692718506,-0.21791046857833862
-1.1264960765838623,2.6613070964813232,-0.22224102914333344
-1.0908533334732056,2.6295344829559326,-0.22201143205165863
-1.1307114362716675,2.78129506111145,-0.23735947906970978
-1.1256868839263916,2.8250224590301514,-0.24360576272010803
-1.1095753908157349,2.843657970428467,-0.24770691990852356
-1.1141812801361084,2.916731357574463,-0.25650063157081604
-1.0851445198059082,2.9024624824523926,-0.25765499472618103
-1.0782057046890259,2.946263313293457,-0.26393797993659973
-1.0692510604858398,2.986488103866577,-0.2699240446090698
-1.0552148818969727,3.0159590244293213,-0.27488672733306885
-1.0260720252990723,3.0010645389556885,-0.2757813036441803
-1.0148733854293823,3.037447452545166,-0.2813633382320404
-0.9960877895355225,3.0515811443328857,-0.28491300344467163
-0.9802685976028442,3.076869487762451,-0.28935685753822327
-0.9694834351539612,3.120786428451538,-0.29562556743621826
-0.9474539160728455,3.1272881031036377,-0.29833242297172546
-0.9300585985183716,3.1484768390655518,-0.30243930220603943
-0.9079021215438843,3.1546883583068848,-0.30502429604530334
-0.893925666809082,3.1907615661621094,-0.3104090988636017
-0.867210865020752,3.181762218475342,-0.31143346428871155
-0.8514965772628784,3.2139265537261963,-0.3165203630924225
-0.8348381519317627,3.24214768409729,-0.3212268650531769
-0.8099609017372131,3.2402141094207764,-0.3227187991142273
-0.7961081862449646,3.2834415435791016,-0.3287333548069
-0.7863179445266724,3.3455073833465576,-0.33668580651283264
-0.7677357196807861,3.373513698577881,-0.3412829041481018
-0.7474569082260132,3.393768310546875,-0.34499067068099976
-0.7307739853858948,3.4329700469970703,-0.35048580169677734
-0.709690511226654,3.453057050704956,-0.3540669083595276
-0.6961460709571838,3.5110933780670166,-0.3615727126598358
-0.6763432025909424,3.5424468517303467,-0.36640816926956177
-0.6570860147476196,3.5774924755096436,-0.37141701579093933
-0.6373271346092224,3.612452745437622,-0.37637007236480713
-0.6177572011947632,3.6511378288269043,-0.38175374269485474
-0.5973278284072876,3.685842752456665,-0.3867495656013489
-0.5766074657440186,3.7243380546569824,-0.3922075927257538
-0.5538972616195679,3.7511932849884033,-0.39611172676086426
-0.5330010652542114,3.7932982444763184,-0.40166351199150085
-0.5131465196609497,3.846832275390625,-0.4084685444831848
-0.4931536018848419,3.9041099548339844,-0.4157176613807678
-0.47096872329711914,3.949730396270752,-0.4216867685317993
-0.44537609815597534,3.9760239124298096,-0.4253527820110321
-0.4227733314037323,4.029140949249268,-0.4319101572036743
-0.2096126675605774,2.1415672302246094,-0.23004263639450073
-0.19086122512817383,2.100355625152588,-0.2260887324810028
-0.34594452381134033,4.125750541687012,-0.44488441944122314
-0.31454482674598694,4.100907325744629,-0.44278937578201294
-0.28831592202186584,4.137785911560059,-0.44737187027931213
-0.2605126202106476,4.155106067657471,-0.44986599683761597
-0.23032169044017792,4.133463382720947,-0.4481620788574219
-0.20095987617969513,4.123270034790039,-0.44745996594429016
-0.17171786725521088,4.124546527862549,-0.44787317514419556
-0.14161112904548645,4.086788177490234,-0.44406241178512573
-0.11296766251325607,4.079866886138916,-0.4436197280883789
-0.0844617486000061,4.072744369506836,-0.4431750774383545
-0.056111205369234085,4.0732245445251465,-0.44326135516166687
-0.027061671018600464,4.042453765869141,-0.43988126516342163
0.00107942009344697,4.030893802642822,-0.4386139512062073
0.02897401712834835,4.0074896812438965,-0.4360789656639099
0.05736943706870079,4.042137145996094,-0.4398823082447052
0.0847189873456955,4.006738185882568,-0.43571552634239197
0.1117209643125534,3.975039005279541,-0.431954026222229
0.1392989456653595,3.958667278289795,-0.4298778772354126
0.1665114164352417,3.949883460998535,-0.428653359413147
0.19337880611419678,3.937040328979492,-0.42697280645370483
0.21980467438697815,3.920177698135376,-0.4245249629020691
0.2464945912361145,3.9108901023864746,-0.42292141914367676
0.27359291911125183,3.9013853073120117,-0.4213061034679413
0.29951226711273193,3.8839821815490723,-0.41887155175209045
0.32455578446388245,3.8586766719818115,-0.41551414132118225
0.3512604832649231,3.8564586639404297,-0.41438791155815125
0.37719184160232544,3.8463239669799805,-0.41243261098861694
0.4035475254058838,3.8359594345092773,-0.41045862436294556
0.42979103326797485,3.829319715499878,-0.40891915559768677
0.454550564289093,3.810947895050049,-0.40599799156188965
0.4779875874519348,3.784743309020996,-0.4020724594593048
0.5072445273399353,3.804605007171631,-0.4030602276325226
0.5362932085990906,3.816471576690674,-0.40318506956100464
0.5628173351287842,3.8128066062927246,-0.4017029404640198
0.5909720659255981,3.8205177783966064,-0.40122103691101074
0.614221453666687,3.797360897064209,-0.39739230275154114
0.7620276808738708,4.5135498046875,-0.4706999659538269
0.7907282114028931,4.4930548667907715,-0.4669339954853058
0.824015200138092,4.495201110839844,-0.4655139744281769
0.7169138789176941,3.764288902282715,-0.38819754123687744
0.7428769469261169,3.7594728469848633,-0.38604483008384705
0.7641904354095459,3.7316179275512695,-0.3815508782863617
0.9280517101287842,4.376646041870117,-0.44559046626091003
0.9590187072753906,4.370232105255127,-0.44296199083328247
0.9908142685890198,4.371397495269775,-0.4408450126647949
1.0208998918533325,4.364759922027588,-0.43795815110206604
1.049259066581726,4.350321292877197,-0.43430283665657043
1.0795539617538452,4.343193054199219,-0.4313865900039673
1.108202576637268,4.328252792358398,-0.42753317952156067
1.1379168033599854,4.320853233337402,-0.4243125021457672
1.16554856300354,4.305739402770996,-0.4203586280345917
1.1954885721206665,4.297840595245361,-0.4171019196510315
1.219032645225525,4.267271995544434,-0.4116726517677307
1.251060128211975,4.26644229888916,-0.40883705019950867
1.273584008216858,4.235744953155518,-0.40316230058670044
1.3050439357757568,4.2346367835998535,-0.4003200829029083
1.3321949243545532,4.218353748321533,-0.39603129029273987
1.363809585571289,4.216760635375977,-0.3930644094944
1.3882063627243042,4.19276237487793,-0.38778936862945557
1.4130996465682983,4.172467231750488,-0.3829444348812103
1.4395025968551636,4.155550003051758,-0.37839406728744507
1.4632983207702637,4.1310715675354,-0.373172789812088
1.4968910217285156,4.135946750640869,-0.370418906211853
1.5223734378814697,4.1187028884887695,-0.36565545201301575
1.542932391166687,4.086460113525391,-0.35951554775238037
1.5714242458343506,4.075954914093018,-0.3553338646888733
1.5938106775283813,4.050891876220703,-0.3498118221759796
1.621334195137024,4.040329933166504,-0.3454509675502777
1.6458663940429688,4.0223565101623535,-0.34047484397888184
1.677408218383789,4.018130779266357,-0.3365299105644226
1.8135838508605957,4.261208534240723,-0.3531070649623871
2.011349678039551,4.638756275177002,-0.3801065683364868
2.0427684783935547,4.6254448890686035,-0.3747349679470062
2.0700924396514893,4.600911617279053,-0.36837372183799744
2.1076107025146484,4.597157001495361,-0.36358100175857544
2.138627767562866,4.58325719833374,-0.35789772868156433
2.1695504188537598,4.569142818450928,-0.3522140383720398
2.1994681358337402,4.5509352684021,-0.34611776471138
2.224299669265747,4.5219268798828125,-0.3391939699649811
2.2551991939544678,4.507050514221191,-0.33311018347740173
2.2889926433563232,4.499170780181885,-0.3276383876800537
2.3201513290405273,4.48362922668457,-0.32146134972572327
2.367582082748413,4.498898983001709,-0.31741902232170105
1.7173218727111816,3.2112693786621094,-0.22282379865646362
1.7499395608901978,3.220576286315918,-0.21969574689865112
1.7256873846054077,3.1230289936065674,-0.2091270536184311
1.762333869934082,3.138637065887451,-0.20625774562358856
1.7967365980148315,3.1508452892303467,-0.20307335257530212
1.3313002586364746,2.2984774112701416,-0.14516137540340424
0.947666585445404,1.6102828979492188,-0.09954142570495605
0.9525367617607117,1.593948245048523,-0.0963229313492775
0.9670752882957458,1.5944552421569824,-0.09416747093200684
0.9781427979469299,1.5878475904464722,-0.09146695584058762
0.9888674020767212,1.5813448429107666,-0.08876059949398041
1.0054807662963867,1.5848652124404907,-0.08659747242927551
0.9974702000617981,1.5484572649002075,-0.08214107155799866
1.012302279472351,1.5482850074768066,-0.07963351160287857
1.033141851425171,1.5580720901489258,-0.07759550213813782
1.0371726751327515,1.5414454936981201,-0.0741216242313385
1.0674543380737305,1.5635052919387817,-0.07239712029695511
2.5575857162475586,3.694133758544922,-0.16428491473197937
2.5783612728118896,3.6704680919647217,-0.15615148842334747
2.6071808338165283,3.6599771976470947,-0.14844034612178802
2.598691463470459,3.599118709564209,-0.1387009471654892
2.6282622814178467,3.587589740753174,-0.13032087683677673
2.6879451274871826,3.621506452560425,-0.12348554283380508
2.6361212730407715,3.698765516281128,0.20993341505527496
2.609616994857788,3.7170443534851074,0.21806634962558746
2.5892648696899414,3.749746322631836,0.22696521878242493
1.0681811571121216,1.5710943937301636,0.09779047220945358
1.0697249174118042,1.5980943441390991,0.10206196457147598
1.0445024967193604,1.5865508317947388,0.10384023189544678
1.0328903198242188,1.5939462184906006,0.10669992119073868
1.0171210765838623,1.594627022743225,0.10898534953594208
1.0007766485214233,1.5955506563186646,0.111231230199337
0.9932326674461365,1.6092479228973389,0.11427237838506699
0.9859208464622498,1.6226911544799805,0.11723912507295609
0.9693976640701294,1.6233595609664917,0.1192498430609703
0.9650729894638062,1.6438610553741455,0.12268350273370743
1.3435486555099487,2.3254120349884033,0.17607641220092773
1.8177143335342407,3.1989450454711914,0.2456056922674179
1.7423784732818604,3.120277166366577,0.24276620149612427
1.7472121715545654,3.1840882301330566,0.25096261501312256
1.7711631059646606,3.281646728515625,0.261769562959671
1.7326936721801758,3.266556978225708,0.26355111598968506
2.3762128353118896,4.560933589935303,0.37203699350357056
2.3286826610565186,4.549962997436523,0.3750985860824585
2.29972243309021,4.572961330413818,0.38086840510368347
2.259908676147461,4.574977397918701,0.38471099734306335
2.232844114303589,4.6051554679870605,0.39079025387763977
2.202181339263916,4.62810754776001,0.39628615975379944
2.1763296127319336,4.657120704650879,0.40215790271759033
2.137111186981201,4.657712936401367,0.4055713713169098
2.1022348403930664,4.673165321350098,0.4100734293460846
2.071012496948242,4.69520902633667,0.41512489318847656
2.0280754566192627,4.68809175491333,0.4175330102443695
1.7792998552322388,4.192899703979492,0.37608596682548523
1.7149665355682373,4.122488021850586,0.3722677230834961
1.6872259378433228,4.142007827758789,0.3764449656009674
1.6569468975067139,4.153897285461426,0.3799109160900116
1.6304298639297485,4.172428607940674,0.38392823934555054
1.598459243774414,4.176141262054443,0.38657811284065247
1.5739973783493042,4.201755046844482,0.3910987377166748
1.5402765274047852,4.205654621124268,0.3935435712337494
1.5123239755630493,4.2237653732299805,0.39730605483055115
1.4852229356765747,4.241336345672607,0.4009754955768585
1.4581413269042969,4.258668422698975,0.40463584661483765
1.4278451204299927,4.268653392791748,0.4074542820453644
1.3965187072753906,4.278741359710693,0.41020509600639343
1.3668214082717896,4.292143821716309,0.41326704621315
1.3388404846191406,4.308845520019531,0.4166330397129059
1.3132305145263672,4.3327250480651855,0.42070627212524414
1.284852385520935,4.3490891456604,0.4239785969257355
1.2535921335220337,4.357972145080566,0.42633703351020813
1.223778247833252,4.374279975891113,0.42947492003440857
1.1967206001281738,4.397652626037598,0.433293879032135
1.1620699167251587,4.390620708465576,0.43410760164260864
1.1353671550750732,4.413436412811279,0.4378913938999176
1.1114139556884766,4.451396465301514,0.4429060220718384
1.0772385597229004,4.451587677001953,0.4441852867603302
1.0480823516845703,4.47032356262207,0.4473183751106262
1.0158884525299072,4.473566055297852,0.44890111684799194
0.9905527830123901,4.5069146156311035,0.45352599024772644
0.9556772708892822,4.498356819152832,0.45384177565574646
0.7974581122398376,3.8918838500976562,0.39352431893348694
0.7524474859237671,3.8096020221710205,0.38605785369873047
0.7225196361541748,3.7994258403778076,0.3858923316001892
0.8359345197677612,4.568899154663086,0.46508803963661194
0.8095102310180664,4.605062961578369,0.4698394536972046
0.7751997709274292,4.602933406829834,0.47049447894096375
0.7456808686256409,4.6273579597473145,0.47376176714897156
0.7117642164230347,4.624698162078857,0.474280446767807
0.6826244592666626,4.652524471282959,0.4779472351074219
0.6523406505584717,4.672430038452148,0.4808233380317688
0.6202172636985779,4.684506893157959,0.4829365611076355
0.5900970101356506,4.711793899536133,0.4863024055957794
0.5577546954154968,4.7234601974487305,0.48804304003715515
0.5253259539604187,4.734898567199707,0.4897853434085846
0.4926077425479889,4.742223262786865,0.4911234974861145
0.4611330032348633,4.760906219482422,0.49366065859794617
0.42952269315719604,4.787170886993408,0.49702322483062744
0.3959598243236542,4.790003776550293,0.49760201573371887
0.36355018615722656,4.808098793029785,0.4997917413711548
0.3309062123298645,4.825973033905029,0.5019851922988892
0.29889729619026184,4.855250358581543,0.5053907632827759
0.2649301290512085,4.86494255065918,0.5067909359931946
0.23181186616420746,4.882132530212402,0.5089733004570007
0.1989024132490158,4.914669513702393,0.5124239921569824
0.16456088423728943,4.915916919708252,0.512637734413147
0.13062304258346558,4.932459831237793,0.5144718289375305
0.09601898491382599,4.952661514282227,0.5167157649993896
0.061763811856508255,4.968726634979248,0.5185517072677612
0.02728884480893612,4.984556198120117,0.5203657746315002
-0.007406982593238354,4.992413520812988,0.5210061073303223
-0.042407628148794174,5.023338794708252,0.5240778923034668
-0.07799199968576431,5.02293062210083,0.5239028930664062
-0.11332505196332932,5.0417070388793945,0.5257565379142761
-0.14840412139892578,5.04081392288208,0.5255839824676514
-0.1851128190755844,5.086273193359375,0.5302498936653137
-0.21970368921756744,5.069398403167725,0.5280831456184387
-0.2575284540653229,5.122138023376465,0.5331913828849792
-0.2938505709171295,5.124133110046387,0.5330321192741394
-0.27880507707595825,4.3349175453186035,0.45065075159072876
-0.30590882897377014,4.290290832519531,0.4457511603832245
-0.33633720874786377,4.2958574295043945,0.446073979139328
-0.3676379323005676,4.312871932983398,0.4472920894622803
-0.3918253183364868,4.24449348449707,0.4396723508834839
-0.4153629243373871,4.183767318725586,0.4328901171684265
-0.44108396768569946,4.149953842163086,0.42892131209373474
-0.46425360441207886,4.096670150756836,0.4229685068130493
-0.4889586865901947,4.062565803527832,0.41900208592414856
-0.5134584307670593,4.028314113616943,0.4147563874721527
-0.5323101282119751,3.959325075149536,0.4069839119911194
-0.554088830947876,3.917196035385132,0.4020080864429474
-0.576082706451416,3.878769874572754,0.397438645362854
-0.5958959460258484,3.8286876678466797,0.39170411229133606
-0.6172688007354736,3.7899744510650635,0.38710373640060425
-0.6392893195152283,3.7627999782562256,0.3834856152534485
-0.6569409370422363,3.7125303745269775,0.3775457739830017
-0.6774140000343323,3.6813149452209473,0.37357833981513977
-0.6956691741943359,3.6384692192077637,0.36845090985298157
-0.7156679034233093,3.606978178024292,0.36450377106666565
-0.7347482442855835,3.5715315341949463,0.360086053609848
-0.7510033845901489,3.5285613536834717,0.35478681325912476
-0.7625307440757751,3.4665491580963135,0.3476153314113617
-0.7879198789596558,3.468985080718994,0.3469347059726715
-0.8049158453941345,3.433288335800171,0.3424470126628876
-0.8273763656616211,3.4200923442840576,0.3402137756347656
-0.8423409461975098,3.3805415630340576,0.33526089787483215
-0.8614473342895508,3.359833240509033,0.332111120223999
-0.8723801970481873,3.30893874168396,0.32601237297058105
-0.889938235282898,3.284280300140381,0.3225267827510834
-0.9110870361328125,3.27056884765625,0.3201047480106354
-0.9231192469596863,3.226921558380127,0.31480199098587036
-0.9449683427810669,3.2207703590393066,0.31296253204345703
-0.9555320143699646,3.1772353649139404,0.3075164556503296
-0.9689863324165344,3.144853353500366,0.3031880855560303
-0.9888117909431458,3.130699634552002,0.3005930781364441
-1.0010372400283813,3.09429669380188,0.2959056496620178
-1.0197683572769165,3.0801632404327393,0.29327476024627686
-1.0343031883239746,3.054973840713501,0.28951379656791687
-1.0421818494796753,3.0113413333892822,0.28404274582862854
-1.06536066532135,3.011664390563965,0.2827259600162506
-1.081391453742981,2.989593744277954,0.2792758047580719
-1.0939642190933228,2.960329294204712,0.27516910433769226
-1.1110528707504272,2.9458436965942383,0.27231067419052124
-1.1070551872253418,2.8767662048339844,0.2644514739513397
-1.1208434104919434,2.85490083694458,0.2609701156616211
-1.1323851346969604,2.82540225982666,0.25675418972969055
-1.144663691520691,2.799633741378784,0.2529241442680359
-1.1603747606277466,2.7849338054656982,0.2499682754278183
-1.1348880529403687,2.673379421234131,0.23839308321475983
-1.1467483043670654,2.6515536308288574,0.23488560318946838
-1.1482558250427246,2.6043665409088135,0.2290976196527481
-1.1694741249084473,2.6036481857299805,0.22743315994739532
-1.1981048583984375,2.620810031890869,0.22718431055545807
-1.2040181159973145,2.5882723331451416,0.22263722121715546
-1.239897608757019,2.6189680099487305,0.22349412739276886
-1.2872915267944336,2.669928550720215,0.22593340277671814
-1.290095567703247,2.6298065185546875,0.2206275314092636
-1.2936170101165771,2.5935218334198,0.21561509370803833
-1.2879036664962769,2.5399270057678223,0.20922866463661194
-1.2982901334762573,2.5173351764678955,0.20537132024765015
-1.3085579872131348,2.4946494102478027,0.20152278244495392
-1.3142722845077515,2.465409517288208,0.19702821969985962
-1.3230172395706177,2.443237066268921,0.19316518306732178
-1.3338924646377563,2.4242050647735596,0.18951570987701416
-1.3431854248046875,2.40144944190979,0.1855372190475464
-1.355350136756897,2.3858706951141357,0.1820661723613739
-1.3673077821731567,2.3702712059020996,0.17854051291942596
-1.3950058221817017,2.38145112991333,0.17700761556625366
-1.3996795415878296,2.351762533187866,0.17234355211257935
-1.3951153755187988,2.3092715740203857,0.16674041748046875
-1.418260097503662,2.3136708736419678,0.16452127695083618
-1.4341751337051392,2.3040778636932373,0.1611482948064804
-1.4315134286880493,2.264554500579834,0.1556835174560547
-1.4608286619186401,2.278486490249634,0.1538214385509491
-1.4648736715316772,2.2528927326202393,0.14928622543811798
-1.4762871265411377,2.236332416534424,0.14515182375907898
-1.4870718717575073,2.22003436088562,0.14096152782440186
-1.4705337285995483,2.1655452251434326,0.13444966077804565
-1.5029774904251099,2.1814050674438477,0.13212695717811584
-1.4952759742736816,2.139500141143799,0.1262078583240509
-1.4997280836105347,2.1175150871276855,0.12150251865386963
-1.5121010541915894,2.104139804840088,0.11698377877473831
-1.5075714588165283,2.0691206455230713,0.11124121397733688
-1.5204817056655884,2.0598816871643066,0.10690459609031677
-1.497572422027588,2.097107172012329,-0.07840434461832047
-1.4902852773666382,2.1212165355682373,-0.08383858948945999
-1.4998234510421753,2.1667377948760986,-0.08979427814483643
-1.483434796333313,2.1777966022491455,-0.09438169747591019
-1.4760667085647583,2.201425790786743,-0.09939455986022949
-1.4689717292785645,2.2247049808502197,-0.10424145311117172
-1.4603636264801025,2.248796224594116,-0.10921649634838104
-1.448372721672058,2.26560640335083,-0.1136331856250763
-1.432070016860962,2.275742769241333,-0.11763384193181992
-1.4252506494522095,2.3027875423431396,-0.12252400815486908
-1.4046902656555176,2.306046485900879,-0.12601175904273987
-1.4000294208526611,2.336003541946411,-0.13095101714134216
-1.4025115966796875,2.379699230194092,-0.13665339350700378
-1.3853145837783813,2.389535427093506,-0.1403810679912567
-1.3530670404434204,2.3718650341033936,-0.1423768401145935
-1.3469737768173218,2.401984453201294,-0.1471819281578064
-1.3327410221099854,2.4185967445373535,-0.15123896300792694
-1.323254108428955,2.441344976425171,-0.15551163256168365
-1.3057254552841187,2.4505465030670166,-0.15891504287719727
-1.293190836906433,2.4701755046844482,-0.16298352181911469
-1.2861968278884888,2.499943733215332,-0.16770155727863312
-1.271887183189392,2.515770196914673,-0.1715107262134552
-1.2865403890609741,2.5910606384277344,-0.17933045327663422
-1.2744731903076172,2.6141464710235596,-0.18361662328243256
-1.2172374725341797,2.5419981479644775,-0.18107883632183075
-1.182771921157837,2.514986991882324,-0.18161915242671967
-1.1906139850616455,2.5799148082733154,-0.18874163925647736
-1.1956100463867188,2.6416797637939453,-0.19579219818115234
-1.1596736907958984,2.6105897426605225,-0.19585299491882324
-1.1740609407424927,2.6934428215026855,-0.20447909832000732
-1.1194117069244385,2.6191959381103516,-0.20107607543468475
-1.1035311222076416,2.6341583728790283,-0.20446813106536865
-1.1349799633026123,2.764299154281616,-0.21690474450588226
-1.1330723762512207,2.8153111934661865,-0.22322596609592438
-1.1170783042907715,2.8340375423431396,-0.22689899802207947
-1.1163201332092285,2.8926403522491455,-0.23382169008255005
-1.1069144010543823,2.92935848236084,-0.2390063852071762
-1.0887839794158936,2.9442179203033447,-0.24246369302272797
-1.0797102451324463,2.984633684158325,-0.2479015439748764
-1.0583254098892212,2.992058515548706,-0.25060412287712097
-1.044731855392456,3.02133846282959,-0.25514501333236694
-1.0373618602752686,3.068897008895874,-0.26125088334083557
-1.015352487564087,3.0760226249694824,-0.2639020085334778
-0.993452787399292,3.082949638366699,-0.26640784740448
-0.9808224439620972,3.1194353103637695,-0.2715021073818207
-0.9738523364067078,3.1743714809417725,-0.2782272696495056
-0.951678991317749,3.180868148803711,-0.28074583411216736
-0.9355835914611816,3.2097654342651367,-0.2850607931613922
-0.9187096357345581,3.2387030124664307,-0.2894507944583893
-0.8917364478111267,3.2298781871795654,-0.2904365062713623
-0.8833629488945007,3.2884154319763184,-0.2974940538406372
-0.8612303137779236,3.2981011867523193,-0.30006638169288635
-0.8417086005210876,3.3190035820007324,-0.30355820059776306
-0.8289332985877991,3.37011981010437,-0.30988773703575134
-0.8107988238334656,3.398336172103882,-0.3141096234321594
-0.7897086143493652,3.415081262588501,-0.3173009157180786
-0.7579779624938965,3.386216402053833,-0.31603243947029114
-0.7406130433082581,3.4217288494110107,-0.32075291872024536
-0.7343760132789612,3.514341354370117,-0.3309112787246704
-0.7229480147361755,3.584009885787964,-0.33894824981689453
-0.7023656368255615,3.6116976737976074,-0.34301409125328064
-0.6847545504570007,3.658451557159424,-0.34869784116744995
-0.6603521704673767,3.6706764698028564,-0.351123183965683
-0.641487181186676,3.717273473739624,-0.3568849563598633
-0.6168449521064758,3.7291619777679443,-0.35932204127311707
-0.594425618648529,3.7562739849090576,-0.3631127178668976
-0.5726878046989441,3.7909772396087646,-0.36749744415283203
-0.5521530508995056,3.837101936340332,-0.3730275332927704
-0.5312312841415405,3.8870105743408203,-0.3789803683757782
-0.5071932077407837,3.913604259490967,-0.38267600536346436
-0.48130252957344055,3.928504705429077,-0.38503342866897583
-0.4627079367637634,4.0089111328125,-0.3937319219112396
-0.4375673830509186,4.038995265960693,-0.397528737783432
-0.4086398184299469,4.034098148345947,-0.39790183305740356
-0.2095399796962738,2.2254509925842285,-0.21999599039554596
-0.3636561930179596,4.174796104431152,-0.41331297159194946
-0.32918956875801086,4.111283302307129,-0.40758365392684937
-0.3018585443496704,4.1327900886535645,-0.410296767950058
-0.27570071816444397,4.173496723175049,-0.41494059562683105
-0.24342098832130432,4.128697872161865,-0.4111134707927704
-0.21501202881336212,4.1380157470703125,-0.4123217761516571
-0.18564356863498688,4.12772274017334,-0.4115813076496124
-0.15598629415035248,4.105569362640381,-0.4096756875514984
-0.12695766985416412,4.090972900390625,-0.408540278673172
-0.09727702289819717,4.060643196105957,-0.4058266580104828
-0.06982963532209396,4.107851982116699,-0.4105401933193207
-0.04114878550171852,4.100460052490234,-0.4098166525363922
-0.012561327777802944,4.077320098876953,-0.40753886103630066
0.015596927143633366,4.0267744064331055,-0.40254056453704834
0.04449663683772087,4.061544418334961,-0.4060240685939789
0.07168879359960556,4.002873420715332,-0.39989104866981506
0.09970986098051071,4.010080337524414,-0.4003620147705078
0.12808187305927277,4.024860858917236,-0.40160709619522095
0.15489061176776886,3.9928297996520996,-0.3982011675834656
0.18443991243839264,4.030525207519531,-0.4016701877117157
0.2120855748653412,4.013661861419678,-0.3994516432285309
0.24088194966316223,4.027678966522217,-0.40033501386642456
0.31447216868400574,4.708603858947754,-0.46743953227996826
0.3477770984172821,4.714134216308594,-0.46743324398994446
0.3774081766605377,4.672947883605957,-0.4626578688621521
0.41035786271095276,4.670289039611816,-0.46145176887512207
0.44016432762145996,4.64035701751709,-0.4575943946838379
0.4731603264808655,4.645040512084961,-0.4571753144264221
0.505440354347229,4.641755104064941,-0.4559914469718933
0.5358098745346069,4.622828006744385,-0.45309561491012573
0.5663936734199524,4.603668212890625,-0.4499955177307129
0.5971570611000061,4.5920891761779785,-0.4476863145828247
0.629075825214386,4.587978363037109,-0.4461199939250946
0.656526505947113,4.552855968475342,-0.4415675401687622
0.6851391196250916,4.529150485992432,-0.4379076659679413
0.7199851274490356,4.543616771697998,-0.437806636095047
0.7481445074081421,4.519542694091797,-0.4340395927429199
0.7742840051651001,4.4837541580200195,-0.4291720688343048
0.8068461418151855,4.486096382141113,-0.42798247933387756
0.7005723714828491,3.7465977668762207,-0.35601356625556946
0.7263756990432739,3.741860866546631,-0.3541141152381897
0.7541786432266235,3.7444753646850586,-0.35289672017097473
0.9161152839660645,4.390454292297363,-0.4120890200138092
0.94661945104599,4.384191513061523,-0.4098098576068878
0.9767687916755676,4.377815246582031,-0.4072231650352478
1.0103681087493896,4.386394023895264,-0.40604013204574585
1.0376157760620117,4.364278793334961,-0.4019909203052521
1.0679869651794434,4.357186794281006,-0.39937296509742737
1.0943818092346191,4.3348307609558105,-0.3952740430831909
1.1261051893234253,4.33500337600708,-0.39305534958839417
1.1498137712478638,4.304874420166016,-0.3881179988384247
1.1802090406417847,4.296908378601074,-0.38514450192451477
1.2079846858978271,4.281357765197754,-0.38154739141464233
1.2396118640899658,4.280689716339111,-0.379092812538147
1.2622305154800415,4.250000476837158,-0.37392106652259827
1.2890889644622803,4.234074115753174,-0.3700772523880005
1.3214330673217773,4.2325358390808105,-0.367424339056015
1.3485064506530762,4.216097831726074,-0.3635101020336151
1.3749009370803833,4.199670314788818,-0.35939985513687134
1.4035733938217163,4.190471172332764,-0.35593271255493164
1.4236741065979004,4.155179023742676,-0.35025227069854736
1.452656865119934,4.1454315185546875,-0.3467315137386322
1.4816447496414185,4.135468482971191,-0.3430253565311432
1.509793758392334,4.125582695007324,-0.33930298686027527
1.532485008239746,4.10088586807251,-0.3343821167945862
1.5583372116088867,4.083104133605957,-0.3299890458583832
1.5866625308990479,4.072489261627197,-0.3261595368385315
1.60906982421875,4.04724645614624,-0.32096609473228455
1.6336233615875244,4.029303550720215,-0.3164413571357727
1.667503833770752,4.032586574554443,-0.31352847814559937
1.7016562223434448,4.035530090332031,-0.3105648159980774
1.9797080755233765,4.607807636260986,-0.3507865369319916
2.0286004543304443,4.633699893951416,-0.34881988167762756
2.055650472640991,4.609335422515869,-0.34307026863098145
2.091014862060547,4.6023359298706055,-0.33857113122940063
2.1239099502563477,4.591918468475342,-0.3337043225765228
2.1548123359680176,4.577872276306152,-0.3285404443740845
2.181579351425171,4.552592754364014,-0.3224589228630066
2.216704845428467,4.544646263122559,-0.3176155686378479
2.244080066680908,4.522865295410156,-0.31171318888664246
2.2743759155273438,4.508079528808594,-0.30627334117889404
2.308701753616333,4.499739170074463,-0.3011947572231293
2.345480442047119,4.494256019592285,-0.296207070350647
1.7182416915893555,3.2382452487945557,-0.20995210111141205
1.7361385822296143,3.220094680786133,-0.2053496539592743
1.722635269165039,3.143357515335083,-0.19699762761592865
1.7293174266815186,3.104279041290283,-0.19105961918830872
1.7691222429275513,3.1269259452819824,-0.18886445462703705
1.3237184286117554,2.303386688232422,-0.13641977310180664
1.2945164442062378,2.216799020767212,-0.12859109044075012
0.9513229727745056,1.604082465171814,-0.09106720238924026
0.9578654766082764,1.5912147760391235,-0.088345967233181
0.9727352857589722,1.5914546251296997,-0.08629539608955383
0.9839353561401367,1.5846903324127197,-0.08376773446798325
1.0005332231521606,1.5882477760314941,-0.08179810643196106
1.011091947555542,1.5816762447357178,-0.0792594775557518
1.015748381614685,1.56488037109375,-0.07611767947673798
1.0216870307922363,1.551797866821289,-0.07317308336496353
1.0364083051681519,1.5515282154083252,-0.07076327502727509
1.0494059324264526,1.5476125478744507,-0.06807629764080048
2.5323843955993652,3.6833887100219727,-0.15598681569099426
2.5700576305389404,3.6860830783843994,-0.14984846115112305
2.595320701599121,3.6686317920684814,-0.1425168216228485
2.6144018173217773,3.645735025405884,-0.13487088680267334
2.6046626567840576,3.580801010131836,-0.12542274594306946
2.6674387454986572,3.61737322807312,-0.11932437121868134
2.628791093826294,3.714460849761963,0.1934371441602707
2.6007299423217773,3.733764171600342,0.20097419619560242
2.567553997039795,3.7467947006225586,0.20801220834255219
1.0542757511138916,1.5621334314346313,0.08916036039590836
1.050885558128357,1.583021640777588,0.09270138293504715
1.0262069702148438,1.5710843801498413,0.09424258768558502
1.0236496925354004,1.591186285018921,0.09755111485719681
1.0115864276885986,1.5987277030944824,0.10005603730678558
0.9993299245834351,1.606258749961853,0.10257326066493988
0.9839849472045898,1.6064159870147705,0.10444492846727371
0.9801803231239319,1.6268315315246582,0.10759896039962769
0.9559215903282166,1.613916277885437,0.10852298140525818
1.3409099578857422,2.3011581897735596,0.15712423622608185
1.341834545135498,2.340949296951294,0.16223543882369995
1.7873897552490234,3.1727962493896484,0.22293198108673096
1.7560175657272339,3.1721739768981934,0.22592468559741974
1.7691357135772705,3.2492053508758545,0.23431295156478882
1.7496538162231445,3.268312931060791,0.2385522574186325
2.386807918548584,4.540568828582764,0.3352775275707245
2.352976083755493,4.557816982269287,0.3403434455394745
2.3176283836364746,4.566797256469727,0.34456610679626465
2.2819344997406006,4.575672149658203,0.3487491011619568
2.2481932640075684,4.591995716094971,0.35330188274383545
2.2205045223236084,4.622389316558838,0.35902315378189087
2.184443235397339,4.630583763122559,0.36285698413848877
2.155290126800537,4.6524739265441895,0.367746502161026
2.1181695461273193,4.6606035232543945,0.37134304642677307
2.087064266204834,4.6828179359436035,0.376038521528244
2.056248664855957,4.704607009887695,0.3806859850883484
1.9920837879180908,4.647164821624756,0.37885013222694397
1.7342894077301025,4.125792503356934,0.33874309062957764
1.6982371807098389,4.12365198135376,0.340787410736084
1.6680999994277954,4.1356682777404785,0.34401461482048035
1.6386610269546509,4.147159099578857,0.3471579849720001
1.609178066253662,4.158423900604248,0.35029739141464233
1.579581379890442,4.169504642486572,0.3532819151878357
1.5573790073394775,4.202529430389404,0.3580212891101837
1.5295110940933228,4.220788955688477,0.3615328073501587
1.4996910095214844,4.231235504150391,0.3643438220024109
1.4696098566055298,4.241533279418945,0.3671724796295166
1.4420393705368042,4.258976459503174,0.370469331741333
1.4149404764175415,4.280137062072754,0.37396907806396484
