X,Y,Z
1.042335867881775,1.5490814447402954,-0.016488244757056236
1.0552089214324951,1.5450798273086548,-0.015952836722135544
2.569079637527466,3.7086470127105713,-0.03706138953566551
2.5837390422821045,3.679387331008911,-0.035545069724321365
2.622856616973877,3.680436611175537,-0.034211985766887665
2.627642869949341,3.6385583877563477,-0.03248540684580803
2.6515705585479736,3.6211721897125244,-0.03091598115861416
2.7055492401123047,3.644477367401123,-0.029615048319101334
2.6556925773620605,3.7194461822509766,0.02784072607755661
2.5936977863311768,3.6915442943573,0.02897220104932785
2.549743413925171,3.6840875148773193,0.030127527192234993
1.0573146343231201,1.5531258583068848,0.013195709325373173
1.0548319816589355,1.5736539363861084,0.013833419419825077
1.0283564329147339,1.5584198236465454,0.014137225225567818
1.0184320211410522,1.5695772171020508,0.0146804703399539
1.0241764783859253,1.6030399799346924,0.015402537770569324
0.9958588480949402,1.5839864015579224,0.015610650181770325
0.9839092493057251,1.591431975364685,0.016068944707512856
0.9706050157546997,1.595005989074707,0.016464918851852417
0.9650118350982666,1.6120643615722656,0.016999924555420876
0.9807111024856567,1.6663340330123901,0.017928723245859146
1.3502575159072876,2.3325653076171875,0.0255773663520813
1.813431978225708,3.18363881111145,0.03553934022784233
1.7421706914901733,3.111727237701416,0.03532978892326355
1.7469006776809692,3.176100969314575,0.03667193651199341
1.7506970167160034,3.2363126277923584,0.03794144466519356
1.7351282835006714,3.262385368347168,0.038809046149253845
2.362227439880371,4.521377086639404,0.054521344602108
2.3291499614715576,4.538494110107422,0.055457696318626404
2.2899317741394043,4.540904998779297,0.05619274452328682
2.2610814571380615,4.5640482902526855,0.05715871974825859
2.217385768890381,4.5593791007995605,0.05775480344891548
2.190941333770752,4.589453220367432,0.058788470923900604
2.1555848121643066,4.597527980804443,0.05951796844601631
2.1295735836029053,4.626828670501709,0.060513343662023544
2.0951881408691406,4.642489910125732,0.061316680163145065
2.06449294090271,4.664755344390869,0.06220029667019844
2.025689125061035,4.664697647094727,0.06276372820138931
1.7788392305374146,4.175596237182617,0.05668569356203079
1.7079318761825562,4.091037750244141,0.0559912770986557
1.6762977838516235,4.099873065948486,0.05657440423965454
1.651552438735962,4.122520923614502,0.05733479931950569
1.6185694932937622,4.122987270355225,0.05778095871210098
1.5934752225875854,4.145298957824707,0.05851016193628311
1.5607904195785522,4.149362564086914,0.05896284803748131
1.530310869216919,4.16069221496582,0.05952802300453186
1.5065940618515015,4.185939311981201,0.06027617305517197
1.4748865365982056,4.188927173614502,0.06070647016167641
1.4474284648895264,4.206748962402344,0.06132113188505173
1.4197252988815308,4.2244133949279785,0.06193334236741066
1.3939155340194702,4.249438285827637,0.06266279518604279
1.3643288612365723,4.259022235870361,0.06315401196479797
1.341604232788086,4.290788173675537,0.06397463381290436
1.3108645677566528,4.300272464752197,0.06441757827997208
1.2778712511062622,4.302036762237549,0.06474726647138596
1.2516599893569946,4.325995922088623,0.06541257351636887
1.2209752798080444,4.334749698638916,0.06585192680358887
1.1906697750091553,4.343164920806885,0.0662762001156807
1.1617234945297241,4.359076499938965,0.06676506996154785
1.1355079412460327,4.386148452758789,0.06743010133504868
1.1044031381607056,4.394078254699707,0.06780373305082321
1.0751330852508545,4.409366607666016,0.06829444319009781
1.044392704963684,4.41674280166626,0.06865964829921722
1.014755129814148,4.431655406951904,0.06909388303756714
0.9832689762115479,4.438742637634277,0.06940994411706924
0.9485441446304321,4.430311679840088,0.06948558986186981
0.9171506762504578,4.4369120597839355,0.0697997435927391
0.754832923412323,3.784367561340332,0.059713199734687805
0.7280951142311096,3.7895987033843994,0.059941116720438004
0.8346928358078003,4.5167131423950195,0.07161088287830353
0.8054345846176147,4.537886142730713,0.0721193179488182
0.7764884829521179,4.562735557556152,0.07269159704446793
0.7460291385650635,4.575725078582764,0.0730758085846901
0.7175530791282654,4.603992462158203,0.07367240637540817
0.6850822567939758,4.608932971954346,0.07387111335992813
0.6526210308074951,4.613637924194336,0.074069544672966
0.6207735538482666,4.625909805297852,0.07439488172531128
0.5915434956550598,4.6533589363098145,0.07496576011180878
0.5614357590675354,4.676753520965576,0.07546550035476685
0.5285659432411194,4.680580139160156,0.07560542225837708
0.4989130198955536,4.715252876281738,0.07624799758195877
0.4658193290233612,4.718635559082031,0.0763886496424675
0.4345242381095886,4.745151042938232,0.0769088938832283
0.4014942944049835,4.748056888580322,0.07704909145832062
0.3701021671295166,4.774110794067383,0.0775241106748581
0.33616015315055847,4.768788814544678,0.07747793197631836
0.3049858808517456,4.806105613708496,0.07812861353158951
0.27130237221717834,4.81594705581665,0.07833757251501083
0.2392984926700592,4.848926067352295,0.078926220536232
0.2058221399784088,4.858279705047607,0.07911860197782516
0.1721283346414566,4.867406368255615,0.0792653039097786
0.13858553767204285,4.884105682373047,0.07953919470310211
0.10412055253982544,4.896681308746338,0.07974997162818909
0.07034450769424438,4.912906646728516,0.08002398908138275
0.036405738443136215,4.936710834503174,0.08042538911104202
0.002132077468559146,4.952467918395996,0.08064911514520645
-0.032360196113586426,4.967987060546875,0.08085483312606812
-0.06759161502122879,4.97935152053833,0.08099591732025146
-0.10290482640266418,5.010000228881836,0.08145488798618317
-0.1373593807220459,4.9935455322265625,0.08115183562040329
-0.17291437089443207,5.015890598297119,0.08146928995847702
-0.2084314227104187,5.030178546905518,0.08160650730133057
-0.24297423660755157,5.020809650421143,0.08136384189128876
-0.28213435411453247,5.085264205932617,0.08231887966394424
-0.3159748613834381,5.05979585647583,0.08182308077812195
-0.2972705066204071,4.282105445861816,0.0691794604063034
-0.32453545928001404,4.248790740966797,0.06854688376188278
-0.3551514744758606,4.262021541595459,0.0686551108956337
-0.38649678230285645,4.274982452392578,0.06875970214605331
-0.40968057513237,4.206118106842041,0.06755410879850388
-0.4348472058773041,4.16432523727417,0.0667887032032013
-0.4563773274421692,4.095220565795898,0.06558173894882202
-0.48086029291152954,4.060958385467529,0.06489850580692291
-0.5049411654472351,4.02261209487915,0.06415275484323502
-0.5275043845176697,3.98032283782959,0.06335189938545227
-0.5481503009796143,3.926273822784424,0.06236851587891579
-0.5675035119056702,3.8682684898376465,0.06132854148745537
-0.5893984436988831,3.833385944366455,0.06061863154172897
-0.6105888485908508,3.7944717407226562,0.05983137711882591
-0.6314545273780823,3.759378433227539,0.05911313742399216
-0.6500554084777832,3.7126009464263916,0.05821584165096283
-0.6716440320014954,3.684941291809082,0.05762332305312157
-0.6876667141914368,3.6303231716156006,0.0566035620868206
-0.7080101370811462,3.602534532546997,0.05598318204283714
-0.3712190091609955,1.821723222732544,0.02821444347500801
-0.3788912892341614,1.796201229095459,0.02772776037454605
-0.37220561504364014,1.7057602405548096,0.026244910433888435
-0.3720152676105499,1.6497937440872192,0.025300905108451843
-0.41066980361938477,1.7651571035385132,0.026963135227560997
-0.4146885871887207,1.7280893325805664,0.02629091776907444
-0.44050925970077515,1.782102346420288,0.0270061157643795
-0.43458715081214905,1.707080364227295,0.025765884667634964
-0.4424768090248108,1.6889088153839111,0.025390377268195152
-0.47535431385040283,1.7650443315505981,0.026417795568704605
-0.48338887095451355,1.7466580867767334,0.02602129988372326
-0.4995167553424835,1.758363962173462,0.026076531037688255
-0.9325981736183167,3.198509693145752,0.0472145676612854
-0.953644871711731,3.188225746154785,0.0468449741601944
-0.9685458540916443,3.1592319011688232,0.04617956280708313
-0.9785416722297668,3.115238666534424,0.04528180509805679
-1.001956582069397,3.1159987449645996,0.045043572783470154
-1.01860773563385,3.094156265258789,0.044475313276052475
-1.033889889717102,3.0684871673583984,0.043855346739292145
-1.0421279668807983,3.024421453475952,0.04296618700027466
-1.062565803527832,3.0173068046569824,0.042598187923431396
-1.0727002620697021,2.9805355072021484,0.041811827570199966
-1.0932629108428955,2.973059892654419,0.04143976792693138
-1.0987643003463745,2.9251837730407715,0.04050891473889351
-1.0989725589752197,2.8666224479675293,0.039422519505023956
-1.1124897003173828,2.844639778137207,0.03884076327085495
-1.124678611755371,2.8188316822052,0.03820643201470375
-1.1354097127914429,2.7892448902130127,0.03752206638455391
-1.1517910957336426,2.77406907081604,0.037035759538412094
-1.1505370140075684,2.719543218612671,0.036007288843393326
-1.1733613014221191,2.722543716430664,0.035745736211538315
-1.156031847000122,2.63211727142334,0.03425760567188263
-1.180687665939331,2.63828182220459,0.034034375101327896
-1.1905498504638672,2.6124043464660645,0.03339052572846413
-1.2161376476287842,2.622140407562256,0.03319237753748894
-1.243574619293213,2.635183334350586,0.03303276002407074
-1.2688989639282227,2.6404340267181396,0.032753314822912216
-1.2579489946365356,2.571953773498535,0.031571049243211746
-1.283657431602478,2.5810561180114746,0.031335800886154175
-1.295440912246704,2.5620431900024414,0.030759647488594055
-1.3057841062545776,2.539236545562744,0.03013158217072487
-1.294437050819397,2.4747254848480225,0.02901400253176689
-1.30741286277771,2.4590559005737305,0.0284672062844038
-1.3217346668243408,2.4469547271728516,0.0279696024954319
-1.3308546543121338,2.4242029190063477,0.027342038229107857
-1.3400816917419434,2.401242971420288,0.026709627360105515
-1.3481652736663818,2.3787763118743896,0.026074353605508804
-1.3756898641586304,2.3900504112243652,0.02580096945166588
-1.3960084915161133,2.3872995376586914,0.025361107662320137
-1.400436520576477,2.3574907779693604,0.024629732593894005
-1.4036544561386108,2.3282577991485596,0.023903347551822662
-1.4148287773132324,2.312335968017578,0.02331605739891529
-1.4269973039627075,2.295658588409424,0.022692551836371422
-1.4379870891571045,2.279564619064331,0.02208723872900009
-1.4463273286819458,2.260387659072876,0.021456636488437653
-1.4616773128509521,2.250497341156006,0.020891936495900154
-1.4725522994995117,2.234050989151001,0.020254159346222878
-1.4609894752502441,2.185471296310425,0.01931861601769924
-1.488790512084961,2.1950111389160156,0.018885336816310883
-1.4903464317321777,2.1655688285827637,0.018098633736371994
-1.48392915725708,2.127250909805298,0.017252087593078613
-1.5185277462005615,2.145911693572998,0.01683495007455349
-1.4941006898880005,2.0817832946777344,0.01575087197124958
-1.502463936805725,2.066108226776123,0.015060237608850002
-1.5167945623397827,2.0556159019470215,0.01434394996613264
-1.5023475885391235,2.104733467102051,-0.011002101935446262
-1.507131576538086,2.1444225311279297,-0.011789064854383469
-1.4958314895629883,2.1618235111236572,-0.012431981973350048
-1.4837461709976196,2.1795899868011475,-0.01307213120162487
-1.477262258529663,2.202824592590332,-0.013704277575016022
-1.4649803638458252,2.2203738689422607,-0.014297442510724068
-1.4674428701400757,2.260772943496704,-0.015039846301078796
-1.445270299911499,2.2611122131347656,-0.015486839227378368
-1.4386053085327148,2.2884581089019775,-0.016103053465485573
-1.421806812286377,2.29892897605896,-0.01659296825528145
-1.4220706224441528,2.33542799949646,-0.017254410311579704
-1.4004055261611938,2.339379072189331,-0.017688697203993797
-1.3910309076309204,2.3631105422973633,-0.018264425918459892
-1.3863074779510498,2.393005847930908,-0.018871517851948738
-1.3728625774383545,2.409736394882202,-0.019366348162293434
-1.3397489786148071,2.392547130584717,-0.019577786326408386
-1.3299052715301514,2.4158804416656494,-0.020113181322813034
-1.3203940391540527,2.438870429992676,-0.020637283101677895
-1.306054711341858,2.455428123474121,-0.021102923899888992
-1.293351650238037,2.4753684997558594,-0.02160106599330902
-1.3082287311553955,2.5468428134918213,-0.022540852427482605
-1.2723231315612793,2.5212881565093994,-0.02262682467699051
-1.2677676677703857,2.5585005283355713,-0.023259710520505905
-1.2782080173492432,2.627346992492676,-0.024190137162804604
-1.2498174905776978,2.6150147914886475,-0.02436581254005432
-1.216409683227539,2.591935634613037,-0.024428747594356537
-1.2024661302566528,2.611337184906006,-0.02487262152135372
-1.1927945613861084,2.6415021419525146,-0.025428123772144318
-1.164901852607727,2.628302574157715,-0.02555195428431034
-1.1776394844055176,2.70802640914917,-0.026582684367895126
-1.1580075025558472,2.7164759635925293,-0.026908421888947487
-1.157910704612732,2.7716293334960938,-0.027702119201421738
-1.1439968347549438,2.794288158416748,-0.028175001963973045
-1.133250117301941,2.823929786682129,-0.0287164319306612
-1.1230179071426392,2.857410192489624,-0.029282309114933014
-1.1276419162750244,2.931046485900879,-0.03026426024734974
-1.106724739074707,2.939005136489868,-0.03057216852903366
-1.0899447202682495,2.9577577114105225,-0.03099321573972702
-1.0771018266677856,2.9873809814453125,-0.03151947259902954
-1.0608326196670532,3.009765148162842,-0.03195570781826973
-1.0443223714828491,3.032060384750366,-0.032394371926784515
-1.036723017692566,3.080033779144287,-0.033108461648225784
-1.0197560787200928,3.1021409034729004,-0.033551689237356186
-0.9977651834487915,3.109281063079834,-0.03381383419036865
-0.9778385758399963,3.1237893104553223,-0.03414977341890335
-0.9714645147323608,3.1829936504364014,-0.034979287534952164
-0.9359297156333923,3.1447465419769287,-0.0347352996468544
-0.4907625913619995,1.691878318786621,-0.018782900646328926
-0.4859573245048523,1.721691370010376,-0.019201111048460007
-0.46645650267601013,1.698737382888794,-0.019028527662158012
-0.45841893553733826,1.7170991897583008,-0.01931895688176155
-0.4533289968967438,1.746711254119873,-0.019737284630537033
-0.42684099078178406,1.693009376525879,-0.019213644787669182
-0.4127715229988098,1.6884523630142212,-0.019229484722018242
-0.3899672031402588,1.645729899406433,-0.018807675689458847
-0.38880255818367004,1.6941300630569458,-0.0194279495626688
-0.38800477981567383,1.7463656663894653,-0.020095914602279663
-0.3651772737503052,1.6993770599365234,-0.019622940570116043
-0.3664233386516571,1.7669782638549805,-0.02046266943216324
-0.3584892451763153,1.7925102710723877,-0.02081730216741562
-0.3362049162387848,1.7451372146606445,-0.02032523788511753
-0.6787593364715576,3.660003662109375,-0.04274885728955269
-0.6628667712211609,3.7184722423553467,-0.043557245284318924
-0.6434759497642517,3.7654709815979004,-0.044202614575624466
-0.6207141280174255,3.7930381298065186,-0.044614277780056
-0.5988028049468994,3.828188419342041,-0.04511861503124237
-0.5773211121559143,3.867032289505005,-0.04566919803619385
-0.5569767951965332,3.9173622131347656,-0.04635961726307869
-0.5347680449485779,3.963813066482544,-0.04699009284377098
-0.513809859752655,4.021717071533203,-0.04774723947048187
-0.4887891113758087,4.052374839782715,-0.04818471148610115
-0.4657922387123108,4.10225772857666,-0.04885391518473625
-0.44016939401626587,4.13258171081543,-0.0492936335504055
-0.416775643825531,4.189962863922119,-0.05004487186670303
-0.39158540964126587,4.243387222290039,-0.050725843757390976
-0.3618631362915039,4.246024131774902,-0.050801996141672134
-0.33067983388900757,4.228976249694824,-0.05064477026462555
-0.30426862835884094,4.274033069610596,-0.05123391002416611
-0.32578158378601074,5.075127124786377,-0.060896553099155426
-0.28807345032691956,5.050021171569824,-0.06061010807752609
-0.2507653534412384,5.01290225982666,-0.06018202751874924
-0.2163408398628235,5.030143737792969,-0.060409437865018845
-0.17943735420703888,4.976876258850098,-0.059792641550302505
-0.14510217308998108,4.985809803009033,-0.05992581695318222
-0.10965057462453842,4.9789018630981445,-0.05982803925871849
-0.07494746893644333,4.9756388664245605,-0.05975848436355591
-0.04013681411743164,4.952605247497559,-0.05945451930165291
-0.005650321487337351,4.9293293952941895,-0.05915077403187752
0.028601128607988358,4.921437740325928,-0.059034645557403564
0.06323401629924774,4.905489921569824,-0.058812495321035385
0.09691005200147629,4.885406970977783,-0.05852051079273224
0.13066968321800232,4.876806735992432,-0.05836910754442215
0.16347841918468475,4.844552516937256,-0.05793784186244011
0.19716159999370575,4.843299388885498,-0.05788036808371544
0.22934719920158386,4.8105998039245605,-0.05745014175772667
0.2627887725830078,4.801065921783447,-0.05725027620792389
0.29484203457832336,4.77963924407959,-0.05691029503941536
0.32794857025146484,4.777482509613037,-0.056802842766046524
0.359405517578125,4.751718044281006,-0.05641750246286392
0.3911634087562561,4.7335333824157715,-0.05612552911043167
0.4224339425563812,4.707317352294922,-0.055715810507535934
0.4557090699672699,4.712062835693359,-0.055660054087638855
0.4858470559120178,4.685492038726807,-0.05523740127682686
0.517488420009613,4.674245357513428,-0.05499834567308426
0.5485837459564209,4.658900260925293,-0.05471402034163475
0.5804576873779297,4.6471662521362305,-0.0544617623090744
0.6094096899032593,4.619822978973389,-0.05399782583117485
0.6433449387550354,4.630996227264404,-0.05398708954453468
0.6685217022895813,4.580067157745361,-0.05325549468398094
0.7015505433082581,4.5830302238464355,-0.05315316095948219
0.7295939326286316,4.550962448120117,-0.052645597606897354
0.760866105556488,4.545841217041016,-0.05242137238383293
0.7920860648155212,4.540507793426514,-0.052195679396390915
0.817646324634552,4.504222393035889,-0.051617950201034546
0.7127674221992493,3.7768394947052,-0.0431475006043911
0.7375102043151855,3.764127731323242,-0.042869750410318375
0.7654116153717041,3.7665278911590576,-0.042739387601614
0.9310864210128784,4.4262919425964355,-0.050033923238515854
0.9646913409233093,4.435083389282227,-0.04994279518723488
0.998817503452301,4.443541049957275,-0.04984674230217934
1.0279673337936401,4.428872108459473,-0.049492351710796356
1.0535227060317993,4.398770332336426,-0.048952363431453705
1.0825854539871216,4.387687683105469,-0.04861972853541374
1.1086616516113281,4.365056991577148,-0.04816228523850441
1.1368355751037598,4.349733352661133,-0.047786176204681396
1.1690969467163086,4.349266529083252,-0.047574274241924286
1.1932730674743652,4.318389892578125,-0.047008682042360306
1.224769115447998,4.317687511444092,-0.04675431549549103
1.251944899559021,4.301753997802734,-0.046337176114320755
1.279328465461731,4.28554105758667,-0.04591698199510574
1.309127688407898,4.276535987854004,-0.04557420685887337
1.3366365432739258,4.259835243225098,-0.04513709619641304
1.3678638935089111,4.258120536804199,-0.04485350847244263
1.3894062042236328,4.226480484008789,-0.04425735026597977
1.418546199798584,4.216793537139893,-0.04388999193906784
1.442745566368103,4.192058563232422,-0.043367136269807816
1.4713858366012573,4.182096481323242,-0.04298241809010506
1.4987818002700806,4.168210029602051,-0.042543426156044006
1.526930332183838,4.157984733581543,-0.04214894399046898
1.5502293109893799,4.132675647735596,-0.04159725829958916
1.5789403915405273,4.121795177459717,-0.041192829608917236
1.606724739074707,4.111048698425293,-0.04077473655343056
1.634832739830017,4.099956512451172,-0.04034671187400818
1.6626070737838745,4.088776111602783,-0.03992262855172157
1.6850240230560303,4.062683582305908,-0.039347946643829346
1.7190388441085815,4.06538200378418,-0.0390474759042263
2.0012292861938477,4.645696640014648,-0.04422898218035698
2.046973943710327,4.664145469665527,-0.044003766030073166
2.075843572616577,4.64281702041626,-0.04339917004108429
2.10803484916687,4.628294467926025,-0.0428573377430439
2.132437229156494,4.599891185760498,-0.042164623737335205
2.163055181503296,4.585578441619873,-0.04159922897815704
2.1979877948760986,4.577610492706299,-0.041077934205532074
2.226351022720337,4.555194854736328,-0.040424708276987076
2.2640960216522217,4.554012775421143,-0.03995655104517937
2.290753126144409,4.53191614151001,-0.039302729070186615
2.3210995197296143,4.516453266143799,-0.038704100996255875
2.363290786743164,4.5209879875183105,-0.0382595956325531
1.7270313501358032,3.2491116523742676,-0.02713591605424881
1.7521404027938843,3.24452543258667,-0.026736948639154434
1.7268284559249878,3.1471235752105713,-0.025578176602721214
1.7334437370300293,3.107755184173584,-0.024891169741749763
1.7792917490005493,3.140238046646118,-0.02477310597896576
1.342347264289856,2.3326900005340576,-0.01811257004737854
1.3107646703720093,2.2426369190216064,-0.017129650339484215
0.9533572793006897,1.605413794517517,-0.012052287347614765
0.965862512588501,1.6024861335754395,-0.011816957965493202
0.9742491841316223,1.592826008796692,-0.011532335542142391
0.9874742031097412,1.5892637968063354,-0.011275764554738998
0.9918491244316101,1.5727019309997559,-0.010930372402071953
1.0124919414520264,1.582729458808899,-0.01076829619705677
1.0188878774642944,1.5693151950836182,-0.010435079224407673
1.0295559167861938,1.5623390674591064,-0.010138933546841145
1.0440510511398315,1.5620975494384766,-0.009881102479994297
1.0544503927230835,1.555098533630371,-0.009573605842888355
2.543987989425659,3.6976077556610107,-0.022109730169177055
2.5718042850494385,3.6878483295440674,-0.02140069380402565
2.6055424213409424,3.6832494735717773,-0.020678769797086716
2.630169630050659,3.6657087802886963,-0.01983747072517872
2.62554669380188,3.611229658126831,-0.018805522471666336
2.694563388824463,3.652681827545166,-0.01818920113146305
2.6145832538604736,3.691244125366211,0.012626903131604195
2.5724215507507324,3.687455892562866,0.013254760764539242
1.0679559707641602,1.5553597211837769,0.005842418875545263
1.0516464710235596,1.5570135116577148,0.006092510651797056
1.036434531211853,1.5578044652938843,0.006315916310995817
1.0288519859313965,1.572166919708252,0.00659158593043685
1.0215246677398682,1.5862369537353516,0.00686072651296854
1.0019924640655518,1.5801751613616943,0.007031342945992947
0.9898621439933777,1.5878010988235474,0.007257984485477209
0.9823179841041565,1.6016502380371094,0.007505446206778288
0.967124342918396,1.601750135421753,0.00767993601039052
0.9592065215110779,1.6155955791473389,0.007916911505162716
1.3213688135147095,2.263622760772705,0.011328460648655891
1.8402655124664307,3.204448699951172,0.016354398801922798
1.778706431388855,3.1496002674102783,0.016370952129364014
1.742078423500061,3.138768434524536,0.01660110428929329
1.7663437128067017,3.2368786334991455,0.017404330894351006
1.747482419013977,3.255967378616333,0.01778356544673443
2.3789498805999756,4.5128607749938965,0.0250230822712183
2.338524341583252,4.516350269317627,0.025407789275050163
2.3066718578338623,4.532698631286621,0.02584957331418991
2.271491289138794,4.5416951179504395,0.026244983077049255
2.24167537689209,4.565187454223633,0.026709096506237984
2.200895309448242,4.567646503448486,0.027056628838181496
2.182116746902466,4.611240863800049,0.027631914243102074
2.140080213546753,4.605065822601318,0.02790759690105915
2.11299204826355,4.634732723236084,0.02836614102125168
2.0759828090667725,4.642868995666504,0.028695126995444298
2.0399937629699707,4.650261878967285,0.029011696577072144
1.9776875972747803,4.596410751342773,0.028943825513124466
1.7230470180511475,4.084995746612549,0.025945479050278664
1.691953182220459,4.093743801116943,0.026219746097922325
1.659681797027588,4.098504066467285,0.026466859504580498
1.6339722871780396,4.117225646972656,0.026799693703651428
1.601628303527832,4.121532917022705,0.0270394254475832
1.5690600872039795,4.125682353973389,0.027267079800367355
1.5460848808288574,4.155190467834473,0.0276640597730875
1.512897253036499,4.154918193817139,0.02785901539027691
1.4866513013839722,4.17267370223999,0.028173958882689476
1.4654473066329956,4.209129810333252,0.028596431016921997
1.4302501678466797,4.204717636108398,0.028729412704706192
1.4050427675247192,4.229673385620117,0.029064536094665527
1.368323564529419,4.217060089111328,0.029138190671801567
1.3507230281829834,4.263721942901611,0.029623402282595634
1.3265961408615112,4.29582405090332,0.029989326372742653
1.291323184967041,4.2902421951293945,0.030089683830738068
1.265140414237976,4.314319610595703,0.030398910865187645
1.2329579591751099,4.3155012130737305,0.030545296147465706
1.2112681865692139,4.3540825843811035,0.030957460403442383
1.1741101741790771,4.339972972869873,0.030959855765104294
1.1485885381698608,4.37103271484375,0.03128789737820625
1.1175880432128906,4.379060745239258,0.03145086392760277
1.0899358987808228,4.398097991943359,0.03169272467494011
1.0592938661575317,4.405576705932617,0.031853239983320236
1.0297987461090088,4.420585632324219,0.032057542353868484
0.9995776414871216,4.4355244636535645,0.03226499632000923
0.9648101329803467,4.427225112915039,0.032303012907505035
0.9372135400772095,4.449117183685303,0.032561127096414566
0.7676266431808472,3.774190664291382,0.027706297114491463
0.7409424781799316,3.7795193195343018,0.02781102992594242
0.709357500076294,3.761725902557373,0.02774418331682682
0.8192779421806335,4.5199785232543945,0.03341367468237877
0.7904669046401978,4.5409650802612305,0.03364650160074234
0.7620884776115417,4.565615177154541,0.03390858694911003
0.7300205230712891,4.570851802825928,0.034007247537374496
0.6984126567840576,4.5836896896362305,0.03415137156844139
0.6705843210220337,4.619422435760498,0.03446737304329872
0.6404116749763489,4.639473915100098,0.034668177366256714
0.6070792078971863,4.636074066162109,0.03469529747962952
0.5775297284126282,4.663464069366455,0.03494367375969887
0.5451756119728088,4.671288967132568,0.03501998633146286
0.5117402076721191,4.675070285797119,0.035068079829216
0.48132845759391785,4.701858043670654,0.03529021516442299
0.44935131072998047,4.712869644165039,0.03539561480283737
0.41793161630630493,4.731444835662842,0.03555965796113014
0.38669395446777344,4.757614612579346,0.03577180206775665
0.3539183437824249,4.775831699371338,0.03592519462108612
0.3207116425037384,4.78209114074707,0.035990193486213684
0.2878967225551605,4.7920050621032715,0.0360843688249588
0.2550050616264343,4.801691055297852,0.03617861494421959
0.22337523102760315,4.842369556427002,0.03648893162608147
0.18899592757225037,4.843832969665527,0.03648325428366661
0.15620937943458557,4.8762664794921875,0.03671282157301903
0.12273287773132324,4.896760940551758,0.03685416653752327
0.08867184817790985,4.897496223449707,0.03684854507446289
0.05482074245810509,4.921430587768555,0.03701917082071304
0.020005041733384132,4.937319755554199,0.03711073100566864
-0.014440048485994339,4.9607768058776855,0.03726126626133919
-0.04921986162662506,4.980085372924805,0.037382204085588455
-0.08379756659269333,4.979623317718506,0.03735654801130295
-0.11879035830497742,4.994541168212891,0.0374479740858078
-0.15390564501285553,5.009214878082275,0.03752129524946213
-0.18952041864395142,5.015811920166016,0.03751825541257858
-0.2243116945028305,5.014376640319824,0.037457723170518875
-0.2607533633708954,5.043905258178711,0.03762993589043617
-0.297893226146698,5.0770649909973145,0.03783036023378372
-0.28384584188461304,4.322602272033691,0.03216900676488876
-0.3091728687286377,4.250372409820557,0.03156684711575508
-0.3392286002635956,4.255916118621826,0.03154583275318146
-0.36937597393989563,4.2612481117248535,0.031524527817964554
-0.3956865668296814,4.223578453063965,0.03118683211505413
-0.4211004376411438,4.181863784790039,0.030821792781352997
-0.44552379846572876,4.132190227508545,0.030391046777367592
-0.4690797030925751,4.086336612701416,0.02998669072985649
-0.4915909767150879,4.036474227905273,0.029555708169937134
-0.5150090456008911,3.998110771179199,0.029211457818746567
-0.5364541411399841,3.947991132736206,0.028783736750483513
-0.5582008361816406,3.9015753269195557,0.028379393741488457
-0.5780079960823059,3.8512985706329346,0.027926579117774963
-0.5977223515510559,3.804800271987915,0.027504587545990944
-0.6200604438781738,3.7774760723114014,0.027223726734519005
-0.6436840891838074,3.757671594619751,0.026998206973075867
-0.6595134139060974,3.6954233646392822,0.02647063322365284
-0.323064386844635,1.7397459745407104,0.012418366968631744
-0.347556471824646,1.8026942014694214,0.012822299264371395
-0.3629714548587799,1.815590739250183,0.012868799269199371
-0.3755277693271637,1.8130357265472412,0.012805587612092495
-0.3897368311882019,1.8180255889892578,0.01279597170650959
-0.3779238760471344,1.7046624422073364,0.011950121261179447
-0.38778355717658997,1.6944338083267212,0.011826333589851856
-0.4082895517349243,1.7297704219818115,0.012020193971693516
-0.40542590618133545,1.6661890745162964,0.011527310125529766
-0.4407525956630707,1.7580519914627075,0.01210889220237732
-0.44725939631462097,1.7322132587432861,0.011876258067786694
-0.4710749387741089,1.774431824684143,0.01210867427289486
-0.4831656217575073,1.7711783647537231,0.012029819190502167
-0.4868656098842621,1.7377344369888306,0.011747143231332302
-0.501064121723175,1.741824746131897,0.011718840338289738
-0.9358769655227661,3.169328451156616,0.02121727354824543
-0.9618125557899475,3.1778836250305176,0.02115774340927601
-0.9717112183570862,3.1339991092681885,0.02075086161494255
-0.9883400797843933,3.112406015396118,0.020493434742093086
-1.005171298980713,3.090585947036743,0.02023414336144924
-1.0232212543487549,3.0723090171813965,0.019995324313640594
-1.0389626026153564,3.0505216121673584,0.01972346007823944
-1.0544559955596924,3.0286619663238525,0.019453296437859535
-1.0620198249816895,2.9845900535583496,0.019042452797293663
-1.0827256441116333,2.977142333984375,0.01886557973921299
-1.0936449766159058,2.943997621536255,0.01852766051888466
-1.1109862327575684,2.929144859313965,0.018303891643881798
-1.122206687927246,2.8997483253479004,0.017993520945310593
-1.120540738105774,2.8374900817871094,0.017481012269854546
-1.1344038248062134,2.815138578414917,0.01721649058163166
-1.1446410417556763,2.785670757293701,0.016904465854167938
-1.1605632305145264,2.7706079483032227,0.01667485199868679
-1.15303373336792,2.701695442199707,0.016127480193972588
-1.149985671043396,2.643462896347046,0.015645083039999008
-1.1652162075042725,2.6282427310943604,0.015420560725033283
-1.192394495010376,2.64176082611084,0.015356170013546944
-1.2201423645019531,2.654876947402954,0.015285059809684753
-1.2133618593215942,2.5934367179870605,0.014787173829972744
-1.2665979862213135,2.6590166091918945,0.015010294504463673
-1.2810865640640259,2.6433889865875244,0.014767608605325222
-1.2882068157196045,2.613823652267456,0.014446813613176346
-1.272713303565979,2.5386455059051514,0.013875526376068592
-1.2796645164489746,2.5088679790496826,0.013555333018302917
-1.293099045753479,2.4931740760803223,0.0133134126663208
-1.2986148595809937,2.463843584060669,0.013000573962926865
-1.3093985319137573,2.44484543800354,0.012744155712425709
-1.322645664215088,2.4288132190704346,0.01249723695218563
-1.3280482292175293,2.3991105556488037,0.012177429161965847
-1.3437752723693848,2.390338182449341,0.011965326964855194
-1.3673896789550781,2.39491868019104,0.011817493475973606
-1.3918920755386353,2.3988447189331055,0.011656755581498146
-1.3960305452346802,2.369276523590088,0.011332256719470024
-1.4037407636642456,2.3465287685394287,0.011038757860660553
-1.4114476442337036,2.3236398696899414,0.010744381695985794
-1.415152907371521,2.2938926219940186,0.010416626930236816
-1.4299182891845703,2.2847185134887695,0.010183049365878105
-1.4384571313858032,2.265484094619751,0.009904400445520878
-1.4544382095336914,2.255258798599243,0.009649470448493958
-1.4606730937957764,2.2325780391693115,0.00934628676623106
-1.4706491231918335,2.2166504859924316,0.009073550812900066
-1.485889196395874,2.2064647674560547,0.008810036815702915
-1.5003809928894043,2.1966371536254883,0.008547045290470123
-1.4967420101165771,2.1612136363983154,0.008183763362467289
-1.4869424104690552,2.115659236907959,0.007773115299642086
-1.4914588928222656,2.093322992324829,0.007457394618541002
-1.4957387447357178,2.0710244178771973,0.007140792440623045
-1.500613808631897,2.0481576919555664,0.006807129830121994
-1.503945231437683,2.0262880325317383,0.006485742516815662
-1.4950153827667236,2.1099746227264404,-0.00293622980825603
-1.4858520030975342,2.13073992729187,-0.0031491618137806654
-1.4964022636413574,2.180438995361328,-0.003399347886443138
-1.4894673824310303,2.2040657997131348,-0.003603557124733925
-1.4813441038131714,2.2283201217651367,-0.0038078450597822666
-1.4738273620605469,2.251995325088501,-0.0040046884678304195
-1.4534097909927368,2.2559385299682617,-0.0041582840494811535
-1.4426230192184448,2.2767364978790283,-0.0043363855220377445
-1.430214285850525,2.2937638759613037,-0.004503101110458374
-1.430209994316101,2.3305113315582275,-0.004705127328634262
-1.4006695747375488,2.321052312850952,-0.004814526531845331
-1.3958724737167358,2.351238489151001,-0.005001982674002647
-1.3912433385849,2.38116455078125,-0.005187079310417175
-1.3810100555419922,2.4051482677459717,-0.005356612149626017
-1.355549693107605,2.401663064956665,-0.005462620873004198
-1.3425692319869995,2.4178829193115234,-0.005607140250504017
-1.3289157152175903,2.4343183040618896,-0.005749395117163658
-1.3146146535873413,2.450939655303955,-0.00588956568390131
-1.3057866096496582,2.477753162384033,-0.006054519210010767
-1.317297339439392,2.5422563552856445,-0.0063098119571805
-1.2882256507873535,2.530839204788208,-0.006369014736264944
-1.2888879776000977,2.578629970550537,-0.00657564215362072
-1.2705754041671753,2.5877020359039307,-0.006682488601654768
-1.2861719131469727,2.6669955253601074,-0.006973109673708677
-1.233428716659546,2.60561203956604,-0.006889857351779938
-1.209494709968567,2.6038920879364014,-0.006961465813219547
-1.2023370265960693,2.6372854709625244,-0.0071257720701396465
-1.196737289428711,2.674104690551758,-0.007299698889255524
-1.14460289478302,2.607485055923462,-0.007183032110333443
-1.1716792583465576,2.72349214553833,-0.007568479515612125
-1.1673592329025269,2.7677905559539795,-0.007756561040878296
-1.1540710926055908,2.790273427963257,-0.007883239537477493
-1.1431833505630493,2.8200578689575195,-0.008032737299799919
-1.141556978225708,2.875424861907959,-0.008258755318820477
-1.126083254814148,2.898289203643799,-0.00839453935623169
-1.1141653060913086,2.9279818534851074,-0.008547946810722351
-1.0883203744888306,2.9210174083709717,-0.008594687096774578
-1.0927824974060059,2.998469829559326,-0.008875266648828983
-1.0685994625091553,2.998880624771118,-0.008927160874009132
-1.057138442993164,3.0360493659973145,-0.00908973254263401
-1.0409471988677979,3.0581483840942383,-0.009206552989780903
-1.0219088792800903,3.0727970600128174,-0.009300947189331055
-1.008272409439087,3.1060595512390137,-0.009450307115912437
-0.9883137941360474,3.1206631660461426,-0.009543906897306442
-0.9751130938529968,3.157533884048462,-0.009706689044833183
-0.9576603174209595,3.179192543029785,-0.009822288528084755
-0.5017487406730652,1.7091143131256104,-0.005303318612277508
-0.4959970712661743,1.7351815700531006,-0.005403212737292051
-0.48572707176208496,1.7461947202682495,-0.005456810351461172
-0.4602029025554657,1.7005404233932495,-0.00533285504207015
-0.4570891857147217,1.7377569675445557,-0.005469075869768858
-0.4448436200618744,1.7409318685531616,-0.005495155230164528
-0.4164709150791168,1.679597020149231,-0.005314427427947521
-0.4045170247554779,1.6825158596038818,-0.005336782429367304
-0.390979528427124,1.677692174911499,-0.005334553308784962
-0.398887038230896,1.768053650856018,-0.00563604012131691
-0.3881629705429077,1.7784360647201538,-0.0056801894679665565
-0.382034569978714,1.8117119073867798,-0.005794564727693796
-0.3598759174346924,1.7684326171875,-0.005664300639182329
-0.34749937057495117,1.7709063291549683,-0.005680566653609276
-0.33496126532554626,1.7733205556869507,-0.005697021260857582
-0.6751267910003662,3.7165019512176514,-0.011957504786550999
-0.6508782505989075,3.7327210903167725,-0.01202664989978075
-0.6322633624076843,3.783452272415161,-0.012207836844027042
-0.6094051599502563,3.8109383583068848,-0.012314857915043831
-0.5889279246330261,3.8576278686523438,-0.012485017068684101
-0.5665998458862305,3.892552614212036,-0.01261658314615488
-0.5461628437042236,3.9467437267303467,-0.01280215010046959
-0.5254993438720703,4.0047101974487305,-0.013000869192183018
-0.5002367496490479,4.031562805175781,-0.013099415227770805
-0.47715696692466736,4.077624320983887,-0.01326110027730465
-0.45253461599349976,4.119729518890381,-0.013411036692559719
-0.4272538721561432,4.15777063369751,-0.01353447511792183
-0.40402141213417053,4.222882270812988,-0.0137433847412467
-0.3774828314781189,4.260632038116455,-0.013863857835531235
-0.3458717167377472,4.239799499511719,-0.013794389553368092
-0.3157948851585388,4.242146015167236,-0.013801002874970436
-0.28986045718193054,4.298810005187988,-0.013978110626339912
-0.3066248595714569,5.076659202575684,-0.016490168869495392
-0.26790809631347656,5.020174026489258,-0.016290459781885147
-0.23326213657855988,5.02972412109375,-0.016306079924106598
-0.19714763760566711,5.015631675720215,-0.016245698556303978
-0.16230829060077667,5.016880035400391,-0.016235485672950745
-0.12642477452754974,4.978837490081787,-0.016091180965304375
-0.09172626584768295,4.975691318511963,-0.016060614958405495
-0.057120174169540405,4.9801154136657715,-0.016055237501859665
-0.02171945571899414,4.945239067077637,-0.0159237589687109
0.012657404877245426,4.921833038330078,-0.015830518677830696
0.046799179166555405,4.913814544677734,-0.01578080840408802
0.08074194937944412,4.897747039794922,-0.015702366828918457
0.11450869590044022,4.885351657867432,-0.015636643394827843
0.14803442358970642,4.868819236755371,-0.01555854082107544
0.18163937330245972,4.8442277908325195,-0.01545521430671215
0.21463268995285034,4.827237606048584,-0.015375141985714436
0.24771445989608765,4.817830562591553,-0.01531205978244543
0.2797655165195465,4.792598724365234,-0.01519963052123785
0.31300657987594604,4.7905426025390625,-0.015161591582000256
0.344888836145401,4.7609381675720215,-0.015036695636808872
0.3767610788345337,4.742847919464111,-0.014949675649404526
0.4081864655017853,4.724564552307129,-0.014849253930151463
0.43933945894241333,4.706076622009277,-0.014746078290045261
0.4733761250972748,4.718478679656982,-0.014740399084985256
0.503349781036377,4.68394660949707,-0.014587946236133575
0.5345585346221924,4.6686930656433105,-0.014497357420623302
0.565025806427002,4.649364471435547,-0.014394802041351795
0.5950363874435425,4.629866123199463,-0.014292466454207897
0.6269037127494812,4.625658988952637,-0.014238153584301472
0.6561165452003479,4.597932815551758,-0.014111458323895931
0.6880609393119812,4.593260765075684,-0.014056907966732979
0.7199438214302063,4.588371753692627,-0.014001257717609406
0.7464157342910767,4.552475929260254,-0.013837628997862339
0.7776546478271484,4.547243595123291,-0.013768297620117664
0.8026928901672363,4.507185935974121,-0.013594568707048893
0.7128013968467712,3.8446199893951416,-0.011550492607057095
0.7269734740257263,3.774360418319702,-0.011295792646706104
0.7559281587600708,3.7846031188964844,-0.01127898134291172
0.9195293188095093,4.44492769241333,-0.013190144672989845
0.948283314704895,4.4308929443359375,-0.013092456385493279
0.9795337319374084,4.4240899085998535,-0.01301509514451027
1.0102572441101074,4.41717529296875,-0.012938921339809895
1.0424541234970093,4.417715549468994,-0.01287506241351366
1.0688825845718384,4.395317077636719,-0.012737317010760307
1.0979398488998413,4.384122371673584,-0.012632851488888264
1.1248197555541992,4.36116886138916,-0.012493377551436424
1.155131459236145,4.353238582611084,-0.01239854283630848
1.1892125606536865,4.360250473022461,-0.012346085160970688
1.21041738986969,4.3219685554504395,-0.012165498919785023
1.2397888898849487,4.313634872436523,-0.012070277705788612
1.2677876949310303,4.29734468460083,-0.011951306834816933
1.2931710481643677,4.273452281951904,-0.011812613345682621
1.3226118087768555,4.264432907104492,-0.011715240776538849
1.3563061952590942,4.270234107971191,-0.011657867580652237
1.3780269622802734,4.238636016845703,-0.011499152518808842
1.4002697467803955,4.206645965576172,-0.011338440701365471
1.431960940361023,4.20421838760376,-0.011258848011493683
1.4568477869033813,4.183252334594727,-0.011128793470561504
1.4823988676071167,4.165975570678711,-0.011007921770215034
1.5131549835205078,4.163216590881348,-0.01092582382261753
1.5391168594360352,4.14535665512085,-0.010802971199154854
1.562878131866455,4.119750022888184,-0.010658878833055496
1.590858817100525,4.109025955200195,-0.010550281964242458
1.6241987943649292,4.112766265869141,-0.010477031581103802
1.6518890857696533,4.1017231941223145,-0.010366109199821949
1.68038010597229,4.0901336669921875,-0.010251661762595177
1.7091922760009766,4.078178405761719,-0.010135827586054802
1.9650276899337769,4.601913928985596,-0.011348668485879898
2.0316359996795654,4.671039581298828,-0.011428959667682648
2.0603113174438477,4.649919509887695,-0.011285758577287197
2.0893585681915283,4.62837028503418,-0.01114069763571024
2.1244568824768066,4.620965480804443,-0.01102700736373663
2.1518802642822266,4.599635601043701,-0.010881024412810802
2.1826395988464355,4.585119247436523,-0.0107512716203928
2.214405059814453,4.569863319396973,-0.010616838932037354
2.2422218322753906,4.547571182250977,-0.01046436931937933
2.276317596435547,4.539341926574707,-0.010337401181459427
2.309865951538086,4.531134128570557,-0.010212518274784088
2.3411989212036133,4.515024185180664,-0.010065197013318539
2.3686177730560303,4.491870880126953,-0.009902847930788994
1.741439700126648,3.2503838539123535,-0.00708715571090579
1.7591094970703125,3.2319631576538086,-0.006968420464545488
1.7421197891235352,3.147714138031006,-0.006704742554575205
1.7674659490585327,3.1425187587738037,-0.006611461751163006
1.8325893878936768,3.208879232406616,-0.006663704290986061
1.3383843898773193,2.3079779148101807,-0.004729262087494135
0.9498500823974609,1.6120688915252686,-0.003256384050473571
0.9588120579719543,1.602204442024231,-0.0031904589850455523
0.9752997756004333,1.6059479713439941,-0.0031536754686385393
0.9820024967193604,1.5926874876022339,-0.003081958508118987
0.9929922223091125,1.5858591794967651,-0.0030219450127333403
1.0011143684387207,1.5761187076568604,-0.0029610658530145884
1.017940640449524,1.579264760017395,-0.002922982210293412
1.0224652290344238,1.5623526573181152,-0.0028460505418479443
1.0390514135360718,1.5654560327529907,-0.002801527502015233
1.0534471273422241,1.565231442451477,-0.0027494903188198805
1.0532636642456055,1.5417579412460327,-0.0026529489550739527
2.5560052394866943,3.6893723011016846,-0.006227238103747368
2.6133906841278076,3.720782518386841,-0.00616036681458354
2.623168706893921,3.680368423461914,-0.005964850075542927
2.641547441482544,3.6575675010681152,-0.005803892854601145
2.681957721710205,3.6619882583618164,-0.00567788677290082
2.6963911056518555,3.631932258605957,-0.005490208510309458
2.6264700889587402,3.6780178546905518,-0.0015353744383901358
2.5807044506073,3.672142744064331,-0.0014561633579432964
2.545595169067383,3.6775803565979004,-0.001390731194987893
1.057459831237793,1.5530829429626465,-0.0005633700639009476
1.0507522821426392,1.5670439004898071,-0.0005463662673719227
1.028530240058899,1.5583690404891968,-0.0005197289283387363
1.0122572183609009,1.5596827268600464,-0.0004945654654875398
1.0202877521514893,1.596327304840088,-0.0004826824297197163
0.9939660429954529,1.580639123916626,-0.00045787758426740766
0.9882015585899353,1.598044514656067,-0.0004442124627530575
0.9729878902435303,1.59821355342865,-0.00042713250149972737
0.959211528301239,1.6019682884216309,-0.00041398825123906136
0.976982057094574,1.6595600843429565,-0.0004172072221990675
1.362576961517334,2.3526549339294434,-0.0005758258048444986
1.794604778289795,3.1496059894561768,-0.000748590799048543
1.7502328157424927,3.12532114982605,-0.0007117000059224665
1.7400970458984375,3.162222385406494,-0.0006887528579682112
1.751500129699707,3.236100673675537,-0.0006751071778126061
1.728175163269043,3.2486166954040527,-0.0006470163934864104
2.3591418266296387,4.514503479003906,-0.0008557566907256842
2.3196280002593994,4.517375469207764,-0.0008144301827996969
2.2876367568969727,4.533659934997559,-0.0007762115565128624
2.2548646926879883,4.550048351287842,-0.0007324953912757337
2.2284412384033203,4.580430030822754,-0.0006890461081638932
2.192422866821289,4.589122295379639,-0.0006434847018681467
2.1538381576538086,4.590103626251221,-0.0005981748690828681
2.1273272037506104,4.61965799331665,-0.0005626184865832329
2.0898613929748535,4.628156661987305,-0.0005260711768642068
2.059904098510742,4.650113582611084,-0.000492381164804101
2.016605854034424,4.63925313949585,-0.00045632594265043736
1.7308799028396606,4.060542106628418,-0.0003685025731101632
1.7044377326965332,4.0801801681518555,-0.0003388861077837646
1.674457311630249,4.0925750732421875,-0.000308223970932886
1.6459003686904907,4.104143142700195,-0.0002791030565276742
1.6171398162841797,4.115560531616211,-0.00024978595320135355
1.584599494934082,4.119829177856445,-0.00021866439783480018
1.5575857162475586,4.1384663581848145,-0.00018831685883924365
1.5305206775665283,4.156878471374512,-0.0001579994277562946
1.5016065835952759,4.167410373687744,-0.00012835476081818342
1.472108006477356,4.177921772003174,-9.541585313854739e-05
1.44209623336792,4.188375473022461,-5.983717710478231e-05
1.4157809019088745,4.209709644317627,-2.4364351702388376e-05
1.395647406578064,4.249331951141357,1.0968344213324599e-05
1.3613165616989136,4.244048118591309,4.5599172153742984e-05
1.331072449684143,4.253630638122559,6.992565613472834e-05
1.3097816705703735,4.292917251586914,9.283667895942926e-05
1.2769392728805542,4.294651031494141,0.00011500280379550532
1.2491905689239502,4.310938358306885,0.00013705612218473107
1.2207551002502441,4.327195167541504,0.00015956482093315572
1.1899055242538452,4.335779666900635,0.0001833547285059467
1.1609917879104614,4.3516974449157715,0.00020755286095663905
1.1301051378250122,4.359820365905762,0.00023131420311983675
1.1035161018371582,4.382740497589111,0.0002555452228989452
1.0724108219146729,4.39045524597168,0.0002793890016619116
1.0438826084136963,4.409368991851807,0.0002994783571921289
1.0160475969314575,4.43189811706543,0.0003198864869773388
0.9829099774360657,4.431362628936768,0.00033865452860482037
0.9504291415214539,4.430452823638916,0.0003569889231584966
0.8176243305206299,3.9474635124206543,0.00033473173971287906
0.7545275092124939,3.776932954788208,0.0003475559351500124
0.7307440638542175,3.7975192070007324,0.0003781561099458486
0.8346407413482666,4.509345531463623,0.00048309986595995724
0.8018906116485596,4.507349491119385,0.000516252126544714
0.7758994698524475,4.547564506530762,0.0005550383357331157
0.7477318644523621,4.576030731201172,0.0005816964549012482
0.716705322265625,4.588900089263916,0.0006020477158017457
0.6843407154083252,4.593838214874268,0.0006214443128556013
0.6511435508728027,4.590770244598389,0.0006395846139639616
0.6227661371231079,4.626239776611328,0.0006634923629462719
0.5923589468002319,4.6459832191467285,0.0006857985281385481
