X,Y,Z
0.6690865159034729,4.594187259674072,-0.1320512592792511
0.6959642171859741,4.558609962463379,-0.1306660771369934
0.7303906679153442,4.5690531730651855,-0.13060051202774048
0.7589618563652039,4.544615745544434,-0.1295473277568817
0.7851780652999878,4.508469581604004,-0.12817098200321198
0.8161941766738892,4.502974033355713,-0.12759438157081604
0.7112399935722351,3.7758681774139404,-0.10663454234600067
0.7341809868812561,3.755575180053711,-0.10571057349443436
0.7622640132904053,3.7579591274261475,-0.10542085021734238
0.9288332462310791,4.421329498291016,-0.1236225962638855
0.9591849446296692,4.414861679077148,-0.1229640543460846
0.9919016361236572,4.419652462005615,-0.1226004809141159
1.0221234560012817,4.412779808044434,-0.12191721051931381
1.050574779510498,4.394068717956543,-0.12089775502681732
1.0820916891098022,4.3904547691345215,-0.12030793726444244
1.1093624830245972,4.371578693389893,-0.11924543976783752
1.1332992315292358,4.341245651245117,-0.11785495281219482
1.1649702787399292,4.340961456298828,-0.11728771775960922
1.187270998954773,4.3025383949279785,-0.11568047106266022
1.223520278930664,4.316749572753906,-0.11550410091876984
1.2464518547058105,4.285810947418213,-0.1140684112906456
1.2755823135375977,4.277254104614258,-0.11321626603603363
1.3023356199264526,4.261040687561035,-0.11216854304075241
1.3301026821136475,4.244294166564941,-0.11108925193548203
1.3572014570236206,4.227527141571045,-0.11002768576145172
1.3883633613586426,4.22564172744751,-0.10929471254348755
1.414525032043457,4.208741664886475,-0.10816812515258789
1.4393203258514404,4.187964916229248,-0.10694826394319534
1.4684308767318726,4.177871227264404,-0.10599245876073837
1.495240330696106,4.1600775718688965,-0.10482604801654816
1.5179365873336792,4.135240077972412,-0.10343319922685623
1.5458800792694092,4.124900817871094,-0.10240956395864487
1.574079990386963,4.1142473220825195,-0.10137391090393066
1.6083457469940186,4.117774486541748,-0.10067717730998993
1.6311982870101929,4.0919904708862305,-0.0992269441485405
1.6587027311325073,4.0809454917907715,-0.09812596440315247
1.680153489112854,4.055283546447754,-0.0966809019446373
1.7203761339187622,4.072348594665527,-0.09623133391141891
1.9973554611206055,4.6377973556518555,-0.10861409455537796
2.0430288314819336,4.6563005447387695,-0.10797566920518875
2.070993185043335,4.635408401489258,-0.10643967241048813
2.0993497371673584,4.614087104797363,-0.10488218069076538
2.1297659873962402,4.595854759216309,-0.10338152945041656
2.1624915599823,4.584897994995117,-0.10203177481889725
2.2003047466278076,4.584238529205322,-0.10088340938091278
2.2243356704711914,4.5552802085876465,-0.0991227924823761
2.266387939453125,4.560719013214111,-0.09807915985584259
2.2850377559661865,4.520824432373047,-0.09602814167737961
2.323928117752075,4.522955417633057,-0.09483975172042847
2.3541512489318848,4.507330894470215,-0.09326844662427902
1.7298779487609863,3.2558817863464355,-0.06642166525125504
1.7444140911102295,3.2303969860076904,-0.06496167927980423
1.7337065935134888,3.160655975341797,-0.06262699514627457
1.7434284687042236,3.128526449203491,-0.06104731932282448
1.7786790132522583,3.1401045322418213,-0.06028304994106293
1.3344240188598633,2.3188796043395996,-0.043758951127529144
1.3043317794799805,2.2325048446655273,-0.04140252619981766
0.9527511596679688,1.6055529117584229,-0.02923187054693699
0.9637942314147949,1.5989603996276855,-0.028555380180478096
0.974166989326477,1.5926741361618042,-0.027874965220689774
0.9847956299781799,1.5861363410949707,-0.02717493288218975
0.9958018064498901,1.579262137413025,-0.02644696831703186
1.0082952976226807,1.5759656429290771,-0.025774899870157242
1.0163313150405884,1.5661529302597046,-0.02499595656991005
1.0185010433197021,1.5460796356201172,-0.02402016893029213
1.0397595167160034,1.5554230213165283,-0.023478813469409943
1.0474871397018433,1.5455248355865479,-0.022651026025414467
2.5434181690216064,3.6976943016052246,-0.052432093769311905
2.5720460414886475,3.6873960494995117,-0.05049809813499451
2.600029468536377,3.6773171424865723,-0.04855039715766907
2.6305313110351562,3.6652095317840576,-0.04637393355369568
2.6120660305023193,3.59183931350708,-0.043482597917318344
2.6682546138763428,3.618499517440796,-0.04169188812375069
2.614595413208008,3.690988779067993,0.04450717568397522
2.571037530899048,3.6881532669067383,0.046398766338825226
1.067962646484375,1.5552334785461426,0.020304013043642044
1.0558147430419922,1.5634946823120117,0.021146662533283234
1.0488828420639038,1.577532410621643,0.022014351561665535
1.0224716663360596,1.5621896982192993,0.02244255132973194
1.0253832340240479,1.5928856134414673,0.0235283225774765
1.001513957977295,1.5803128480911255,0.023935936391353607
0.9878085851669312,1.5843039751052856,0.02458071894943714
0.975853681564331,1.5916848182678223,0.02525939792394638
0.9705202579498291,1.6086329221725464,0.026065487414598465
0.9591525197029114,1.6154264211654663,0.026694653555750847
1.3330204486846924,2.2836644649505615,0.03844764828681946
1.8388866186141968,3.204810619354248,0.05494659021496773
1.7819703817367554,3.156292200088501,0.0550224594771862
1.7494866847991943,3.152076244354248,0.05582565814256668
1.7653617858886719,3.2369377613067627,0.05821502208709717
1.7478351593017578,3.259716749191284,0.05947792902588844
2.382189989089966,4.519279479980469,0.08363290131092072
2.345292091369629,4.529716968536377,0.08491494506597519
2.31193208694458,4.546807765960693,0.08632323890924454
2.269432783126831,4.541961193084717,0.08726746588945389
2.2446017265319824,4.571669101715088,0.088865727186203
2.2139170169830322,4.595253944396973,0.09030745178461075
2.1769142150878906,4.604234218597412,0.09145032614469528
2.1443932056427,4.619445323944092,0.09268569946289062
2.1186606884002686,4.648453235626221,0.09419342130422592
2.07859468460083,4.6493754386901855,0.09508244693279266
2.0447142124176025,4.664350509643555,0.09625335037708282
1.9907524585723877,4.632400989532471,0.09645050764083862
1.7172456979751587,4.07390832901001,0.08554445952177048
1.6822818517684937,4.071552276611328,0.08617730438709259
1.6586079597473145,4.098092555999756,0.08738904446363449
1.633198857307434,4.120871067047119,0.08852918446063995
1.6068059206008911,4.139594554901123,0.08957494050264359
1.5807361602783203,4.157957553863525,0.09060846269130707
1.548039197921753,4.161890506744385,0.09126979857683182
1.5207109451293945,4.180248260498047,0.09224949032068253
1.496133804321289,4.205673694610596,0.09338684380054474
1.4662823677062988,4.216156482696533,0.0941963940858841
1.4366657733917236,4.226322174072266,0.09497765451669693
1.4087504148483276,4.243923187255859,0.09588395059108734
1.378285527229309,4.2538981437683105,0.09662317484617233
1.3529034852981567,4.278408050537109,0.09769175201654434
1.3179606199264526,4.272940158843994,0.09808192402124405
1.2946330308914185,4.304523944854736,0.09929174184799194
1.2660130262374878,4.321152210235596,0.1001167818903923
1.2307943105697632,4.31505823135376,0.10041970759630203
1.2045843601226807,4.338647842407227,0.10141125321388245
1.1784526109695435,4.3619866371154785,0.10239990055561066
1.1483310461044312,4.374035835266113,0.103109210729599
1.1162464618682861,4.37829065322876,0.10357622057199478
1.0878708362579346,4.397483825683594,0.10440298914909363
1.0586893558502197,4.412619590759277,0.105136439204216
1.0315213203430176,4.435075759887695,0.10604650527238846
1.0033711194992065,4.457529067993164,0.10695784538984299
0.9667620062828064,4.441623210906982,0.10688438266515732
0.9368155598640442,4.456006050109863,0.10754451900720596
0.7686736583709717,3.7889139652252197,0.0917138159275055
0.7407878637313843,3.786496877670288,0.09192436188459396
0.7125160098075867,3.783961534500122,0.09214013814926147
0.8214453458786011,4.538207054138184,0.11074843257665634
0.7946824431419373,4.574673175811768,0.11187971383333206
0.761033296585083,4.572464466094971,0.11207196116447449
0.7328439950942993,4.600785255432129,0.11301520466804504
0.7002505660057068,4.605849266052246,0.11339808255434036
0.6713235974311829,4.633822441101074,0.11429671943187714
0.6387053728103638,4.638423919677734,0.11458470672369003
0.6070222854614258,4.650545597076416,0.11506468802690506
0.5758565664291382,4.666305065155029,0.11564013361930847
0.545174777507782,4.685708045959473,0.11631130427122116
0.5102859139442444,4.673915863037109,0.11620590835809708
0.4798251986503601,4.70068883895874,0.11697545647621155
0.44901347160339355,4.727263927459717,0.11774689704179764
0.4178520143032074,4.753636360168457,0.11852022260427475
0.38603517413139343,4.7719926834106445,0.11909928917884827
0.35252049565315247,4.778495788574219,0.11939115822315216
0.32019150257110596,4.796422958374023,0.11992554366588593
0.2870866656303406,4.806338310241699,0.12023642659187317
0.2542698383331299,4.823825359344482,0.12074291706085205
0.22202961146831512,4.856687068939209,0.1216406300663948
0.18821829557418823,4.873744010925293,0.1221504658460617
0.1545402705669403,4.882739543914795,0.12245526164770126
0.12076234072446823,4.895410060882568,0.1227550059556961
0.0870223268866539,4.919559955596924,0.12334848195314407
0.052867576479911804,4.935666084289551,0.12374622374773026
0.0179623831063509,4.951536655426025,0.12414408475160599
-0.01651070825755596,4.959351062774658,0.124346062541008
-0.051358770579099655,4.994261264801025,0.1251823455095291
-0.08612202107906342,4.9937849044799805,0.12508688867092133
-0.1212104931473732,5.008683204650879,0.12538249790668488
-0.15675343573093414,5.031141757965088,0.12587279081344604
-0.19365154206752777,5.065030097961426,0.1266532987356186
-0.22762058675289154,5.036256313323975,0.12587405741214752
-0.26432520151138306,5.0696611404418945,0.1265723705291748
-0.30177292227745056,5.106693744659424,0.12735866010189056
-0.2853969633579254,4.321279048919678,0.1076589971780777
-0.3113379180431366,4.2568464279174805,0.1059466078877449
-0.3403039276599884,4.246797561645508,0.10559628158807755
-0.3724175691604614,4.275465965270996,0.10618077218532562
-0.39895737171173096,4.241700172424316,0.10516207665205002
-0.42234233021736145,4.180571556091309,0.10347350686788559
-0.44541752338409424,4.119269847869873,0.10178736597299576
-0.4704675078392029,4.085043907165527,0.10078071057796478
-0.4950633943080902,4.050671100616455,0.09977767616510391
-0.5154626369476318,3.989076614379883,0.09805438667535782
-0.5360397100448608,3.9351420402526855,0.09651704877614975
-0.5602215528488159,3.908111095428467,0.09564469754695892
-0.5803444385528564,3.8577985763549805,0.09421255439519882
-0.6028716564178467,3.826679229736328,0.09325717389583588
-0.6217406392097473,3.776181936264038,0.09181572496891022
-0.6449552774429321,3.756446599960327,0.09108627587556839
-0.6604046821594238,3.6942789554595947,0.08933667838573456
-0.6805419325828552,3.65885853767395,0.08823905885219574
-0.7007524371147156,3.6272122859954834,0.08724242448806763
-0.7213577032089233,3.599285364151001,0.08634233474731445
-0.7380102276802063,3.5560426712036133,0.08502084016799927
-0.754916787147522,3.5165622234344482,0.08379211276769638
-0.7742419242858887,3.488370418548584,0.08283639699220657
-0.7966706156730652,3.475313663482666,0.08224692940711975
-0.8091299533843994,3.420295238494873,0.08067218214273453
-0.8289241194725037,3.3994858264923096,0.07988367229700089
-0.8463601469993591,3.3710436820983887,0.0788998007774353
-0.8638399243354797,3.342421531677246,0.077914297580719
-0.8788078427314758,3.306211233139038,0.07676263153553009
-0.89449542760849,3.273681163787842,0.07570333033800125
-0.9127992391586304,3.252413749694824,0.07489114999771118
-0.9304808378219604,3.2311582565307617,0.07404124736785889
-0.9460715055465698,3.202213764190674,0.07301674038171768
-0.9555073380470276,3.1545629501342773,0.07157856225967407
-0.9727988243103027,3.1329314708709717,0.07073458284139633
-0.9873607158660889,3.103803873062134,0.06972318142652512
-1.0035358667373657,3.0821993350982666,0.0688619315624237
-1.021013617515564,3.0641188621520996,0.0680801197886467
-1.0444589853286743,3.064471483230591,0.0677138939499855
-1.0605851411819458,3.042401075363159,0.06685023009777069
-1.0710843801498413,3.005584955215454,0.0656607374548912
-1.083261251449585,2.9763059616088867,0.06460066139698029
-1.0937325954437256,2.9433393478393555,0.06347018480300903
-1.1141384840011597,2.9356882572174072,0.06287892162799835
-1.1232985258102417,2.898725748062134,0.06166506186127663
-1.1374759674072266,2.8764119148254395,0.06076210364699364
-1.1348696947097778,2.814384698867798,0.05901343375444412
-1.1478158235549927,2.7922589778900146,0.05811484158039093
-1.1582280397415161,2.7625768184661865,0.05705035477876663
-1.1712206602096558,2.7401247024536133,0.056146834045648575
-1.139805555343628,2.6175780296325684,0.053195372223854065
-1.16037917137146,2.617082118988037,0.05273422226309776
-1.1858572959899902,2.627089023590088,0.05248168855905533
-1.20441472530365,2.6186459064483643,0.05183275789022446
-1.2142118215560913,2.5925824642181396,0.050843607634305954
-1.2431769371032715,2.6091489791870117,0.05066104605793953
-1.2741186618804932,2.628958225250244,0.05053340643644333
-1.3059031963348389,2.64821195602417,0.0503709502518177
-1.300089955329895,2.5900447368621826,0.04872456565499306
-1.283614993095398,2.5152244567871094,0.04678298905491829
-1.2966283559799194,2.4997575283050537,0.04595930874347687
-1.3025707006454468,2.470216751098633,0.044873084872961044
-1.3196907043457031,2.4611260890960693,0.044150419533252716
-1.3267457485198975,2.435126781463623,0.043109722435474396
-1.33539879322052,2.4125640392303467,0.04211929813027382
-1.3516255617141724,2.4035239219665527,0.04136435315012932
-1.3722355365753174,2.400831937789917,0.04069778323173523
-1.3920668363571167,2.398437738418579,0.04002584517002106
-1.3958494663238525,2.3690905570983887,0.03890709578990936
-1.4001619815826416,2.339287042617798,0.03775849565863609
-1.4121227264404297,2.322962522506714,0.03683576360344887
-1.4229815006256104,2.30716609954834,0.035917993634939194
-1.4275723695755005,2.2813353538513184,0.03484809771180153
-1.445525050163269,2.2746450901031494,0.034027162939310074
-1.450208067893982,2.2484703063964844,0.03289765864610672
-1.4689204692840576,2.2456438541412354,0.03212086483836174
-1.4713279008865356,2.216002941131592,0.030917763710021973
-1.4904899597167969,2.2125985622406006,0.030069349333643913
-1.4649118185043335,2.145005226135254,0.028362920507788658
-1.4974905252456665,2.1605329513549805,0.027702022343873978
-1.511675477027893,2.1506447792053223,0.026702145114541054
-1.5160588026046753,2.12841534614563,0.025554651394486427
-1.4918246269226074,2.064089059829712,0.023843279108405113
-1.504847764968872,2.0546255111694336,0.02278529852628708
-1.5041933059692383,2.026000499725342,0.021479077637195587
-1.510949730873108,2.132107973098755,-0.019627999514341354
-1.5078535079956055,2.162921190261841,-0.02088041976094246
-1.4882935285568237,2.1669461727142334,-0.021789416670799255
-1.4934788942337036,2.2106659412384033,-0.02311643585562706
-1.485814094543457,2.2346017360687256,-0.02420762926340103
-1.4700623750686646,2.244985818862915,-0.025108736008405685
-1.4573549032211304,2.2625436782836914,-0.026083238422870636
-1.4430510997772217,2.2763092517852783,-0.026988212019205093
-1.430770993232727,2.293250799179077,-0.02791956625878811
-1.4176316261291504,2.310556173324585,-0.028842996805906296
-1.4129542112350464,2.340827226638794,-0.029914751648902893
-1.4006154537200928,2.357311964035034,-0.03079191967844963
-1.3870357275009155,2.3743693828582764,-0.031653888523578644
-1.3770066499710083,2.3982222080230713,-0.03261951357126236
-1.3487275838851929,2.3873486518859863,-0.03306879475712776
-1.3390365839004517,2.410675287246704,-0.03397928923368454
-1.3249282836914062,2.427351713180542,-0.03479388728737831
-1.3168270587921143,2.453932762145996,-0.03573738411068916
-1.2994632720947266,2.4631612300872803,-0.03642875701189041
-1.2958348989486694,2.500309705734253,-0.03750395402312279
-1.281074047088623,2.5166635513305664,-0.038275644183158875
-1.293104648590088,2.5849575996398926,-0.039831288158893585
-1.2853113412857056,2.6149702072143555,-0.04080952703952789
-1.279457688331604,2.652564287185669,-0.04191182553768158
-1.2400224208831787,2.619452476501465,-0.04188806191086769
-1.211839199066162,2.606778383255005,-0.042159635573625565
-1.209848403930664,2.650688409805298,-0.0433456227183342
-1.187443733215332,2.6522340774536133,-0.0438125915825367
-1.1509681940078735,2.6214001178741455,-0.04373877868056297
-1.1615136861801147,2.697726011276245,-0.045455846935510635
-1.165487289428711,2.7597126960754395,-0.04694126918911934
-1.154528021812439,2.789685010910034,-0.047872673720121384
-1.137263536453247,2.8051886558532715,-0.04855902120471001
-1.1273949146270752,2.8385984897613525,-0.04955538362264633
-1.1271100044250488,2.8974528312683105,-0.051007818430662155
-1.1121675968170166,2.919935703277588,-0.0518048070371151
-1.0966589450836182,2.942464828491211,-0.05259000137448311
-1.0795224905014038,2.9612598419189453,-0.05331495776772499
-1.061436653137207,2.976076126098633,-0.05396284908056259
-1.0582897663116455,3.0351555347442627,-0.055429842323064804
-1.0415232181549072,3.057450294494629,-0.056183043867349625
-1.028179407119751,3.09078049659729,-0.057145778089761734
-1.008636713027954,3.1054182052612305,-0.05776552855968475
-0.9846806526184082,3.1048948764801025,-0.05809875577688217
-0.980968177318573,3.171531915664673,-0.059691641479730606
-0.9639629125595093,3.1971352100372314,-0.060490578413009644
-0.9433671236038208,3.2114062309265137,-0.06108039617538452
-0.9315412640571594,3.255491018295288,-0.06224018707871437
-0.9089114665985107,3.2618730068206787,-0.0626823678612709
-0.8920921087265015,3.290790319442749,-0.06353609263896942
-0.8732529878616333,3.3160293102264404,-0.0643024668097496
-0.8554984927177429,3.344839572906494,-0.06513980776071548
-0.837730348110199,3.373476266860962,-0.06597666442394257
-0.819721519947052,3.401998519897461,-0.06681687384843826
-0.8002151250839233,3.4266881942749023,-0.06755338609218597
-0.7840893268585205,3.4704582691192627,-0.06865134090185165
-0.7661723494529724,3.506439208984375,-0.06959900259971619
-0.7472913861274719,3.5384509563446045,-0.07047220319509506
-0.7288751006126404,3.574176549911499,-0.07142575085163116
-0.7097795009613037,3.609858274459839,-0.07235827296972275
-0.691763162612915,3.6570794582366943,-0.07351147383451462
-0.6715062856674194,3.6926076412200928,-0.0744335874915123
-0.6510833501815796,3.727977991104126,-0.07535727322101593
-0.633526086807251,3.7824835777282715,-0.076675184071064
-0.6095665693283081,3.8022351264953613,-0.07726111263036728
-0.5888692140579224,3.848956346511841,-0.0783618912100792
-0.568558931350708,3.8993711471557617,-0.07954277098178864
-0.5456021428108215,3.934189796447754,-0.08041148632764816
-0.5248426198959351,3.988222360610962,-0.08167950809001923
-0.5018684267997742,4.0305328369140625,-0.08270030468702316
-0.4767508804798126,4.061103820800781,-0.08344708383083344
-0.4545508921146393,4.126515865325928,-0.08491889387369156
-0.4308931529521942,4.180091857910156,-0.08615204691886902
-0.4055822491645813,4.221855163574219,-0.08714788407087326
-0.3787064254283905,4.251794338226318,-0.08790380507707596
-0.3476948142051697,4.238765716552734,-0.08770409226417542
-0.31754228472709656,4.241128921508789,-0.08782818168401718
-0.2934753894805908,4.325065612792969,-0.08964601904153824
-0.30838197469711304,5.067662239074707,-0.10513606667518616
-0.26984232664108276,5.011192321777344,-0.10406670719385147
-0.23479068279266357,5.012955665588379,-0.10414108633995056
-0.19935040175914764,5.022305488586426,-0.1043550968170166
-0.1639324277639389,5.015770435333252,-0.10424382239580154
-0.12799860537052155,4.977748394012451,-0.10348282754421234
-0.0933535099029541,4.974611282348633,-0.10345172882080078
-0.05869567021727562,4.967329502105713,-0.10330169647932053
-0.02348671294748783,4.951999187469482,-0.1029413640499115
0.01095188595354557,4.936422348022461,-0.10258180648088455
0.045198362320661545,4.928417205810547,-0.1023847684264183
0.079208143055439,4.912364482879639,-0.10202565044164658
0.11317119002342224,4.903887748718262,-0.10181993246078491
0.146153524518013,4.86785364151001,-0.1009778082370758
0.17941363155841827,4.835478782653809,-0.1002160906791687
0.21297436952590942,4.8341193199157715,-0.10010428726673126
0.24537569284439087,4.809122562408447,-0.09950810670852661
0.2774398624897003,4.783909797668457,-0.09891300648450851
0.3093067705631256,4.762390613555908,-0.09833245724439621
0.3417088985443115,4.744517803192139,-0.09781228005886078
0.37453699111938477,4.7420430183410645,-0.09761735796928406
0.40747857093811035,4.739330291748047,-0.09742166101932526
0.43823105096817017,4.713056564331055,-0.0967470109462738
0.47012320160865784,4.702136993408203,-0.09635870903730392
0.5006569623947144,4.675423622131348,-0.09561149775981903
0.5329400300979614,4.671859264373779,-0.09534667432308197
0.5619969964027405,4.640921592712402,-0.09452833980321884
0.5942530632019043,4.63690710067749,-0.09426330775022507
0.6232789158821106,4.609455585479736,-0.09351211786270142
0.6533845663070679,4.589513301849365,-0.09285249561071396
0.6838142275810242,4.5771870613098145,-0.0923573300242424
0.7153955698013306,4.572364330291748,-0.09201771765947342
0.7458893060684204,4.559581279754639,-0.09152114391326904
0.7742682695388794,4.535046100616455,-0.09079450368881226
0.8053752183914185,4.529633045196533,-0.09039515256881714
0.7126539945602417,3.8518481254577637,-0.07661782205104828
0.7250590920448303,3.774003744125366,-0.07483067363500595
0.7513017654418945,3.768874168395996,-0.07449010014533997
0.9142042398452759,4.4252448081970215,-0.08718595653772354
0.9486779570579529,4.437962532043457,-0.08710887283086777
0.977910578250885,4.423623085021973,-0.08648285269737244
1.0099210739135742,4.424446105957031,-0.08616350591182709
1.036149501800537,4.398326873779297,-0.08531969040632248
1.0630244016647339,4.375843048095703,-0.08455270528793335
1.0996798276901245,4.394972801208496,-0.08454305678606033
1.121408462524414,4.353200912475586,-0.08333586156368256
1.1490881443023682,4.337906360626221,-0.08265037089586258
1.1812031269073486,4.337378978729248,-0.0822436735033989
1.209268569946289,4.321537494659424,-0.08154910057783127
1.2388464212417603,4.313162803649902,-0.08096860349178314
1.2642697095870972,4.289506435394287,-0.08008216321468353
1.291142463684082,4.273345470428467,-0.07934984564781189
1.3184669017791748,4.256829261779785,-0.07860707491636276
1.3504219055175781,4.255006790161133,-0.07813840359449387
1.372192621231079,4.223414421081543,-0.07709178328514099
1.398823618888855,4.20644998550415,-0.07629884779453278
1.429832100868225,4.204274654388428,-0.07578582316637039
1.4551526308059692,4.1831865310668945,-0.07492438703775406
1.484175682067871,4.172989368438721,-0.07426290959119797
1.5123317241668701,4.1628804206848145,-0.07355665415525436
1.5349445343017578,4.137948989868164,-0.0725911557674408
1.566317081451416,4.134542942047119,-0.07199385017156601
1.5950303077697754,4.12356424331665,-0.07126470655202866
1.6205343008041382,4.105223655700684,-0.07040352374315262
1.6539379358291626,4.108738899230957,-0.06989569216966629
1.675599217414856,4.083083152770996,-0.06889478117227554
1.692121148109436,4.042425155639648,-0.06762607395648956
1.9609097242355347,4.594559669494629,-0.0762055516242981
2.0277817249298096,4.663580894470215,-0.07664472609758377
2.0589702129364014,4.6499104499816895,-0.0757046565413475
2.0903778076171875,4.635891914367676,-0.07475516200065613
2.1198418140411377,4.6139140129089355,-0.07364942878484726
2.148036003112793,4.592248439788818,-0.07255278527736664
2.1785967350006104,4.577845096588135,-0.07155293971300125
2.2090609073638916,4.563238143920898,-0.07055310159921646
2.2440826892852783,4.554843425750732,-0.06962066888809204
2.2759294509887695,4.539030075073242,-0.06855439394712448
2.3094584941864014,4.530848979949951,-0.06759155541658401
2.335822582244873,4.508533477783203,-0.06641996651887894
2.3778738975524902,4.513020038604736,-0.06560631096363068
1.7449487447738647,3.2570395469665527,-0.046702880412340164
1.7589577436447144,3.2317302227020264,-0.045679494738578796
1.7409471273422241,3.148064613342285,-0.04383942112326622
1.7627403736114502,3.135925531387329,-0.04299158230423927
1.8208651542663574,3.1883015632629395,-0.04301103204488754
1.3421094417572021,2.314650058746338,-0.030709711834788322
0.9492350816726685,1.6122972965240479,-0.02102525904774666
0.958611011505127,1.602196455001831,-0.02050439640879631
0.9793471097946167,1.61250638961792,-0.020241765305399895
0.9754766821861267,1.582827091217041,-0.019476957619190216
0.9924963116645813,1.5860575437545776,-0.019101154059171677
1.0074288845062256,1.585883617401123,-0.018675027415156364
1.0220410823822021,1.5858142375946045,-0.018241802230477333
1.017655611038208,1.556067943572998,-0.01746419630944729
1.034803867340088,1.5588080883026123,-0.017037251964211464
1.0578376054763794,1.5716071128845215,-0.01670915074646473
1.0528066158294678,1.5419902801513672,-0.015915172174572945
2.569577217102051,3.7083024978637695,-0.03703797981142998
2.6085963249206543,3.7144346237182617,-0.03586801514029503
2.6176164150238037,3.6745777130126953,-0.03417414799332619
2.6188576221466064,3.6256299018859863,-0.03237083926796913
2.637021780014038,3.602776527404785,-0.030803240835666656
2.7013509273529053,3.637864112854004,-0.029569754377007484
2.6267447471618652,3.6777191162109375,0.02751321718096733
2.598097562789917,3.698000431060791,0.029009344056248665
2.5583817958831787,3.697111129760742,0.030222302302718163
1.0619969367980957,1.559389352798462,0.013239598833024502
1.0545881986618042,1.5738171339035034,0.013841413892805576
1.0349992513656616,1.5680761337280273,0.014229421503841877
1.0186561346054077,1.5694317817687988,0.01467808149755001
1.0196963548660278,1.5966315269470215,0.015352546237409115
1.0002247095108032,1.590469479560852,0.01568654365837574
0.9882384538650513,1.59794020652771,0.01613752543926239
0.9764222502708435,1.6051832437515259,0.016580061987042427
0.9590256810188293,1.6019904613494873,0.016898250207304955
0.9809408783912659,1.66619873046875,0.0179227814078331
1.373530626296997,2.3732528686523438,0.02601705491542816
1.805248498916626,3.170319080352783,0.03536754846572876
1.7616915702819824,3.145564079284668,0.03568550571799278
1.737964391708374,3.1587274074554443,0.036426153033971786
1.7502450942993164,3.236557722091675,0.03790641203522682
1.7404927015304565,3.2728054523468018,0.038892894983291626
2.359067916870117,4.514214515686035,0.054382916539907455
2.3257808685302734,4.531442642211914,0.055307820439338684
2.289139747619629,4.541304588317871,0.05613851174712181
2.2644217014312744,4.571112155914307,0.05718672648072243
2.2212026119232178,4.56620979309082,0.057791128754615784
2.1877923011779785,4.582300662994385,0.0586576908826828
2.161576747894287,4.611975193023682,0.05968979373574257
2.126143455505371,4.619807720184326,0.060425687581300735
2.095714807510376,4.642252445220947,0.061324771493673325
2.058704137802124,4.65023136138916,0.061996955424547195
2.021976947784424,4.657793045043945,0.06266027688980103
1.7401418685913086,4.085941791534424,0.0554414801299572
1.706910490989685,4.087231636047363,0.05592406913638115
1.676817536354065,4.099660396575928,0.056540489196777344
1.6486486196517944,4.115269184112549,0.05719583481550217
1.6182186603546143,4.123126029968262,0.05773555859923363
1.5908286571502686,4.1379475593566895,0.058371707797050476
1.5639210939407349,4.156531810760498,0.05903806909918785
1.530656099319458,4.160565376281738,0.059498753398656845
1.5033988952636719,4.1787872314453125,0.06015629693865776
1.4717158079147339,4.181762218475342,0.06058492884039879
1.4476203918457031,4.206683158874512,0.061330646276474
1.4199185371398926,4.224349021911621,0.06192166358232498
1.3939262628555298,4.2494354248046875,0.0626324787735939
1.3637961149215698,4.2591938972473145,0.06311168521642685
1.3364410400390625,4.276034355163574,0.0636938214302063
1.3110387325286865,4.300219535827637,0.06437870115041733
1.2802987098693848,4.309465408325195,0.06480927765369415
1.253835678100586,4.333498954772949,0.06546657532453537
1.2205890417099,4.334859371185303,0.06578665971755981
1.1924729347229004,4.350771903991699,0.06632164120674133
1.1619951725006104,4.359004497528076,0.0667274072766304
1.1328916549682617,4.374722957611084,0.06720688939094543
1.1046152114868164,4.394025802612305,0.06774557381868362
1.0786175727844238,4.424598693847656,0.06846553832292557
1.042419195175171,4.409183502197266,0.06846978515386581
1.016858458518982,4.439188003540039,0.0691741555929184
0.9836539030075073,4.438658237457275,0.06936124712228775
0.9489127993583679,4.430233478546143,0.06942718476057053
0.8190253973007202,3.962639808654785,0.06228131428360939
0.7532120943069458,3.776726245880127,0.05952974036335945
0.7283302545547485,3.7895543575286865,0.05990562587976456
0.8350106477737427,4.516654968261719,0.07156146317720413
0.8064466118812561,4.541674613952637,0.07212086766958237
0.7763600945472717,4.562758445739746,0.0726255401968956
0.7470828890800476,4.583469390869141,0.0731234923005104
0.7175976634025574,4.6039862632751465,0.07362280040979385
0.686404824256897,4.616634368896484,0.07396598905324936
0.6549627780914307,4.629085540771484,0.0742902159690857
0.62176913022995,4.633657932281494,0.07449415326118469
0.5923323035240173,4.661133289337158,0.07506737112998962
0.5612785816192627,4.6767730712890625,0.07545407116413116
0.5286887884140015,4.68056583404541,0.07563763111829758
0.4974902868270874,4.699693202972412,0.07602567225694656
0.46604934334754944,4.718612194061279,0.07641460001468658
0.4331117570400238,4.729591369628906,0.07668058574199677
0.4021276533603668,4.755843162536621,0.07719651609659195
0.3689870834350586,4.75852632522583,0.07733409106731415
0.3368113338947296,4.776572227478027,0.07766980677843094
0.3050572872161865,4.806100368499756,0.07818269729614258
0.2716889977455139,4.8237481117248535,0.07850714027881622
0.23844453692436218,4.8333258628845215,0.07870345562696457
0.20616482198238373,4.866083145141602,0.0792812705039978
0.17230330407619476,4.867398738861084,0.07932991534471512
0.13891693949699402,4.888002872467041,0.07965020090341568
0.10471950471401215,4.912294864654541,0.08003415912389755
0.07051433622837067,4.912904739379883,0.08003635704517365
0.03664211183786392,4.952332496643066,0.08067479729652405
0.0022110757417976856,4.9602789878845215,0.0808042660355568
-0.03232855722308159,4.967986583709717,0.08088592439889908
-0.06792217493057251,5.002783298492432,0.08139846473932266
-0.10286514461040497,5.010000228881836,0.0814666897058487
-0.13796016573905945,5.016972541809082,0.08153461664915085
-0.1739158034324646,5.047120571136475,0.08198290318250656
-0.2086518108844757,5.037987232208252,0.08178243041038513
-0.24436704814434052,5.0520243644714355,0.08192048966884613
-0.28152018785476685,5.077474117279053,0.08224540948867798
-0.31407681107521057,5.032519817352295,0.08143557608127594
-0.29663488268852234,4.274318695068359,0.06910018622875214
-0.32459017634391785,4.248785495758057,0.06862480193376541
-0.3546488285064697,4.254223346710205,0.06860987097024918
-0.3852737545967102,4.259405136108398,0.06857655942440033
-0.40977907180786133,4.2061076164245605,0.06760822981595993
-0.4332795739173889,4.148780345916748,0.06658061593770981
-0.45820680260658264,4.110735893249512,0.06586779654026031
-0.4821378290653229,4.0686726570129395,0.06508111953735352
-0.5062493085861206,4.030320167541504,0.0643138661980629
-0.5258000493049622,3.9647886753082275,0.06312207877635956
-0.5493333339691162,3.9339959621429443,0.062489621341228485
-0.5698168277740479,3.8837196826934814,0.061552323400974274
-0.5895930528640747,3.8333561420440674,0.06062007695436478
-0.613234281539917,3.8098697662353516,0.06007948890328407
-0.6302584409713745,3.7516584396362305,0.05899104103446007
-0.6498469114303589,3.712637424468994,0.058211345225572586
-0.6713400483131409,3.6849968433380127,0.057613395154476166
-0.691130518913269,3.649543046951294,0.05689779669046402
-0.7125595211982727,3.6255228519439697,0.05634937435388565
-0.7268531918525696,3.5669009685516357,0.055241573601961136
-0.7439776062965393,3.5274548530578613,0.05444154143333435
-0.7582597732543945,3.4764599800109863,0.05346886068582535
-0.7840873599052429,3.4787380695343018,0.053318656980991364
-0.8064382672309875,3.465609073638916,0.05293240398168564
-0.814954400062561,3.3953726291656494,0.05165090784430504
-0.8361780643463135,3.3821661472320557,0.05124760791659355
-0.8515709042549133,3.3460946083068848,0.050501685589551926
-0.8728049993515015,3.3325486183166504,0.0500972606241703
-0.8867818713188171,3.292469024658203,0.049298856407403946
-0.9054067134857178,3.271193027496338,0.04874860867857933
-0.9233018159866333,3.249953508377075,0.048201579600572586
-0.9453218579292297,3.243621587753296,0.047878943383693695
-0.9533220529556274,3.1883225440979004,0.046833336353302
-0.9663238525390625,3.151742458343506,0.04607061669230461
-0.9835264682769775,3.130049228668213,0.045503634959459305
-0.9975359439849854,3.101008415222168,0.04483189806342125
-1.0124449729919434,3.0756242275238037,0.044218048453330994
-1.0312145948410034,3.061145067214966,0.04376017674803734
-1.0473395586013794,3.0391502380371094,0.04319816082715988
-1.0601338148117065,3.009880781173706,0.04251740500330925
-1.0727728605270386,2.980509042739868,0.04182985797524452
-1.090106725692749,2.9658968448638916,0.04135868698358536
-1.1065813302993774,2.9472815990448,0.04082644358277321
-1.1186795234680176,2.917630910873413,0.04014602303504944
-1.1297956705093384,2.8881993293762207,0.039452794939279556
-1.1278159618377686,2.8259904384613037,0.038313936442136765
-1.1380897760391235,2.7965879440307617,0.03763245791196823
-1.1515007019042969,2.7741892337799072,0.03704332187771797
-1.1553637981414795,2.730224370956421,0.036168020218610764
-1.1627557277679443,2.697341203689575,0.03542903810739517
-1.1590747833251953,2.639312744140625,0.034364696592092514
-1.189889669418335,2.659839153289795,0.03432481735944748
-1.2018712759017944,2.63729190826416,0.033724572509527206
-1.2097463607788086,2.607881784439087,0.0330289788544178
-1.237069010734558,2.6209769248962402,0.03286673128604889
-1.2617027759552002,2.6265573501586914,0.03259852156043053
-1.2576329708099365,2.572108268737793,0.03158478066325188
-1.2978053092956543,2.6089189052581787,0.031690049916505814
-1.281565546989441,2.534043312072754,0.030437268316745758
-1.3126106262207031,2.5532944202423096,0.0303216390311718
-1.2940845489501953,2.474909543991089,0.029037781059741974
-1.3021801710128784,2.448566436767578,0.028368176892399788
-1.321956992149353,2.4468345642089844,0.02798040211200714
-1.330491542816162,2.4244019985198975,0.027358144521713257
-1.3396680355072021,2.4014735221862793,0.026715371757745743
-1.3561065196990967,2.3922348022460938,0.026224743574857712
-1.3603465557098389,2.3628265857696533,0.02550436742603779
-1.3877341747283936,2.3740382194519043,0.02522810362279415
-1.3922299146652222,2.3441925048828125,0.024495689198374748
-1.403883934020996,2.3281192779541016,0.023908967152237892
-1.4189732074737549,2.3189585208892822,0.02339276857674122
-1.426581621170044,2.295916795730591,0.022716868668794632
-1.438275933265686,2.2793822288513184,0.02210286073386669
-1.450831413269043,2.266780376434326,0.021521098911762238
-1.4719880819320679,2.2670888900756836,0.02105524390935898
-1.4726710319519043,2.2339727878570557,0.020252473652362823
-1.4787156581878662,2.211210012435913,0.019542811438441277
-1.4841175079345703,2.1887407302856445,0.018848029896616936
-1.4771052598953247,2.146230459213257,0.01795298047363758
-1.4796793460845947,2.120689868927002,0.017211997881531715
-1.4887540340423584,2.1047723293304443,0.016545163467526436
-1.5080612897872925,2.100611925125122,0.015915552154183388
-1.5073298215866089,2.0722293853759766,0.015108928084373474
-1.5071816444396973,2.0432910919189453,0.014269153587520123
-1.5230621099472046,2.133141040802002,-0.011134810745716095
-1.4910645484924316,2.12229323387146,-0.0116621358320117
-1.4783600568771362,2.135911703109741,-0.01226888783276081
-1.4883465766906738,2.1859090328216553,-0.013088691979646683
-1.48125422000885,2.2095537185668945,-0.013732720166444778
-1.4609509706497192,2.213672637939453,-0.014236989431083202
-1.4608561992645264,2.25107741355896,-0.014963537454605103
-1.451270580291748,2.2711851596832275,-0.015541878528892994
-1.434765100479126,2.281644582748413,-0.016046330332756042
-1.4217045307159424,2.298992156982422,-0.01659708470106125
-1.4176335334777832,2.3289828300476074,-0.017219025641679764
-1.4086719751358032,2.3526408672332764,-0.017795778810977936
-1.3950848579406738,2.3697898387908936,-0.01831085793673992
-1.3858764171600342,2.3932557106018066,-0.018865056335926056
-1.376894235610962,2.4164304733276367,-0.01941080205142498
-1.3475472927093506,2.406087875366211,-0.019680479541420937
-1.3332453966140747,2.422959327697754,-0.020176805555820465
-1.3238128423690796,2.4459030628204346,-0.020701667293906212
-1.3063769340515137,2.455256938934326,-0.021104037761688232
-1.2937566041946411,2.4751570224761963,-0.021586338058114052
-1.3080052137374878,2.5469579696655273,-0.022525910288095474
-1.2758692502975464,2.528249502182007,-0.022664813324809074
-1.287180781364441,2.596834659576416,-0.02357521280646324
-1.2784397602081299,2.627234935760498,-0.024143027141690254
-1.2427794933319092,2.6010618209838867,-0.02418471872806549
-1.2246712446212769,2.609633207321167,-0.024538947269320488
-1.235419511795044,2.6821701526641846,-0.025492994114756584
-1.1994974613189697,2.6556196212768555,-0.025508251041173935
-1.1677912473678589,2.6355679035186768,-0.025572780519723892
-1.1712279319763184,2.693777084350586,-0.026392659172415733
-1.1582896709442139,2.7163562774658203,-0.026861367747187614
-1.1642488241195679,2.785914897918701,-0.02779044769704342
-1.1467124223709106,2.8016183376312256,-0.02819386124610901
-1.1358776092529297,2.8312933444976807,-0.028729233890771866
-1.1175135374069214,2.8427863121032715,-0.029081949964165688
-1.1194190979003906,2.909099578857422,-0.02998310700058937
-1.1011781692504883,2.9243991374969482,-0.030364805832505226
-1.0895726680755615,2.957895278930664,-0.030939044430851936
-1.0795891284942627,2.994788885116577,-0.03154689073562622
-1.0584031343460083,3.0023386478424072,-0.03183513507246971
-1.0521411895751953,3.0541553497314453,-0.03258553147315979
-1.0277498960494995,3.0542049407958984,-0.03278770670294762
-1.014589786529541,3.087393045425415,-0.03334663808345795
-1.0002309083938599,3.116694450378418,-0.0338645838201046
-0.9803410172462463,3.131192207336426,-0.03419981151819229
-0.9693710207939148,3.1754651069641113,-0.03486053645610809
-0.95233154296875,3.200995683670044,-0.03531976416707039
-0.9322364330291748,3.2150378227233887,-0.03565134480595589
-0.9200356006622314,3.259153127670288,-0.03632240369915962
-0.9009324312210083,3.280688524246216,-0.03672020137310028
-0.8815975785255432,3.3021082878112793,-0.03711983561515808
-0.8670814037322998,3.3422775268554688,-0.0377332903444767
-0.8476521372795105,3.363369941711426,-0.03813299536705017
-0.8293843269348145,3.39205002784729,-0.03862031176686287
-0.8134636282920837,3.432039499282837,-0.0392049103975296
-0.7891220450401306,3.4377152919769287,-0.039400964975357056
-0.776721715927124,3.496574878692627,-0.04020991921424866
-0.7572512030601501,3.524815082550049,-0.040670137852430344
-0.7377389073371887,3.5568766593933105,-0.041178591549396515
-0.720172107219696,3.600315570831299,-0.04179743304848671
-0.7012872695922852,3.6398465633392334,-0.04237537458539009
-0.6798421144485474,3.6677486896514893,-0.04282147437334061
-0.6625494360923767,3.718529224395752,-0.0435371994972229
-0.6395006775856018,3.7423744201660156,-0.043944139033555984
-0.6219744086265564,3.8007473945617676,-0.04471719637513161
-0.5975725650787354,3.8204734325408936,-0.04503779485821724
-0.5769934058189392,3.8670806884765625,-0.045678772032260895
-0.5566592812538147,3.9174067974090576,-0.046366944909095764
-0.5357019901275635,3.971569538116455,-0.0471067950129509
-0.5137690901756287,4.021721839904785,-0.0477725975215435
-0.48964425921440125,4.060140132904053,-0.048293039202690125
-0.4654819071292877,4.102292537689209,-0.048861391842365265
-0.4406440556049347,4.140387535095215,-0.049384310841560364
-0.416534960269928,4.189986705780029,-0.05004803091287613
-0.39290425181388855,4.258955478668213,-0.05092566832900047
-0.3624650835990906,4.25381326675415,-0.05089353024959564
-0.3305949568748474,4.228982925415039,-0.05062807723879814
-0.3036043047904968,4.266249179840088,-0.0511084720492363
-0.3224252164363861,5.02446174621582,-0.060234811156988144
-0.2881889045238495,5.050014972686768,-0.06058228015899658
-0.25207507610321045,5.03630256652832,-0.06042749434709549
-0.21520623564720154,4.998916149139404,-0.05999147519469261
-0.18112386763095856,5.023717880249023,-0.060304660350084305
-0.145350843667984,4.993618965148926,-0.05996159091591835
-0.10986977815628052,4.986711502075195,-0.05990016087889671
-0.07504620403051376,4.975637912750244,-0.059746768325567245
-0.04041967913508415,4.976040363311768,-0.05972253158688545
-0.005819530691951513,4.960577487945557,-0.05951089411973953
0.02856595814228058,4.929250240325928,-0.059111978858709335
0.06316637247800827,4.905490875244141,-0.058806631714105606
0.09717491269111633,4.897122383117676,-0.05867057293653488
0.1310458481311798,4.888518810272217,-0.058509115129709244
0.16361519694328308,4.844547748565674,-0.05792776122689247
0.19696465134620667,4.835489273071289,-0.05776730924844742
0.2294517457485199,4.8105950355529785,-0.05742079019546509
0.26260536909103394,4.793252944946289,-0.057164259254932404
0.29577189683914185,4.791321754455566,-0.05704686418175697
0.3281213939189911,4.77747106552124,-0.056790512055158615
0.3605879247188568,4.767297744750977,-0.05658094957470894
0.39048922061920166,4.725750923156738,-0.056002259254455566
0.42323604226112366,4.715088844299316,-0.05579157918691635
0.4543339014053345,4.696499824523926,-0.05546410754323006
0.4867382049560547,4.693253517150879,-0.0553082600235939
0.5191627740859985,4.689779281616211,-0.05515219271183014
0.5498228073120117,4.670554161071777,-0.05481361225247383
0.5784673690795898,4.631669998168945,-0.054245974868535995
0.6095028519630432,4.619810581207275,-0.05398713797330856
0.6412736773490906,4.615509986877441,-0.05379496514797211
0.6707575917243958,4.595530033111572,-0.053423069417476654
0.7001230716705322,4.575345516204834,-0.053051698952913284
0.730035662651062,4.554847240447998,-0.05267680436372757
0.758481502532959,4.530398845672607,-0.05225936695933342
0.7922844886779785,4.540472984313965,-0.052201829850673676
0.8220334649085999,4.527245044708252,-0.05187876895070076
0.7141122221946716,3.7845354080200195,-0.043226275593042374
0.7374088764190674,3.7641477584838867,-0.04285278171300888
0.7640435099601746,3.75883412361145,-0.04265103489160538
0.9313739538192749,4.426231384277344,-0.05002988129854202
0.9649665951728821,4.435023307800293,-0.04993027076125145
0.9987230896949768,4.4435625076293945,-0.04982877895236015
1.0260140895843506,4.4213056564331055,-0.04938151314854622
1.0572324991226196,4.413947582244873,-0.04910020902752876
1.0837514400482178,4.391424179077148,-0.04864053800702095
1.1107903718948364,4.3725762367248535,-0.04821765422821045
1.1405853033065796,4.364902973175049,-0.047920774668455124
1.1687572002410889,4.349358558654785,-0.04753687232732773
1.195369839668274,4.325915336608887,-0.047065261751413345
1.2249996662139893,4.317622184753418,-0.04673675075173378
1.2478007078170776,4.286687850952148,-0.04614824801683426
1.2813729047775269,4.293084144592285,-0.04596453905105591
1.3042466640472412,4.261691093444824,-0.04537377879023552
1.3390567302703857,4.267263412475586,-0.04517393186688423
1.3586890697479248,4.228247165679932,-0.04449823871254921
1.392194151878357,4.23378849029541,-0.04428898170590401
1.4159091711044312,4.209438323974609,-0.043768756091594696
1.445034146308899,4.199533939361572,-0.043396174907684326
1.4716362953186035,4.182008743286133,-0.04294613003730774
1.4938642978668213,4.153375148773193,-0.042353786528110504
1.524558186531067,4.150534152984619,-0.04202529788017273
1.5526388883590698,4.140115737915039,-0.0416203998029232
1.5841435194015503,4.136534690856934,-0.04127814993262291
1.6042174100875854,4.103641510009766,-0.04064517468214035
1.6351301670074463,4.0998382568359375,-0.040282804518938065
1.6655539274215698,4.096012115478516,-0.03992685675621033
1.6845113039016724,4.062896728515625,-0.03928282856941223
1.7294882535934448,4.09065055847168,-0.03922146186232567
1.9984955787658691,4.638368606567383,-0.04408550262451172
2.041084051132202,4.649667739868164,-0.043784137815237045
2.07857608795166,4.650153636932373,-0.04338672384619713
2.104370355606079,4.62138032913208,-0.04270348697900772
2.136284589767456,4.606719493865967,-0.04215242713689804
2.170208692550659,4.599480152130127,-0.04165901988744736
2.197929620742798,4.577638149261475,-0.041027363389730453
2.23270845413208,4.569478511810303,-0.040514685213565826
2.260948657989502,4.546853542327881,-0.039869677275419235
2.298265218734741,4.545626163482666,-0.039396293461322784
2.3283183574676514,4.53031063079834,-0.038799308240413666
2.3554577827453613,4.507452487945557,-0.03812764957547188
1.7345014810562134,3.262835741043091,-0.027240736410021782
1.7487198114395142,3.2374942302703857,-0.026662549003958702
1.7361608743667603,3.164280891418457,-0.025697285309433937
1.740540623664856,3.121687650680542,-0.02497999556362629
1.7833807468414307,3.1469008922576904,-0.024797748774290085
1.3308601379394531,2.312260150909424,-0.0179288387298584
1.3105164766311646,2.2427821159362793,-0.01711021363735199
0.9531046152114868,1.6055638790130615,-0.012036697939038277
0.9660230278968811,1.6023893356323242,-0.011799667961895466
0.9743931889533997,1.5927380323410034,-0.011517682112753391
0.9851665496826172,1.5860987901687622,-0.011249663308262825
0.998241662979126,1.5825247764587402,-0.010998021811246872
1.0127074718475342,1.5825916528701782,-0.010764284059405327
1.01656174659729,1.566168189048767,-0.010417813435196877
1.0295370817184448,1.5623515844345093,-0.010140353813767433
1.0442317724227905,1.561976671218872,-0.009876606985926628
1.0541590452194214,1.5552959442138672,-0.009575741365551949
2.5439698696136475,3.697620391845703,-0.022088123485445976
2.576810598373413,3.6938817501068115,-0.021386774256825447
2.609585762023926,3.6899592876434326,-0.02066951058804989
2.6262569427490234,3.6589009761810303,-0.019735103473067284
2.616821050643921,3.5982558727264404,-0.018674809485673904
2.7126636505126953,3.6781623363494873,-0.018278934061527252
2.6083757877349854,3.6812803745269775,0.01258313562721014
2.5851962566375732,3.707120895385742,0.013342381455004215
1.0637502670288086,1.5487704277038574,0.005829625762999058
1.0516185760498047,1.5570323467254639,0.006107985507696867
1.0361907482147217,1.5579665899276733,0.006334973964840174
1.0291239023208618,1.5719887018203735,0.006608165334910154
1.0256717205047607,1.5928586721420288,0.006911273114383221
1.001890778541565,1.5802395343780518,0.0070538767613470554
0.9880624413490295,1.5843197107315063,0.00726371118798852
0.9822259545326233,1.601706624031067,0.007527336478233337
0.9709106087684631,1.6085898876190186,0.007731378078460693
0.9554162621498108,1.608760118484497,0.007900462485849857
