X,Y,Z
-1.3381084203720093,2.1063780784606934,-0.2053869217634201
-1.3142250776290894,2.102201223373413,-0.2123812735080719
-1.194663643836975,1.9731532335281372,-0.21256375312805176
-1.1582645177841187,1.9443219900131226,-0.21576252579689026
-0.8384871482849121,1.454476237297058,-0.1705704629421234
-0.9560322165489197,1.68649423122406,-0.2029617726802826
-0.9799476265907288,1.7570111751556396,-0.21659578382968903
-0.9504587650299072,1.7326549291610718,-0.2186264991760254
-0.9044862389564514,1.6773918867111206,-0.2164827436208725
-0.8793821334838867,1.6592878103256226,-0.21889285743236542
-0.8459885716438293,1.6235467195510864,-0.21866318583488464
-0.8146389126777649,1.5910320281982422,-0.21861742436885834
-0.7889549732208252,1.5685944557189941,-0.21977777779102325
-0.7554296851158142,1.5283485651016235,-0.21812328696250916
-0.7375539541244507,1.5191740989685059,-0.22081398963928223
-0.7197861075401306,1.5098693370819092,-0.22329160571098328
-0.6989583969116211,1.4933559894561768,-0.2246086448431015
-0.6770017743110657,1.473028540611267,-0.22517551481723785
-0.6568982601165771,1.4560315608978271,-0.22612717747688293
-0.6337805986404419,1.4318393468856812,-0.22578950226306915
-0.6063297390937805,1.3968067169189453,-0.2236262410879135
-0.5872886776924133,1.3791409730911255,-0.22401203215122223
-0.5774062275886536,1.3826947212219238,-0.2277633398771286
-0.567387580871582,1.386224389076233,-0.2314576357603073
0.5768393874168396,1.3911970853805542,-0.22954092919826508
0.586546003818512,1.3877335786819458,-0.22587807476520538
0.60249263048172,1.3983362913131714,-0.22443661093711853
0.6263967156410217,1.4264799356460571,-0.2257140874862671
0.6584436893463135,1.4721122980117798,-0.22950561344623566
0.6736738085746765,1.4786100387573242,-0.22699394822120667
0.6971895694732666,1.5025092363357544,-0.227065771818161
0.724391758441925,1.5331580638885498,-0.22801397740840912
0.7501440048217773,1.5601460933685303,-0.22819213569164276
0.7643693685531616,1.5625123977661133,-0.22468118369579315
0.8067334890365601,1.620065689086914,-0.22878414392471313
0.8339781761169434,1.6461018323898315,-0.22826489806175232
0.8701895475387573,1.6892486810684204,-0.22987870872020721
0.8944989442825317,1.7079123258590698,-0.22795861959457397
0.9285306334495544,1.7433048486709595,-0.22799454629421234
0.9685056805610657,1.7886356115341187,-0.22907772660255432
0.9997244477272034,1.8165591955184937,-0.22759371995925903
1.044631838798523,1.8678807020187378,-0.2288006842136383
1.0905522108078003,1.9185595512390137,-0.22951406240463257
1.1348801851272583,1.9655770063400269,-0.22946763038635254
1.1777790784835815,2.008833408355713,-0.22867849469184875
1.241990327835083,2.084601640701294,-0.23087289929389954
1.3029587268829346,2.1531381607055664,-0.2318638563156128
1.3216034173965454,2.151679754257202,-0.22506839036941528
1.3550291061401367,2.1729769706726074,-0.22039452195167542
1.3662220239639282,2.157543182373047,-0.21178172528743744
1.376802682876587,2.142331600189209,-0.20311956107616425
1.3892083168029785,2.1304054260253906,-0.1948293298482895
1.7914599180221558,2.7059195041656494,-0.23785856366157532
1.8467686176300049,2.749572515487671,-0.23188777267932892
1.7950096130371094,2.6349072456359863,-0.21266768872737885
1.8804795742034912,2.718979835510254,-0.20880813896656036
1.8897385597229004,2.6943776607513428,-0.19647380709648132
1.4443765878677368,2.030925989151001,-0.14000041782855988
1.433637261390686,1.9864543676376343,-0.1284736841917038
1.4673196077346802,2.005951404571533,-0.12114699184894562
1.4647400379180908,1.974486231803894,-0.1102476567029953
2.0975711345672607,2.9479472637176514,0.43864572048187256
1.5843364000320435,2.2598750591278076,0.34379494190216064
1.5539085865020752,2.2513418197631836,0.3497984707355499
1.5357402563095093,2.262389898300171,0.3586415648460388
1.527767300605774,2.2851498126983643,0.36874622106552124
1.5194376707077026,2.3079586029052734,0.3788202404975891
1.5007808208465576,2.318809747695923,0.38684308528900146
1.6181516647338867,2.5408833026885986,0.43029844760894775
1.6080546379089355,2.564225196838379,0.4403464198112488
3.0515077114105225,4.9460248947143555,0.8606727123260498
3.00877046585083,4.960540294647217,0.8742023706436157
2.983238697052002,5.000430583953857,0.8918762803077698
2.9766054153442383,5.069210052490234,0.9144017100334167
2.946080207824707,5.102413654327393,0.930238664150238
2.9180116653442383,5.1427154541015625,0.9472081065177917
2.900486469268799,5.198876857757568,0.9668692350387573
2.870009660720825,5.230999946594238,0.9820311665534973
2.8536221981048584,5.2902374267578125,1.00200355052948
2.8294014930725098,5.340205192565918,1.0198955535888672
2.8065781593322754,5.393370628356934,1.038511872291565
2.7821457386016846,5.438431739807129,1.0551947355270386
2.7721035480499268,5.514609336853027,1.0782313346862793
2.7446534633636475,5.560483455657959,1.0947762727737427
1.22556471824646,2.5298705101013184,0.5014457702636719
1.2001820802688599,2.524021863937378,0.5035770535469055
1.1773722171783447,2.5210914611816406,0.5061454772949219
1.177081823348999,2.5668582916259766,0.5185511112213135
1.16400945186615,2.5887420177459717,0.5259673595428467
2.597525119781494,5.89209508895874,1.2036643028259277
2.566152334213257,5.937254428863525,1.2194308042526245
2.5345122814178467,5.978038311004639,1.2341580390930176
2.5068359375,6.02926778793335,1.2511677742004395
2.4721839427948,6.070591926574707,1.2658107280731201
2.4441604614257812,6.129607200622559,1.2837860584259033
2.416785955429077,6.192070484161377,1.3026366233825684
2.3919732570648193,6.257325172424316,1.321982502937317
2.36788272857666,6.326021671295166,1.342191219329834
2.332798719406128,6.369794845581055,1.3572239875793457
2.297563076019287,6.41748571395874,1.3722333908081055
2.2731950283050537,6.4974775314331055,1.394290566444397
2.2395823001861572,6.551910877227783,1.41096830368042
2.205585479736328,6.602090358734131,1.4267019033432007
2.176097869873047,6.670511245727539,1.4466055631637573
2.113447904586792,6.6367998123168945,1.4439538717269897
2.0537707805633545,6.613943576812744,1.4430327415466309
1.9889988899230957,6.572286128997803,1.4380292892456055
1.9266501665115356,6.533559322357178,1.4336217641830444
1.8712764978408813,6.512395858764648,1.432996153831482
1.8103841543197632,6.472576141357422,1.4283523559570312
1.7573866844177246,6.4580888748168945,1.428844690322876
1.6951020956039429,6.410273551940918,1.4213991165161133
0.8348448276519775,3.2512354850769043,0.7225427627563477
1.5816069841384888,6.346278190612793,1.4135717153549194
0.8035959005355835,3.324653148651123,0.7422365546226501
1.483941674232483,6.3321356773376465,1.4169117212295532
1.4257874488830566,6.281743049621582,1.4086765050888062
1.3717639446258545,6.249820709228516,1.4038324356079102
1.3055405616760254,6.157759189605713,1.3855024576187134
1.2667670249938965,6.1960248947143555,1.3965795040130615
1.216115951538086,6.166356086730957,1.392307996749878
1.165159821510315,6.132557392120361,1.3871445655822754
1.1195340156555176,6.1246137619018555,1.3878746032714844
1.0655211210250854,6.071573734283447,1.3775500059127808
1.0227750539779663,6.085916519165039,1.3824958801269531
0.9728503823280334,6.050914764404297,1.3762614727020264
0.9222217202186584,6.004154682159424,1.3673744201660156
0.8775413632392883,5.990891933441162,1.3661506175994873
0.8326334953308105,5.973520278930664,1.3640402555465698
0.7869453430175781,5.956029415130615,1.3615983724594116
0.7386507391929626,5.9118146896362305,1.3525183200836182
0.5872699618339539,4.985810279846191,1.1415858268737793
0.5688014626502991,5.140843868255615,1.178090214729309
0.5330250859260559,5.144257068634033,1.1799209117889404
0.3940224051475525,4.078511714935303,0.9363486766815186
0.36919575929641724,4.126372337341309,0.9482846260070801
0.34340375661849976,4.166584491729736,0.9579684138298035
0.3130588233470917,4.153507232666016,0.9553228616714478
0.2833845615386963,4.147810459136963,0.9544205665588379
0.2578626871109009,4.206496238708496,0.9683836102485657
0.419510155916214,7.739404678344727,1.7826428413391113
0.3652898073196411,7.734172821044922,1.782450795173645
0.31021779775619507,7.70577335357666,1.7768527269363403
0.25511619448661804,7.669617652893066,1.7684754133224487
0.20083485543727875,7.644485950469971,1.7627265453338623
0.14615018665790558,7.630406856536865,1.7596149444580078
0.092654749751091,7.600701332092285,1.7529820203781128
0.039569318294525146,7.551590919494629,1.741955280303955
-0.012887592427432537,7.536369800567627,1.7388273477554321
-0.06513739377260208,7.513275623321533,1.7334970235824585
-0.11765488982200623,7.478551864624023,1.7248296737670898
-0.16906946897506714,7.454894542694092,1.7188141345977783
-0.22002294659614563,7.423272132873535,1.7110477685928345
-0.2715713679790497,7.4217376708984375,1.7103018760681152
-0.32476523518562317,7.4578752517700195,1.7183183431625366
-0.2722862660884857,5.391157150268555,1.2419747114181519
-0.3098469376564026,5.381752014160156,1.2391386032104492
-0.3470151126384735,5.379794120788574,1.2377896308898926
-0.38200056552886963,5.34719705581665,1.2294551134109497
-0.4175070524215698,5.325754165649414,1.2237502336502075
-0.4500053822994232,5.269914150238037,1.2102065086364746
-0.42552638053894043,4.599541187286377,1.0556782484054565
-0.4567582309246063,4.589158058166504,1.0527758598327637
-0.48669132590293884,4.571170806884766,1.0475119352340698
-0.5190037488937378,4.575702667236328,1.0474082231521606
-0.547758936882019,4.549749851226807,1.0403796434402466
-0.5788422226905823,4.538647651672363,1.0367791652679443
-0.6093767881393433,4.527381896972656,1.0332094430923462
-0.6387659311294556,4.508357524871826,1.02792227268219
-0.6671851277351379,4.485434532165527,1.0216240882873535
-0.6956099271774292,4.466250419616699,1.015718936920166
-0.7243097424507141,4.446810245513916,1.0097891092300415
-0.7535443305969238,4.434775352478027,1.0056211948394775
-0.7856593132019043,4.437507629394531,1.0048333406448364
-0.8124229311943054,4.409989833831787,0.9972444176673889
-0.8352065086364746,4.363589763641357,0.9854552745819092
-0.7255334854125977,3.6550729274749756,0.8240143060684204
-0.7493600249290466,3.64306640625,0.8197027444839478
-0.9218886494636536,4.332553386688232,0.9730063080787659
-0.9517187476158142,4.3267951011657715,0.9699050188064575
-0.9836394786834717,4.328183650970459,0.9684234857559204
-1.0121382474899292,4.314472198486328,0.9636105895042419
-1.0408453941345215,4.300528049468994,0.9586143493652344
-1.0664478540420532,4.2793450355529785,0.951579213142395
-1.0917625427246094,4.258014678955078,0.9445751905441284
-1.1139607429504395,4.225439071655273,0.9351380467414856
-1.1394953727722168,4.2036309242248535,0.9280937910079956
-1.1734868288040161,4.210986137390137,0.9274967908859253
-1.205030083656311,4.210854530334473,0.9253224730491638
-1.2293386459350586,4.1888346672058105,0.9177978038787842
-1.2533373832702637,4.166697978973389,0.9102620482444763
-1.2838479280471802,4.166346073150635,0.9075323939323425
-1.3063855171203613,4.136254787445068,0.8982667326927185
-1.3400309085845947,4.1425299644470215,0.8969765901565552
-1.3642024993896484,4.119476795196533,0.8893797993659973
-1.397137999534607,4.125638484954834,0.8876455426216125
-1.40367591381073,4.055675029754639,0.8694901466369629
-1.4285212755203247,4.039918899536133,0.8630438446998596
-1.454492449760437,4.023590564727783,0.8563846945762634
-1.4920021295547485,4.039514064788818,0.8566461205482483
-1.5284522771835327,4.051530361175537,0.8560851216316223
-1.546231985092163,4.017214298248291,0.8452569842338562
-1.5746766328811646,4.011443614959717,0.8404162526130676
-1.5921796560287476,3.9768171310424805,0.8295250535011292
-1.6288714408874512,3.988015651702881,0.8281368613243103
-1.6452176570892334,3.94928240776062,0.8164173364639282
-1.666852355003357,3.9247450828552246,0.8076035976409912
-1.6871877908706665,3.9006030559539795,0.7984746098518372
-1.732478141784668,3.9324042797088623,0.8007345795631409
-1.750050663948059,3.90067195892334,0.7900606393814087
-1.7648329734802246,3.8615612983703613,0.7778639197349548
-1.7855967283248901,3.836362600326538,0.7685606479644775
-1.8247917890548706,3.8532943725585938,0.7673021554946899
-1.8610777854919434,3.8629326820373535,0.7643622756004333
-1.8803737163543701,3.8378350734710693,0.7546259760856628
-1.9041343927383423,3.818946123123169,0.745934247970581
-1.9207499027252197,3.7861669063568115,0.734602689743042
-1.950130820274353,3.7812418937683105,0.728396475315094
-1.9789365530014038,3.776421546936035,0.7220239639282227
-2.008390426635742,3.771077871322632,0.7154279351234436
-2.0205466747283936,3.731106996536255,0.7021041512489319
-1.72732675075531,3.13727068901062,0.5855223536491394
-1.7221711874008179,3.0797061920166016,0.5697159767150879
-1.7426631450653076,3.069455623626709,0.5626764297485352
-0.8444291353225708,1.464099645614624,0.2658172845840454
-0.8665685653686523,1.4786704778671265,0.2657991945743561
-0.8690023422241211,1.4599529504776,0.2597566843032837
-0.8746386170387268,1.4482251405715942,0.2548688054084778
-0.8720993995666504,1.4232840538024902,0.24771179258823395
-0.874284565448761,1.4044606685638428,0.24141830205917358
-0.9008238315582275,1.4249992370605469,0.24192537367343903
-0.9101876020431519,1.4197285175323486,0.2378329038619995
-0.9026339650154114,1.3884410858154297,0.22945433855056763
-0.9040381908416748,1.369730830192566,0.22297190129756927
-0.9224913120269775,1.3767744302749634,0.2206079214811325
-2.4004592895507812,3.5343244075775146,0.5570699572563171
-2.432941436767578,3.532731294631958,0.5472427010536194
-1.2969030141830444,1.8554315567016602,0.28198906779289246
-1.2354038953781128,1.7432492971420288,0.25969749689102173
-1.3579477071762085,2.1538400650024414,-0.20827649533748627
-1.3356480598449707,2.1532158851623535,-0.21539722383022308
-1.2447166442871094,2.0393173694610596,-0.2106364518404007
-1.1758323907852173,1.957472324371338,-0.20838835835456848
-0.8204954266548157,1.4117956161499023,-0.15896815061569214
-0.8451687097549438,1.4777894020080566,-0.17069204151630402
-1.023098111152649,1.8185383081436157,-0.2152910977602005
-0.9529901146888733,1.7234758138656616,-0.20903974771499634
-0.9534916281700134,1.7535216808319092,-0.21754638850688934
-0.9208196401596069,1.7219291925430298,-0.21831630170345306
-0.8738408088684082,1.6626862287521362,-0.2152668535709381
-0.8544456362724304,1.6546145677566528,-0.21862760186195374
-0.8196431994438171,1.6151173114776611,-0.2176111936569214
-0.7838464379310608,1.5717113018035889,-0.2157522588968277
-0.7655150294303894,1.5628365278244019,-0.21843944489955902
-0.7457762956619263,1.55024254322052,-0.2205042988061905
-0.7281194925308228,1.5408647060394287,-0.22288940846920013
-0.7007240653038025,1.5103049278259277,-0.22206933796405792
-0.67989182472229,1.4936856031417847,-0.22319169342517853
-0.6580915451049805,1.4731886386871338,-0.22353188693523407
-0.6382919549942017,1.455964207649231,-0.22423513233661652
-0.6186501383781433,1.4386006593704224,-0.2247728705406189
-0.5947025418281555,1.4103944301605225,-0.2234695553779602
-0.5755711197853088,1.3926670551300049,-0.22373585402965546
-0.5685838460922241,1.403298020362854,-0.2284597009420395
0.565367579460144,1.404533863067627,-0.22884634137153625
0.5780749320983887,1.4082750082015991,-0.22650447487831116
0.5983595848083496,1.4297174215316772,-0.2269410490989685
0.6175960302352905,1.4473463296890259,-0.2266421914100647
0.6341552734375,1.457645297050476,-0.2250487357378006
0.6536908149719238,1.4750045537948608,-0.2244674414396286
0.6846925616264343,1.516842007637024,-0.22745661437511444
0.7084048986434937,1.5406808853149414,-0.2275344729423523
0.7340483069419861,1.5678184032440186,-0.22795112431049347
0.7484332323074341,1.5702228546142578,-0.22457773983478546
0.7695523500442505,1.5864859819412231,-0.22316405177116394
0.803106427192688,1.6267966032028198,-0.22493143379688263
0.835381031036377,1.6633427143096924,-0.22595271468162537
0.8662442564964294,1.6961826086044312,-0.22625041007995605
0.8959770202636719,1.725169062614441,-0.22580528259277344
0.9319853782653809,1.7639436721801758,-0.22631174325942993
0.9662371277809143,1.7991552352905273,-0.22620123624801636
1.0027402639389038,1.8374769687652588,-0.22624963521957397
1.0533688068389893,1.8989942073822021,-0.22872892022132874
1.0992804765701294,1.9497158527374268,-0.22954308986663818
1.137923002243042,1.986602544784546,-0.22833269834518433
1.18871009349823,2.0433006286621094,-0.2291634976863861
1.2427889108657837,2.1025047302246094,-0.22972089052200317
1.2994271516799927,2.164604902267456,-0.2301996499300003
1.318131685256958,2.1631412506103516,-0.22369645535945892
1.347866415977478,2.1776247024536133,-0.21843162178993225
1.363189935684204,2.168820381164551,-0.21080251038074493
1.3777292966842651,2.1603407859802246,-0.20321202278137207
1.3735263347625732,2.1220955848693848,-0.19275234639644623
1.7822294235229492,2.7120628356933594,-0.23723065853118896
1.833116888999939,2.749356508255005,-0.23103617131710052
1.7971949577331543,2.656972885131836,-0.21402515470981598
1.8667306900024414,2.7189269065856934,-0.20907866954803467
1.8802931308746338,2.700883388519287,-0.19776596128940582
1.4239486455917358,2.0166337490081787,-0.1399555653333664
1.4429162740707397,2.0133137702941895,-0.13147549331188202
1.4605730772018433,2.010746717453003,-0.12315725535154343
1.4605638980865479,1.9822933673858643,-0.11278684437274933
2.089557647705078,2.955982208251953,0.4225221872329712
2.071312427520752,2.976560592651367,0.4351632297039032
2.0474014282226562,2.9913406372070312,0.44681254029273987
1.5423285961151123,2.2880587577819824,0.3483690917491913
1.529424786567688,2.3047921657562256,0.3572993874549866
1.5110900402069092,2.3156251907348633,0.36518004536628723
1.558760166168213,2.426558017730713,0.38870665431022644
1.6364597082138062,2.5869338512420654,0.42060211300849915
1.5914829969406128,2.559054136276245,0.42199912667274475
3.0259857177734375,4.948882579803467,0.8271907567977905
3.0024118423461914,4.988055229187012,0.843984842300415
2.9900991916656494,5.0471296310424805,0.8642808794975281
2.96854829788208,5.097836971282959,0.8826895356178284
2.9323112964630127,5.125321388244629,0.897357165813446
2.9032416343688965,5.157413005828857,0.9120256900787354
2.890636920928955,5.219722747802734,0.9321948885917664
2.865781307220459,5.26642370223999,0.9490913152694702
2.847269058227539,5.326816558837891,0.9685369729995728
2.8167366981506348,5.3626708984375,0.9833974242210388
2.796232223510742,5.414729118347168,1.0010308027267456
2.7742533683776855,5.467199325561523,1.0185924768447876
2.758669376373291,5.537671089172363,1.039209246635437
1.2433873414993286,2.5428638458251953,0.48063620924949646
1.218328595161438,2.536980152130127,0.48281368613243103
1.1904230117797852,2.5237858295440674,0.48352769017219543
1.18485689163208,2.559495210647583,0.4934343695640564
1.1561042070388794,2.546424150466919,0.49382084608078003
1.155859112739563,2.5962753295898438,0.506446897983551
2.578108549118042,5.901178359985352,1.1575343608856201
2.5507426261901855,5.952974319458008,1.1742862462997437
2.5179855823516846,5.9942402839660645,1.1885569095611572
2.4939491748809814,6.060689926147461,1.2074698209762573
2.461822748184204,6.109279632568359,1.2229759693145752
2.4351983070373535,6.1677470207214355,1.240356206893921
2.408881187438965,6.2298150062561035,1.2586532831192017
2.3783352375030518,6.280827522277832,1.2746654748916626
2.3467485904693604,6.336076259613037,1.2908360958099365
2.313232421875,6.387540817260742,1.306357741355896
2.2783260345458984,6.435042858123779,1.321136474609375
2.2547261714935303,6.514773368835449,1.3426134586334229
2.2223000526428223,6.568789958953857,1.3588535785675049
2.192030906677246,6.633903503417969,1.3770629167556763
2.147088050842285,6.6591596603393555,1.3865858316421509
2.081205129623413,6.618319034576416,1.382391095161438
2.023043394088745,6.598787784576416,1.3826383352279663
1.9547964334487915,6.53798770904541,1.3740949630737305
1.9057108163833618,6.5390706062316895,1.3785711526870728
1.8422526121139526,6.492271423339844,1.3723745346069336
1.7840938568115234,6.463592529296875,1.3696345090866089
1.723469614982605,6.423336982727051,1.3644649982452393
1.6664835214614868,6.393651485443115,1.3615580797195435
1.6020017862319946,6.326096057891846,1.3504902124404907
1.5503482818603516,6.306276798248291,1.3496273756027222
1.3681716918945312,5.739484786987305,1.230973720550537
1.4533236026763916,6.295897960662842,1.3528289794921875
1.4015402793884277,6.2792134284973145,1.3518579006195068
1.3504524230957031,6.258148670196533,1.3499224185943604
1.2949657440185547,6.210366249084473,1.34221351146698
1.2409666776657104,6.1658759117126465,1.3352363109588623
1.1932265758514404,6.151056289672852,1.3344508409500122
1.1450579166412354,6.140012741088867,1.333888053894043
1.095854640007019,6.1171956062316895,1.3307898044586182
1.0438698530197144,6.075165748596191,1.3235516548156738
0.9877741932868958,5.998683929443359,1.3087952136993408
0.9542554616928101,6.0575127601623535,1.3236124515533447
0.9043818712234497,6.018097877502441,1.3170690536499023
0.8569719791412354,5.989780902862549,1.3121124505996704
0.8114159107208252,5.972484111785889,1.3095322847366333
0.7559871673583984,5.875340461730957,1.2894819974899292
0.6148637533187866,5.057846546173096,1.1111818552017212
0.5795922875404358,5.061573505401611,1.1131665706634521
0.5538989305496216,5.159961700439453,1.136067271232605
0.4104645252227783,4.092691898345947,0.9018800854682922
0.38056832551956177,4.083860874176025,0.900381326675415
0.3587194085121155,4.166037082672119,0.9189992547035217
0.3294215500354767,4.168228626251221,0.9200282692909241
0.2977278530597687,4.139787197113037,0.9143408536911011
0.2698960602283478,4.15676212310791,0.9187173247337341
0.24387706816196442,4.2078166007995605,0.9306797385215759
0.3939858675003052,7.732913494110107,1.7107805013656616
0.3389386236667633,7.712449073791504,1.7064707279205322
0.28264832496643066,7.676382541656494,1.698796272277832
0.22820992767810822,7.651318550109863,1.6936323642730713
0.17431522905826569,7.622053623199463,1.687615156173706
0.1207171157002449,7.584784984588623,1.6799030303955078
0.06788219511508942,7.573859214782715,1.6780040264129639
0.014256046153604984,7.543723106384277,1.670868992805481
-0.03815123066306114,7.513211250305176,1.6637427806854248
-0.0902288630604744,7.4975905418396,1.659997582435608
-0.14193135499954224,7.4777984619140625,1.6554101705551147
-0.19275802373886108,7.4309587478637695,1.64491605758667
-0.24419419467449188,7.421894550323486,1.642864465713501
-0.29690754413604736,7.427786827087402,1.6437416076660156
-0.2533981204032898,5.402713298797607,1.194859504699707
-0.29001384973526,5.385824680328369,1.190441370010376
-0.32727110385894775,5.383919715881348,1.1893951892852783
-0.3626401424407959,5.351297855377197,1.1816205978393555
-0.4004063308238983,5.348838806152344,1.180559515953064
-0.4353557825088501,5.319543361663818,1.1736433506011963
-0.41704651713371277,4.697298049926758,1.0354950428009033
-0.4410551190376282,4.607304573059082,1.0146557092666626
-0.4719753861427307,4.5969133377075195,1.011417269706726
-0.5009623169898987,4.563484191894531,1.0031466484069824
-0.5309081077575684,4.545073509216309,0.9982455968856812
-0.562550961971283,4.541609764099121,0.9966771602630615
-0.5930976867675781,4.530376434326172,0.9934056401252747
-0.6221323609352112,4.5115509033203125,0.9878854751586914
-0.6530911326408386,4.503805160522461,0.9848220348358154
-0.6816875338554382,4.484597682952881,0.9793291091918945
-0.7115558981895447,4.472704887390137,0.975473940372467
-0.7389395833015442,4.445518970489502,0.9683325886726379
-0.7685381770133972,4.433224678039551,0.96449214220047
-0.800433874130249,4.435884952545166,0.9636210203170776
-0.8256250619888306,4.40079402923584,0.9542454481124878
-0.7147624492645264,3.6717982292175293,0.7947714924812317
-0.7354214191436768,3.644835948944092,0.7875703573226929
-0.7577123045921326,3.625161647796631,0.7819739580154419
-0.934908926486969,4.3226823806762695,0.9308713674545288
-0.9688409566879272,4.331499099731445,0.9311837553977966
-0.9966285228729248,4.318075180053711,0.9261741638183594
-1.0225070714950562,4.297028064727783,0.9195833802223206
-1.0499658584594727,4.283251762390137,0.9146019816398621
-1.0816360712051392,4.283994674682617,0.9127223491668701
-1.110124111175537,4.269547939300537,0.9076106548309326
-1.1340409517288208,4.240233421325684,0.8994281888008118
-1.1579636335372925,4.214738845825195,0.8916614651679993
-1.1866198778152466,4.207605361938477,0.8876671195030212
-1.2130588293075562,4.192929267883301,0.8821307420730591
-1.2403298616409302,4.177820205688477,0.876470685005188
-1.267314076423645,4.1625657081604,0.8708429932594299
-1.298665165901184,4.16177225112915,0.8682870268821716
-1.322496771812439,4.139089107513428,0.8608572483062744
-1.3456802368164062,4.116438388824463,0.8532457947731018
-1.3812811374664307,4.129854679107666,0.8530921339988708
-1.399839997291565,4.092165470123291,0.8424183130264282
-1.4311081171035767,4.090440273284912,0.839152991771698
-1.4572514295578003,4.074028491973877,0.8329161405563354
-1.4785927534103394,4.046946048736572,0.8241921663284302
-1.5059367418289185,4.037910461425781,0.8189844489097595
-1.5255084037780762,4.006997108459473,0.8093366622924805
-1.5477410554885864,3.983062744140625,0.8011385798454285
-1.5757282972335815,3.9731531143188477,0.795769453048706
-1.6064927577972412,3.9701764583587646,0.7918268442153931
-1.6391066312789917,3.974602222442627,0.7888762950897217
-1.6632834672927856,3.9573874473571777,0.7815337181091309
-1.6899508237838745,3.947227954864502,0.7756817936897278
-1.7208600044250488,3.9434454441070557,0.7709349989891052
-1.7424201965332031,3.9183335304260254,0.7620639204978943
-1.7472805976867676,3.858337640762329,0.7462968230247498
-1.776839256286621,3.8545541763305664,0.74110347032547
-1.8059369325637817,3.8507463932037354,0.7360057830810547
-1.8360652923583984,3.846285343170166,0.7306315302848816
-1.866560697555542,3.8414337635040283,0.7251442074775696
-1.8967845439910889,3.836493492126465,0.7195614576339722
-1.919298529624939,3.818023681640625,0.7109733819961548
-1.9482367038726807,3.8133318424224854,0.705066978931427
-1.9604884386062622,3.7737035751342773,0.6925503611564636
-1.9873276948928833,3.761035203933716,0.6849260926246643
-2.0136220455169678,3.7484216690063477,0.67723149061203
-2.0256996154785156,3.712592840194702,0.6650545001029968
-1.7159377336502075,3.0958518981933594,0.5497323870658875
-1.730130672454834,3.071458339691162,0.5404136776924133
-0.8366274833679199,1.4614369869232178,0.25473660230636597
-0.8504274487495422,1.4629871845245361,0.25248533487319946
-0.8640033602714539,1.4645874500274658,0.2501659393310547
-0.8701667785644531,1.4525481462478638,0.24539996683597565
-0.8885734677314758,1.460132122039795,0.24386391043663025
-0.8784153461456299,1.4216169118881226,0.2346227765083313
-0.8795630931854248,1.4032928943634033,0.2287013977766037
-0.9138869047164917,1.437171220779419,0.23119418323040009
-0.8991090655326843,1.3921335935592651,0.22075536847114563
-0.9002556204795837,1.3735464811325073,0.2146492898464203
-0.9134888648986816,1.3747310638427734,0.2115575224161148
-0.9682806730270386,1.4366509914398193,0.21750876307487488
-2.3949637413024902,3.5007498264312744,0.5207362174987793
-1.255834698677063,1.8099533319473267,0.26419582962989807
-1.439361333847046,2.0470385551452637,0.2931036651134491
-1.357967495918274,2.1723692417144775,-0.2079479694366455
-1.338394045829773,2.174607515335083,-0.2149183303117752
-1.2619004249572754,2.0837624073028564,-0.21235407888889313
-1.2084590196609497,2.0288822650909424,-0.21295443177223206
-0.8351976275444031,1.448467493057251,-0.16042771935462952
-0.9720504283905029,1.714482307434082,-0.19474388659000397
-1.035372018814087,1.8565914630889893,-0.21596300601959229
-1.001583218574524,1.8257631063461304,-0.2172757089138031
-0.9346615672111511,1.733264684677124,-0.21085050702095032
-0.9071451425552368,1.7120875120162964,-0.21283191442489624
-0.8680744767189026,1.666209101676941,-0.21132147312164307
-0.8490157723426819,1.6579580307006836,-0.21441181004047394
-0.8368462324142456,1.6635068655014038,-0.21922241151332855
-0.7990500926971436,1.6167187690734863,-0.2169579714536667
-0.7805726528167725,1.6078791618347168,-0.21964554488658905
-0.7455875873565674,1.5638841390609741,-0.21727551519870758
-0.7226667404174805,1.5441157817840576,-0.21808473765850067
-0.711611807346344,1.5486549139022827,-0.22221152484416962
-0.6815133094787598,1.510711431503296,-0.2201293259859085
-0.664342999458313,1.5008500814437866,-0.22194890677928925
-0.6470998525619507,1.4909218549728394,-0.22375047206878662
-0.6228242516517639,1.462891697883606,-0.22263889014720917
-0.6094491481781006,1.4595752954483032,-0.2252049297094345
-0.5901265740394592,1.4419105052947998,-0.2254093736410141
-0.571076512336731,1.4240599870681763,-0.22549360990524292
-0.5480644702911377,1.395235538482666,-0.22374610602855682
-0.5409399271011353,1.405760645866394,-0.2282162606716156
0.5201497673988342,1.3883510828018188,-0.22787141799926758
0.5326989889144897,1.392370581626892,-0.22590787708759308
0.5453484058380127,1.3962739706039429,-0.22390414774417877
0.5679753422737122,1.4252548217773438,-0.22577700018882751
0.5895423889160156,1.4504395723342896,-0.2269081175327301
0.6088071465492249,1.468158483505249,-0.22670325636863708
0.622209370136261,1.4714751243591309,-0.2242608517408371
0.6462576389312744,1.4996203184127808,-0.22546830773353577
0.6691128611564636,1.5240014791488647,-0.2259596586227417
0.6829785108566284,1.5268906354904175,-0.22316284477710724
0.7212674021720886,1.582417607307434,-0.22784842550754547
0.7322661280632019,1.5779410600662231,-0.22377604246139526
0.7564045190811157,1.6014498472213745,-0.22359156608581543
0.7928458452224731,1.649086356163025,-0.22654801607131958
0.8147529363632202,1.6649218797683716,-0.22494946420192719
0.8472304940223694,1.7014142274856567,-0.22588784992694855
0.8817257881164551,1.7411457300186157,-0.22711646556854248
0.9117790460586548,1.7700083255767822,-0.22664901614189148
0.9369317293167114,1.7882004976272583,-0.2246657758951187
0.9710807204246521,1.8234976530075073,-0.2246367484331131
1.0150340795516968,1.875488519668579,-0.22641250491142273
1.0529409646987915,1.9130233526229858,-0.22595183551311493
1.1043025255203247,1.974086880683899,-0.22806787490844727
1.1465858221054077,2.0178678035736084,-0.2278577834367752
1.1858519315719604,2.0543248653411865,-0.22649584710597992
1.2456454038619995,2.12373685836792,-0.2283376306295395
1.3022202253341675,2.1859233379364014,-0.22888824343681335
1.3149642944335938,2.174448251724243,-0.22164714336395264
1.3446038961410522,2.1890182495117188,-0.21672183275222778
1.3556771278381348,2.173717975616455,-0.20879755914211273
1.3702315092086792,2.1652588844299316,-0.20155902206897736
1.3771554231643677,2.14306640625,-0.19271144270896912
1.7732746601104736,2.71805477142334,-0.23575459420681
1.84084153175354,2.781722068786621,-0.2323533594608307
1.8512636423110962,2.7568750381469727,-0.2210826426744461
1.8245307207107544,2.676941156387329,-0.20542290806770325
1.8668233156204224,2.700707197189331,-0.19769452512264252
1.3972244262695312,1.9924790859222412,-0.13855700194835663
1.4449745416641235,2.030937671661377,-0.1335100680589676
1.44448721408844,2.0030243396759033,-0.12401357293128967
1.463042974472046,1.9997204542160034,-0.11553698778152466
1.4647578001022339,1.9747188091278076,-0.10575380176305771
2.102534770965576,2.9505691528320312,0.3950916528701782
2.0841352939605713,2.9714975357055664,0.4076728820800781
2.062727212905884,2.9895219802856445,0.4196183979511261
2.0586462020874023,3.028451681137085,0.43371978402137756
2.04854154586792,3.061819314956665,0.44698724150657654
1.5128464698791504,2.2992122173309326,0.3418687880039215
1.5253585577011108,2.354745864868164,0.3560117185115814
1.5706818103790283,2.4626729488372803,0.37823978066444397
1.619248390197754,2.5820271968841553,0.40248095989227295
3.0427262783050537,4.932433605194092,0.7797431349754333
3.007441282272339,4.9519124031066895,0.7930626273155212
2.9840352535247803,4.995466232299805,0.8102363348007202
2.9649317264556885,5.049602508544922,0.8287517428398132
2.952383518218994,5.1129865646362305,0.8486248850822449
2.915860891342163,5.131869316101074,0.8608337640762329
2.8971807956695557,5.184717655181885,0.8785977363586426
2.8679676055908203,5.225337028503418,0.8941382765769958
2.8487753868103027,5.2821269035339355,0.9123114943504333
2.8219122886657715,5.320822715759277,0.9270618557929993
2.8071234226226807,5.383327007293701,0.9461056590080261
2.7839043140411377,5.436840057373047,0.9630566835403442
2.7678909301757812,5.507869720458984,0.9833911061286926
2.738170623779297,5.54663610458374,0.9976518154144287
1.2299377918243408,2.5357298851013184,0.4593774378299713
1.2182896137237549,2.557591438293457,0.4665569067001343
1.1893250942230225,2.5448741912841797,0.46719127893447876
1.1734589338302612,2.559889554977417,0.4729269742965698
1.1706323623657227,2.6026697158813477,0.48377856612205505
1.1366496086120605,2.574864625930786,0.48145779967308044
2.5682907104492188,5.930862903594971,1.1153037548065186
2.5332064628601074,5.969326972961426,1.1283363103866577
2.5021183490753174,6.0182294845581055,1.143455982208252
2.469856023788452,6.063085079193115,1.157813310623169
2.4513025283813477,6.139400005340576,1.1781377792358398
2.4247496128082275,6.197822570800781,1.1951676607131958
2.385964870452881,6.231874942779541,1.2067574262619019
2.361697196960449,6.305238723754883,1.2260792255401611
2.3295507431030273,6.360606670379639,1.2420823574066162
2.297652006149292,6.411472320556641,1.2570843696594238
2.2689595222473145,6.473049163818359,1.274314522743225
2.2423715591430664,6.545780658721924,1.2934165000915527
2.207942247390747,6.600579738616943,1.3086296319961548
2.17067551612854,6.6518330574035645,1.323349952697754
2.1186060905456543,6.651063919067383,1.327608585357666
2.052467107772827,6.602087497711182,1.322202444076538
1.9905266761779785,6.563527584075928,1.318865180015564
1.9313111305236816,6.53594446182251,1.3170366287231445
1.8732740879058838,6.511699199676514,1.3156628608703613
1.816994071006775,6.49454402923584,1.3158130645751953
1.7540074586868286,6.44313907623291,1.3088891506195068
1.7010048627853394,6.4244537353515625,1.3085999488830566
0.8394548296928406,3.262052059173584,0.6662560701370239
1.5838977098464966,6.341606140136719,1.2980865240097046
0.8039064407348633,3.321216583251953,0.6812670826911926
1.4865845441818237,6.33953857421875,1.3031562566757202
1.427480936050415,6.285399913787842,1.2947596311569214
1.3801720142364502,6.279326915740967,1.2962771654129028
1.314780831336975,6.186753273010254,1.2799447774887085
1.274787425994873,6.2177252769470215,1.2886701822280884
1.2184929847717285,6.1658196449279785,1.279899001121521
1.1708723306655884,6.154800891876221,1.2796545028686523
1.1115546226501465,6.075582981109619,1.2652370929718018
1.0652111768722534,6.05983829498291,1.2640368938446045
1.0234841108322144,6.074040412902832,1.2691781520843506
0.9760311841964722,6.050173282623291,1.2660902738571167
0.9308100342750549,6.041259765625,1.2655752897262573
0.8806948661804199,5.997962474822998,1.2579083442687988
0.8350783586502075,5.9807658195495605,1.2557567358016968
0.7896138429641724,5.9632439613342285,1.2535934448242188
0.7418533563613892,5.918740272521973,1.2457741498947144
0.5883159041404724,4.973995685577393,1.048264503479004
0.5735481381416321,5.1600847244262695,1.0882459878921509
0.5367529392242432,5.159885406494141,1.0889286994934082
0.394902765750885,4.075031280517578,0.8605983853340149
0.36963891983032227,4.119368553161621,0.8706321716308594
0.34474804997444153,4.167304992675781,0.8814687132835388
0.3151671886444092,4.161730766296387,0.8810356855392456
0.28503933548927307,4.148372173309326,0.8787829875946045
0.25738078355789185,4.173029899597168,0.8842193484306335
0.42326685786247253,7.761606216430664,1.6450846195220947
0.36743173003196716,7.7336106300354,1.639707088470459
0.3117468059062958,7.689931869506836,1.6310744285583496
0.25767379999160767,7.672587871551514,1.6280999183654785
0.20366674661636353,7.651048183441162,1.624310851097107
0.14863480627536774,7.6063947677612305,1.6148505210876465
0.09523971378803253,7.580503463745117,1.6091585159301758
0.042321979999542236,7.5580596923828125,1.6042777299880981
-0.0102785499766469,7.535247802734375,1.59939706325531
-0.06238524615764618,7.51207160949707,1.5945165157318115
-0.11530140787363052,7.499984264373779,1.5920690298080444
-0.16648536920547485,7.460829257965088,1.5838326215744019
-0.2177780121564865,7.444441795349121,1.579529047012329
-0.26931822299957275,7.442979335784912,1.578471302986145
-0.32150718569755554,7.456432342529297,1.580650806427002
-0.2702770233154297,5.396979808807373,1.1436436176300049
-0.3084535002708435,5.39509916305542,1.1428593397140503
-0.3454417884349823,5.3853607177734375,1.1404738426208496
-0.381648451089859,5.367825984954834,1.136130928993225
-0.41540923714637756,5.32346773147583,1.1257508993148804
-0.4521973133087158,5.3207879066467285,1.1242443323135376
-0.4236942529678345,4.602163791656494,0.9716245532035828
-0.4564121663570404,4.606994152069092,0.9719191789627075
-0.48760437965393066,4.5963850021362305,0.969003438949585
-0.5161452293395996,4.562763690948486,0.9612873792648315
-0.5466107130050659,4.551898956298828,0.957852840423584
-0.5784266591072083,4.548378944396973,0.9558882117271423
-0.6076699495315552,4.529536247253418,0.950772762298584
-0.6363002061843872,4.506697177886963,0.9448664784431458
-0.6643372178077698,4.479857444763184,0.9381681680679321
-0.6955047845840454,4.475529193878174,0.9362368583679199
-0.7245832085609436,4.455860137939453,0.9309271574020386
-0.7525676488876343,4.436222553253174,0.9252618551254272
-0.7815988659858704,4.423951148986816,0.9211868643760681
-0.8084715008735657,4.400186061859131,0.9147684574127197
-0.8390837907791138,4.394977569580078,0.9122364521026611
-0.7224035859107971,3.646064281463623,0.7556190490722656
-0.7482213973999023,3.6412973403930664,0.7534783482551575
-0.7779067158699036,3.6590847969055176,0.7555899024009705
-0.9524280428886414,4.334954738616943,0.8932486176490784
-0.9819537401199341,4.328998565673828,0.8901572823524475
-1.008422613143921,4.3078203201293945,0.8839544653892517
-1.0371944904327393,4.293759346008301,0.879219114780426
-1.065301775932312,4.279621124267578,0.8745487928390503
-1.0947381258010864,4.272888660430908,0.8711090683937073
-1.1198219060897827,4.251280784606934,0.8644119501113892
-1.1507163047790527,4.251713752746582,0.8622366189956665
-1.1783736944198608,4.236940383911133,0.856955349445343
-1.2026755809783936,4.21093225479126,0.849460780620575
-1.229907512664795,4.195824146270752,0.8442201614379883
-1.2566522359848022,4.180673599243164,0.8388071656227112
-1.2849360704421997,4.172918796539307,0.8345589637756348
-1.313688039779663,4.164821624755859,0.8302321434020996
-1.3326952457427979,4.127377510070801,0.820137083530426
-1.3615669012069702,4.118810176849365,0.8157745599746704
-1.3903826475143433,4.1100358963012695,0.8114113807678223
-1.4112111330032349,4.0794525146484375,0.8025826215744019
-1.4387192726135254,4.070779323577881,0.7977665662765503
-1.4627037048339844,4.050928592681885,0.790755033493042
-1.4944995641708374,4.052550315856934,0.7879678010940552
-1.516192078590393,4.024929046630859,0.7794665098190308
-1.5389080047607422,4.000792026519775,0.7717080116271973
-1.5635089874267578,3.983992338180542,0.765088677406311
-1.599377989768982,3.995652914047241,0.7636803388595581
-1.6233901977539062,3.9786877632141113,0.7568836212158203
-1.6569463014602661,3.982571601867676,0.7539713978767395
-1.6789125204086304,3.9577181339263916,0.7456156015396118
-1.7035882472991943,3.9398434162139893,0.73860102891922
-1.7242045402526855,3.9151906967163086,0.7298252582550049
-1.747285008430481,3.8976266384124756,0.7224932312965393
-1.767465353012085,3.8727176189422607,0.7137832045555115
-1.7980422973632812,3.8682801723480225,0.7087458968162537
-1.8187116384506226,3.8427112102508545,0.6998851895332336
-1.8585686683654785,3.8590774536132812,0.6982038021087646
-1.8843207359313965,3.8477814197540283,0.691489577293396
-1.8999817371368408,3.8154518604278564,0.6809977889060974
-1.9304813146591187,3.8100273609161377,0.6751298904418945
-1.9610264301300049,3.8043406009674072,0.6692258715629578
-1.9760044813156128,3.771742105484009,0.6582905054092407
-2.0051939487457275,3.766366481781006,0.6519535779953003
-2.010563850402832,3.716567277908325,0.6379879713058472
-1.7110185623168945,3.1111302375793457,0.5293962955474854
-1.7216191291809082,3.0798473358154297,0.519443154335022
-1.7419501543045044,3.069523572921753,0.5127258896827698
-0.8455662727355957,1.4674550294876099,0.2426946610212326
-0.8479825854301453,1.4487208127975464,0.23710347712039948
-0.8701466917991638,1.463157057762146,0.23689191043376923
-0.8680853843688965,1.4378933906555176,0.23016339540481567
-0.8856474161148071,1.4458979368209839,0.22872519493103027
-0.8793511390686035,1.4139713048934937,0.22085431218147278
-0.8935568332672119,1.4147975444793701,0.21808375418186188
-0.9073629379272461,1.4157851934432983,0.21524201333522797
-0.8997037410736084,1.384412407875061,0.20745883882045746
-0.9049464464187622,1.3723105192184448,0.2024833858013153
-0.9235778450965881,1.3791762590408325,0.20010676980018616
-2.399441719055176,3.533489227294922,0.5038366317749023
-2.4180266857147217,3.5129311084747314,0.49197766184806824
-1.2626043558120728,1.807520866394043,0.24809370934963226
-1.3828082084655762,1.951684594154358,0.2623116374015808
-1.443576693534851,2.2897024154663086,-0.20910678803920746
-1.3590630292892456,2.1902687549591064,-0.20674484968185425
-1.2424489259719849,2.0685033798217773,-0.2075881063938141
-1.2314306497573853,2.083442211151123,-0.21500873565673828
-0.8190550804138184,1.4091421365737915,-0.14938466250896454
-0.845550000667572,1.478684902191162,-0.16075871884822845
-1.0866998434066772,1.9314243793487549,-0.21508963406085968
-1.051493525505066,1.9014317989349365,-0.21679478883743286
-0.9948650598526001,1.8298959732055664,-0.2133398801088333
-0.9782080054283142,1.8294262886047363,-0.21781595051288605
-0.9162106513977051,1.7429733276367188,-0.21179744601249695
-0.8784500956535339,1.7007439136505127,-0.21078269183635712
-0.8765408992767334,1.72728431224823,-0.21821710467338562
-0.8417595624923706,1.6877084970474243,-0.21713131666183472
-0.8124197125434875,1.6583434343338013,-0.2171318084001541
-0.7818021178245544,1.6251955032348633,-0.21646448969841003
-0.7602938413619995,1.609108567237854,-0.2178521305322647
-0.7325564026832581,1.5787273645401,-0.21718259155750275
-0.7064287066459656,1.5517895221710205,-0.2168162614107132
-0.695155918598175,1.5563219785690308,-0.22073008120059967
-0.6747837662696838,1.5393807888031006,-0.22149023413658142
-0.6515867710113525,1.5151413679122925,-0.2211005687713623
-0.6375887393951416,1.5121574401855469,-0.22366197407245636
-0.6190818548202515,1.4983749389648438,-0.2246294617652893
-0.5910772085189819,1.4591584205627441,-0.2215573936700821
-0.5693368315696716,1.434035301208496,-0.22048218548297882
-0.549229085445404,1.4123682975769043,-0.21974867582321167
-0.5446076393127441,1.4302210807800293,-0.22515025734901428
-0.5261905193328857,1.4118845462799072,-0.22487139701843262
-0.5135291218757629,1.4078295230865479,-0.22676652669906616
0.5085628032684326,1.4014416933059692,-0.2254408597946167
0.5237165689468384,1.4128137826919556,-0.22481107711791992
0.5432822108268738,1.4348472356796265,-0.2257881462574005
0.5589624643325806,1.4458849430084229,-0.2249581664800644
0.5748647451400757,1.4567819833755493,-0.22391891479492188
0.5994548201560974,1.48911452293396,-0.226133793592453
0.6158549785614014,1.499660849571228,-0.2249181568622589
0.6309181451797485,1.50649094581604,-0.22310000658035278
0.6565530896186829,1.5382015705108643,-0.22478936612606049
0.6828540563583374,1.5695675611495972,-0.22624371945858002
0.697078287601471,1.5723192691802979,-0.22349654138088226
0.7225178480148315,1.5996735095977783,-0.22417300939559937
0.7465086579322815,1.6233606338500977,-0.22413913905620575
0.7725232839584351,1.6503039598464966,-0.22443494200706482
0.7910599708557129,1.6592752933502197,-0.22206516563892365
0.823066234588623,1.6960945129394531,-0.22336135804653168
0.85704106092453,1.7361959218978882,-0.2248513400554657
0.8864591717720032,1.7654855251312256,-0.2247503697872162
0.8989578485488892,1.7597510814666748,-0.22003057599067688
0.9524661302566528,1.8332412242889404,-0.2250296175479889
0.9815671443939209,1.8580751419067383,-0.22369682788848877
1.023872971534729,1.9065848588943481,-0.22503921389579773
1.0727335214614868,1.9647243022918701,-0.22715924680233002
1.114590048789978,2.008880138397217,-0.22736379504203796
1.1511571407318115,2.042529821395874,-0.2261461615562439
1.2062969207763672,2.1058037281036377,-0.2276957780122757
1.2622191905975342,2.1685140132904053,-0.22888115048408508
1.3025776147842407,2.2041592597961426,-0.22689048945903778
1.3176199197769165,2.1958813667297363,-0.2202037274837494
1.3453162908554077,2.207113027572632,-0.21520979702472687
1.3443329334259033,2.1718437671661377,-0.20559421181678772
1.3589155673980713,2.163393497467041,-0.1987038105726242
1.3992518186569214,2.1938345432281494,-0.19499097764492035
1.751102328300476,2.7047393321990967,-0.23228000104427338
1.83111572265625,2.788245677947998,-0.23101146519184113
1.8638038635253906,2.7954719066619873,-0.22253713011741638
1.798001766204834,2.6573030948638916,-0.2028568834066391
1.8463807106018066,2.6911087036132812,-0.1965889185667038
1.8650389909744263,2.6789441108703613,-0.18634411692619324
1.4378540515899658,2.035930871963501,-0.13433298468589783
1.4376846551895142,2.0078437328338623,-0.1251196712255478
1.4655681848526,2.017108678817749,-0.11775344610214233
1.4696285724639893,1.995278000831604,-0.10854996740818024
2.088473081588745,2.9530491828918457,0.3788173198699951
2.0695717334747314,2.97432541847229,0.39098644256591797
2.059166431427002,3.003732204437256,0.4034619927406311
2.0486342906951904,3.037631034851074,0.41659435629844666
2.256377696990967,3.4013938903808594,0.4756479263305664
2.2510643005371094,3.4452226161956787,0.49019402265548706
1.5982706546783447,2.485194206237793,0.35953378677368164
1.6264145374298096,2.5719125270843506,0.37800732254981995
1.5947489738464355,2.563244581222534,0.38237708806991577
3.039498805999756,4.962057590484619,0.7505497932434082
2.9877431392669678,4.9597883224487305,0.7600395083427429
2.9710137844085693,5.017397403717041,0.7786412239074707
2.9620182514190674,5.083634853363037,0.7981312870979309
2.927037000656128,5.106378555297852,0.8109625577926636
2.915006160736084,5.173630237579346,0.8303195238113403
2.8866190910339355,5.214157581329346,0.8454302549362183
2.8579564094543457,5.2501115798950195,0.859470784664154
2.8461689949035645,5.316156387329102,0.8784021139144897
2.822547674179077,5.366221904754639,0.8946409225463867
2.792485475540161,5.406227111816406,0.9088810086250305
2.7732338905334473,5.466359615325928,0.9264982342720032
2.756864309310913,5.529048442840576,0.9443637132644653
2.7312443256378174,5.574399948120117,0.9594104886054993
1.218993067741394,2.535752534866333,0.43950021266937256
1.1851303577423096,2.5126407146453857,0.43847349286079407
1.1846920251846313,2.5589373111724854,0.44949451088905334
