X,Y,Z
0.6342887878417969,3.959136724472046,-0.547824501991272
0.6548300981521606,3.9129815101623535,-0.5394793152809143
0.68602454662323,3.9315762519836426,-0.5399787425994873
0.708152711391449,3.8965957164764404,-0.5327544808387756
0.7365097999572754,3.899622678756714,-0.5308111310005188
0.7621505856513977,3.887209892272949,-0.5267752408981323
0.777686595916748,3.825279474258423,-0.5160879492759705
0.7994077801704407,3.7974884510040283,-0.5098167657852173
0.824478268623352,3.784653902053833,-0.5053906440734863
0.8506863117218018,3.779296636581421,-0.502035915851593
0.8735017776489258,3.75862717628479,-0.49666672945022583
0.9051222205162048,3.775495767593384,-0.49625781178474426
0.9413689374923706,3.8110406398773193,-0.4978865087032318
0.6020896434783936,2.3662869930267334,-0.30722397565841675
1.205649733543396,4.604712009429932,-0.5941747426986694
1.21868097782135,4.525647163391113,-0.5803588032722473
1.250076413154602,4.517692565917969,-0.5755389928817749
1.283370852470398,4.517049312591553,-0.5714536309242249
1.3129349946975708,4.501112937927246,-0.5653889775276184
1.3443506956100464,4.492467403411865,-0.5603016018867493
1.3711844682693481,4.468756198883057,-0.5533654093742371
1.3926019668579102,4.430276393890381,-0.5442793965339661
1.4278533458709717,4.4360127449035645,-0.540661096572876
1.4567784070968628,4.419105529785156,-0.5341863632202148
1.4839539527893066,4.398431777954102,-0.527349054813385
1.5042179822921753,4.359384059906006,-0.5181717276573181
1.2590903043746948,3.569768190383911,-0.4205164313316345
1.281078815460205,3.5542426109313965,-0.4148912727832794
1.305943250656128,3.5457441806793213,-0.41006022691726685
1.6115169525146484,4.282156944274902,-0.49042990803718567
1.6408759355545044,4.271692752838135,-0.4842969477176666
1.6673284769058228,4.253785610198975,-0.47735127806663513
1.6927311420440674,4.23188591003418,-0.4699062407016754
1.7164686918258667,4.206218719482422,-0.4620903432369232
1.7427281141281128,4.187704563140869,-0.454759418964386
1.7683076858520508,4.169219970703125,-0.44755232334136963
1.8003931045532227,4.164637565612793,-0.44176536798477173
1.8201348781585693,4.131261825561523,-0.43293100595474243
1.8420435190200806,4.105195045471191,-0.4247531294822693
1.88014817237854,4.114259719848633,-0.42009055614471436
1.905390739440918,4.094749450683594,-0.4124997854232788
1.9274029731750488,4.067914962768555,-0.40416377782821655
1.9551807641983032,4.0553297996521,-0.3971553146839142
1.9706854820251465,4.01818323135376,-0.3877500295639038
2.000704526901245,4.008369445800781,-0.38081127405166626
2.0270164012908936,3.991446018218994,-0.37324488162994385
2.0505292415618896,3.9713358879089355,-0.3652919828891754
2.0736920833587646,3.9511661529541016,-0.3573482930660248
2.1048007011413574,3.9441895484924316,-0.3504312336444855
2.117523193359375,3.90263032913208,-0.3404349982738495
2.151700496673584,3.902364730834961,-0.3338572382926941
2.1303415298461914,3.8034579753875732,-0.3190762400627136
2.160879611968994,3.795811653137207,-0.3118194341659546
2.1908698081970215,3.7882254123687744,-0.30453285574913025
2.196427583694458,3.7405037879943848,-0.29402849078178406
2.238436698913574,3.7525060176849365,-0.2879568934440613
2.2687692642211914,3.743990421295166,-0.28021401166915894
2.2691173553466797,3.689572811126709,-0.26907745003700256
2.3019609451293945,3.688162088394165,-0.261812686920166
2.336183786392212,3.6856701374053955,-0.25404924154281616
2.3361055850982666,3.630789279937744,-0.24259160459041595
2.3599679470062256,3.615888833999634,-0.23402079939842224
2.4110426902770996,3.638906478881836,-0.22735872864723206
2.4050650596618652,3.5777945518493652,-0.21543274819850922
2.4370901584625244,3.5754971504211426,-0.20713651180267334
2.4713947772979736,3.5714361667633057,-0.19790394604206085
2.4951179027557373,3.5554349422454834,-0.1881076693534851
2.51383376121521,3.53316330909729,-0.17787621915340424
2.5476837158203125,3.528630256652832,-0.16788558661937714
2.570091962814331,3.5128302574157715,-0.15735113620758057
2.186659812927246,2.9472031593322754,-0.1232064738869667
2.7885935306549072,3.909672260284424,0.3136298954486847
2.7665791511535645,3.943405866622925,0.32616645097732544
2.737178325653076,3.962966203689575,0.336965411901474
2.691049575805664,3.955916404724121,0.3449459671974182
2.6860620975494385,4.014777183532715,0.3585369884967804
2.6522583961486816,4.027000427246094,0.36753731966018677
2.622987985610962,4.045266151428223,0.3768916130065918
2.5791382789611816,4.044830799102783,0.3841197192668915
2.557149887084961,4.076323986053467,0.3941533863544464
2.546760082244873,4.123249053955078,0.40538015961647034
2.5159120559692383,4.141327381134033,0.4136432111263275
2.4955945014953613,4.179976940155029,0.4240551292896271
2.457813024520874,4.183475494384766,0.4303983151912689
2.4185233116149902,4.1830735206604,0.4362345337867737
2.400299310684204,4.224130630493164,0.4461075961589813
2.364489793777466,4.234585285186768,0.452801913022995
2.2741799354553223,4.141592502593994,0.4480225741863251
2.2375845909118652,4.143082618713379,0.45322781801223755
2.222904682159424,4.18991756439209,0.46310290694236755
2.1860880851745605,4.195377349853516,0.4684540331363678
2.172112464904785,4.241277694702148,0.47813504934310913
2.138272523880005,4.2490339279174805,0.48358115553855896
2.1105124950408936,4.270883560180664,0.49031737446784973
2.0752954483032227,4.27879524230957,0.4953867197036743
2.0474274158477783,4.300139904022217,0.5019501447677612
2.02046275138855,4.320803642272949,0.5083287954330444
1.9897942543029785,4.334362506866455,0.5138382315635681
1.982686161994934,4.40520715713501,0.5259562134742737
2.000248432159424,4.532772064208984,0.5449573993682861
1.986359715461731,4.589047908782959,0.555416464805603
1.957200050354004,4.609361171722412,0.5615231394767761
1.8914636373519897,4.543740272521973,0.5569876432418823
1.8897206783294678,4.636197090148926,0.5716509819030762
1.8527772426605225,4.6421217918396,0.5756707191467285
1.8226817846298218,4.661766052246094,0.5813072919845581
1.8025379180908203,4.706417083740234,0.5900768637657166
1.7637349367141724,4.703949451446533,0.5928473472595215
1.3403618335723877,3.6565165519714355,0.46305322647094727
1.3137354850769043,3.665740966796875,0.46641650795936584
1.2850358486175537,3.6672632694244385,0.4687737822532654
3.68880033493042,10.766796112060547,1.3825640678405762
1.617674708366394,4.831202507019043,0.6231958866119385
1.5868421792984009,4.857232570648193,0.628995954990387
1.5633974075317383,4.905035018920898,0.6376325488090515
1.5142699480056763,4.871234893798828,0.6356740593910217
1.4891988039016724,4.910885810852051,0.6432549357414246
1.4549038410186768,4.920668601989746,0.6469660401344299
1.4081275463104248,4.889455318450928,0.6450439095497131
1.3859024047851562,4.947696685791016,0.6547800302505493
1.340083360671997,4.91972017288208,0.6531111598014832
1.2943878173828125,4.887440204620361,0.6508345603942871
1.2640916109085083,4.910947322845459,0.6559850573539734
1.2298210859298706,4.919219970703125,0.6591358780860901
1.2022807598114014,4.961524486541748,0.6664852499961853
1.1738721132278442,4.999791145324707,0.6732589602470398
1.1432607173919678,5.030344009399414,0.6790457963943481
1.1096762418746948,5.045427322387695,0.6827541589736938
1.0744820833206177,5.052676677703857,0.6854309439659119
1.0385624170303345,5.059816837310791,0.6881219744682312
1.0040390491485596,5.074375152587891,0.6913576722145081
0.4187523126602173,2.1982555389404297,0.3000588119029999
1.9778552055358887,10.799610137939453,1.4769386053085327
1.8878158330917358,10.728622436523438,1.4700267314910889
1.8168284893035889,10.771644592285156,1.478846549987793
1.736809253692627,10.752859115600586,1.4790891408920288
1.6482608318328857,10.68406867980957,1.4715391397476196
1.581721544265747,10.756237983703613,1.4834715127944946
1.493224859237671,10.678522109985352,1.4748035669326782
1.3995760679244995,10.554095268249512,1.4597214460372925
1.3076635599136353,10.417216300964355,1.4428941011428833
1.219077229499817,10.291119575500488,1.4275524616241455
1.1327979564666748,10.176074981689453,1.4127498865127563
1.061835765838623,10.191191673278809,1.4160752296447754
0.9900795221328735,10.198100090026855,1.418328881263733
0.3922264873981476,4.3623762130737305,0.6072987914085388
0.3558182716369629,4.291602611541748,0.5980411171913147
0.32651716470718384,4.30156135559082,0.6000545024871826
0.29690712690353394,4.311384201049805,0.6016941666603088
0.27215710282325745,4.40210485458374,0.6145935654640198
0.307487815618515,5.6245808601379395,0.7856168746948242
0.2693285048007965,5.649685859680176,0.7895052433013916
0.23164880275726318,5.6899847984313965,0.7955576181411743
0.19303061068058014,5.718430519104004,0.7999961376190186
0.15447063744068146,5.7659993171691895,0.8067917227745056
0.11359795928001404,5.766936779022217,0.8068841099739075
0.07335060089826584,5.767575740814209,0.8069750666618347
0.03356030210852623,5.825962066650391,0.8151852488517761
-0.007034166716039181,5.8802008628845215,0.8228558897972107
-0.049737848341464996,6.100496292114258,0.8538089990615845
-0.09165006875991821,6.01878023147583,0.8423072695732117
-0.13476631045341492,6.079954624176025,0.8504511713981628
-0.17733882367610931,6.090544700622559,0.8515548706054688
-0.3066685199737549,8.501736640930176,1.188207983970642
-0.25818514823913574,5.998736381530762,0.8380954265594482
-0.17658936977386475,3.5316617488861084,0.49326780438423157
-0.20399536192417145,3.572859764099121,0.49885693192481995
-0.22920899093151093,3.579176187515259,0.49928054213523865
-0.5582690238952637,7.865313529968262,1.0962251424789429
-0.6066732406616211,7.784313201904297,1.0840413570404053
-0.5634601712226868,6.635071754455566,0.9232770204544067
-0.6082462668418884,6.607975482940674,0.9188194274902344
-0.37267255783081055,3.7620232105255127,0.5227387547492981
-0.39451897144317627,3.7210240364074707,0.516391396522522
-0.41708412766456604,3.691448926925659,0.5116111636161804
-0.4397217929363251,3.6655807495117188,0.5073779225349426
-0.4616343677043915,3.6318249702453613,0.5020720958709717
-0.4822302758693695,3.5941498279571533,0.49626868963241577
-0.5072353482246399,3.590848684310913,0.4952402412891388
-0.5274475812911987,3.5568079948425293,0.4897715151309967
-0.5518096685409546,3.5532968044281006,0.4884154200553894
-0.5685315132141113,3.4998772144317627,0.4802187383174896
-1.0636701583862305,6.2745842933654785,0.8594624996185303
-1.1281957626342773,6.385542869567871,0.8731855154037476
-1.1781466007232666,6.408348560333252,0.8748645186424255
-1.2302141189575195,6.4423041343688965,0.8777593970298767
-1.2847295999526978,6.487348556518555,0.8818711638450623
-1.341443657875061,6.535598278045654,0.8863925933837891
-1.3943182229995728,6.564548015594482,0.8883335590362549
-1.445846438407898,6.581589698791504,0.8886563777923584
-1.482248306274414,6.530249118804932,0.8797934651374817
-1.512189507484436,6.456248760223389,0.8676397204399109
-1.551446557044983,6.423539161682129,0.8607445955276489
-0.6965932846069336,2.800664186477661,0.37422844767570496
-0.7061840295791626,2.7585108280181885,0.3675614893436432
-0.7234011292457581,2.74625563621521,0.36489760875701904
-0.7465593814849854,2.7563321590423584,0.3652159571647644
-0.7740651965141296,2.7811710834503174,0.3673149347305298
-1.75399649143219,6.1409783363342285,0.8082606792449951
-1.7835791110992432,6.088601112365723,0.7986304759979248
-1.818705439567566,6.05448579788208,0.7914215922355652
-1.8459968566894531,5.994079113006592,0.7808104157447815
-1.8814688920974731,5.959222316741943,0.7735481858253479
-1.909935712814331,5.910037517547607,0.7640810012817383
-1.9387987852096558,5.864499568939209,0.7550870776176453
-1.968431830406189,5.8224873542785645,0.7466102242469788
-2.0037636756896973,5.794629096984863,0.739919900894165
-1.357625126838684,3.839444160461426,0.4881979823112488
-1.3687903881072998,3.7864456176757812,0.4793057143688202
-1.3915824890136719,3.770298480987549,0.4749166667461395
-1.4018746614456177,3.721348762512207,0.46644970774650574
-1.4133362770080566,3.675906181335449,0.4584563970565796
-1.436187982559204,3.6591410636901855,0.454033225774765
-1.437659502029419,3.5880279541015625,0.4428931176662445
-1.4559193849563599,3.5643470287323,0.4374416768550873
-1.4633840322494507,3.5155351161956787,0.42893514037132263
-1.4430660009384155,3.4024031162261963,0.4126929044723511
-1.4467592239379883,3.346362352371216,0.40341392159461975
-1.46113920211792,3.315110206604004,0.39714673161506653
-1.4866588115692139,3.312711715698242,0.39420875906944275
-1.5167362689971924,3.320866584777832,0.3924559950828552
-1.5454052686691284,3.325220823287964,0.3902384638786316
-1.5471004247665405,3.2691240310668945,0.38083094358444214
-1.5669902563095093,3.2514894008636475,0.37592458724975586
-1.5956284999847412,3.25533127784729,0.3733559250831604
-1.6137733459472656,3.2381765842437744,0.36833488941192627
-1.6425305604934692,3.241607904434204,0.3656321167945862
-1.665215253829956,3.230516195297241,0.36116263270378113
-1.691298484802246,3.2262191772460938,0.35743939876556396
-1.7257297039031982,3.2393274307250977,0.3553485572338104
-1.7507398128509521,3.2352356910705566,0.35142049193382263
-1.1845102310180664,2.1536176204681396,0.231501504778862
-1.188225507736206,2.1252288818359375,0.22600005567073822
-2.5144171714782715,4.427935600280762,0.4655494689941406
-2.565311908721924,4.448872089385986,0.46219402551651
-2.5913777351379395,4.425484657287598,0.45415207743644714
-2.6144378185272217,4.394577503204346,0.44516369700431824
-1.2636561393737793,2.0921950340270996,0.20908257365226746
-2.6765310764312744,4.367720603942871,0.43037497997283936
-2.6713955402374268,4.293909072875977,0.4167567789554596
-3.0010294914245605,4.74979305267334,0.45374682545661926
-3.01567006111145,4.704427719116211,0.4420066177845001
-3.035409688949585,4.669371128082275,0.4312315583229065
-3.054555654525757,4.629794120788574,0.41964513063430786
-3.0742175579071045,4.589571952819824,0.40771347284317017
-3.057541608810425,4.50301456451416,0.39177578687667847
-3.0739617347717285,4.464344501495361,0.3799074590206146
-3.132127046585083,4.481825828552246,0.372224360704422
-2.8273353576660156,3.9918324947357178,0.32314610481262207
-2.8536860942840576,3.973860263824463,0.312867134809494
-2.904492139816284,3.986074447631836,0.3043553829193115
-2.8806965351104736,3.902803897857666,0.2885012626647949
-2.4732754230499268,3.4619691371917725,-0.16323217749595642
-2.4474239349365234,3.479783535003662,-0.17374922335147858
-2.438976526260376,3.523221969604492,-0.18535713851451874
-2.3635149002075195,3.4656577110290527,-0.19092394411563873
-2.29146671295166,3.4149374961853027,-0.19650563597679138
-2.2322301864624023,3.378864288330078,-0.20227517187595367
-2.1798148155212402,3.352057456970215,-0.20828397572040558
-2.1544442176818848,3.367889165878296,-0.2167014330625534
-2.1220173835754395,3.3694732189178467,-0.2237861305475235
-1.273908257484436,2.054959774017334,-0.14063000679016113
-2.0766074657440186,3.4057211875915527,-0.23985490202903748
-2.043663263320923,3.406874179840088,-0.24653790891170502
-2.035336494445801,3.447582483291626,-0.255866140127182
-2.0214436054229736,3.482260227203369,-0.2647891640663147
-1.2019141912460327,2.1052193641662598,-0.16381391882896423
-1.1909412145614624,2.120058298110962,-0.1685793399810791
-1.9587271213531494,3.547433614730835,-0.2881125211715698
-2.5570192337036133,4.711668014526367,-0.390463262796402
-2.534694194793701,4.7494797706604,-0.40111637115478516
-1.7336540222167969,3.3041841983795166,-0.2842153012752533
-1.7022404670715332,3.30243182182312,-0.28911975026130676
-1.6303794384002686,3.2205402851104736,-0.28688207268714905
-1.5904096364974976,3.1965296268463135,-0.2893851101398468
-1.5675331354141235,3.2073047161102295,-0.29492923617362976
-1.5424715280532837,3.2146074771881104,-0.30009952187538147
-1.5194427967071533,3.2250497341156006,-0.30549678206443787
-1.504935383796692,3.252790927886963,-0.31249064207077026
-2.2933237552642822,5.052414417266846,-0.49209535121917725
-2.2597882747650146,5.07523250579834,-0.5008508563041687
-2.178492546081543,4.987009048461914,-0.49842461943626404
-2.0469934940338135,4.776151657104492,-0.48326343297958374
-1.9435831308364868,4.624979019165039,-0.47350701689720154
-1.9481617212295532,4.731858253479004,-0.49011215567588806
-1.847593903541565,4.579005241394043,-0.47958967089653015
-1.8154734373092651,4.59114933013916,-0.4861091375350952
-1.357487440109253,3.504988193511963,-0.3749818503856659
-1.3226619958877563,3.4886882305145264,-0.3769877851009369
-1.7527928352355957,4.725481986999512,-0.5157628655433655
-2.0219690799713135,5.569665908813477,-0.6137450337409973
-1.925420880317688,5.421913146972656,-0.6030286550521851
-1.6114755868911743,4.642130374908447,-0.520832359790802
-1.5808038711547852,4.660221576690674,-0.527411937713623
-1.89320969581604,5.713980197906494,-0.6522492170333862
-1.865130066871643,5.763244152069092,-0.6634004712104797
-0.9763049483299255,3.091449737548828,-0.35857707262039185
-0.9233861565589905,2.9977529048919678,-0.35035690665245056
-0.7694107294082642,2.561389684677124,-0.3015936017036438
-0.7558576464653015,2.5812690258026123,-0.30618107318878174
-0.7500885128974915,2.6310830116271973,-0.31427451968193054
-0.7469830513000488,2.6921019554138184,-0.3236650228500366
-0.7370263338088989,2.7307043075561523,-0.33044204115867615
-0.7199071645736694,2.742962598800659,-0.33405330777168274
-0.7064347863197327,2.7701613903045654,-0.33949440717697144
-0.6780868172645569,2.7409815788269043,-0.33783283829689026
-0.649638295173645,2.707695484161377,-0.33559849858283997
-0.6420896053314209,2.760981321334839,-0.34409937262535095
-1.3717807531356812,6.089998245239258,-0.7631809711456299
-1.3067872524261475,5.996561050415039,-0.755244791507721
-1.2686234712600708,6.027932167053223,-0.762799084186554
-1.2424360513687134,6.11588716506958,-0.7775475382804871
-1.1892447471618652,6.070577621459961,-0.7753859758377075
-1.1461371183395386,6.074331760406494,-0.7794911861419678
-1.0977909564971924,6.051242828369141,-0.7795085310935974
-1.0046143531799316,5.7721171379089355,-0.7464582324028015
-0.9520991444587708,5.7059102058410645,-0.7407335042953491
-0.9496303796768188,5.945301055908203,-0.774784505367279
-0.9186486601829529,6.020251274108887,-0.787355363368988
-0.8781200051307678,6.037629127502441,-0.7920058965682983
-0.8382381200790405,6.066337585449219,-0.7982382774353027
-0.41633546352386475,3.175983428955078,-0.41919273138046265
-0.3932550847530365,3.1709017753601074,-0.41981783509254456
-0.3800847828388214,3.2503185272216797,-0.43141838908195496
-0.3564787209033966,3.2450289726257324,-0.431686133146286
-0.3329920768737793,3.2395665645599365,-0.43194618821144104
-0.31560036540031433,3.299485445022583,-0.44097280502319336
-0.2892184257507324,3.262859344482422,-0.4371069073677063
-0.2721053659915924,3.334139585494995,-0.44732171297073364
-0.2514151930809021,3.3705861568450928,-0.4528855085372925
-0.22843006253242493,3.379861354827881,-0.4548282027244568
-0.20496337115764618,3.388998508453369,-0.45678892731666565
-0.1838284134864807,3.4366238117218018,-0.46385982632637024
-0.16145895421504974,3.4725606441497803,-0.46904346346855164
-0.13786163926124573,3.4890084266662598,-0.47162190079689026
-0.1153310090303421,3.543982982635498,-0.4794382154941559
-0.09135813266038895,3.5872085094451904,-0.48570555448532104
-0.06683360040187836,3.6109399795532227,-0.4891339838504791
-0.04213747754693031,3.6461470127105713,-0.493900328874588
-0.017013616859912872,3.7005374431610107,-0.5012895464897156
0.008706524968147278,3.700559616088867,-0.5013383626937866
0.03532980754971504,3.750718116760254,-0.5082059502601624
0.062025703489780426,3.789126396179199,-0.5131509304046631
0.08952593803405762,3.8389711380004883,-0.5195280313491821
0.11760465800762177,3.884746789932251,-0.5253704190254211
0.1451716423034668,3.899369239807129,-0.5270195603370667
0.1755109280347824,3.9718070030212402,-0.5365011096000671
0.20491188764572144,3.997659921646118,-0.5392131805419922
0.23399287462234497,4.0194597244262695,-0.5413845777511597
0.26442691683769226,4.056499481201172,-0.5456224083900452
0.2945845425128937,4.081724166870117,-0.5482844114303589
0.3214207887649536,4.060424327850342,-0.5446164011955261
0.35439333319664,4.1084065437316895,-0.5498189926147461
0.3879038095474243,4.160027503967285,-0.5555261373519897
0.41140028834342957,4.103492259979248,-0.5468137264251709
0.43540239334106445,4.058375358581543,-0.5396751761436462
0.464898020029068,4.0670247077941895,-0.5394883751869202
0.4893684983253479,4.029309272766113,-0.5328927040100098
0.5182343125343323,4.033768177032471,-0.5319410562515259
0.5441962480545044,4.0149736404418945,-0.5279440879821777
0.5687951445579529,3.98834490776062,-0.5229586362838745
0.5964044332504272,3.9846105575561523,-0.5206580758094788
0.6232353448867798,3.972980260848999,-0.5172008872032166
0.6519862413406372,3.976530075073242,-0.5157766938209534
0.6809784770011902,3.979846239089966,-0.5143285989761353
0.7073172330856323,3.9676952362060547,-0.5108843445777893
0.8866210579872131,4.7823710441589355,-0.6130313277244568
0.911641538143158,4.734697341918945,-0.6042157411575317
0.9488844871520996,4.747588634490967,-0.6031147241592407
0.981959879398346,4.741299629211426,-0.599633514881134
1.0091841220855713,4.7082905769348145,-0.592627227306366
1.0400421619415283,4.694122314453125,-0.587742805480957
1.067254662513733,4.66463565826416,-0.5809919238090515
1.093182921409607,4.627252578735352,-0.5732393860816956
1.123587965965271,4.612464904785156,-0.5683920979499817
1.1648454666137695,4.642743110656738,-0.5687565207481384
1.1871285438537598,4.597575664520264,-0.5597988367080688
1.2139676809310913,4.571023941040039,-0.5531607866287231
1.2464388608932495,4.562816143035889,-0.5486941337585449
1.2761203050613403,4.547080039978027,-0.5433303713798523
1.2988039255142212,4.508916854858398,-0.5350286364555359
1.3298566341400146,4.500417232513428,-0.5302925705909729
1.3567008972167969,4.4767374992370605,-0.5237634181976318
1.3862117528915405,4.46012544631958,-0.5180303454399109
1.409926176071167,4.428824424743652,-0.5104436278343201
1.440375804901123,4.419602870941162,-0.5053285956382751
1.4708994626998901,4.410123825073242,-0.5001899600028992
1.492883324623108,4.374597549438477,-0.4921043813228607
1.5155749320983887,4.3426947593688965,-0.4844169318675995
1.2703557014465332,3.560513496398926,-0.3935476839542389
1.2973737716674805,3.5595216751098633,-0.38988909125328064
1.5947867631912231,4.282894611358643,-0.4647698700428009
1.6220029592514038,4.264942169189453,-0.4584738612174988
1.6540462970733643,4.261571407318115,-0.4535171389579773
1.683685302734375,4.250570774078369,-0.4476509690284729
1.7102092504501343,4.232194900512695,-0.44105756282806396
1.7398014068603516,4.220727920532227,-0.4351687729358673
1.76430344581604,4.1985087394714355,-0.42806074023246765
1.789821743965149,4.179848670959473,-0.4212712347507477
1.8128620386123657,4.153560161590576,-0.41361895203590393
1.829323649406433,4.112910747528076,-0.40460342168807983
1.8673429489135742,4.122045516967773,-0.40042343735694885
1.8888423442840576,4.095717906951904,-0.39269739389419556
1.913573145866394,4.076234340667725,-0.38563549518585205
1.9391707181930542,4.05611515045166,-0.3783544600009918
1.97049081325531,4.0502610206604,-0.372440367937088
1.9822782278060913,4.006052494049072,-0.36295533180236816
2.014854669570923,4.0034499168396,-0.35722529888153076
2.033986806869507,3.9725067615509033,-0.34885236620903015
2.068422317504883,3.972858428955078,-0.34318313002586365
2.084653615951538,3.938544511795044,-0.3343811333179474
2.1116580963134766,3.92472505569458,-0.3273489475250244
2.139174699783325,3.910391330718994,-0.3201565444469452
2.1183552742004395,3.8112118244171143,-0.30609774589538574
2.151545286178589,3.811049461364746,-0.300094336271286
2.166769504547119,3.7760581970214844,-0.2910589277744293
2.1969363689422607,3.768178701400757,-0.28418412804603577
2.2299201488494873,3.7674400806427,-0.27776458859443665
2.247251033782959,3.739494562149048,-0.2692672908306122
2.2734076976776123,3.7242064476013184,-0.26146399974823
2.2988593578338623,3.7091007232666016,-0.25353386998176575
2.3108763694763184,3.674536943435669,-0.24442100524902344
2.344852924346924,3.6720128059387207,-0.23708678781986237
2.3698158264160156,3.656477212905884,-0.22884367406368256
2.372316598892212,3.6087636947631836,-0.21864478290081024
2.4062862396240234,3.6055028438568115,-0.21066640317440033
2.4307804107666016,3.58953595161438,-0.20193883776664734
2.4452013969421387,3.561289072036743,-0.19255828857421875
2.4698119163513184,3.544755220413208,-0.18332277238368988
2.511488676071167,3.554126262664795,-0.17526346445083618
2.5076069831848145,3.4998624324798584,-0.1638678014278412
2.5412089824676514,3.495326042175293,-0.15434059500694275
2.1766507625579834,2.9546303749084473,-0.12253722548484802
2.766233444213867,3.9078640937805176,0.29421597719192505
2.753722667694092,3.9539496898651123,0.30673009157180786
2.72810435295105,3.9803264141082764,0.3173961341381073
2.6864211559295654,3.9796223640441895,0.32542702555656433
2.6597142219543457,4.006106853485107,0.3353239893913269
2.6424920558929443,4.044679641723633,0.346000999212265
2.580190420150757,4.010049343109131,0.34995752573013306
2.5663199424743652,4.0551323890686035,0.36063456535339355
2.5471792221069336,4.093973636627197,0.37087780237197876
2.540717601776123,4.14760160446167,0.38194137811660767
2.4963717460632324,4.14193868637085,0.3874662518501282
2.4687986373901367,4.166773319244385,0.3956756293773651
2.440263271331787,4.18735933303833,0.4032895267009735
2.404473304748535,4.1938676834106445,0.4094376564025879
2.379206895828247,4.220986366271973,0.417317271232605
2.3153178691864014,4.180225372314453,0.418363481760025
2.253484010696411,4.138071060180664,0.41894254088401794
2.228027820587158,4.160029888153076,0.4258522093296051
2.2078073024749756,4.1965508460998535,0.43418052792549133
2.1817193031311035,4.222682952880859,0.4413088858127594
2.150977373123169,4.237807750701904,0.44719672203063965
2.1177217960357666,4.245233535766602,0.45213964581489563
2.0941526889801025,4.273638725280762,0.4592224955558777
2.061840057373047,4.288724422454834,0.4647727608680725
2.0333383083343506,4.310316562652588,0.4709872901439667
2.0030438899993896,4.323911666870117,0.4761553108692169
1.972656488418579,4.337288856506348,0.4813227951526642
2.0027265548706055,4.489414215087891,0.5017386674880981
1.9867000579833984,4.542652606964111,0.5111981630325317
1.9561392068862915,4.563775539398193,0.5171154737472534
1.9211828708648682,4.569624423980713,0.5211373567581177
1.9069263935089111,4.625498294830322,0.5309204459190369
1.8673202991485596,4.624353885650635,0.5338138937950134
1.8577377796173096,4.698755264282227,0.5454806089401245
1.7910208702087402,4.628410816192627,0.5403656959533691
1.758615493774414,4.640315055847168,0.5446861982345581
1.3560519218444824,3.6546144485473633,0.43130066990852356
1.3295108079910278,3.663980007171631,0.43445950746536255
1.3028533458709717,3.6731715202331543,0.4375919997692108
1.2681947946548462,3.6602652072906494,0.438126802444458
1.632278561592102,4.819282531738281,0.5794708728790283
1.5937159061431885,4.81535005569458,0.5816207528114319
1.5544987916946411,4.811399459838867,0.5835014581680298
1.519720435142517,4.822071075439453,0.587018609046936
1.4967379570007324,4.873480796813965,0.5955880284309387
1.4613099098205566,4.879748821258545,0.5985873341560364
1.441370964050293,4.937811851501465,0.6079714894294739
1.400312066078186,4.925002574920654,0.6085963845252991
1.3773349523544312,4.979411602020264,0.617188036441803
1.3082760572433472,4.86520528793335,0.6048845052719116
1.2709752321243286,4.866691589355469,0.6069647073745728
1.2483922243118286,4.920194625854492,0.615506112575531
1.2177530527114868,4.943476676940918,0.6203171014785767
1.187306523323059,4.970472812652588,0.6253925561904907
1.1570041179656982,5.001177787780762,0.6307555437088013
1.1239579916000366,5.024276256561279,0.6352317929267883
1.0900866985321045,5.039351463317871,0.63868647813797
1.0613371133804321,5.076858043670654,0.6450045704841614
1.012129306793213,5.015423774719238,0.6387737989425659
0.9899749755859375,5.090664863586426,0.6496455073356628
2.087203025817871,11.16252613067627,1.4271527528762817
1.999605417251587,11.130732536315918,1.425746202468872
1.9115201234817505,11.086651802062988,1.4227803945541382
1.8367359638214111,11.11444091796875,1.429077386856079
1.7442225217819214,11.030709266662598,1.4210798740386963
1.6460294723510742,10.916031837463379,1.408326506614685
1.543420433998108,10.750560760498047,1.3887771368026733
1.4489948749542236,10.626433372497559,1.3745856285095215
1.3566893339157104,10.49758529663086,1.3597840070724487
1.2671706676483154,10.37177562713623,1.3453813791275024
1.1781398057937622,10.233698844909668,1.329400658607483
1.0997257232666016,10.191471099853516,1.3251924514770508
1.0210251808166504,10.129314422607422,1.3181647062301636
0.4058520197868347,4.3313212394714355,0.5641286969184875
0.37489742040634155,4.326224327087402,0.5639663934707642
0.34171274304389954,4.290004253387451,0.5597664713859558
0.3130311071872711,4.315384387969971,0.5636391043663025
0.28616613149642944,4.367636680603027,0.5707947015762329
0.32635530829429626,5.579782485961914,0.7294638156890869
0.28985196352005005,5.632144927978516,0.736604630947113
0.251549631357193,5.657174587249756,0.7402097582817078
0.21328796446323395,5.7051825523376465,0.7468668222427368
0.17469169199466705,5.7412943840026855,0.7520022392272949
0.13510417938232422,5.757814884185791,0.7543742656707764
0.09510725736618042,5.766356945037842,0.7554235458374023
0.055403560400009155,5.81722354888916,0.762053906917572
0.014127984642982483,5.825212478637695,0.763104259967804
-0.049556709825992584,10.960916519165039,1.4359601736068726
-0.10167353600263596,8.857314109802246,1.1604915857315063
-0.15998557209968567,8.678275108337402,1.1370272636413574
-0.2175932675600052,8.57251262664795,1.1225659847259521
-0.2776200771331787,8.586379051208496,1.1238305568695068
-0.23882895708084106,6.06087589263916,0.7929226756095886
-0.2764936685562134,5.962409496307373,0.7797329425811768
-0.19044509530067444,3.5700581073760986,0.4667119085788727
-0.21667177975177765,3.5918872356414795,0.4694254994392395
-0.24410323798656464,3.6290366649627686,0.47381651401519775
-0.28488025069236755,3.832051992416382,0.49984535574913025
-0.3126269578933716,3.8455257415771484,0.5011563897132874
-0.33725011348724365,3.820204257965088,0.49743494391441345
-0.3619454503059387,3.7985782623291016,0.49422264099121094
-0.3820199966430664,3.734400987625122,0.4855060279369354
-0.4052762985229492,3.7047972679138184,0.4810231029987335
-0.428956001996994,3.686662197113037,0.47800031304359436
-0.4457663893699646,3.6145429611206055,0.4680156707763672
-0.4727745056152344,3.6268699169158936,0.468993216753006
-0.4932331442832947,3.5890793800354004,0.4635128974914551
-0.5108702778816223,3.5319409370422363,0.4555603563785553
-0.5363439917564392,3.536156177520752,0.45534542202949524
-0.566638171672821,3.5708389282226562,0.45895445346832275
-0.5834947228431702,3.52116322517395,0.45174407958984375
-1.0980626344680786,6.354682445526123,0.8138036727905273
-1.1456913948059082,6.366265296936035,0.813843309879303
-1.200759768486023,6.4116363525390625,0.8181999921798706
-1.2559595108032227,6.460643768310547,0.8227083683013916
-1.309246301651001,6.497898101806641,0.8254826068878174
-1.3607251644134521,6.523342609405518,0.8267711400985718
-1.4186060428619385,6.574859619140625,0.8313631415367126
-1.463425636291504,6.557489395141602,0.8272116780281067
-1.4915868043899536,6.471983909606934,0.8145639300346375
-1.5261406898498535,6.420523643493652,0.805915355682373
-0.6926446557044983,2.828584909439087,0.3540090024471283
-0.6985867023468018,2.7713663578033447,0.3458417057991028
-0.7199174761772156,2.7741174697875977,0.3451612591743469
-0.7352347373962402,2.7542436122894287,0.34168970584869385
-0.7585212588310242,2.7642123699188232,0.3419370651245117
-0.7878863215446472,2.7965283393859863,0.3447597920894623
-1.7676386833190918,6.115646839141846,0.7512807846069336
-1.7943443059921265,6.051741123199463,0.7407689690589905
-1.8316552639007568,6.024837017059326,0.7348436713218689
-1.86095130443573,5.971664905548096,0.7257518768310547
-1.8930418491363525,5.929492473602295,0.7180271744728088
-1.9234658479690552,5.887590408325195,0.7099209427833557
-1.952789545059204,5.8416643142700195,0.7013481259346008
-1.9847880601882935,5.8068037033081055,0.694206953048706
-2.020171642303467,5.778695106506348,0.6878337264060974
-1.3509730100631714,3.7799758911132812,0.4479723870754242
-1.3768117427825928,3.77101731300354,0.44479668140411377
-1.400760293006897,3.7584316730499268,0.4410756528377533
-1.4278427362442017,3.752775192260742,0.4381454288959503
-1.4241544008255005,3.6672141551971436,0.4259355962276459
-1.4310986995697021,3.610640048980713,0.41716131567955017
-1.4531526565551758,3.5938303470611572,0.41297152638435364
-1.454981803894043,3.5305514335632324,0.40327930450439453
-1.4323508739471436,3.4099273681640625,0.3871282637119293
-1.4402821063995361,3.364750623703003,0.3796599805355072
-1.4591233730316162,3.3443009853363037,0.37497225403785706
-1.4728853702545166,3.3131518363952637,0.36910662055015564
-1.5013271570205688,3.317838430404663,0.3670271337032318
-1.5270315408706665,3.315059185028076,0.3640758991241455
-1.5363737344741821,3.2768354415893555,0.3572525680065155
-1.5525877475738525,3.2523763179779053,0.35190701484680176
-1.578492522239685,3.248946189880371,0.3488129675388336
-1.5965956449508667,3.231843948364258,0.34407341480255127
-1.6183876991271973,3.221417188644409,0.340017706155777
-1.65821373462677,3.245274305343628,0.3395087718963623
-1.6737669706344604,3.220198392868042,0.3338184952735901
-1.7028344869613647,3.2229788303375244,0.3309183418750763
-1.7369493246078491,3.2361156940460205,0.32896485924720764
-1.7621887922286987,3.2317609786987305,0.325186163187027
-1.1813188791275024,2.1305136680603027,0.21201539039611816
-2.5258305072784424,4.4825358390808105,0.44112950563430786
-2.539677381515503,4.439527988433838,0.4317367970943451
-2.5921313762664795,4.463861465454102,0.42890140414237976
-2.623239278793335,4.446343898773193,0.4216671288013458
-1.2493412494659424,2.083878993988037,0.19493772089481354
-1.2629038095474243,2.07601261138916,0.19144567847251892
-2.6775782108306885,4.338289737701416,0.3942872881889343
-2.7471251487731934,4.382894039154053,0.3920458257198334
-2.99051570892334,4.699840545654297,0.4135349690914154
-3.004338502883911,4.654735088348389,0.40241941809654236
-3.0520596504211426,4.661652088165283,0.3957664966583252
-3.054560899734497,4.595442771911621,0.3824805021286011
-3.0760304927825928,4.563089370727539,0.37198251485824585
-3.0765466690063477,4.502260684967041,0.359200656414032
-3.1039373874664307,4.474754810333252,0.34832334518432617
-3.142774820327759,4.467437744140625,0.33900994062423706
-2.849541425704956,3.9974098205566406,0.2953721284866333
-2.8725156784057617,3.9720513820648193,0.28477147221565247
-2.9377923011779785,4.00726318359375,0.2781899869441986
-2.914039373397827,3.9237115383148193,0.26324430108070374
-2.452256202697754,3.4579131603240967,-0.159465491771698
-2.4478440284729004,3.508269786834717,-0.1708899587392807
-2.40507173538208,3.499452590942383,-0.1787782609462738
-2.3242132663726807,3.436026096343994,-0.18361538648605347
-2.270268678665161,3.4106602668762207,-0.1899728775024414
-2.201288938522339,3.357572555541992,-0.19408059120178223
-2.1677091121673584,3.3603289127349854,-0.2012283205986023
-2.1344399452209473,3.3626222610473633,-0.20814840495586395
-2.1186604499816895,3.390531063079834,-0.2164260894060135
-1.2704217433929443,2.0666332244873047,-0.13578441739082336
-2.0603127479553223,3.407132148742676,-0.23010887205600739
-2.0363497734069824,3.4210386276245117,-0.2369842678308487
-2.0232160091400146,3.455477237701416,-0.24527786672115326
-2.0048725605010986,3.483652353286743,-0.25327858328819275
-1.2062013149261475,2.1302218437194824,-0.15828967094421387
-1.9248892068862915,3.4562976360321045,-0.26228657364845276
-1.9498624801635742,3.562215566635132,-0.275860995054245
-1.913067102432251,3.555079460144043,-0.2806774079799652
-1.7455540895462036,3.2994799613952637,-0.26540419459342957
-1.7180458307266235,3.3046460151672363,-0.2705349624156952
-1.6797118186950684,3.2888736724853516,-0.27388402819633484
-1.6127355098724365,3.2131805419921875,-0.271955668926239
-1.5832473039627075,3.2100045680999756,-0.2759997248649597
-1.5560272932052612,3.214184284210205,-0.2806167006492615
-1.530946969985962,3.2214457988739014,-0.2854245603084564
-1.5166378021240234,3.249264717102051,-0.29192280769348145
-2.306344509124756,5.032422065734863,-0.4583146274089813
-2.279547691345215,5.069554328918457,-0.4677125811576843
-2.2335190773010254,5.063797950744629,-0.4731719493865967
-2.1756885051727295,5.028916835784912,-0.4757910966873169
-2.222264289855957,5.236880779266357,-0.5014241337776184
-2.247164011001587,5.4029741287231445,-0.5232157111167908
-1.9042032957077026,4.672591209411621,-0.4575732350349426
-1.846904993057251,4.6237945556640625,-0.45767486095428467
-1.3632563352584839,3.484415292739868,-0.3486226797103882
-1.3507534265518188,3.5263469219207764,-0.35630786418914795
-1.7758878469467163,4.737051486968994,-0.48332756757736206
-2.042539358139038,5.566462993621826,-0.5733590126037598
-1.9667576551437378,5.477465629577637,-0.5694844126701355
-1.6180760860443115,4.610592842102051,-0.48362967371940613
-1.5926512479782104,4.643542289733887,-0.491247296333313
-1.5659253597259521,4.6725640296936035,-0.49846985936164856
-1.8681135177612305,5.70583963394165,-0.6137228012084961
-0.9760370850563049,3.053407669067383,-0.3310076892375946
-0.963119626045227,3.0897276401519775,-0.33747610449790955
-0.9196621775627136,3.025526523590088,-0.3329004943370819
-0.7759863138198853,2.618145704269409,-0.29015329480171204
-0.7609123587608337,2.6344027519226074,-0.2940468490123749
-0.7526957988739014,2.6768524646759033,-0.3006988763809204
-0.7439353466033936,2.7193007469177246,-0.30741724371910095
-0.7225021719932556,2.7167515754699707,-0.30909883975982666
-0.7142296433448792,2.7627899646759033,-0.316301554441452
-0.6768594980239868,2.6959221363067627,-0.3104414939880371
-0.6559638381004333,2.6928396224975586,-0.31176310777664185
-1.4853270053863525,6.28956413269043,-0.7321082949638367
-1.4362421035766602,6.280449867248535,-0.7350324988365173
-1.3772668838500977,6.221531867980957,-0.7320369482040405
-1.316307783126831,6.150883197784424,-0.7270443439483643
-1.262662649154663,6.110108375549316,-0.7255070805549622
-1.2008030414581299,6.0231852531433105,-0.718429446220398
-1.1339372396469116,5.905312538146973,-0.7076097726821899
-1.0835055112838745,5.863028526306152,-0.7055490612983704
-1.0293992757797241,5.797516822814941,-0.7002363801002502
-0.9547749161720276,5.605367660522461,-0.6795414090156555
-0.9506255388259888,5.8258490562438965,-0.7088930010795593
-0.9355789422988892,6.0006232261657715,-0.7329356670379639
-0.8976120352745056,6.033487796783447,-0.739311695098877
-0.860693633556366,6.077681064605713,-0.7468777298927307
-0.8139474391937256,6.052469253540039,-0.7459512948989868
-0.62137371301651,4.876878261566162,-0.6028265357017517
-0.7189980149269104,5.973978519439697,-0.7406306862831116
-0.673439621925354,5.951697826385498,-0.7395146489143372
-0.6277204751968384,5.917449474334717,-0.7368121147155762
-0.5833751559257507,5.890564918518066,-0.7350401878356934
-0.5384676456451416,5.8517632484436035,-0.7317934632301331
-0.49509409070014954,5.824224948883057,-0.7298965454101562
-0.4518537223339081,5.804234981536865,-0.7284038662910461
-0.24589823186397552,3.4718737602233887,-0.43631941080093384
-0.22221726179122925,3.4811336994171143,-0.43811893463134766
-0.19558827579021454,3.4399266242980957,-0.43358081579208374
-0.2819474935531616,5.6513285636901855,-0.7131820917129517
-0.24128763377666473,5.637609004974365,-0.711902379989624
-0.20103208720684052,5.611958026885986,-0.7091402411460876
-0.160857155919075,5.574399948120117,-0.7049014568328857
-0.1210835725069046,5.532683849334717,-0.7001640200614929
-0.08240211755037308,5.525605201721191,-0.6994830369949341
-0.04293496534228325,5.495049476623535,-0.6955596208572388
-0.0036741483490914106,4.371370315551758,-0.5533089637756348
0.027027500793337822,4.425543308258057,-0.5601768493652344
0.07067382335662842,5.4133734703063965,-0.6852608919143677
0.10764068365097046,5.381814956665039,-0.6808679103851318
0.11076012998819351,4.1103386878967285,-0.5196041464805603
0.17995575070381165,5.290857315063477,-0.668339729309082
0.21403080224990845,5.223728179931641,-0.6594074368476868
0.20227311551570892,4.219561576843262,-0.5323084592819214
0.2294219434261322,4.179479122161865,-0.5264716148376465
0.2572171986103058,4.158568859100342,-0.5230540037155151
0.2833860516548157,4.110372066497803,-0.516228437423706
0.3148673474788666,4.147075653076172,-0.5201051235198975
0.34653815627098083,4.179686546325684,-0.5234147906303406
0.3681800067424774,4.0962934494018555,-0.5118234157562256
0.3939163386821747,4.0668158531188965,-0.5070233345031738
0.4210369884967804,4.048688888549805,-0.5036521553993225
0.4500513970851898,4.053544521331787,-0.503183901309967
0.4772864282131195,4.042817115783691,-0.5006431937217712
0.5043047666549683,4.031952857971191,-0.49781614542007446
0.6424112915992737,4.862760543823242,-0.5986329913139343
0.6757240891456604,4.8506975173950195,-0.5953797698020935
0.7094599604606628,4.846156597137451,-0.5931107997894287
0.7371482849121094,4.803104877471924,-0.585865318775177
0.7703701853752136,4.798223972320557,-0.5831051468849182
0.7996723651885986,4.770166873931885,-0.5775690674781799
0.8422554731369019,4.818305492401123,-0.5812553763389587
0.8805493116378784,4.8354573249816895,-0.5811630487442017
0.9096654057502747,4.8067626953125,-0.5752058625221252
0.9383471012115479,4.777915000915527,-0.5692158937454224
0.9652419090270996,4.741268634796143,-0.5623432993888855
0.9998714327812195,4.742405414581299,-0.5599765181541443
1.025946855545044,4.701490879058838,-0.5525696277618408
1.0566436052322388,4.687163829803467,-0.5479892492294312
1.083634853363037,4.657519340515137,-0.5416660904884338
1.117775797843933,4.657857894897461,-0.5388416647911072
1.1446665525436401,4.627760887145996,-0.5325184464454651
1.175341248512268,4.612508773803711,-0.5276891589164734
1.2031726837158203,4.589740753173828,-0.5218845009803772
1.2317192554473877,4.570560455322266,-0.5165346264839172
1.2594213485717773,4.5473527908325195,-0.5107322335243225
1.2889840602874756,4.5314459800720215,-0.5057904720306396
1.3141266107559204,4.5004448890686035,-0.4988175630569458
1.3427801132202148,4.484358787536621,-0.4935685992240906
1.3692744970321655,4.460576057434082,-0.48748165369033813
1.4027431011199951,4.458800792694092,-0.48380160331726074
1.4313136339187622,4.442047119140625,-0.47838735580444336
1.4562349319458008,4.414007186889648,-0.4715239405632019
1.4815670251846313,4.389674186706543,-0.4651714861392975
1.507104754447937,4.365038871765137,-0.4587756395339966
1.269640326499939,3.596104860305786,-0.37484461069107056
1.2784051895141602,3.543875217437744,-0.3661121726036072
1.3106719255447388,3.5573713779449463,-0.3641892075538635
1.616593837738037,4.2945637702941895,-0.435528039932251
1.6410224437713623,4.269150733947754,-0.42887935042381287
1.670454978942871,4.258250713348389,-0.4235750436782837
1.6994999647140503,4.247278690338135,-0.4181670844554901
1.7242485284805298,4.225222587585449,-0.41167059540748596
1.7483017444610596,4.199018478393555,-0.4046628773212433
1.7713291645050049,4.1729865074157715,-0.3977317810058594
1.7965950965881348,4.15423059463501,-0.39138442277908325
1.8216850757598877,4.135315895080566,-0.3850559890270233
1.8538020849227905,4.130093097686768,-0.3798860013484955
1.8765864372253418,4.1032185554504395,-0.37264347076416016
1.9010653495788574,4.083884239196777,-0.3660607635974884
1.9320616722106934,4.078461647033691,-0.36073681712150574
1.9537123441696167,4.051386833190918,-0.3533845543861389
1.9784636497497559,4.031214237213135,-0.3466516435146332
2.009566068649292,4.025051116943359,-0.3409048318862915
2.027817726135254,3.9945790767669678,-0.3332251310348511
2.048597574234009,3.966966152191162,-0.32563677430152893
2.072500705718994,3.9462568759918213,-0.31862950325012207
2.1026248931884766,3.939645528793335,-0.31268754601478577
2.132951259613037,3.932694673538208,-0.3066723644733429
2.1459405422210693,3.8905863761901855,-0.29765400290489197
2.132568836212158,3.804877281188965,-0.28551989793777466
2.1579952239990234,3.791011095046997,-0.2788425385951996
2.191711902618408,3.790142297744751,-0.27298399806022644
2.20238995552063,3.7483127117156982,-0.2640798091888428
2.227792263031006,3.7337653636932373,-0.25699546933174133
2.260622501373291,3.7327048778533936,-0.2509167790412903
2.2826125621795654,3.710634231567383,-0.24310077726840973
2.303654193878174,3.688890218734741,-0.23531842231750488
2.3362362384796143,3.687290906906128,-0.228797048330307
2.3577933311462402,3.6647491455078125,-0.2205594927072525
2.3615949153900146,3.6162526607513428,-0.2108379602432251
2.4153056144714355,3.6467528343200684,-0.20569708943367004
2.4096593856811523,3.5852975845336914,-0.19506318867206573
2.443026542663574,3.5819995403289795,-0.18746471405029297
2.4843127727508545,3.5919530391693115,-0.18034780025482178
2.481996536254883,3.5369153022766113,-0.16967886686325073
2.505660057067871,3.5206077098846436,-0.1608012318611145
2.523634195327759,3.4985191822052,-0.15164737403392792
2.5526890754699707,3.4874658584594727,-0.14222590625286102
2.174720287322998,2.932176351547241,-0.11201591789722443
2.7937023639678955,3.9190852642059326,0.267225980758667
2.752368927001953,3.9189910888671875,0.2756470739841461
2.7315690517425537,3.951807975769043,0.2861846685409546
2.679215669631958,3.9397366046905518,0.2932293713092804
2.673093557357788,3.990255355834961,0.30428963899612427
2.651272773742676,4.0228095054626465,0.3139187693595886
2.6242270469665527,4.049117088317871,0.3230655789375305
2.595705032348633,4.066831588745117,0.3308907747268677
2.5448105335235596,4.052297115325928,0.33591338992118835
2.534212827682495,4.104154586791992,0.3463745415210724
2.504833221435547,4.1215386390686035,0.3535883128643036
2.4829490184783936,4.15230131149292,0.36196261644363403
2.4612529277801514,4.187189102172852,0.3704506754875183
2.4201457500457764,4.187992095947266,0.37586510181427
2.394543170928955,4.211060047149658,0.3829590976238251
2.3566055297851562,4.213985919952393,0.38812723755836487
2.2737183570861816,4.1391496658325195,0.38594505190849304
2.2505807876586914,4.168914318084717,0.39327558875083923
2.2140119075775146,4.170284748077393,0.3977293074131012
2.19677472114563,4.209600925445557,0.40574225783348083
2.1636030673980713,4.2218337059021,0.4109853506088257
2.1334662437438965,4.240947246551514,0.416972815990448
2.1071267127990723,4.2622599601745605,0.42292046546936035
2.08059024810791,4.283404350280762,0.4288848042488098
2.045513153076172,4.291141986846924,0.4332241117954254
2.017000675201416,4.312697887420654,0.4389777183532715
1.9860748052597046,4.326528549194336,0.4438580274581909
1.9712060689926147,4.375513076782227,0.45237553119659424
1.9965060949325562,4.517031669616699,0.4704144299030304
