X,Y,Z
-2.5616660118103027,5.592019081115723,0.9426754117012024
-2.6071789264678955,5.593722343444824,0.9369068145751953
-2.6197738647460938,5.525234699249268,0.9194535613059998
-2.636162757873535,5.463203430175781,0.9030218124389648
-2.6865932941436768,5.4702301025390625,0.8979564905166626
-2.6922309398651123,5.386962413787842,0.8781567811965942
-4.864211559295654,9.575822830200195,1.5490249395370483
-4.942104816436768,9.57339859008789,1.536635398864746
-5.064725399017334,9.651866912841797,1.5368573665618896
-2.8148300647735596,5.273214817047119,0.8324974775314331
-1.1701653003692627,2.1564230918884277,0.3375130891799927
-1.1769667863845825,2.1357154846191406,0.3311823606491089
-2.5145533084869385,4.493527889251709,0.6902913451194763
-2.545823335647583,4.477314472198486,0.6809622645378113
-2.5373783111572266,4.38985538482666,0.6606999039649963
-1.207962155342102,2.058389902114868,0.30642712116241455
-1.241355061531067,2.084338903427124,0.30679357051849365
-2.9140701293945312,4.819870948791504,0.7010930776596069
-2.936068296432495,4.780888557434082,0.6867286562919617
-2.9917874336242676,4.798261642456055,0.6800577640533447
-3.023115396499634,4.78024959564209,0.6682572364807129
-3.0490119457244873,4.751640319824219,0.6547333598136902
-3.036109685897827,4.66005277633667,0.6322193741798401
-3.060964822769165,4.631525993347168,0.6181889772415161
-3.0828089714050293,4.600051403045654,0.6034867763519287
-3.0882318019866943,4.541916370391846,0.5849642753601074
-3.1114439964294434,4.508950233459473,0.5694587826728821
-2.9532034397125244,4.2231316566467285,0.5224080085754395
-2.877592086791992,4.059329032897949,0.4912354052066803
-2.893399477005005,4.021088600158691,0.4746134877204895
-2.9285225868225098,4.016506195068359,0.46192190051078796
-2.9454433917999268,3.9864389896392822,0.44591766595840454
-2.9630181789398193,4.149768352508545,-0.2564367651939392
-2.444849729537964,3.478422164916992,-0.2285965383052826
-2.884049654006958,4.164913177490234,-0.28887853026390076
-2.856426239013672,4.192168235778809,-0.30593976378440857
-2.847543478012085,4.244055271148682,-0.32418254017829895
-2.812403678894043,4.2568769454956055,-0.3391615152359009
-2.824063301086426,4.345785617828369,-0.3606746196746826
-2.771796941757202,4.3318681716918945,-0.37279146909713745
-1.2684110403060913,2.013800621032715,-0.17935200035572052
-1.259379506111145,2.0326006412506104,-0.18708273768424988
-1.2487952709197998,2.0476365089416504,-0.1942533552646637
-2.087015390396118,3.4779860973358154,-0.3397420346736908
-2.0610079765319824,3.492374897003174,-0.35072430968284607
-2.6314444541931152,4.532430171966553,-0.46718573570251465
-2.6224019527435303,4.5900983810424805,-0.48494458198547363
-2.588423013687134,4.607896327972412,-0.49852320551872253
-2.5632383823394775,4.64267110824585,-0.5141330361366272
-2.545060157775879,4.686616897583008,-0.5302760601043701
-2.51847505569458,4.717089653015137,-0.5449517369270325
-2.4945003986358643,4.754623889923096,-0.5604877471923828
-2.4655091762542725,4.781305313110352,-0.5746071934700012
-2.4415457248687744,4.818158149719238,-0.5900399684906006
-2.416773796081543,4.855104923248291,-0.6052731275558472
-2.384629964828491,4.878024578094482,-0.6188147068023682
-1.595718502998352,3.3228092193603516,-0.4285752773284912
-1.5721005201339722,3.3329687118530273,-0.4368947744369507
-1.5445599555969238,3.336195230484009,-0.444151908159256
-1.513468861579895,3.332278251647949,-0.45054298639297485
-1.4787756204605103,3.3170583248138428,-0.4550706446170807
-1.01720130443573,2.3252956867218018,-0.32358017563819885
-1.000331997871399,2.331850528717041,-0.3289544880390167
-0.9714381694793701,2.3097012042999268,-0.3302335739135742
-0.9371240139007568,2.272906541824341,-0.3292698860168457
-0.944174587726593,2.336184501647949,-0.34273311495780945
-0.9301997423171997,2.3493661880493164,-0.34884384274482727
-0.9105028510093689,2.348020076751709,-0.35281115770339966
-0.8993812203407288,2.3681094646453857,-0.3599622845649719
-0.8944064974784851,2.4063808917999268,-0.3700104355812073
-0.8823790550231934,2.4265239238739014,-0.37712937593460083
-0.867533266544342,2.439312696456909,-0.38315677642822266
-0.8528537154197693,2.451906681060791,-0.389126181602478
-0.8380278944969177,2.4644060134887695,-0.3951130211353302
-0.829858660697937,2.498983383178711,-0.404531329870224
-0.8155784010887146,2.5151007175445557,-0.4109806716442108
-0.7978026866912842,2.52003812789917,-0.41560035943984985
-0.7868656516075134,2.546947479248047,-0.4238896667957306
-0.7709833383560181,2.5591206550598145,-0.42953988909721375
-0.7614350914955139,2.593402862548828,-0.43893200159072876
-0.7427802681922913,2.5980477333068848,-0.4434066116809845
-0.7482792735099792,2.687840700149536,-0.4624732434749603
-0.7252655625343323,2.6774349212646484,-0.4642082452774048
-0.7170924544334412,2.7227492332458496,-0.47551682591438293
-0.7112182378768921,2.7792344093322754,-0.4889107048511505
-0.7414630055427551,2.9852333068847656,-0.528999388217926
-0.72137850522995,2.993321180343628,-0.5341034531593323
-0.6993570923805237,2.9938485622406006,-0.5375844836235046
-0.687548816204071,3.039236307144165,-0.5491902828216553
-0.6629829406738281,3.0281882286071777,-0.5506250858306885
-0.775882363319397,3.6678197383880615,-0.6711868643760681
-0.7354687452316284,3.600799322128296,-0.6624850034713745
-0.5675233602523804,2.881042003631592,-0.5329240560531616
-0.5516097545623779,2.906956195831299,-0.5406188368797302
-0.5326448082923889,2.917649030685425,-0.5455331206321716
-0.5164543390274048,2.94724702835083,-0.5537760853767395
-0.49577873945236206,2.950221061706543,-0.5568287968635559
-0.48242777585983276,2.9985337257385254,-0.5685020685195923
-0.46497008204460144,3.0240092277526855,-0.5759261250495911
-0.44661200046539307,3.0456042289733887,-0.582535445690155
-0.42597660422325134,3.0558013916015625,-0.5866404175758362
-0.39905309677124023,3.016364574432373,-0.5811846256256104
-0.3823043406009674,3.052837610244751,-0.5903712511062622
-0.36101487278938293,3.054927110671997,-0.5929614305496216
-0.3388470709323883,3.0493409633636475,-0.5935714244842529
-0.3171451687812805,3.0474257469177246,-0.5948458313941956
-0.2966383993625641,3.0606465339660645,-0.5991342067718506
-0.27013564109802246,3.0049710273742676,-0.5899118781089783
-0.24539269506931305,2.9606051445007324,-0.582589328289032
-0.2221468836069107,2.927574872970581,-0.5771843791007996
-0.1980343610048294,2.875255823135376,-0.5679723024368286
-0.17910651862621307,2.899266242980957,-0.573870837688446
-0.15850718319416046,2.892534017562866,-0.573645830154419
-0.13836555182933807,2.8934147357940674,-0.5744149088859558
-0.11712470650672913,2.8673574924468994,-0.5698580741882324
-0.09785441309213638,2.8870961666107178,-0.5744273662567139
-0.0764983519911766,2.8530941009521484,-0.568341076374054
-0.05653154104948044,2.8458240032196045,-0.5671762228012085
-0.03657126426696777,2.83078932762146,-0.5643054246902466
-0.016846608370542526,2.823276996612549,-0.5629605650901794
0.0028227525763213634,2.823289394378662,-0.563143253326416
0.022879816591739655,2.830855369567871,-0.5646941661834717
0.0423530712723732,2.815382480621338,-0.5612550377845764
0.062286313623189926,2.830415725708008,-0.5639247894287109
0.08194362372159958,2.829991579055786,-0.5635409951210022
0.10159803181886673,2.829430341720581,-0.5631572008132935
0.12189646810293198,2.8441436290740967,-0.5653209090232849
0.14198973774909973,2.843405246734619,-0.5643438100814819
0.16133755445480347,2.834887981414795,-0.561864972114563
0.1820397675037384,2.849184274673462,-0.5639330148696899
0.2029666006565094,2.863382339477539,-0.5657229423522949
0.22439327836036682,2.881310224533081,-0.5679473876953125
0.2473873645067215,2.9105167388916016,-0.5723786354064941
0.2683151364326477,2.9166696071624756,-0.5723114013671875
0.28933918476104736,2.922680139541626,-0.572197437286377
0.31287115812301636,2.951521873474121,-0.5760266184806824
0.3346639573574066,2.961127758026123,-0.5761038661003113
0.3556425869464874,2.959108829498291,-0.5739052891731262
0.38108816742897034,2.9950344562530518,-0.5791029334068298
0.40703439712524414,3.0308313369750977,-0.5838698744773865
0.4329753518104553,3.062654733657837,-0.5876544117927551
0.4565606415271759,3.0752882957458496,-0.5877476930618286
0.4831077456474304,3.1028637886047363,-0.5906477570533752
0.5090540647506714,3.126518964767456,-0.5926688313484192
0.5411355495452881,3.1841189861297607,-0.6006750464439392
0.567990779876709,3.207404851913452,-0.6021609902381897
0.5987761616706848,3.2493529319763184,-0.6071022152900696
0.6352086663246155,3.317462921142578,-0.6168591380119324
0.6714949607849121,3.3777353763580322,-0.6244977116584778
0.7043346762657166,3.4189443588256836,-0.6285342574119568
0.7434471249580383,3.4861881732940674,-0.6372579336166382
0.776131272315979,3.519263744354248,-0.6396452784538269
0.8152076601982117,3.578390121459961,-0.6463972926139832
0.855562686920166,3.6371288299560547,-0.6526235938072205
0.9018115401268005,3.7180278301239014,-0.6627505421638489
0.9689185619354248,3.8769068717956543,-0.6865003705024719
1.0075829029083252,3.915778636932373,-0.6886729001998901
1.0594829320907593,4.002837181091309,-0.6987338662147522
1.1111444234848022,4.08184289932251,-0.7070906758308411
1.1792004108428955,4.216103553771973,-0.7248191237449646
1.2311345338821411,4.286678314208984,-0.7313416600227356
1.2860729694366455,4.36430025100708,-0.738402247428894
1.3354583978652954,4.419257640838623,-0.7413814067840576
1.3737801313400269,4.433043003082275,-0.7372321486473083
1.402617335319519,4.417194843292236,-0.7282516360282898
1.4275133609771729,4.390242576599121,-0.7172126770019531
1.4580610990524292,4.38152551651001,-0.7090179324150085
1.4861927032470703,4.365232467651367,-0.6996139883995056
1.5042256116867065,4.319486141204834,-0.6855421662330627
1.2264498472213745,3.443621873855591,-0.5409460663795471
1.2583097219467163,3.457876205444336,-0.5374481081962585
1.2971830368041992,3.4899659156799316,-0.5366396903991699
1.3203985691070557,3.478201150894165,-0.5289807319641113
1.3448102474212646,3.469916820526123,-0.5218403339385986
1.3664339780807495,3.454258680343628,-0.5132782459259033
1.3903471231460571,3.445789098739624,-0.5059368014335632
1.4117027521133423,3.429816246032715,-0.49741706252098083
1.4298714399337769,3.406566858291626,-0.48789182305336
1.4564659595489502,3.4047999382019043,-0.48124998807907104
1.4804106950759888,3.3955540657043457,-0.47344985604286194
1.4948971271514893,3.364853620529175,-0.46270951628685
1.5186213254928589,3.3552775382995605,-0.4549277424812317
1.5417249202728271,3.345795154571533,-0.44698500633239746
1.5466668605804443,3.297499418258667,-0.43394872546195984
1.5886986255645752,3.3258895874023438,-0.4307585656642914
1.9481487274169922,4.006688117980957,-0.5106715559959412
1.9790877103805542,4.0014262199401855,-0.5015489459037781
2.003056526184082,3.982036590576172,-0.4906793236732483
2.0347180366516113,3.9759395122528076,-0.48122310638427734
2.059033155441284,3.9558870792388916,-0.47006258368492126
2.0901899337768555,3.9495561122894287,-0.460284024477005
2.06396222114563,3.837008237838745,-0.4384596645832062
2.094776153564453,3.830326557159424,-0.42873385548591614
2.160979747772217,3.8882389068603516,-0.4260161817073822
2.1433746814727783,3.7967329025268555,-0.4069214463233948
2.1701815128326416,3.7826383113861084,-0.3959539830684662
2.1969048976898193,3.7683184146881104,-0.3849743902683258
2.210575819015503,3.7343122959136963,-0.37198737263679504
2.2358224391937256,3.720329523086548,-0.36104947328567505
2.2742416858673096,3.7254645824432373,-0.35150954127311707
2.2838990688323975,3.6840286254882812,-0.33742135763168335
2.3043906688690186,3.663072347640991,-0.3254629075527191
2.3466246128082275,3.6742358207702637,-0.3159174621105194
2.3383848667144775,3.606417179107666,-0.29948392510414124
2.37949800491333,3.6177759170532227,-0.28970932960510254
2.417710065841675,3.621497869491577,-0.2786673605442047
2.4299330711364746,3.5860443115234375,-0.2644878625869751
2.44907283782959,3.5644516944885254,-0.2514341175556183
2.4956488609313965,3.580549955368042,-0.24053239822387695
2.493398666381836,3.5258231163024902,-0.22450096905231476
2.516660690307617,3.5101020336151123,-0.21088077127933502
2.5683863162994385,3.531337022781372,-0.19877295196056366
2.2352778911590576,3.0311193466186523,-0.15878848731517792
2.7874109745025635,3.9476382732391357,0.509918212890625
2.7425954341888428,3.948598861694336,0.5225211381912231
2.7295331954956055,3.988797187805176,0.5391179919242859
2.687486171722412,3.991999387741089,0.5507048964500427
2.6600184440612793,4.017792224884033,0.5650744438171387
2.6268608570098877,4.028565883636475,0.5763425230979919
2.6075398921966553,4.062414646148682,0.5907840132713318
2.58809757232666,4.1006011962890625,0.6056758761405945
2.548586130142212,4.105301380157471,0.6154364943504333
2.5152382850646973,4.115095138549805,0.6253573298454285
2.4921863079071045,4.145541191101074,0.6381382942199707
2.4679880142211914,4.17633581161499,0.6509160399436951
2.4528238773345947,4.219513893127441,0.6653414964675903
2.4145402908325195,4.222116470336914,0.6733198761940002
2.401855945587158,4.272220134735107,0.6884715557098389
2.342982053756714,4.241477966308594,0.6904592514038086
2.2654569149017334,4.172220230102539,0.6857800483703613
2.235736846923828,4.186779022216797,0.6945310831069946
2.2118313312530518,4.215461254119873,0.7055810689926147
2.1869218349456787,4.244412899017334,0.7163240313529968
2.1512694358825684,4.2525129318237305,0.7235916256904602
2.1314616203308105,4.287017822265625,0.7350243330001831
2.1078414916992188,4.314509868621826,0.7453428506851196
2.0686919689178467,4.314960956573486,0.7506934404373169
2.0511536598205566,4.360417366027832,0.7637115716934204
2.004345417022705,4.342617034912109,0.7656314373016357
1.984731674194336,4.380012512207031,0.7770991325378418
2.0085527896881104,4.515955924987793,0.8062547445297241
1.992180585861206,4.5682501792907715,0.8201843500137329
1.97271728515625,4.617349624633789,0.8336548209190369
1.9208117723464966,4.587850570678711,0.8328522443771362
1.8913841247558594,4.607193946838379,0.840726912021637
1.8761085271835327,4.662078857421875,0.8551823496818542
1.845092535018921,4.6815595626831055,0.8628110289573669
1.8155460357666016,4.708449840545654,0.8717198371887207
1.7835862636566162,4.727734088897705,0.8792188763618469
1.3661365509033203,3.6996536254882812,0.6910139322280884
1.3374896049499512,3.701066255569458,0.6942579746246338
1.3035138845443726,3.6878557205200195,0.6946709156036377
1.2672826051712036,3.671203136444092,0.694084882736206
2.973310708999634,8.820080757141113,1.673630714416504
2.919109582901001,8.86868953704834,1.688969373703003
2.842658281326294,8.843246459960938,1.6901073455810547
2.782810688018799,8.868501663208008,1.7009940147399902
2.703672409057617,8.838994979858398,1.7008715867996216
2.6538479328155518,8.904592514038086,1.7184492349624634
1.4567612409591675,5.0197672843933105,0.9715750217437744
1.442779779434204,5.10674524307251,0.9912937879562378
1.4070148468017578,5.11581563949585,0.9959228038787842
1.311661720275879,4.902144908905029,0.957111656665802
1.281895399093628,4.933004379272461,0.9655916094779968
1.2482115030288696,4.9487996101379395,0.9708871841430664
1.2180665731430054,4.9792561531066895,0.9791195392608643
1.1843867301940918,4.994510650634766,0.9844022989273071
1.157216191291809,5.03556489944458,0.9947956800460815
1.1297013759613037,5.080346584320068,1.006050944328308
1.0921498537063599,5.080023765563965,1.0080093145370483
1.054278016090393,5.079563617706299,1.0096583366394043
1.0239351987838745,5.116425037384033,1.0187880992889404
0.9897756576538086,5.134230613708496,1.0241756439208984
1.5864386558532715,8.554950714111328,1.7096929550170898
1.5267435312271118,8.564777374267578,1.7148306369781494
0.35598793625831604,2.0812551975250244,0.41741275787353516
1.4007556438446045,8.553461074829102,1.7175523042678833
1.3352882862091064,8.532106399536133,1.7154265642166138
1.2707374095916748,8.521783828735352,1.7156360149383545
1.2069017887115479,8.4993257522583,1.7133960723876953
1.144465684890747,8.483989715576172,1.7126609086990356
1.09016752243042,8.528973579406738,1.7241865396499634
1.0203735828399658,8.456027030944824,1.7108772993087769
0.9653030037879944,8.504341125488281,1.7220515012741089
0.9025545716285706,8.495267868041992,1.7217200994491577
0.4277101159095764,4.313292980194092,0.8749558329582214
0.39523783326148987,4.289200782775879,0.8708881139755249
0.36766859889030457,4.318277359008789,0.8776580095291138
0.3375782072544098,4.3205060958862305,0.8787760138511658
0.3048287034034729,4.2959184646606445,0.8741111755371094
0.2778720259666443,4.34745979309082,0.8849763870239258
0.32194364070892334,5.660004138946533,1.1527082920074463
0.282957524061203,5.669551372528076,1.1552528142929077
0.2454962581396103,5.71707010269165,1.1655964851379395
0.20706914365291595,5.775834083557129,1.1783156394958496
0.16634634137153625,5.761762619018555,1.1755427122116089
0.12790073454380035,5.843095779418945,1.192154884338379
0.08735817670822144,5.859109401702881,1.1954983472824097
0.046355538070201874,5.844221591949463,1.1925950050354004
0.005029527470469475,5.832876205444336,1.190474510192871
-0.0516134575009346,8.488835334777832,1.7329117059707642
-0.11072482913732529,8.495912551879883,1.7345384359359741
-0.16987884044647217,8.502767562866211,1.7352405786514282
-0.2277994453907013,8.463299751281738,1.726575493812561
-0.28877606987953186,8.52672004699707,1.7389813661575317
-0.3388931155204773,8.276055335998535,1.6874171495437622
-0.1725403517484665,3.6015713214874268,0.7341761589050293
-0.19713211059570312,3.5927162170410156,0.7322531938552856
-0.22341714799404144,3.614321708679199,0.7362733483314514
-0.43032902479171753,6.259500980377197,1.274154782295227
-0.4791957139968872,6.321526050567627,1.2858487367630005
-0.5229270458221436,6.318363666534424,1.2843492031097412
-0.5706202983856201,6.356827259063721,1.2913633584976196
-0.6154812574386597,6.360641956329346,1.291396141052246
-0.6676105260848999,6.432687759399414,1.3053339719772339
-0.7139339447021484,6.439763069152832,1.305214762687683
-0.7568127512931824,6.4237847328186035,1.30049729347229
-0.7943616509437561,6.365705966949463,1.2873302698135376
-0.8319342732429504,6.31117057800293,1.2749543190002441
-0.8706548810005188,6.267760276794434,1.264897108078003
-0.915056586265564,6.261921405792236,1.2624720335006714
-0.9671067595481873,6.3127946853637695,1.2711443901062012
-1.015217900276184,6.336935043334961,1.273980736732483
-1.0650403499603271,6.368263244628906,1.2782976627349854
-1.1199465990066528,6.425638198852539,1.2878718376159668
-1.1735337972640991,6.467386722564697,1.2943167686462402
-1.2278459072113037,6.5048017501831055,1.2998967170715332
-1.2841522693634033,6.553208827972412,1.3077411651611328
-1.3410379886627197,6.605262756347656,1.3154417276382446
-1.394744634628296,6.638095855712891,1.319328784942627
-1.4416344165802002,6.636783123016357,1.3164712190628052
-1.4739868640899658,6.563752174377441,1.2993946075439453
-1.51455819606781,6.531757831573486,1.2905592918395996
-0.6702758073806763,2.8020272254943848,0.5525814890861511
-0.6876400113105774,2.790329933166504,0.5490054488182068
-0.7047351002693176,2.77858304977417,0.54531329870224
-0.7239659428596497,2.774078845977783,0.5430483222007751
-0.7449789047241211,2.7768983840942383,0.5422520041465759
-0.7715240716934204,2.797975540161133,0.5450055599212646
-1.7485265731811523,6.1733317375183105,1.1995195150375366
-1.7835801839828491,6.136364459991455,1.189063549041748
-1.8149017095565796,6.088254451751709,1.1760104894638062
-1.8471969366073608,6.047527313232422,1.1645400524139404
-1.8781241178512573,6.002890110015869,1.1523857116699219
-1.908468246459961,5.954109191894531,1.13943612575531
-1.9429517984390259,5.919807434082031,1.129353404045105
-1.9734654426574707,5.874415874481201,1.116830587387085
-2.0006747245788574,5.825802326202393,1.1034244298934937
-2.02864670753479,5.780679702758789,1.090773105621338
-2.0603365898132324,5.746176242828369,1.0801782608032227
-2.0926225185394287,5.711167812347412,1.0694700479507446
-2.121819019317627,5.668766498565674,1.0574661493301392
-2.1543264389038086,5.6372175216674805,1.0470352172851562
-2.1992123126983643,5.641855716705322,1.0431649684906006
-2.265587568283081,5.69981575012207,1.049126148223877
-2.3266584873199463,5.738924503326416,1.0514318943023682
-2.3581862449645996,5.702450275421143,1.0398253202438354
-2.3794801235198975,5.6407036781311035,1.0236101150512695
-2.42341947555542,5.640233039855957,1.0179704427719116
-2.4937734603881836,5.69943380355835,1.0230520963668823
-2.5259640216827393,5.669862270355225,1.0121634006500244
-4.071972846984863,8.97178840637207,1.5924221277236938
-4.192990303039551,9.067331314086914,1.599949598312378
-4.298951148986816,9.135411262512207,1.6018685102462769
-4.3816728591918945,9.154305458068848,1.5947304964065552
-2.6606526374816895,5.4660210609436035,0.9459772109985352
-4.585820198059082,9.25777816772461,1.5911115407943726
-4.683528423309326,9.289478302001953,1.5852091312408447
-4.7766571044921875,9.318655014038086,1.5782910585403442
-2.7914164066314697,5.35923433303833,0.9005887508392334
-4.96537446975708,9.383010864257812,1.5643233060836792
-1.1393468379974365,2.1172566413879395,0.3499928414821625
-1.1859060525894165,2.1674704551696777,0.3552221357822418
-5.30266809463501,9.539362907409668,1.5486952066421509
-2.5099151134490967,4.4470038414001465,0.7151203751564026
-2.5439560413360596,4.438067436218262,0.7066736817359924
-5.610588073730469,9.63223934173584,1.5178166627883911
-1.2339987754821777,2.0859222412109375,0.3251611888408661
-1.2399832010269165,2.065086841583252,0.318181574344635
-2.934462547302246,4.816488265991211,0.733504593372345
-2.9808435440063477,4.817131519317627,0.7243110537528992
-2.996046543121338,4.768376350402832,0.7076596617698669
-3.006288766860962,4.717843532562256,0.6904931664466858
-3.0376486778259277,4.699540138244629,0.6779462695121765
-3.045586109161377,4.640745639801025,0.6589663624763489
-3.0454864501953125,4.572930812835693,0.6387823820114136
-3.079456329345703,4.561354160308838,0.6262669563293457
-3.110057830810547,4.542440414428711,0.6123639941215515
-3.1563327312469482,4.540833473205566,0.5998356938362122
-2.854921817779541,4.052003860473633,0.5240995287895203
-6.730508804321289,9.427205085754395,1.1929521560668945
-2.918898105621338,4.02899694442749,0.49720919132232666
-2.9502205848693848,4.017611026763916,0.4828926622867584
-2.957152843475342,3.975597620010376,0.4648039638996124
-2.4579877853393555,3.4692368507385254,-0.22728174924850464
-2.4539737701416016,3.5187110900878906,-0.24458351731300354
-2.881526470184326,4.19387674331665,-0.3070894777774811
-2.835700511932373,4.195498943328857,-0.3229321837425232
-2.8459882736206055,4.276490211486816,-0.34408095479011536
-2.815107822418213,4.295574188232422,-0.36002299189567566
-2.7910115718841553,4.328455924987793,-0.37718185782432556
-2.776343584060669,4.373468399047852,-0.39491742849349976
-1.3040292263031006,2.087153911590576,-0.1949964463710785
-1.2679569721221924,2.063020706176758,-0.19903025031089783
-2.1271812915802,3.51688814163208,-0.3496016263961792
-2.0662221908569336,3.4706294536590576,-0.3548910915851593
-2.65159010887146,4.528860092163086,-0.47587400674819946
-2.625419855117798,4.560479164123535,-0.4920133054256439
-1.203490972518921,2.1246795654296875,-0.23487931489944458
-2.576239585876465,4.625435829162598,-0.5235047340393066
-2.549274444580078,4.656468868255615,-0.5391924977302551
-2.5270941257476807,4.6934494972229,-0.5551825761795044
-2.5038111209869385,4.730649948120117,-0.5714429616928101
-2.4797744750976562,4.767922401428223,-0.5875130891799927
-2.450359344482422,4.79451847076416,-0.60225909948349
-2.4301819801330566,4.837879180908203,-0.6189706921577454
-2.402039051055908,4.867527961730957,-0.6339506506919861
-1.5996829271316528,3.3022334575653076,-0.43772363662719727
-1.5826011896133423,3.326474905014038,-0.448324978351593
-1.537689447402954,3.290764093399048,-0.45069512724876404
-1.5187411308288574,3.3111889362335205,-0.46056339144706726
-1.0223987102508545,2.2716786861419678,-0.32079190015792847
-0.9999100565910339,2.2639410495758057,-0.3244011104106903
-0.9897187948226929,2.2844862937927246,-0.3321309983730316
-0.9732022285461426,2.290769338607788,-0.3376147747039795
-0.9536126255989075,2.2898013591766357,-0.34202152490615845
-0.949000895023346,2.3243730068206787,-0.3517151474952698
-0.9411343932151794,2.3517580032348633,-0.36041828989982605
-0.9182772040367126,2.3433470726013184,-0.36356693506240845
-0.9069086313247681,2.363518476486206,-0.37107911705970764
-0.8969119787216187,2.387158155441284,-0.37914809584617615
-0.8800072073936462,2.392608880996704,-0.38436681032180786
-0.8707237243652344,2.4198267459869385,-0.3929465115070343
-0.8581829071044922,2.439838409423828,-0.40047600865364075
-0.8458828330039978,2.4596307277679443,-0.40792354941368103
-0.8309746980667114,2.472010850906372,-0.41417771577835083
-0.8181993961334229,2.491692543029785,-0.42152366042137146
-0.8086560368537903,2.5223443508148193,-0.43073222041130066
-0.804238498210907,2.5714142322540283,-0.4432709813117981
-0.8310492634773254,2.723599433898926,-0.4738224148750305
-0.799640417098999,2.6879324913024902,-0.4717088043689728
-0.7719180583953857,2.6631217002868652,-0.4712556302547455
-0.7488301992416382,2.652871608734131,-0.4733254015445709
-0.7342212200164795,2.6720879077911377,-0.48064741492271423
-0.7150471806526184,2.676443338394165,-0.4852989614009857
-0.7086545825004578,2.729053258895874,-0.4984550476074219
-0.7401303052902222,2.934544324874878,-0.5398873090744019
-0.72864830493927,2.9761476516723633,-0.5514864325523376
-0.7121984958648682,2.999002456665039,-0.5597061514854431
-0.6906936764717102,3.003207206726074,-0.5640937685966492
-0.6761839985847473,3.0371859073638916,-0.5740805268287659
-0.6653867959976196,3.089836597442627,-0.5876990556716919
-0.6757832765579224,3.247699737548828,-0.6216000914573669
-0.5947920680046082,2.9617671966552734,-0.5700687170028687
-0.5597796440124512,2.8936212062835693,-0.5600036978721619
-0.5443766117095947,2.9231762886047363,-0.5687749981880188
-0.5232221484184265,2.922426700592041,-0.5716947317123413
-0.49756306409835815,2.895104169845581,-0.5691996216773987
-0.4841022193431854,2.9395244121551514,-0.5805289149284363
-0.4666987955570221,2.9649882316589355,-0.5882461071014404
-0.4448314607143402,2.9599668979644775,-0.5899035930633545
-0.4138234555721283,2.890310764312744,-0.5786000490188599
-0.3868955671787262,2.8432750701904297,-0.5712222456932068
-0.3640754818916321,2.8226144313812256,-0.5691192746162415
-0.33785519003868103,2.7713677883148193,-0.560821533203125
-0.31422004103660583,2.738961935043335,-0.5563349723815918
-0.29263678193092346,2.7178432941436768,-0.5536794066429138
-0.2721279561519623,2.7042105197906494,-0.5524016618728638
-0.2525370717048645,2.6980490684509277,-0.5526643395423889
-0.23310662806034088,2.6917431354522705,-0.5529105067253113
-0.21069972217082977,2.6510326862335205,-0.5459007024765015
-0.19281280040740967,2.6598105430603027,-0.5487156510353088
-0.1722930371761322,2.6302905082702637,-0.5436485409736633
-0.15355445444583893,2.623533010482788,-0.5432963967323303
-0.13489824533462524,2.616645574569702,-0.542930006980896
-0.11517845094203949,2.590644359588623,-0.5380671620368958
-0.0968814268708229,2.5835988521575928,-0.5371508002281189
-0.07866835594177246,2.576425790786743,-0.5362311005592346
-0.060559798032045364,2.569125175476074,-0.5353074073791504
-0.042452145367860794,2.5541274547576904,-0.5324187278747559
-0.024302378296852112,2.54669189453125,-0.5309398770332336
-0.006608042865991592,2.5544235706329346,-0.5326477289199829
0.01120657380670309,2.5696799755096436,-0.5359513163566589
0.028734060004353523,2.538961887359619,-0.529515266418457
0.04681536182761192,2.561729907989502,-0.5338714122772217
0.06442365050315857,2.553785800933838,-0.5318508148193359
0.08272705972194672,2.561002016067505,-0.5330075025558472
0.10112369060516357,2.575740098953247,-0.5357588529586792
0.11829135566949844,2.559891700744629,-0.5316320657730103
0.1368878185749054,2.5744879245758057,-0.5338305234909058
0.1561717540025711,2.5965867042541504,-0.5375974774360657
0.17403443157672882,2.587989568710327,-0.535016655921936
0.19404155015945435,2.613694667816162,-0.5392150282859802
0.21222852170467377,2.612597703933716,-0.5376777052879333
0.23175497353076935,2.626622200012207,-0.5392709970474243
0.25219249725341797,2.648125410079956,-0.5424087047576904
0.2724836468696594,2.6618590354919434,-0.5437988638877869
0.29346469044685364,2.6831653118133545,-0.546353280544281
0.31433242559432983,2.700507402420044,-0.5480970740318298
0.33410951495170593,2.7062830924987793,-0.5474966764450073
0.35596537590026855,2.7271080017089844,-0.5499475598335266
0.3810850977897644,2.766798257827759,-0.5556501746177673
0.4014793336391449,2.7722041606903076,-0.5544368028640747
0.4288751780986786,2.822930097579956,-0.5622645616531372
0.45097678899765015,2.8355660438537598,-0.5624771118164062
0.47074630856513977,2.832963228225708,-0.5593869686126709
0.5003340840339661,2.886943817138672,-0.5672000050544739
0.5235339999198914,2.8990957736968994,-0.5667058229446411
0.5572644472122192,2.9676740169525146,-0.5772250294685364
0.5868048667907715,3.0096077919006348,-0.5823638439178467
0.6131181120872498,3.032560348510742,-0.5833707451820374
0.647648274898529,3.0928802490234375,-0.5914926528930664
0.679458498954773,3.134037733078003,-0.5957802534103394
0.7097975015640259,3.1674938201904297,-0.5986048579216003
0.7501156330108643,3.2419676780700684,-0.6085975766181946
0.7861199975013733,3.2936525344848633,-0.6141210794448853
0.828467071056366,3.367398262023926,-0.6236038208007812
0.8619815111160278,3.3996357917785645,-0.625196099281311
0.904219925403595,3.465245485305786,-0.6326009035110474
0.9593294262886047,3.575106382369995,-0.6476550698280334
1.0109541416168213,3.66585636138916,-0.658971905708313
1.0797175168991089,3.811645746231079,-0.679851233959198
1.1316567659378052,3.8900837898254395,-0.6881598234176636
1.1896281242370605,3.9867007732391357,-0.6991806626319885
1.2614290714263916,4.123271942138672,-0.7168598771095276
1.3169631958007812,4.200199127197266,-0.723809540271759
1.3712356090545654,4.269259452819824,-0.7291778922080994
1.426832914352417,4.337804317474365,-0.7336385846138
1.471835732460022,4.37306022644043,-0.7324334979057312
1.5000665187835693,4.356749534606934,-0.722506582736969
1.530795931816101,4.347490310668945,-0.7137742638587952
1.5559190511703491,4.323635101318359,-0.7023314833641052
1.5753518342971802,4.285157680511475,-0.6885565519332886
1.5950953960418701,4.246330261230469,-0.6746650338172913
1.32053542137146,3.4425227642059326,-0.5408257842063904
1.3530067205429077,3.4560000896453857,-0.5365952253341675
1.3798854351043701,3.4548816680908203,-0.5299668312072754
1.3953055143356323,3.424823522567749,-0.5189051628112793
1.419939637184143,3.415886163711548,-0.5109307765960693
1.4408081769943237,3.399914503097534,-0.5019176602363586
1.4643653631210327,3.3910138607025146,-0.493889182806015
1.4849331378936768,3.374769687652588,-0.48477429151535034
1.5055993795394897,3.3582777976989746,-0.4756012260913849
1.5326659679412842,3.3557164669036865,-0.46819257736206055
1.552571415901184,3.339162826538086,-0.4588792324066162
1.5692020654678345,3.315376043319702,-0.44857537746429443
1.5926668643951416,3.305311918258667,-0.4400685429573059
1.6037065982818604,3.2708823680877686,-0.42830905318260193
1.9886386394500732,3.986447811126709,-0.5130026936531067
2.016451597213745,3.9738070964813232,-0.5023922324180603
2.044546127319336,3.96077561378479,-0.491635799407959
2.068258285522461,3.941007375717163,-0.47997865080833435
2.0842440128326416,3.9074854850769043,-0.46669867634773254
2.0764803886413574,3.82913875579834,-0.44804847240448
2.117183208465576,3.839181900024414,-0.4396090805530548
2.1224498748779297,3.7885830402374268,-0.42434823513031006
2.159877300262451,3.7954628467559814,-0.4155617952346802
2.1711502075195312,3.7543625831604004,-0.40121990442276
2.197206974029541,3.7403762340545654,-0.3898392617702484
2.2388923168182373,3.753068447113037,-0.380973756313324
2.2487947940826416,3.711960554122925,-0.3665771782398224
2.266906499862671,3.683816432952881,-0.35337844491004944
2.295771598815918,3.6762032508850098,-0.34216827154159546
2.3165342807769775,3.6550347805023193,-0.32959675788879395
2.338599681854248,3.632819414138794,-0.3163389265537262
2.3845202922821045,3.650545120239258,-0.30666762590408325
2.387284278869629,3.603106737136841,-0.29153117537498474
2.4040143489837646,3.5742337703704834,-0.27736565470695496
2.4501776695251465,3.591045379638672,-0.26670119166374207
2.4698121547698975,3.5690624713897705,-0.2528524696826935
2.486020088195801,3.539717197418213,-0.2379104346036911
2.536760091781616,3.562082052230835,-0.2263663113117218
2.5374841690063477,3.5144364833831787,-0.2101259082555771
2.5668277740478516,3.5036208629608154,-0.19532345235347748
2.1844685077667236,2.9426121711730957,-0.15207049250602722
2.8006904125213623,3.9355053901672363,0.5305259227752686
2.768784999847412,3.9558560848236084,0.5464044213294983
2.730402946472168,3.9615743160247803,0.5592358112335205
2.701068878173828,3.979632616043091,0.5732922554016113
2.680025339126587,4.015138626098633,0.589601993560791
2.6667211055755615,4.059180736541748,0.6067007184028625
2.618147373199463,4.047279357910156,0.6151082515716553
2.592921257019043,4.075377941131592,0.6289737224578857
2.56510329246521,4.100165843963623,0.6423488259315491
2.5356669425964355,4.11665153503418,0.6536799669265747
2.513674259185791,4.146430969238281,0.6670745015144348
2.5046451091766357,4.204188823699951,0.6848677396774292
2.445021867752075,4.174712657928467,0.6882304549217224
2.426806926727295,4.2104363441467285,0.7017576694488525
2.4077463150024414,4.246340274810791,0.7153292894363403
2.371446132659912,4.256196022033691,0.7241260409355164
2.288184404373169,4.181312084197998,0.7185091972351074
2.254655599594116,4.1891584396362305,0.7263860106468201
2.2103888988494873,4.176209926605225,0.7306188344955444
2.2075114250183105,4.245928764343262,0.7489295601844788
2.1823348999023438,4.27471923828125,0.7600739002227783
2.14676570892334,4.282525062561035,0.767484724521637
2.1197404861450195,4.303098201751709,0.776900053024292
2.0938374996185303,4.327144622802734,0.7869021892547607
2.046433448791504,4.309985637664795,0.7889386415481567
2.025390386581421,4.348267555236816,0.8011661171913147
2.0002708435058594,4.3754448890686035,0.8112475275993347
1.9687131643295288,4.388348579406738,0.8187152147293091
2.021017074584961,4.591247081756592,0.8616524934768677
1.9898440837860107,4.611879825592041,0.870164692401886
1.9495246410369873,4.611005783081055,0.8746541738510132
1.916093349456787,4.623674392700195,0.8816256523132324
1.897314190864563,4.671627998352051,0.8953700065612793
1.8500840663909912,4.647861003875732,0.8953341245651245
1.8339264392852783,4.706725120544434,0.9106128215789795
1.8019280433654785,4.726069927215576,0.9183363914489746
1.7672443389892578,4.737923622131348,0.9246382117271423
1.3315722942352295,3.648550271987915,0.7150700092315674
1.3136478662490845,3.678610324859619,0.7239835262298584
1.2872658967971802,3.6870486736297607,0.7284340858459473
1.6432403326034546,4.818338871002197,0.9552675485610962
2.8825600147247314,8.656712532043457,1.7222963571548462
1.5929516553878784,4.901655197143555,0.978664219379425
1.5677940845489502,4.9409003257751465,0.9898899793624878
1.5217360258102417,4.914053916931152,0.9879179000854492
1.4830840826034546,4.912856578826904,0.9905833005905151
1.4571657180786133,4.955636978149414,1.0020054578781128
1.4391441345214844,5.027769088745117,1.0194696187973022
1.4068902730941772,5.0518341064453125,1.027276635169983
1.3464244604110718,4.968128204345703,1.0130852460861206
1.2988663911819458,4.928337574005127,1.0078226327896118
1.2673771381378174,4.951527118682861,1.0148935317993164
1.2381296157836914,4.985754489898682,1.024147868156433
1.2087451219558716,5.023661136627197,1.0342754125595093
1.176611065864563,5.046215057373047,1.0412389039993286
1.1413424015045166,5.053515434265137,1.0450806617736816
1.1092429161071777,5.0755391120910645,1.052029013633728
1.0716819763183594,5.075069904327393,1.0538878440856934
1.044662594795227,5.1308207511901855,1.06725013256073
1.0028475522994995,5.111196517944336,1.064963459968567
1.5808768272399902,8.370028495788574,1.7469727993011475
1.5087286233901978,8.304511070251465,1.736307978630066
1.4494094848632812,8.306249618530273,1.739759922027588
1.3912901878356934,8.322948455810547,1.7460684776306152
1.3280088901519775,8.305353164672852,1.7443946599960327
1.2678380012512207,8.30620002746582,1.746677279472351
1.202219843864441,8.268768310546875,1.740984559059143
1.1507985591888428,8.321609497070312,1.7543461322784424
1.0833340883255005,8.264297485351562,1.744603157043457
1.0270836353302002,8.282238006591797,1.750779390335083
0.9647458791732788,8.254511833190918,1.7462940216064453
0.9065207839012146,8.26055908203125,1.7488991022109985
0.43656590580940247,4.25477409362793,0.9015353918075562
0.4081602394580841,4.272668361663818,0.906096875667572
0.3843258321285248,4.3474931716918945,0.9227997660636902
0.35097119212150574,4.311685562133789,0.9160575866699219
0.3183381259441376,4.2794904708862305,0.9099010825157166
0.2857557237148285,4.243339538574219,0.9025128483772278
0.34201815724372864,5.671558380126953,1.2067371606826782
0.30192556977272034,5.68127965927124,1.2093329429626465
0.26270240545272827,5.690676212310791,1.2119076251983643
0.22567389905452728,5.757063388824463,1.226684808731079
0.18638072907924652,5.781199932098389,1.232528805732727
0.14680591225624084,5.812831878662109,1.2394258975982666
0.1064976304769516,5.863353729248047,1.2501509189605713
0.06552761793136597,5.8562846183776855,1.248658299446106
0.02488686330616474,5.902414321899414,1.258569598197937
-0.022647034376859665,8.251920700073242,1.7597451210021973
-0.08065621554851532,8.32028579711914,1.7746025323867798
-0.1391480416059494,8.29655933380127,1.7698485851287842
-0.14734569191932678,6.214064121246338,1.3250195980072021
-0.1886976957321167,6.155768871307373,1.3120732307434082
-0.23032397031784058,6.1239213943481445,1.3048336505889893
-0.2717861533164978,6.099429607391357,1.2992286682128906
-0.1863785833120346,3.617318868637085,0.7703261375427246
-0.21104060113430023,3.6007473468780518,0.7666401267051697
-0.4071827828884125,6.211134910583496,1.3218748569488525
-0.4542173445224762,6.265687942504883,1.332411527633667
-0.49657776951789856,6.2513203620910645,1.3283478021621704
-0.5439513325691223,6.297590732574463,1.3372284173965454
-0.5966435074806213,6.381466865539551,1.3541162014007568
-0.6455968022346497,6.423154830932617,1.3621141910552979
-0.6947500705718994,6.460672855377197,1.369282603263855
-0.7393035292625427,6.456223487854004,1.3669346570968628
-0.7777674198150635,6.402193069458008,1.3538992404937744
-0.8166622519493103,6.351648330688477,1.341666340827942
-0.8527714610099792,6.289569854736328,1.3271058797836304
-0.892270565032959,6.2537312507629395,1.3181514739990234
-0.9442686438560486,6.304638385772705,1.3275423049926758
-0.9952177405357361,6.343824863433838,1.3343815803527832
-1.0456253290176392,6.375216484069824,1.3387869596481323
-1.0964428186416626,6.41010046005249,1.343997836112976
-1.1504712104797363,6.459658145904541,1.3523170948028564
-1.203579306602478,6.497424602508545,1.3581796884536743
-1.2582088708877563,6.538490295410156,1.3647583723068237
-1.3127191066741943,6.575363636016846,1.3704999685287476
-1.3703147172927856,6.623144149780273,1.3778772354125977
-1.4234755039215088,6.652032852172852,1.381049394607544
-1.4589084386825562,6.598265647888184,1.3671278953552246
-1.4964464902877808,6.555465221405029,1.3555620908737183
-1.524666666984558,6.471259593963623,1.335492491722107
-0.6803746819496155,2.7988715171813965,0.5764672756195068
-0.6988245248794556,2.790806531906128,0.5735989809036255
-0.7187774777412415,2.7901766300201416,0.5719952583312988
-0.7328375577926636,2.7671847343444824,0.5658435821533203
-0.7567097544670105,2.7810986042022705,0.5672627687454224
-1.7190767526626587,6.146688938140869,1.2505145072937012
-1.7725759744644165,6.172468662261963,1.2526150941848755
-1.803674578666687,6.120597839355469,1.2389675378799438
-1.8340108394622803,6.0727643966674805,1.2254165410995483
-1.86378014087677,6.024782657623291,1.2119381427764893
-1.894888997077942,5.980100631713867,1.1991544961929321
-1.9246549606323242,5.931498050689697,1.1856523752212524
-1.9613393545150757,5.9045329093933105,1.1765429973602295
-1.989120602607727,5.851885795593262,1.1623858213424683
-2.021078586578369,5.817897796630859,1.1512436866760254
-2.043673276901245,5.758394241333008,1.1351566314697266
-2.0780270099639893,5.731099605560303,1.125441312789917
-2.10205340385437,5.67455530166626,1.1100108623504639
-2.1350204944610596,5.643051624298096,1.0995674133300781
-2.174316644668579,5.62939977645874,1.092516541481018
-2.238964796066284,5.684056282043457,1.0980814695358276
-2.2993738651275635,5.723604679107666,1.1005836725234985
-2.338170051574707,5.709362030029297,1.0927958488464355
-2.366497039794922,5.665884017944336,1.0792970657348633
-2.404932737350464,5.64702844619751,1.0705646276474
-2.4512972831726074,5.649634838104248,1.0654886960983276
-3.9044604301452637,8.835432052612305,1.656999111175537
-3.967010021209717,8.81851863861084,1.644708514213562
-4.061926364898682,8.866878509521484,1.6442841291427612
-4.161857604980469,8.920967102050781,1.6447004079818726
-2.6169803142547607,5.5107526779174805,1.0098752975463867
-4.363155364990234,9.031515121459961,1.6440151929855347
-4.409787654876709,8.977320671081543,1.6233795881271362
-4.5077409744262695,9.022077560424805,1.620317816734314
-2.7534103393554688,5.416378021240234,0.9658740758895874
-4.701836109161377,9.093877792358398,1.6098827123641968
-4.798276901245117,9.133794784545898,1.6041523218154907
-4.921875953674316,9.220057487487793,1.6061681509017944
-1.169525384902954,2.155524730682373,0.37235599756240845
-1.1960434913635254,2.168217182159424,0.3712958097457886
-5.212433338165283,9.300060272216797,1.5781465768814087
-2.5462851524353027,4.474748611450195,0.7520416975021362
-5.410274505615234,9.363436698913574,1.5581024885177612
-1.2139580249786377,2.067814350128174,0.34048372507095337
-1.2523818016052246,2.0998213291168213,0.3420773148536682
-2.91506290435791,4.817039966583252,0.7757412791252136
-2.968940496444702,4.835954666137695,0.7697076797485352
-2.9948649406433105,4.803728103637695,0.7548398971557617
-3.0291268825531006,4.784217834472656,0.7419272661209106
-3.0567381381988525,4.759438991546631,0.7278260588645935
-3.035013437271118,4.660102367401123,0.7024403810501099
-3.0482351779937744,4.611756324768066,0.684359073638916
-3.0925745964050293,4.607625484466553,0.6723992824554443
-3.0984604358673096,4.554218292236328,0.6530398726463318
-3.13266658782959,4.542229175567627,0.6396153569221497
-2.9381937980651855,4.197444438934326,0.5791321992874146
-2.854206085205078,4.021128177642822,0.5430808663368225
-2.880460500717163,4.0042924880981445,0.5286674499511719
-2.9130873680114746,3.9922680854797363,0.5139976739883423
-2.9632761478424072,4.005633354187012,0.5020802617073059
-2.475013494491577,3.466820001602173,-0.22588565945625305
-2.439955949783325,3.4714794158935547,-0.2407178431749344
-2.8861799240112305,4.171721458435059,-0.3061765432357788
-2.860886573791504,4.197253704071045,-0.32387638092041016
-2.852670431137085,4.253189563751221,-0.34411922097206116
-2.821305513381958,4.272667407989502,-0.3609851896762848
-2.7984790802001953,4.3048200607299805,-0.378738135099411
-2.765789031982422,4.324422836303711,-0.3952085077762604
-2.719630002975464,4.3199567794799805,-0.40888264775276184
-1.2838391065597534,2.0712978839874268,-0.20257246494293213
-1.2297645807266235,2.0170085430145264,-0.20357173681259155
-2.135221004486084,3.560289144515991,-0.37031546235084534
-2.64768123626709,4.485257148742676,-0.4796426594257355
-2.6183066368103027,4.509846210479736,-0.4953245520591736
-1.1989331245422363,2.099984645843506,-0.23665471374988556
-2.590625524520874,4.611881256103516,-0.5323388576507568
-2.562136173248291,4.639369010925293,-0.5483006238937378
-2.5351309776306152,4.670132637023926,-0.5644745826721191
-2.5123891830444336,4.707104206085205,-0.5811808109283447
-2.489748239517212,4.74369478225708,-0.5977895259857178
-2.463832378387451,4.777271270751953,-0.6140035390853882
-2.4351091384887695,4.8075270652771,-0.6301004886627197
-2.411288261413574,4.843729496002197,-0.6464959383010864
-2.390172243118286,4.886902809143066,-0.6639254689216614
-1.5724049806594849,3.274071216583252,-0.45248615741729736
-1.5419938564300537,3.2701210975646973,-0.4595339000225067
-1.0629558563232422,2.29546856880188,-0.32777026295661926
-1.0093191862106323,2.2211859226226807,-0.32221245765686035
-1.0010478496551514,2.2452847957611084,-0.3306421637535095
-0.9941684007644653,2.272843837738037,-0.3396407663822174
-0.9810615181922913,2.286083936691284,-0.34651070833206177
-0.9706502556800842,2.3064444065093994,-0.35442760586738586
-0.9477532505989075,2.298332452774048,-0.35799866914749146
-0.9399498105049133,2.3256874084472656,-0.36700040102005005
-0.9206172227859497,2.324211835861206,-0.37144342064857483
-0.9095841646194458,2.344251871109009,-0.3792482316493988
-0.9050466418266296,2.382335662841797,-0.38999608159065247
-0.8930845260620117,2.4024088382720947,-0.3979577422142029
-0.8786762356758118,2.4150218963623047,-0.40462881326675415
-0.8640380501747131,2.4275870323181152,-0.41121336817741394
-0.8491502404212952,2.440108299255371,-0.4177151620388031
-0.841644287109375,2.4744012355804443,-0.42801257967948914
-0.8566263914108276,2.578202962875366,-0.4506223201751709
-0.9013386368751526,2.7774770259857178,-0.49026647210121155
-0.9082473516464233,2.8672878742218018,-0.5108945369720459
-0.9037290811538696,2.9241487979888916,-0.5258935689926147
-0.8186243176460266,2.715696096420288,-0.49289992451667786
-0.7907199263572693,2.6909213066101074,-0.49279969930648804
-0.7638162970542908,2.6697607040405273,-0.4930765628814697
-0.7427530288696289,2.666804552078247,-0.4966162443161011
-0.7219473719596863,2.6636409759521484,-0.5000808835029602
-0.7159112691879272,2.7160465717315674,-0.5140654444694519
-0.7138463854789734,2.7871580123901367,-0.5313841700553894
-0.7363989949226379,2.9627435207366943,-0.5690366625785828
-0.7155300378799438,2.966907024383545,-0.5739477276802063
-0.6981768012046814,2.9858551025390625,-0.5817592740058899
-0.6720428466796875,2.967350721359253,-0.5819470882415771
-0.6511329412460327,2.9711391925811768,-0.5863717198371887
-0.6219226717948914,2.937317371368408,-0.5834150910377502
-0.5867317914962769,2.8693792819976807,-0.573500394821167
-0.5665994882583618,2.8726189136505127,-0.5775118470191956
-0.5421404838562012,2.8531854152679443,-0.576686441898346
-0.5145584940910339,2.8147153854370117,-0.5719690918922424
-0.48058730363845825,2.7383458614349365,-0.5594985485076904
-0.45885178446769714,2.7258355617523193,-0.5598544478416443
-0.43120843172073364,2.6754584312438965,-0.5519630908966064
-0.40373072028160095,2.6210665702819824,-0.5431668758392334
-0.38430410623550415,2.6156511306762695,-0.5444819927215576
-0.35883602499961853,2.568455934524536,-0.5371151566505432
