X,Y,Z
-0.5465930104255676,3.945000410079956,0.5132776498794556
-0.5686066150665283,3.9029040336608887,0.5070270895957947
-0.5903593301773071,3.86456298828125,0.501311182975769
-0.6123002767562866,3.8299195766448975,0.49610909819602966
-0.6331503391265869,3.791334867477417,0.4904322028160095
-0.6524485945701599,3.7489349842071533,0.4839549958705902
-0.6697768568992615,3.6988260746002197,0.47652873396873474
-0.6933559775352478,3.682847023010254,0.4735197424888611
-0.7098659873008728,3.6325199604034424,0.4661387801170349
-0.7251290678977966,3.5783028602600098,0.45829781889915466
-0.7436410188674927,3.543015956878662,0.45291534066200256
-0.7538086771965027,3.473694324493408,0.44290968775749207
-0.7779004573822021,3.468607187271118,0.44111618399620056
-0.7997891306877136,3.4558916091918945,0.4383956789970398
-0.8236892223358154,3.4504995346069336,0.4366110861301422
-0.8347563147544861,3.392191171646118,0.42816048860549927
-0.8534978628158569,3.3677561283111572,0.4239819645881653
-0.8728348016738892,3.347028970718384,0.420028954744339
-0.8875160217285156,3.3113107681274414,0.4142550230026245
-0.9017845392227173,3.2755351066589355,0.4085143506526947
-0.9171107411384583,3.2433242797851562,0.4032338559627533
-0.9375030398368835,3.2296624183654785,0.40028849244117737
-0.9556547999382019,3.2084200382232666,0.3962804973125458
-0.9682548642158508,3.1724846363067627,0.39035916328430176
-0.9792552590370178,3.132817268371582,0.38402578234672546
-0.9958550930023193,3.111562728881836,0.37997719645500183
-1.0126844644546509,3.0900747776031494,0.37589970231056213
-1.0296742916107178,3.0683674812316895,0.3718000650405884
-1.044120192527771,3.043271064758301,0.367124080657959
-1.0620594024658203,3.0291309356689453,0.36376315355300903
-1.0615026950836182,2.9637322425842285,0.35430118441581726
-1.0900015830993652,2.978483200073242,0.35441285371780396
-1.1025789976119995,2.949293851852417,0.3493020534515381
-1.1162043809890747,2.923705577850342,0.3445167541503906
-1.1329649686813354,2.9092354774475098,0.34097665548324585
-1.1438475847244263,2.8802311420440674,0.33576661348342896
-1.143108606338501,2.822258949279785,0.32720476388931274
-1.158364176750183,2.803743839263916,0.3232325315475464
-1.1373412609100342,2.699190378189087,0.30933934450149536
-1.1400648355484009,2.656135320663452,0.302468478679657
-1.1453526020050049,2.6202845573425293,0.2964808940887451
-1.1694844961166382,2.626941442489624,0.2952926456928253
-1.194275140762329,2.6331663131713867,0.2939927875995636
-1.209520697593689,2.6179709434509277,0.29022079706192017
-1.2335649728775024,2.6242542266845703,0.2887342572212219
-1.2644529342651367,2.644361734390259,0.28874653577804565
-1.255314826965332,2.580050468444824,0.2795194387435913
-1.3009347915649414,2.6273019313812256,0.28234443068504333
-1.2823350429534912,2.545671224594116,0.27120763063430786
-1.2991535663604736,2.5374789237976074,0.2679181694984436
-1.294355869293213,2.487776279449463,0.2602998614311218
-1.3080860376358032,2.472142457962036,0.2561669945716858
-1.3217533826828003,2.4563841819763184,0.25203409790992737
-1.330506443977356,2.434293031692505,0.24711304903030396
-1.3373943567276,2.4086461067199707,0.2418321818113327
-1.3499727249145508,2.3930461406707764,0.2375575304031372
-1.3589380979537964,2.370400905609131,0.23254945874214172
-1.374644160270691,2.36169171333313,0.22881831228733063
-1.386061429977417,2.34633207321167,0.22442349791526794
-1.4101362228393555,2.350498676300049,0.22174711525440216
-1.4022715091705322,2.301027774810791,0.2139878123998642
-1.4297523498535156,2.311947822570801,0.21177420020103455
-1.4447457790374756,2.3029801845550537,0.20769017934799194
-1.4562371969223022,2.286884069442749,0.20281945168972015
-1.4576376676559448,2.2539772987365723,0.19633352756500244
-1.4678387641906738,2.238415479660034,0.191367045044899
-1.486653208732605,2.235706329345703,0.18747517466545105
-1.4893176555633545,2.2061760425567627,0.18104460835456848
-1.4906383752822876,2.1773903369903564,0.17468395829200745
-1.5092151165008545,2.1744396686553955,0.17032179236412048
-1.4928451776504517,2.1196889877319336,0.16170942783355713
-1.5044785737991333,2.1070477962493896,0.1563103199005127
-1.5085220336914062,2.085310459136963,0.15023687481880188
-1.5138119459152222,2.0625579357147217,0.14364692568778992
-1.5222482681274414,2.0470168590545654,0.13751819729804993
-1.4893362522125244,2.101879119873047,-0.10348816215991974
-1.5028821229934692,2.154064893722534,-0.11179380863904953
-1.4953750371932983,2.177912950515747,-0.11871670931577682
-1.4884843826293945,2.201165199279785,-0.125372976064682
-1.471712589263916,2.2120718955993652,-0.13126713037490845
-1.4640330076217651,2.235495090484619,-0.13774462044239044
-1.4480366706848145,2.24554705619812,-0.14322702586650848
-1.4457355737686157,2.279069662094116,-0.15024946630001068
-1.4248104095458984,2.282658100128174,-0.15523311495780945
-1.4206935167312622,2.312368154525757,-0.1618170291185379
-1.4074311256408691,2.3292081356048584,-0.167537659406662
-1.3905349969863892,2.3389639854431152,-0.17263418436050415
-1.3818333148956299,2.3618276119232178,-0.1786050796508789
-1.3795311450958252,2.3988211154937744,-0.1857602894306183
-1.3504512310028076,2.388099431991577,-0.18911084532737732
-1.3336440324783325,2.397148370742798,-0.1938382387161255
-1.3236695528030396,2.4200642108917236,-0.19967247545719147
-1.3150542974472046,2.4464986324310303,-0.20584675669670105
-1.3046598434448242,2.4692959785461426,-0.21169649064540863
-1.2943298816680908,2.4919002056121826,-0.21745571494102478
-1.2831699848175049,2.514765739440918,-0.22322513163089752
-1.2683864831924438,2.5305631160736084,-0.22838269174098969
-1.2333698272705078,2.5040900707244873,-0.22958078980445862
-1.189672589302063,2.460041046142578,-0.22905988991260529
-1.1750741004943848,2.475275993347168,-0.2339027225971222
-1.175399661064148,2.5220370292663574,-0.24174438416957855
-1.1771371364593506,2.5722711086273193,-0.24996443092823029
-1.1857584714889526,2.640580177307129,-0.2600034475326538
-1.160374641418457,2.634427785873413,-0.2627446949481964
-1.1381868124008179,2.635202646255493,-0.26617002487182617
-1.1121108531951904,2.6248013973236084,-0.2683410048484802
-1.1037571430206299,2.6574251651763916,-0.27481910586357117
-1.0934025049209595,2.6865015029907227,-0.280963271856308
-1.0771411657333374,2.7010281085968018,-0.28559866547584534
-1.0634758472442627,2.7227225303649902,-0.29104435443878174
-1.052358865737915,2.751617908477783,-0.2971363961696625
-1.039376974105835,2.77690052986145,-0.30284008383750916
-1.0302807092666626,2.8130087852478027,-0.30976247787475586
-1.015817403793335,2.8343701362609863,-0.3150726854801178
-1.004386305809021,2.866859197616577,-0.3216250240802765
-0.9839175939559937,2.873549461364746,-0.3251674771308899
-0.975744903087616,2.9169132709503174,-0.33290913701057434
-0.9577349424362183,2.9306442737579346,-0.337276816368103
-0.9418622851371765,2.951688766479492,-0.34247127175331116
-0.9308589696884155,2.9913957118988037,-0.3497489392757416
-0.9208301901817322,3.034691572189331,-0.3574809730052948
-0.9038870334625244,3.0555779933929443,-0.36260470747947693
-0.8943136930465698,3.1024444103240967,-0.3708662986755371
-0.8786129951477051,3.130735158920288,-0.37673524022102356
-0.8625116348266602,3.158966064453125,-0.3826119601726532
-0.8437883257865906,3.179685354232788,-0.38765811920166016
-0.8302813172340393,3.2189204692840576,-0.39495012164115906
-0.8368769288063049,3.3409266471862793,-0.41239795088768005
-0.8205650448799133,3.3765370845794678,-0.4191312789916992
-0.8322433233261108,3.5328543186187744,-0.4409949481487274
-0.8778209090232849,3.848261594772339,-0.4830765426158905
-0.8643743395805359,3.914428234100342,-0.49410009384155273
-0.8505652546882629,3.9844770431518555,-0.5053231120109558
-0.834230363368988,4.046921730041504,-0.515653669834137
-0.8164000511169434,4.10549783706665,-0.5255743265151978
-0.7923522591590881,4.137423038482666,-0.532185435295105
-0.7703705430030823,4.18059778213501,-0.5400897860527039
-0.7477083206176758,4.22371244430542,-0.5477761030197144
-0.7263886332511902,4.278168678283691,-0.557007372379303
-0.702752411365509,4.321008205413818,-0.5647779703140259
-0.6798452138900757,4.375270366668701,-0.5741504430770874
-0.6537430286407471,4.410257339477539,-0.5806077718734741
-0.6320165991783142,4.479622840881348,-0.5915597081184387
-0.6027010679244995,4.498978137969971,-0.5959672331809998
-0.5776793360710144,4.552699089050293,-0.6049745678901672
-0.5496075749397278,4.587068557739258,-0.6113824248313904
-0.5160511136054993,4.582916736602783,-0.6122643947601318
-0.4798906445503235,4.547659873962402,-0.6089819073677063
-0.44098079204559326,4.4774346351623535,-0.601004421710968
-0.3830064535140991,4.18712854385376,-0.5633947253227234
-0.3531913757324219,4.181786060333252,-0.5637860894203186
-0.32496440410614014,4.20332670211792,-0.5675923824310303
-0.297273188829422,4.2285003662109375,-0.5719096660614014
-0.3030332326889038,4.786622524261475,-0.6484646797180176
-0.23877911269664764,4.239638805389404,-0.5753358006477356
-0.2067098617553711,4.1908416748046875,-0.5692546963691711
-0.18154112994670868,4.300395965576172,-0.5846399664878845
-0.14691999554634094,4.169946193695068,-0.5674132108688354
-0.11627127975225449,4.112743854522705,-0.5601563453674316
-0.0879073217511177,4.12498664855957,-0.5622957944869995
-0.05858663469552994,4.082912445068359,-0.5566034913063049
-0.03001151606440544,4.125783443450928,-0.562519907951355
-0.0012916604755446315,4.106524467468262,-0.5599920153617859
0.028402449563145638,4.268972873687744,-0.5822746753692627
0.056472282856702805,4.148717403411865,-0.5657837390899658
0.08286397904157639,4.028319835662842,-0.5490298867225647
0.11131153255701065,4.04317569732666,-0.5507453680038452
0.14070303738117218,4.0655517578125,-0.5535045266151428
0.17023558914661407,4.095468044281006,-0.5573187470436096
0.19865170121192932,4.094296932220459,-0.556519627571106
0.2280864715576172,4.112271785736084,-0.5582213997840881
0.26553112268447876,4.253664493560791,-0.5766740441322327
0.29401353001594543,4.228641033172607,-0.5725582242012024
0.3438217043876648,4.492961406707764,-0.6075799465179443
0.3936587870121002,4.714446067810059,-0.6361905336380005
0.4256502389907837,4.70411491394043,-0.63348788022995
0.4568042457103729,4.685855865478516,-0.6297529935836792
0.48917853832244873,4.675027847290039,-0.6270288228988647
0.519040584564209,4.648680686950684,-0.6220670342445374
0.5489698648452759,4.626038551330566,-0.6172977685928345
0.5814704298973083,4.626261234283447,-0.615617036819458
0.6101107001304626,4.595518112182617,-0.609843909740448
0.641629159450531,4.583698272705078,-0.6065934896469116
0.6745680570602417,4.5871381759643555,-0.6050201654434204
0.6992348432540894,4.5367751121521,-0.5962488651275635
0.7251588106155396,4.49774694442749,-0.589028537273407
0.7577586770057678,4.50058126449585,-0.5873242020606995
0.6551075577735901,3.7323012351989746,-0.4853321611881256
0.6771746277809143,3.7050788402557373,-0.4796707034111023
0.7071245908737183,3.7234909534454346,-0.4799770712852478
0.7284578084945679,3.6960206031799316,-0.47438475489616394
0.7541578412055969,3.691202402114868,-0.47173070907592773
0.7773401737213135,3.674866199493408,-0.46744874119758606
0.8014727830886841,3.6621334552764893,-0.46340644359588623
0.8284487128257751,3.6644580364227295,-0.46133315563201904
0.8522315621376038,3.6514217853546143,-0.4573238492012024
0.8740570545196533,3.630688428878784,-0.4523873031139374
0.8935418725013733,3.602389097213745,-0.4462319314479828
0.9207495450973511,3.6039626598358154,-0.44372615218162537
0.9437656402587891,3.590399742126465,-0.4394114911556244
0.9688026309013367,3.584141254425049,-0.4360026717185974
0.9895476698875427,3.562793731689453,-0.4306579530239105
1.0162233114242554,3.5637974739074707,-0.4278273582458496
1.0411933660507202,3.557037115097046,-0.42402946949005127
1.0637471675872803,3.5427021980285645,-0.419372022151947
1.0816365480422974,3.513364791870117,-0.4129771888256073
1.1058183908462524,3.506298780441284,-0.4089675843715668
1.1322791576385498,3.5064733028411865,-0.40579357743263245
1.1545332670211792,3.4915080070495605,-0.40080568194389343
1.1814513206481934,3.4911630153656006,-0.39753711223602295
1.218345284461975,3.5200703144073486,-0.39743897318840027
1.3046787977218628,3.6879048347473145,-0.4127104878425598
1.4872039556503296,4.11415433883667,-0.4563024640083313
1.5132564306259155,4.096941947937012,-0.4502367675304413
1.534014344215393,4.064892768859863,-0.44246524572372437
1.5618011951446533,4.054891109466553,-0.43698740005493164
1.5923937559127808,4.0519185066223145,-0.43227481842041016
1.6263560056686401,4.055759429931641,-0.4282154440879822
1.6488176584243774,4.030473709106445,-0.42107805609703064
1.6738160848617554,4.012345790863037,-0.41442111134529114
1.7163790464401245,4.037217140197754,-0.41226404905319214
1.9716473817825317,4.550468444824219,-0.45925673842430115
1.9280495643615723,4.366415023803711,-0.43541961908340454
1.940293788909912,4.314769744873047,-0.4248749315738678
1.9393383264541626,4.234681606292725,-0.4115428030490875
1.5952590703964233,3.421185255050659,-0.32807815074920654
1.6108468770980835,3.392866849899292,-0.32092440128326416
1.6170322895050049,3.347266912460327,-0.31210076808929443
1.6534202098846436,3.3646929264068604,-0.30914729833602905
2.2012336254119873,4.401695251464844,-0.39819085597991943
2.2868247032165527,4.494401454925537,-0.40019944310188293
2.317227840423584,4.479496002197266,-0.39235496520996094
2.3528811931610107,4.474762439727783,-0.38538265228271484
1.7337459325790405,3.2429141998291016,-0.27438637614250183
1.7451684474945068,3.2107012271881104,-0.26672011613845825
1.738820195198059,3.148035764694214,-0.25647664070129395
1.7485480308532715,3.116335868835449,-0.24895557761192322
1.7780710458755493,3.118027448654175,-0.24392323195934296
1.3304531574249268,2.296826124191284,-0.17583048343658447
1.2884352207183838,2.1908013820648193,-0.1640009880065918
0.9577605128288269,1.6031100749969482,-0.11715124547481537
0.966917872428894,1.5932872295379639,-0.11355616897344589
0.9774693250656128,1.587072491645813,-0.11020033806562424
0.9839404225349426,1.5741101503372192,-0.10636617243289948
1.0012174844741821,1.5772907733917236,-0.10348344594240189
1.0118821859359741,1.5707038640975952,-0.09987782686948776
1.0157817602157593,1.5544447898864746,-0.09572970122098923
1.0266785621643066,1.5474977493286133,-0.09196273982524872
1.0369809865951538,1.5408324003219604,-0.08821380883455276
1.051430344581604,1.5406779050827026,-0.08482027053833008
2.5537445545196533,3.685840129852295,-0.19401080906391144
2.5912413597106934,3.688729763031006,-0.18532641232013702
2.610989809036255,3.665684223175049,-0.175100177526474
2.6179757118225098,3.6227262020111084,-0.16343280673027039
2.615610361099243,3.5717978477478027,-0.15157705545425415
2.674814224243164,3.6013545989990234,-0.14241549372673035
2.6359567642211914,3.702288866043091,0.29994484782218933
2.617157220840454,3.7337863445281982,0.31158170104026794
2.5853159427642822,3.745594024658203,0.3210505247116089
1.065664529800415,1.5697838068008423,0.13802248239517212
1.0629075765609741,1.5900861024856567,0.14303208887577057
1.0512572526931763,1.597472071647644,0.14678353071212769
1.0301941633224487,1.5922640562057495,0.149354949593544
1.031089425086975,1.6191189289093018,0.15473325550556183
1.0112216472625732,1.6129233837127686,0.15686185657978058
0.9947544932365417,1.6136658191680908,0.15955619513988495
0.9866144061088562,1.6274384260177612,0.1635032296180725
0.9669387936592102,1.6207903623580933,0.16527676582336426
0.9549573063850403,1.627569556236267,0.1682935208082199
1.3351565599441528,2.315202474594116,0.24263101816177368
1.8247843980789185,3.2176997661590576,0.3415195047855377
1.762317419052124,3.158550262451172,0.33930012583732605
1.75718355178833,3.205254077911377,0.3483095169067383
1.7717835903167725,3.289673328399658,0.3614472448825836
1.7551532983779907,3.31561017036438,0.36814621090888977
2.368870496749878,4.5513505935668945,0.5104687213897705
2.337312698364258,4.571247577667236,0.5175676345825195
2.3025431632995605,4.5880937576293945,0.5243080258369446
2.2722244262695312,4.61110258102417,0.5316312909126282
2.2398569583892822,4.626191139221191,0.5378615260124207
2.2102086544036865,4.648314476013184,0.5448483228683472
2.175813913345337,4.663812160491943,0.5508190393447876
2.144540309906006,4.6861114501953125,0.5576294660568237
2.107285737991333,4.693769931793213,0.5626562237739563
2.0743095874786377,4.707755088806152,0.5683252215385437
2.0402050018310547,4.721972465515137,0.5738037824630737
1.7768590450286865,4.196458339691162,0.5131601691246033
1.717710256576538,4.1407084465026855,0.5095204710960388
1.6792689561843872,4.130762577056885,0.5113916993141174
1.6589467525482178,4.1634907722473145,0.518502414226532
1.6316425800323486,4.182072162628174,0.5236241817474365
1.6010944843292236,4.193343639373779,0.5277605652809143
1.5745395421981812,4.21528959274292,0.5332756042480469
1.5470401048660278,4.233205318450928,0.5382646322250366
1.517377495765686,4.243420600891113,0.5422499179840088
1.489565372467041,4.2609968185424805,0.5469688177108765
1.4586480855941772,4.271208763122559,0.5506294369697571
1.4301130771636963,4.288549900054932,0.5552420616149902
1.3991665840148926,4.29827356338501,0.5588889122009277
1.3737530708312988,4.322274684906006,0.5643587708473206
1.3432354927062988,4.331406116485596,0.5677996873855591
1.314157485961914,4.347997188568115,0.5719591975212097
1.2805739641189575,4.349508762359619,0.574161946773529
1.2579290866851807,4.387951850891113,0.5812662243843079
1.2267283201217651,4.396358966827393,0.5844181776046753
1.1981085538864136,4.411862850189209,0.588506281375885
1.16962468624115,4.431147575378418,0.5928054451942444
1.1397688388824463,4.446556091308594,0.5965238809585571
1.107881784439087,4.454243183135986,0.5992399454116821
1.0777134895324707,4.469240665435791,0.6029756665229797
1.0464842319488525,4.4762983322143555,0.6056268811225891
1.0185716152191162,4.498261451721191,0.610294759273529
0.9897392392158508,4.520244598388672,0.6146057844161987
0.9590889811515808,4.534454822540283,0.6178961992263794
0.7791233658790588,3.8201959133148193,0.5217558145523071
0.7508504986763,3.817706823348999,0.5225852727890015
0.7228081822395325,3.814981460571289,0.5233960747718811
0.8355610966682434,4.585173606872559,0.6304008364677429
0.8057066202163696,4.605987071990967,0.6342864036560059
0.774966299533844,4.626706123352051,0.6382184028625488
0.7446036338806152,4.647121429443359,0.642127513885498
0.7109672427177429,4.644310474395752,0.6428444385528564
0.6808579564094543,4.664219379425049,0.6467360258102417
0.6514396071434021,4.691633701324463,0.6515752673149109
0.6202356815338135,4.715188026428223,0.6555997133255005
0.5888048410415649,4.7346272468566895,0.6590784192085266
0.5562798976898193,4.746163368225098,0.6614924669265747
0.5223830938339233,4.742043495178223,0.6617457270622253
0.4917457103729248,4.7684712409973145,0.6662967801094055
0.4592646062374115,4.7793121337890625,0.6685965657234192
0.4285315275192261,4.82088565826416,0.6748642325401306
0.3940175473690033,4.815944671630859,0.6746494770050049
0.36108794808387756,4.830043315887451,0.6771347522735596
0.3289729356765747,4.855481147766113,0.6812435388565063
0.2956346273422241,4.865255355834961,0.6831903457641602
0.2624090611934662,4.89028787612915,0.687274158000946
0.22859425842761993,4.899676322937012,0.6887410879135132
0.19568057358264923,4.935889720916748,0.6940139532089233
0.16113552451133728,4.9370832443237305,0.6943983435630798
0.1275375783443451,4.968967437744141,0.6991335153579712
0.09233350306749344,4.969691753387451,0.6995251178741455
0.058040373027324677,4.993366241455078,0.7031775712966919
0.02340736985206604,5.020735740661621,0.7069216370582581
-0.011544372886419296,5.020791530609131,0.706815242767334
-0.04663904756307602,5.036076545715332,0.7088868021965027
-0.08267504721879959,5.058840751647949,0.7120445370674133
-0.11837556213140488,5.081361293792725,0.7152033448219299
-0.15439312160015106,5.103629112243652,0.7183610796928406
-0.18992646038532257,5.106367588043213,0.7184346914291382
-0.2251874953508377,5.10114860534668,0.7172763347625732
-0.2623039782047272,5.134322166442871,0.7215491533279419
-0.30235716700553894,5.19808292388916,0.7301414608955383
-0.2854200005531311,4.3814239501953125,0.6151547431945801
-0.30891039967536926,4.282945156097412,0.6010874509811401
-0.34100502729415894,4.3116583824157715,0.6046825647354126
-0.3707549273967743,4.3093342781066895,0.603741466999054
-0.3963339626789093,4.256681442260742,0.5957751274108887
-0.42266812920570374,4.223171710968018,0.590536892414093
-0.4474567472934723,4.1779465675354,0.5836953520774841
-0.4677329957485199,4.0979766845703125,0.5720415711402893
-0.4947190284729004,4.083259105682373,0.5693926811218262
-0.5143958330154419,4.010799407958984,0.5584468841552734
-0.5362551212310791,3.9651637077331543,0.5512996315956116
-0.5624162554740906,3.9538967609405518,0.5489667057991028
-0.5813096165657043,3.8926563262939453,0.5397259593009949
-0.6000179052352905,3.8351590633392334,0.531049907207489
-0.6233340501785278,3.8080968856811523,0.5265240669250488
-0.6409432888031006,3.754356861114502,0.5180833339691162
-0.6639430522918701,3.7348501682281494,0.5144081711769104
-0.6818189024925232,3.688549757003784,0.5070801973342896
-0.7000867128372192,3.6459298133850098,0.5002928972244263
-0.7163209915161133,3.595629930496216,0.4924953877925873
-0.7393136620521545,3.5793373584747314,0.48930150270462036
-0.7539582252502441,3.5290374755859375,0.48124051094055176
-0.7688226103782654,3.4824721813201904,0.47373849153518677
-0.7890755534172058,3.462301254272461,0.46986931562423706
-0.804226815700531,3.4192914962768555,0.46291831135749817
-0.8247824907302856,3.3987038135528564,0.45902019739151
-0.8454474806785583,3.381904125213623,0.4555910527706146
-0.8626173138618469,3.3538575172424316,0.4504501223564148
-0.8754832744598389,3.310748815536499,0.443331241607666
-0.8938654065132141,3.290055274963379,0.4392571747303009
-0.9098914265632629,3.2577965259552,0.43361783027648926
-0.9282907843589783,3.2367606163024902,0.4295344948768616
-0.9439330697059631,3.2082998752593994,0.4243530035018921
-0.9611709713935852,3.18730092048645,0.42004019021987915
-0.9758486151695251,3.1588144302368164,0.41477981209754944
-0.9895914196968079,3.126400947570801,0.40900564193725586
-1.004215955734253,3.0976030826568604,0.40374132990837097
-1.0209290981292725,3.0761075019836426,0.3994661867618561
-1.0342622995376587,3.0474250316619873,0.3940584659576416
-1.0509952306747437,3.029717206954956,0.3900644779205322
-1.0662401914596558,3.008263349533081,0.3856203258037567
-1.0847535133361816,2.993729829788208,0.38202181458473206
-1.1002254486083984,2.9718754291534424,0.3775365650653839
-1.1069269180297852,2.9282948970794678,0.3702329695224762
-1.125179648399353,2.917527437210083,0.366963654756546
-1.1220065355300903,2.852492570877075,0.35692769289016724
-1.1331180334091187,2.8233799934387207,0.3513907194137573
-1.1499370336532593,2.8085405826568604,0.3476494550704956
-1.1380441188812256,2.7256131172180176,0.33552098274230957
-1.13046133518219,2.657562255859375,0.32512763142585754
-1.1482311487197876,2.650286912918091,0.3222329318523407
-1.1570703983306885,2.621356725692749,0.316677451133728
-1.1785742044448853,2.620638847351074,0.31452593207359314
-1.1886907815933228,2.5950849056243896,0.309398889541626
-1.2404121160507202,2.6614089012145996,0.3150025010108948
-1.2381492853164673,2.6113481521606445,0.30681711435317993
-1.2763831615447998,2.645122528076172,0.30841687321662903
-1.2948713302612305,2.636516809463501,0.3050157129764557
-1.2991119623184204,2.60012149810791,0.2983783483505249
-1.3162877559661865,2.591871500015259,0.29486024379730225
-1.2995588779449463,2.5178706645965576,0.2839372754096985
-1.3132413625717163,2.502385377883911,0.2796016335487366
-1.323823094367981,2.4796009063720703,0.2743779718875885
-1.3293412923812866,2.4505460262298584,0.26842421293258667
-1.3361315727233887,2.4250781536102295,0.2628691494464874
-1.3485671281814575,2.4096782207489014,0.2584047019481659
-1.3538601398468018,2.380309820175171,0.2523651421070099
-1.374176025390625,2.37804913520813,0.2491033375263214
-1.3778598308563232,2.349304676055908,0.2430558055639267
-1.3932613134384155,2.340610980987549,0.23910020291805267
-1.421783447265625,2.3511598110198975,0.2368742972612381
-1.4296517372131348,2.328563928604126,0.2312527596950531
-1.4409345388412476,2.3128645420074463,0.2262103110551834
-1.4437904357910156,2.2839195728302,0.21991237998008728
-1.4556446075439453,2.267575979232788,0.2146679162979126
-1.4706640243530273,2.258301258087158,0.21001911163330078
-1.470186710357666,2.226440668106079,0.20326894521713257
-1.4770264625549316,2.203627347946167,0.19710449874401093
-1.5009452104568481,2.2067277431488037,0.1931876242160797
-1.4796652793884277,2.1461799144744873,0.18368828296661377
-1.4827648401260376,2.1207451820373535,0.17716725170612335
-1.4997026920318604,2.1140315532684326,0.171988844871521
-1.5018121004104614,2.089019298553467,0.16518791019916534
-1.5110564231872559,2.0731475353240967,0.15898284316062927
-1.5250887870788574,2.0633034706115723,0.15293247997760773
-1.5305291414260864,2.1443397998809814,-0.10757777839899063
-1.490477204322815,2.1197590827941895,-0.1124209612607956
-1.502956748008728,2.172539710998535,-0.12139847874641418
-1.487311601638794,2.182919979095459,-0.1277114897966385
-1.4755576848983765,2.199913263320923,-0.134304940700531
-1.471832036972046,2.2301177978515625,-0.14174050092697144
-1.4600638151168823,2.246764898300171,-0.14811213314533234
-1.4432824850082397,2.257188081741333,-0.15399061143398285
-1.4306362867355347,2.2740416526794434,-0.16025781631469727
-1.420724868774414,2.2936220169067383,-0.1665039211511612
-1.4077166318893433,2.310354471206665,-0.17256276309490204
-1.4062767028808594,2.3472304344177246,-0.18024305999279022
-1.3857803344726562,2.349933385848999,-0.18501761555671692
-1.3842380046844482,2.386528968811035,-0.19247566163539886
-1.3588159084320068,2.3827357292175293,-0.19669917225837708
-1.3419113159179688,2.391873598098755,-0.2017785757780075
-1.3319944143295288,2.4147825241088867,-0.20807839930057526
-1.3216129541397095,2.4377756118774414,-0.21433646976947784
-1.3131515979766846,2.46398663520813,-0.22085747122764587
-1.299429178237915,2.479604482650757,-0.2263697236776352
-1.2849348783493042,2.4954609870910645,-0.2318635731935501
-1.2768975496292114,2.5253188610076904,-0.2387681007385254
-1.2382066249847412,2.4920201301574707,-0.23948843777179718
-1.2171332836151123,2.493276834487915,-0.2434190958738327
-1.2090314626693726,2.5226798057556152,-0.2500562369823456
-1.190678358078003,2.530937910079956,-0.2546314001083374
-1.1892222166061401,2.574084758758545,-0.2626492381095886
-1.194707989692688,2.6352643966674805,-0.2726612389087677
-1.155100703239441,2.597172737121582,-0.2722806930541992
-1.1721596717834473,2.6869099140167236,-0.28534653782844543
-1.1257054805755615,2.630288600921631,-0.2828305661678314
-1.1054834127426147,2.6341795921325684,-0.2866767644882202
-1.0994293689727783,2.6741042137145996,-0.29446691274642944
-1.080191731452942,2.681469440460205,-0.2986574172973633
-1.0727828741073608,2.717426300048828,-0.3060012459754944
-1.0591492652893066,2.7389743328094482,-0.31172171235084534
-1.0463652610778809,2.7642006874084473,-0.31780293583869934
-1.0315929651260376,2.7858457565307617,-0.323580265045166
-1.0173066854476929,2.8071577548980713,-0.32924890518188477
-1.0052757263183594,2.8357510566711426,-0.33577781915664673
-0.9938586354255676,2.8680925369262695,-0.3426456153392792
-0.9857620596885681,2.9114298820495605,-0.35091066360473633
-0.9673917889595032,2.9252922534942627,-0.35568127036094666
-0.9516564011573792,2.9462974071502686,-0.36130231618881226
-0.9411835670471191,2.9858453273773193,-0.36901548504829407
-0.9221871495246887,2.9994330406188965,-0.3735775351524353
-0.9121614694595337,3.0425567626953125,-0.38185155391693115
-0.9321946501731873,3.189845323562622,-0.4033649265766144
-0.9421605467796326,3.311598062515259,-0.4217575490474701
-1.0055333375930786,3.6315770149230957,-0.46562981605529785
-0.9919198751449585,3.6830031871795654,-0.4753899574279785
-0.9769361019134521,3.7305803298950195,-0.48471564054489136
-0.9660349488258362,3.796919584274292,-0.4964946508407593
-0.9507732391357422,3.852179527282715,-0.5066992044448853
-0.9307164549827576,3.888456106185913,-0.5144444108009338
-0.9087195992469788,3.917022228240967,-0.521205484867096
-0.8873095512390137,3.949220895767212,-0.5285026431083679
-0.8693960309028625,4.000314712524414,-0.5380548238754272
-0.8454655408859253,4.0287184715271,-0.5445846319198608
-0.8179072141647339,4.037893772125244,-0.5485060214996338
-0.795681357383728,4.073434352874756,-0.5560374855995178
-0.775765597820282,4.124105453491211,-0.5655753016471863
-0.7467540502548218,4.129047393798828,-0.5685564875602722
-0.719200611114502,4.145302772521973,-0.5731701850891113
-0.6832274794578552,4.107822418212891,-0.5703117847442627
-0.6509528756141663,4.0891432762146,-0.5700466632843018
-0.6257888078689575,4.116199493408203,-0.5758016109466553
-0.5830352306365967,4.024418830871582,-0.5647961497306824
-0.546432375907898,3.970642566680908,-0.5591115355491638
-0.527278482913971,4.0392351150512695,-0.5706466436386108
-0.49816712737083435,4.034811973571777,-0.57183438539505
-0.46635016798973083,4.007200241088867,-0.5693157911300659
-0.437045156955719,3.9985697269439697,-0.5695068836212158
-0.4075547158718109,3.985873222351074,-0.5691338181495667
-0.38333797454833984,4.0307440757751465,-0.5770409107208252
-0.33822208642959595,3.8404996395111084,-0.5509464144706726
-0.3179517686367035,3.923527479171753,-0.5638159513473511
-0.286834180355072,3.8753414154052734,-0.5578646063804626
-0.2598280608654022,3.8770663738250732,-0.5591103434562683
-0.22936664521694183,3.8284547328948975,-0.5531275868415833
-0.2052953839302063,3.8800442218780518,-0.5611329078674316
-0.17646440863609314,3.8426566123962402,-0.5562660694122314
-0.1508723497390747,3.87459397315979,-0.5614608526229858
-0.12416556477546692,3.8831727504730225,-0.5633024573326111
-0.0962919220328331,3.868413209915161,-0.5616312623023987
-0.06953882426023483,3.876692056655884,-0.5629393458366394
-0.04238918051123619,3.86159348487854,-0.5608797669410706
-0.01567048765718937,3.9004244804382324,-0.5666815042495728
0.011441267095506191,3.90041184425354,-0.5668685436248779
0.03910572826862335,3.907986640930176,-0.5678391456604004
0.0662715956568718,3.9076693058013916,-0.5675013661384583
0.09402132034301758,3.9303505420684814,-0.5705292224884033
0.12262224406003952,3.9721555709838867,-0.5763570666313171
0.15166208148002625,4.009889125823975,-0.5816172957420349
0.18066786229610443,4.035904884338379,-0.5846425890922546
0.2087332159280777,4.026941776275635,-0.5826048254966736
0.24076399207115173,4.094998836517334,-0.5917395949363708
0.26725172996520996,4.0624918937683105,-0.5863618850708008
0.3002937138080597,4.126248836517334,-0.5947114825248718
0.32128143310546875,4.027913570404053,-0.5793720483779907
0.3685038983821869,4.241485595703125,-0.6088714003562927
0.39866867661476135,4.2467427253723145,-0.608454704284668
0.4378870725631714,4.3402814865112305,-0.6206864714622498
0.4791394770145416,4.441244602203369,-0.6335405707359314
0.5213721990585327,4.5380353927612305,-0.6455763578414917
0.5444440245628357,4.461617469787598,-0.6329619884490967
0.5824921727180481,4.5117340087890625,-0.6383560299873352
0.6206938028335571,4.55772066116333,-0.6431114673614502
0.6500915288925171,4.538385391235352,-0.6381320357322693
0.6850386261940002,4.55711555480957,-0.6385294198989868
0.7124327421188354,4.521981239318848,-0.6313735842704773
0.746442437171936,4.532574653625488,-0.6306739449501038
0.7805355191230774,4.542967796325684,-0.6296918988227844
0.8051596283912659,4.499820709228516,-0.6210469007492065
0.8327639698982239,4.475569725036621,-0.615073561668396
0.8639212250709534,4.470122337341309,-0.6117099523544312
0.8940886855125427,4.456756114959717,-0.607249915599823
0.9217762351036072,4.435812473297119,-0.6013761758804321
0.944310188293457,4.39198637008667,-0.592420756816864
0.9747880101203918,4.385838031768799,-0.5885918140411377
0.8329205513000488,3.6281380653381348,-0.484427273273468
0.8550024628639221,3.6075260639190674,-0.47903355956077576
0.8799260258674622,3.6020004749298096,-0.47546884417533875
0.9085950255393982,3.611330509185791,-0.4738761782646179
0.931830883026123,3.597871780395508,-0.4692844748497009
0.9529547691345215,3.5767621994018555,-0.4637323021888733
0.9781145453453064,3.570476531982422,-0.4597679078578949
1.0048795938491821,3.571598768234253,-0.456778347492218
1.0253058671951294,3.5501527786254883,-0.4509239196777344
1.0500807762145996,3.543407678604126,-0.44694727659225464
1.0701472759246826,3.5217041969299316,-0.44098082184791565
1.0947985649108887,3.5146615505218506,-0.43663689494132996
1.1189736127853394,3.507568597793579,-0.43236812949180603
1.1411188840866089,3.492797374725342,-0.42712098360061646
1.1680426597595215,3.4926018714904785,-0.4236615002155304
1.1895893812179565,3.4776766300201416,-0.41816455125808716
1.2122653722763062,3.4662768840789795,-0.41312310099601746
1.2341538667678833,3.450859546661377,-0.4075390100479126
1.2582906484603882,3.442680835723877,-0.4028775990009308
1.2765566110610962,3.419936418533325,-0.3963630497455597
1.3843578100204468,3.6330533027648926,-0.4168933629989624
1.579788327217102,4.062067985534668,-0.46143022179603577
1.602968692779541,4.036944389343262,-0.45376190543174744
1.6279568672180176,4.019224166870117,-0.44692763686180115
1.6583832502365112,4.01585578918457,-0.4415803551673889
1.6798745393753052,3.99072527885437,-0.4338541030883789
1.8227754831314087,4.247457027435303,-0.45636478066444397
1.9727084636688232,4.509489059448242,-0.4785866439342499
1.9274576902389526,4.326214790344238,-0.4533780813217163
1.956947684288025,4.313693046569824,-0.4463067352771759
1.5515542030334473,3.3578615188598633,-0.342796266078949
1.5947489738464355,3.389808177947998,-0.34132733941078186
1.6013776063919067,3.344193458557129,-0.3318571448326111
1.6309489011764526,3.3477704524993896,-0.3273918330669403
1.668258547782898,3.364710807800293,-0.32403838634490967
2.2524192333221436,4.465768814086914,-0.4233386516571045
2.305722951889038,4.496209621429443,-0.419299453496933
2.347172260284424,4.501850128173828,-0.4128115177154541
2.382974147796631,4.492624759674072,-0.4046001434326172
1.7372899055480957,3.222313642501831,-0.2849266529083252
1.7552438974380493,3.2042429447174072,-0.27802738547325134
1.7374675273895264,3.121161937713623,-0.2655240595340729
1.766991376876831,3.1230015754699707,-0.26025450229644775
1.809645414352417,3.1485610008239746,-0.2567051351070404
1.3494452238082886,2.312286376953125,-0.18440042436122894
0.9600847959518433,1.6192724704742432,-0.12610085308551788
0.9631008505821228,1.5995806455612183,-0.12153330445289612
0.9737012982368469,1.5934146642684937,-0.11801264435052872
0.9847990274429321,1.586850881576538,-0.11431097239255905
0.9958508610725403,1.5802042484283447,-0.11057738959789276
1.0062954425811768,1.5738308429718018,-0.1068529263138771
1.00203537940979,1.5443531274795532,-0.10154994577169418
1.025702714920044,1.5570935010910034,-0.09890761226415634
1.0360406637191772,1.5504834651947021,-0.09492132812738419
1.046377420425415,1.5437673330307007,-0.09091673046350479
1.0593295097351074,1.539890170097351,-0.08689780533313751
2.56044340133667,3.6714437007904053,-0.19806353747844696
2.5850729942321777,3.654693841934204,-0.18764445185661316
2.6148929595947266,3.6435842514038086,-0.1769140362739563
2.615201711654663,3.5957138538360596,-0.1646529585123062
2.6354472637176514,3.571718692779541,-0.15275724232196808
2.6215624809265137,3.7100841999053955,0.3284273147583008
2.5933923721313477,3.72885799407959,0.33928313851356506
1.0709178447723389,1.5654616355895996,0.1462092250585556
1.0727052688598633,1.5920988321304321,0.15217790007591248
1.051998496055603,1.58681321144104,0.1549830436706543
1.0396589040756226,1.5945286750793457,0.15901176631450653
1.0199329853057861,1.5883795022964478,0.16135689616203308
1.0081100463867188,1.5955390930175781,0.16497758030891418
0.9955640435218811,1.6030162572860718,0.16864119470119476
0.9838980436325073,1.6098443269729614,0.1720319539308548
0.9764745831489563,1.6230891942977905,0.1760408580303192
0.9522205591201782,1.6100343465805054,0.17707133293151855
1.342498779296875,2.3093459606170654,0.2574752867221832
1.8759409189224243,3.2802321910858154,0.37038305401802063
1.795142650604248,3.1913235187530518,0.364714652299881
1.7635022401809692,3.190516471862793,0.36880576610565186
1.7821379899978638,3.2815611362457275,0.3836032748222351
1.7589410543441772,3.293419599533081,0.3890071213245392
2.392108917236328,4.557491302490234,0.5438739657402039
2.3507907390594482,4.560609340667725,0.5493960380554199
2.314816951751709,4.573756694793701,0.5561375617980957
2.2874398231506348,4.59969425201416,0.5642086863517761
2.2517247200012207,4.60781717300415,0.5700603723526001
2.2272729873657227,4.644713878631592,0.5792492032051086
2.1927716732025146,4.660296440124512,0.5856910347938538
2.1620006561279297,4.682403564453125,0.5929147601127625
2.129080057144165,4.696689128875732,0.5990211963653564
2.092595100402832,4.703796863555908,0.6041377782821655
2.0640904903411865,4.732565879821777,0.611741840839386
2.002678632736206,4.686498641967773,0.609732449054718
1.733717918395996,4.138461112976074,0.5417795181274414
1.7016347646713257,4.142744541168213,0.5456312894821167
1.6764065027236938,4.164941787719727,0.5517300367355347
1.6458362340927124,4.1765241622924805,0.5561984181404114
1.6174342632293701,4.195308208465576,0.5617133378982544
1.5901201963424683,4.213437080383301,0.5670576691627502
1.5632892847061157,4.231152057647705,0.572320818901062
1.5307399034500122,4.234228134155273,0.5755335092544556
1.505100965499878,4.259313583374023,0.5814628601074219
1.4735898971557617,4.269769191741943,0.5854781270027161
1.4502880573272705,4.301736354827881,0.5924167633056641
1.4177346229553223,4.303893089294434,0.5952205061912537
1.3805180788040161,4.291046142578125,0.5959576964378357
1.3588260412216187,4.329963684082031,0.6035195589065552
1.3337740898132324,4.3615570068359375,0.610115647315979
1.3022174835205078,4.37060022354126,0.6135651469230652
1.2693467140197754,4.37172794342041,0.6158682107925415
1.2430164813995361,4.394909858703613,0.6212998628616333
1.2119276523590088,4.403133869171143,0.624482274055481
1.183293104171753,4.422518730163574,0.6290076375007629
1.152883768081665,4.438114166259766,0.6330674886703491
1.1230764389038086,4.453313827514648,0.6370663642883301
1.0938349962234497,4.468142986297607,0.641008198261261
1.0661829710006714,4.490315914154053,0.6460466384887695
1.0360671281814575,4.5049262046813965,0.6497202515602112
1.0050017833709717,4.519522190093994,0.6533140540122986
0.9727180004119873,4.526224136352539,0.6557773351669312
0.9343846440315247,4.502345561981201,0.6538198590278625
0.7677971124649048,3.8334691524505615,0.557971179485321
0.7366608381271362,3.8156516551971436,0.5566794276237488
0.8495503067970276,4.57712984085083,0.6689784526824951
0.8210844397544861,4.605600833892822,0.6742818355560303
0.7896993160247803,4.618642330169678,0.6773662567138672
0.7584150433540344,4.631430625915527,0.6804423332214355
0.7297258377075195,4.659229755401611,0.6857525110244751
0.697807252407074,4.671642303466797,0.6888624429702759
0.6659255623817444,4.683873653411865,0.6915364861488342
0.634358286857605,4.699734687805176,0.6947188973426819
0.6030898690223694,4.71921443939209,0.6984759569168091
0.570854902267456,4.730788230895996,0.7010962963104248
0.5414096713066101,4.765145778656006,0.7071266770362854
0.5084420442581177,4.77632474899292,0.7097774147987366
0.4741092920303345,4.771925449371338,0.7097315788269043
0.44409698247909546,4.813471794128418,0.7164409160614014
0.41052016615867615,4.820181846618652,0.7180062532424927
0.37793034315109253,4.838201999664307,0.7212913632392883
0.3452869653701782,4.86373233795166,0.7257437705993652
0.31194913387298584,4.873579502105713,0.7278835773468018
0.27875983715057373,4.890968322753906,0.7308692336082458
0.245897114276886,4.919737339019775,0.7353843450546265
0.2118162363767624,4.92898416519165,0.7370189428329468
0.17641904950141907,4.922573566436768,0.7363540530204773
0.14309608936309814,4.954502582550049,0.7414546608924866
0.10877559334039688,4.96303129196167,0.7430922389030457
0.07471974939107895,4.9945268630981445,0.7480063438415527
0.039950378239154816,5.002657413482666,0.7491299510002136
0.004480088595300913,5.0221357345581055,0.7519882917404175
-0.030580874532461166,5.037502288818359,0.7542686462402344
-0.06580045819282532,5.052624702453613,0.7565487623214722
-0.10102222859859467,5.059776306152344,0.7576720118522644
-0.1368054747581482,5.0821380615234375,0.7610412240028381
-0.1726328581571579,5.100461006164551,0.7633553743362427
-0.20954683423042297,5.1223649978637695,0.7662315964698792
-0.24536795914173126,5.128596305847168,0.7668056488037109
-0.2843570113182068,5.1885786056518555,0.7754475474357605
-0.2708815932273865,4.384478569030762,0.6550277471542358
-0.29739314317703247,4.3247456550598145,0.6458935737609863
-0.32726767659187317,4.314971923828125,0.6438461542129517
-0.3589847981929779,4.335851669311523,0.6463525295257568
-0.38478854298591614,4.287226676940918,0.6385313868522644
-0.40961140394210815,4.234600067138672,0.6301565766334534
-0.4350564777851105,4.193352222442627,0.6235136985778809
-0.4574601948261261,4.125016212463379,0.612877607345581
-0.48225998878479004,4.091236591339111,0.6071425676345825
-0.5060747265815735,4.05350399017334,0.6007145047187805
-0.5268250107765198,3.9964826107025146,0.5914751291275024
-0.5495578646659851,3.958494186401367,0.5850954055786133
-0.5686374306678772,3.893502712249756,0.5747504234313965
-0.5916407704353333,3.8628897666931152,0.5695371031761169
-0.6122115850448608,3.8207521438598633,0.5624688267707825
-0.633296012878418,3.786201238632202,0.556354284286499
-0.6532322764396667,3.7477355003356934,0.5497095584869385
-0.6720595359802246,3.705353021621704,0.5425321459770203
-0.6903905868530273,3.658947229385376,0.534783661365509
-0.7128831744194031,3.6391046047210693,0.5309740304946899
-0.7303171753883362,3.5964465141296387,0.5237256288528442
-0.7444785833358765,3.5424630641937256,0.514657199382782
-0.7620800137519836,3.5073368549346924,0.5083774924278259
-0.784751832485199,3.494683265686035,0.5053708553314209
-0.8012042045593262,3.455496072769165,0.4985634982585907
-0.8144492506980896,3.4049577713012695,0.49016842246055603
-0.8379048705101013,3.399550199508667,0.4881635010242462
-0.8505567908287048,3.352830171585083,0.48005881905555725
-0.8698196411132812,3.3322060108184814,0.4757139980792999
-0.8904759287834167,3.3190412521362305,0.4724879264831543
-0.9012382626533508,3.268298387527466,0.46392446756362915
-0.9187202453613281,3.243626594543457,0.459110289812088
-0.9387855529785156,3.2301440238952637,0.455735445022583
-0.9565965533256531,3.2091095447540283,0.45116156339645386
-0.9692628979682922,3.17327618598938,0.4445773661136627
-0.9828591346740723,3.1410436630249023,0.43852972984313965
-1.0023658275604248,3.127084255218506,0.4350420832633972
-1.0145092010498047,3.0909154415130615,0.42850157618522644
-1.0283927917480469,3.062194585800171,0.42274534702301025
-1.040199875831604,3.029919147491455,0.4165363907814026
-1.0580594539642334,3.0158848762512207,0.4128707945346832
-1.0710572004318237,2.986981153488159,0.4071621298789978
-1.08926260471344,2.972510576248169,0.4034385681152344
-1.1016110181808472,2.9435226917266846,0.3976842761039734
-1.1217491626739502,2.936311960220337,0.3946863114833832
-1.135861873626709,2.914642095565796,0.3898077607154846
-1.1370816230773926,2.8603973388671875,0.38060814142227173
-1.145387053489685,2.824035167694092,0.3738086521625519
-1.1487659215927124,2.776949644088745,0.3656473457813263
-1.1299853324890137,2.6801421642303467,0.35076960921287537
-1.1188069581985474,2.605205774307251,0.33893242478370667
-1.1533986330032349,2.637103796005249,0.34102118015289307
-1.1623880863189697,2.6080942153930664,0.33514806628227234
-1.1838366985321045,2.6073532104492188,0.3329383134841919
-1.2015793323516846,2.5996508598327637,0.32959112524986267
-1.2321217060089111,2.6200859546661377,0.3298259377479553
-1.2463675737380981,2.6051583290100098,0.32558736205101013
-1.2544214725494385,2.5758416652679443,0.3194899559020996
-1.2999826669692993,2.6231038570404053,0.32285743951797485
-1.2862122058868408,2.552306890487671,0.3114672899246216
-1.2942681312561035,2.526872396469116,0.3057570457458496
-1.3078560829162598,2.5115556716918945,0.3012421131134033
-1.314589500427246,2.4821455478668213,0.29499194025993347
-1.3278437852859497,2.466712713241577,0.29035142064094543
-1.3292036056518555,2.431062936782837,0.2832763195037842
-1.345528244972229,2.4225215911865234,0.27935346961021423
-1.3529185056686401,2.3965771198272705,0.2733360528945923
-1.3695499897003174,2.3875749111175537,0.26925918459892273
-1.3773396015167236,2.365577220916748,0.26359105110168457
-1.3809237480163574,2.3368828296661377,0.25723668932914734
-1.413344144821167,2.35427188873291,0.25571882724761963
-1.4257220029830933,2.3381717205047607,0.25053924322128296
-1.4368035793304443,2.322716474533081,0.2453087866306305
-1.4167028665542603,2.2577755451202393,0.23496262729167938
-1.4470807313919067,2.2712881565093994,0.23257604241371155
-1.462973952293396,2.261587381362915,0.2276296615600586
-1.4711809158325195,2.2427923679351807,0.22175726294517517
-1.488179087638855,2.2367196083068848,0.21706657111644745
-1.5017726421356201,2.2234320640563965,0.21141543984413147
-1.4722180366516113,2.149834156036377,0.2000647336244583
-1.503977656364441,2.1662778854370117,0.19707193970680237
-1.4922351837158203,2.117959976196289,0.18787634372711182
-1.4992775917053223,2.099132776260376,0.1813301295042038
-1.5124770402908325,2.0901293754577637,0.17562659084796906
-1.5133183002471924,2.061102867126465,0.16771572828292847
-1.5217934846878052,2.0456509590148926,0.16088950634002686
-1.5229045152664185,2.1493372917175293,-0.1157437264919281
-1.511135458946228,2.1667544841766357,-0.12324618548154831
-1.4904913902282715,2.171144723892212,-0.12981589138507843
-1.4833842515945435,2.1944596767425537,-0.1372787207365036
-1.4709854125976562,2.211742639541626,-0.14431621134281158
-1.4550331830978394,2.221853256225586,-0.1505938172340393
-1.4515931606292725,2.2515664100646973,-0.15811698138713837
-1.4409129619598389,2.2718358039855957,-0.16505075991153717
-1.4326395988464355,2.2950196266174316,-0.1720772236585617
-1.4118870496749878,2.298252582550049,-0.17746657133102417
-1.4148359298706055,2.3416295051574707,-0.18601703643798828
-1.3900960683822632,2.337825298309326,-0.19065091013908386
-1.3772567510604858,2.353982448577881,-0.19682171940803528
-1.359466552734375,2.3638181686401367,-0.20253774523735046
-1.3423205614089966,2.373122215270996,-0.20802301168441772
-1.3331140279769897,2.39567494392395,-0.21458876132965088
-1.3228874206542969,2.4186203479766846,-0.22119325399398804
-1.3124231100082397,2.4415128231048584,-0.22784337401390076
-1.3003541231155396,2.4606828689575195,-0.23408083617687225
-1.2898297309875488,2.4832754135131836,-0.2405845820903778
