X,Y,Z
-2.9264533519744873,4.798727512359619,0.7307223081588745
-2.9659695625305176,4.794421672821045,0.7209586501121521
-3.0036778450012207,4.786397457122803,0.710565447807312
-3.0064525604248047,4.7177324295043945,0.6905377507209778
-3.0398151874542236,4.698197364807129,0.677543580532074
-3.044893741607666,4.641183376312256,0.6590832471847534
-3.047769069671631,4.580670356750488,0.6401380300521851
-3.063035011291504,4.534983158111572,0.6226879954338074
-3.1111738681793213,4.541698455810547,0.6121991872787476
-3.1542396545410156,4.542212963104248,0.600400447845459
-2.8458168506622314,4.039386749267578,0.5226439237594604
-6.753639221191406,9.449036598205566,1.1949599981307983
-2.908953905105591,4.016972541809082,0.49589481949806213
-2.945530891418457,4.01139497756958,0.48224425315856934
-2.964041233062744,3.9802472591400146,0.46485111117362976
-2.453338861465454,3.4629600048065186,-0.2270115315914154
-2.450225353240967,3.5118298530578613,-0.24393397569656372
-2.86680006980896,4.175571441650391,-0.3061967194080353
-2.8452839851379395,4.207855701446533,-0.32375890016555786
-2.8374948501586914,4.263415813446045,-0.34303703904151917
-2.7862677574157715,4.253874778747559,-0.3568708300590515
-2.7686924934387207,4.291869640350342,-0.3738982081413269
-2.76788592338562,4.360374927520752,-0.393826425075531
-1.2787408828735352,2.0478365421295166,-0.19148272275924683
-1.2641786336898804,2.0562052726745605,-0.19837018847465515
-2.1413557529449463,3.5401523113250732,-0.3519614636898041
-2.089012384414673,3.511368751525879,-0.3593483865261078
-2.643921136856079,4.515308856964111,-0.47454872727394104
-2.6144018173217773,4.53990364074707,-0.48975369334220886
-1.2031418085098267,2.124866008758545,-0.2349802404642105
-2.5704360008239746,4.615309238433838,-0.5224438309669495
-2.5505592823028564,4.655791759490967,-0.5389631986618042
-2.5271530151367188,4.693417072296143,-0.555188775062561
-2.502973794937134,4.7310662269592285,-0.5716667175292969
-2.476572275161743,4.760829925537109,-0.5867000222206116
-2.4511165618896484,4.79414176940918,-0.602176308631897
-2.422961473464966,4.824128150939941,-0.6172441244125366
-2.4052741527557373,4.874577045440674,-0.6349194645881653
-2.3699541091918945,4.890105247497559,-0.6481907367706299
-2.341019630432129,4.919479846954346,-0.66300368309021
-1.5486811399459839,3.315568447113037,-0.45414525270462036
-1.5104259252548218,3.2936716079711914,-0.45820915699005127
-1.0290064811706543,2.2856929302215576,-0.32283249497413635
-0.9999129176139832,2.2639353275299072,-0.3244289457798004
-0.9862567782402039,2.277540683746338,-0.3311387896537781
-0.9730815291404724,2.2908127307891846,-0.3376687467098236
-0.9568192362785339,2.296839952468872,-0.34315288066864014
-0.9431231021881104,2.3100550174713135,-0.34957483410835266
-0.9350417852401733,2.337533473968506,-0.35822340846061707
-0.920966625213623,2.3505899906158447,-0.36473551392555237
-0.9015659689903259,2.348996162414551,-0.36889851093292236
-0.8928318619728088,2.376304864883423,-0.37744951248168945
-0.8824259042739868,2.3999555110931396,-0.38550063967704773
-0.8732428550720215,2.4271233081817627,-0.39415454864501953
-0.8609012961387634,2.4470486640930176,-0.4017791152000427
-0.8459200263023376,2.4596121311187744,-0.4079571068286896
-0.8307731747627258,2.472085952758789,-0.41413453221321106
-0.8216689825057983,2.502729654312134,-0.4233928918838501
-0.8063769936561584,2.514958143234253,-0.4295896291732788
-0.8020287752151489,2.564021348953247,-0.4420420229434967
-0.8186339735984802,2.683088779449463,-0.46667537093162537
-0.7996166348457336,2.6879539489746094,-0.4716259837150574
-0.7720907926559448,2.6630613803863525,-0.47131210565567017
-0.7553674578666687,2.675020694732666,-0.47733274102211
-0.7363789081573486,2.679497241973877,-0.4818747043609619
-0.7131068110466003,2.6690258979797363,-0.48378777503967285
-0.708794891834259,2.729013204574585,-0.4984738826751709
-0.7365927696228027,2.9195501804351807,-0.5372642874717712
-0.7305396795272827,2.9836103916168213,-0.5528172850608826
-0.7120949029922485,2.999069929122925,-0.5594784617424011
-0.6940993666648865,3.0181915760040283,-0.5669252872467041
-0.6745631098747253,3.0296273231506348,-0.5729197263717651
-0.6669525504112244,3.0973451137542725,-0.5891875624656677
-0.6795545220375061,3.266556739807129,-0.625023603439331
-0.596164882183075,2.9693286418914795,-0.5714808702468872
-0.5596951842308044,2.8935956954956055,-0.5602187514305115
-0.5471200346946716,2.9382481575012207,-0.5718535780906677
-0.5238124132156372,2.926237106323242,-0.572335958480835
-0.5000497698783875,2.9102673530578613,-0.5720393657684326
-0.4877937436103821,2.962205648422241,-0.585142195224762
-0.46671000123023987,2.964942693710327,-0.5884665846824646
-0.4414174258708954,2.9372360706329346,-0.5853246450424194
-0.4170556664466858,2.9131271839141846,-0.5828849673271179
-0.39257994294166565,2.8850290775299072,-0.5796240568161011
-0.3680264353752136,2.852943181991577,-0.5755370259284973
-0.3425174653530121,2.809372663497925,-0.5685532093048096
-0.31601035594940186,2.754218101501465,-0.5592044591903687
-0.2951412498950958,2.7406930923461914,-0.5582566857337952
-0.2729634642601013,2.711777925491333,-0.554169237613678
-0.25405436754226685,2.7132532596588135,-0.5559356808662415
-0.233154296875,2.691760301589966,-0.5528069734573364
-0.21254466474056244,2.673948049545288,-0.5504637360572815
-0.1922658234834671,2.652148723602295,-0.5472820401191711
-0.1733202338218689,2.6455042362213135,-0.5470701456069946
-0.1531122326850891,2.6158945560455322,-0.5417178273200989
-0.13492026925086975,2.61669659614563,-0.5426798462867737
-0.1158767119050026,2.60591983795166,-0.541278600692749
-0.09716472029685974,2.591176748275757,-0.5390569567680359
-0.07995054125785828,2.6184563636779785,-0.5450678467750549
-0.061280183494091034,2.5997474193573,-0.5414992570877075
-0.04306459426879883,2.592378616333008,-0.5403153896331787
-0.024640388786792755,2.5848841667175293,-0.5391361713409424
-0.0065812235698103905,2.562033176422119,-0.5344287753105164
0.011104320175945759,2.5314559936523438,-0.5279023051261902
0.02914487011730671,2.5695855617523193,-0.5357292890548706
0.0471370629966259,2.576998472213745,-0.5371760725975037
0.06484830379486084,2.569019079208374,-0.5353137850761414
0.08299250900745392,2.5686426162719727,-0.5346148610115051
0.10144226998090744,2.5834333896636963,-0.5371052622795105
0.11868862807750702,2.5675268173217773,-0.533239483833313
0.13815687596797943,2.597339391708374,-0.538891613483429
0.1552867889404297,2.5812857151031494,-0.5345560908317566
0.17533569037914276,2.6071033477783203,-0.5388196110725403
0.19404104351997375,2.6137096881866455,-0.5391421914100647
0.2134663611650467,2.627810478210449,-0.5410279035568237
0.23109713196754456,2.6189522743225098,-0.5379201173782349
0.25369447469711304,2.663370132446289,-0.545489490032196
0.27528074383735657,2.6885433197021484,-0.5490769147872925
0.29399120807647705,2.6869378089904785,-0.547233521938324
0.31357723474502563,2.69282603263855,-0.5468443036079407
0.3379482626914978,2.7366719245910645,-0.553691029548645
0.3579862415790558,2.7423384189605713,-0.5528001189231873
0.3795407712459564,2.7554070949554443,-0.5533719062805176
0.4069822430610657,2.8100686073303223,-0.562308669090271
0.42655447125434875,2.8077499866485596,-0.5593770146369934
0.4509269893169403,2.835597515106201,-0.5623586177825928
0.4776366055011749,2.87459135055542,-0.5675076842308044
0.5029695630073547,2.9020233154296875,-0.570334792137146
0.5337995290756226,2.9556753635406494,-0.5779597163200378
0.569304883480072,3.0317907333374023,-0.5896297097206116
0.5904754996299744,3.028482437133789,-0.5857978463172913
0.6192804574966431,3.0626380443573,-0.5891950726509094
0.6509432196617126,3.1078405380249023,-0.594582200050354
0.6811501383781433,3.141533851623535,-0.5971890091896057
0.7173621654510498,3.2012784481048584,-0.604720950126648
0.751915454864502,3.249450445175171,-0.6099452376365662
0.7952351570129395,3.330955743789673,-0.6212875843048096
0.8323212265968323,3.382277488708496,-0.6264209151268005
0.8780946135520935,3.4630255699157715,-0.6366826295852661
0.9081687927246094,3.4801387786865234,-0.6352002620697021
0.9644819498062134,3.593620538711548,-0.6511460542678833
1.0254446268081665,3.717733860015869,-0.6684342622756958
1.079692006111145,3.811668634414673,-0.6797637343406677
1.1455336809158325,3.938217878341675,-0.6964860558509827
1.202946662902832,4.030959129333496,-0.7069944143295288
1.2706999778747559,4.152645587921143,-0.722139298915863
1.3192344903945923,4.2075700759887695,-0.7250516414642334
1.3780540227890015,4.291402816772461,-0.732729971408844
1.431719422340393,4.3524394035339355,-0.7361074090003967
1.4722799062728882,4.372884273529053,-0.7325910925865173
1.495249629020691,4.342087268829346,-0.7200551629066467
1.5306748151779175,4.347564220428467,-0.7135822772979736
1.5507454872131348,4.309091091156006,-0.6999089121818542
1.5677733421325684,4.263236045837402,-0.6851599216461182
1.5952430963516235,4.246269226074219,-0.6746988892555237
1.3175123929977417,3.435410261154175,-0.5396482348442078
1.3444522619247437,3.4344420433044434,-0.5332186818122864
1.3773266077041626,3.447567939758301,-0.5289117693901062
1.4014204740524292,3.4390408992767334,-0.5210736393928528
1.4227495193481445,3.423105239868164,-0.5119597315788269
1.4376806020736694,3.392836093902588,-0.500837504863739
1.461654782295227,3.3837497234344482,-0.4928547143936157
1.4852240085601807,3.374643087387085,-0.48476263880729675
1.5085666179656982,3.3654403686523438,-0.4765920042991638
1.5292837619781494,3.348741292953491,-0.46720409393310547
1.5496913194656372,3.3319544792175293,-0.45789840817451477
1.5761877298355103,3.3292341232299805,-0.4504340887069702
1.5890345573425293,3.2984485626220703,-0.4391607940196991
1.6120591163635254,3.288386583328247,-0.43062159419059753
1.9978748559951782,4.003528118133545,-0.5152018070220947
2.0132415294647217,3.966733932495117,-0.501488208770752
2.0368781089782715,3.947244644165039,-0.49001544713974
2.0645370483398438,3.9341835975646973,-0.4791799783706665
2.077727794647217,3.8933613300323486,-0.46496495604515076
2.0728647708892822,3.8222591876983643,-0.4472438395023346
2.123804807662964,3.8532633781433105,-0.44135206937789917
2.1225273609161377,3.788536787033081,-0.42436930537223816
2.160569190979004,3.795084238052368,-0.4154275953769684
2.1746349334716797,3.761322498321533,-0.4020443856716156
2.192678213119507,3.7339959144592285,-0.3892977237701416
2.235543966293335,3.7460148334503174,-0.38017937541007996
2.236908197402954,3.691861629486084,-0.36454498767852783
2.265875816345215,3.6844258308410645,-0.3536323010921478
2.308384418487549,3.6958768367767334,-0.34396904706954956
2.308952569961548,3.6414146423339844,-0.3281811475753784
2.337953805923462,3.633223295211792,-0.3164752721786499
2.3759334087371826,3.63753604888916,-0.30557981133461
2.384040594100952,3.595933198928833,-0.29065778851509094
2.3991236686706543,3.568117380142212,-0.2769911289215088
2.4499351978302,3.591204881668091,-0.2667819559574127
2.457566738128662,3.5491082668304443,-0.25112390518188477
2.4807612895965576,3.5338637828826904,-0.23769092559814453
2.527691602706909,3.5493831634521484,-0.2255595624446869
2.5473341941833496,3.52659273147583,-0.2105722874403
2.5608980655670166,3.4982686042785645,-0.1953471302986145
2.1851680278778076,2.9421064853668213,-0.15180891752243042
2.7943973541259766,3.930412769317627,0.5299606919288635
2.7771434783935547,3.96429705619812,0.5471522212028503
2.726003885269165,3.9552199840545654,0.5580588579177856
2.699320077896118,3.980794906616211,0.5734594464302063
2.6943459510803223,4.033621311187744,0.5919647812843323
2.6591227054595947,4.045690536499023,0.604301393032074
2.639132022857666,4.084441184997559,0.6207244992256165
2.5866539478302,4.065611362457275,0.6273336410522461
2.5632665157318115,4.092268466949463,0.6407496333122253
2.5557096004486084,4.149801254272461,0.6587222218513489
2.5198161602020264,4.160795211791992,0.669284999370575
2.4974279403686523,4.190516948699951,0.6824548244476318
2.48036789894104,4.230287551879883,0.6970590353012085
2.4457712173461914,4.244168758392334,0.7071076035499573
2.413431406021118,4.260893821716309,0.717563807964325
2.383028745651245,4.276318073272705,0.727354109287262
2.290432929992676,4.18015718460083,0.7180625200271606
2.254882574081421,4.189087867736816,0.726089596748352
2.204885482788086,4.170406818389893,0.7293094992637634
2.206817626953125,4.246312141418457,0.748802900314331
2.173085927963257,4.253485202789307,0.7562081813812256
2.1444942951202393,4.275086402893066,0.7659611105918884
2.120713233947754,4.306954860687256,0.7773127555847168
2.0868074893951416,4.31772518157959,0.7848653197288513
2.0644495487213135,4.348387718200684,0.7958011031150818
2.0368714332580566,4.36845064163208,0.8048669695854187
2.0044922828674316,4.382032871246338,0.8122924566268921
1.9648529291152954,4.381686687469482,0.8171480298042297
2.003708600997925,4.556845664978027,0.8548091650009155
1.9806255102157593,4.590737819671631,0.8659940958023071
1.9541163444519043,4.617437362670898,0.8759088516235352
1.908482313156128,4.601879596710205,0.8773667812347412
1.8911254405975342,4.65758752822876,0.8923770189285278
1.8395824432373047,4.627272129058838,0.8908759355545044
1.8319666385650635,4.703397750854492,0.9097388982772827
1.8110798597335815,4.747267246246338,0.9224887490272522
1.7770843505859375,4.7588725090026855,0.9287868142127991
1.3318114280700684,3.6484920978546143,0.7149211764335632
1.3178867101669312,3.6934571266174316,0.7265924215316772
1.286232352256775,3.6874492168426514,0.7282318472862244
2.9717326164245605,8.713723182678223,1.7274311780929565
1.623966097831726,4.872325420379639,0.9696042537689209
1.5893765687942505,4.8866801261901855,0.9757272005081177
1.5677295923233032,4.9409637451171875,0.9896751642227173
1.5340369939804077,4.958517074584961,0.9963506460189819
1.4877640008926392,4.931527137756348,0.9940305948257446
2.495187520980835,8.483647346496582,1.7153583765029907
1.4533966779708862,5.071499347686768,1.0286664962768555
1.4141459465026855,5.073689937591553,1.0317765474319458
1.3373334407806396,4.934898853302002,1.0060735940933228
1.3036363124847412,4.9509501457214355,1.0119154453277588
1.2667293548583984,4.95174503326416,1.0146362781524658
1.2385081052780151,4.985654354095459,1.024178385734558
1.2047374248504639,5.000919342041016,1.0300077199935913
1.1724299192428589,5.02357292175293,1.0367289781570435
1.144737720489502,5.068482875823975,1.0480152368545532
1.1099824905395508,5.083304405212402,1.053148865699768
1.072475552558899,5.082793235778809,1.0551269054412842
1.0393881797790527,5.104550361633301,1.061797022819519
1.0059314966201782,5.122221946716309,1.0676437616348267
1.5846318006515503,8.38092041015625,1.749717116355896
1.5091642141342163,8.30445384979248,1.7362009286880493
1.4591864347457886,8.366806030273438,1.751786231994629
1.3855818510055542,8.296908378601074,1.7397958040237427
1.3343311548233032,8.346986770629883,1.7529501914978027
1.274942398071289,8.347591400146484,1.7558107376098633
1.2104318141937256,8.313807487487793,1.7512056827545166
1.1525958776474,8.329054832458496,1.75607168674469
1.0865975618362427,8.290947914123535,1.7498003244400024
1.0288276672363281,8.30533218383789,1.7546569108963013
0.9691047072410583,8.296440124511719,1.7546533346176147
0.9121531844139099,8.30990982055664,1.7594596147537231
0.4402255117893219,4.28506326675415,0.9083298444747925
0.40874603390693665,4.272569179534912,0.9063000679016113
0.3825637102127075,4.324649333953857,0.9178581833839417
0.3527538478374481,4.334628105163574,0.9205252528190613
0.3164079189300537,4.256743907928467,0.904566764831543
0.28957998752593994,4.300565242767334,0.9145063757896423
0.34139880537986755,5.656245708465576,1.2036702632904053
0.3009098768234253,5.650625228881836,1.2032963037490845
0.2645210921764374,5.7211761474609375,1.218474268913269
0.22476330399513245,5.730406284332275,1.2206538915634155
0.18655569851398468,5.788997650146484,1.2334108352661133
0.14635467529296875,5.797678470611572,1.2355964183807373
0.10654260963201523,5.86338472366333,1.2500057220458984
0.06570159643888474,5.863863945007324,1.250569462776184
0.024907918646931648,5.86414909362793,1.25071120262146
-0.02244420163333416,8.274876594543457,1.7644764184951782
-0.07973974198102951,8.244036674499512,1.7575899362564087
-0.13919521868228912,8.304464340209961,1.7702422142028809
-0.19743092358112335,8.330113410949707,1.7755701541900635
-0.18916834890842438,6.171045303344727,1.3153228759765625
-0.23247374594211578,6.181094169616699,1.3174880743026733
-0.2730637788772583,6.12993049621582,1.3059122562408447
-0.18578994274139404,3.6097264289855957,0.7685643434524536
-0.20962467789649963,3.5817742347717285,0.762198269367218
-0.40723279118537903,6.218951225280762,1.3227415084838867
-0.45269474387168884,6.246706008911133,1.3280580043792725
-0.500681459903717,6.300796031951904,1.3390297889709473
-0.5464179515838623,6.320291996002197,1.3425551652908325
-0.594004213809967,6.35099458694458,1.347707986831665
-0.6458271741867065,6.427051067352295,1.3625510931015015
-0.6942352056503296,6.4608964920043945,1.3684865236282349
-0.7381482124328613,6.448783874511719,1.364741325378418
-0.777002215385437,6.39461088180542,1.352166771888733
-0.8163553476333618,6.34390926361084,1.3403912782669067
-0.8544895052909851,6.296993255615234,1.3289929628372192
-0.8955343961715698,6.276464462280273,1.3228281736373901
-0.943696916103363,6.304832935333252,1.3270263671875
-0.992954671382904,6.336608409881592,1.3319811820983887
-1.045304775238037,6.375352382659912,1.3383898735046387
-1.099388599395752,6.425116062164307,1.3471810817718506
-1.1528650522232056,6.466912746429443,1.3543314933776855
-1.2054572105407715,6.504852771759033,1.359784722328186
-1.2579717636108398,6.5386128425598145,1.3643910884857178
-1.3116801977157593,6.575730800628662,1.369734287261963
-1.3710834980010986,6.63093376159668,1.3788049221038818
-1.4236695766448975,6.652034282684326,1.3808410167694092
-1.46014404296875,6.5979485511779785,1.367337942123413
-1.4961013793945312,6.547656059265137,1.354174256324768
-1.5301698446273804,6.49360990524292,1.3399184942245483
-0.6871944069862366,2.828796148300171,0.5823671817779541
-0.6944474577903748,2.7761647701263428,0.5702579021453857
-0.7138209342956543,2.7716965675354004,0.568065345287323
-0.7381030917167664,2.7856061458587646,0.5696566104888916
-0.7563961148262024,2.7771928310394287,0.5666012167930603
-1.7256633043289185,6.168749809265137,1.2549225091934204
-1.7654188871383667,6.150669097900391,1.2477396726608276
-1.8017587661743164,6.1212897300720215,1.2383371591567993
-1.833399772644043,6.073011875152588,1.2251052856445312
-1.8667211532592773,6.03190279006958,1.2134169340133667
-1.9012812376022339,5.994129180908203,1.202309489250183
-1.9275243282318115,5.938642501831055,1.1870805025100708
-1.956730604171753,5.893979072570801,1.1741222143173218
-1.984245777130127,5.84552001953125,1.1605024337768555
-2.0175976753234863,5.81101655960083,1.1496106386184692
-2.046825408935547,5.765420913696289,1.1366069316864014
-2.0745978355407715,5.7159743309021,1.122724175453186
-2.1051909923553467,5.681602954864502,1.1113426685333252
-2.136770248413086,5.650656223297119,1.100714087486267
-2.1751091480255127,5.637399196624756,1.093576431274414
-2.241464138031006,5.69136381149292,1.0993164777755737
-2.306549310684204,5.7372918128967285,1.1033655405044556
-2.3430726528167725,5.715671062469482,1.0941354036331177
-2.375519275665283,5.687153339385986,1.0832409858703613
-2.3880972862243652,5.61240816116333,1.0636616945266724
-2.4466474056243896,5.643285274505615,1.064026951789856
-2.5260696411132812,5.715224266052246,1.0718210935592651
-3.976872205734253,8.83095932006836,1.6474003791809082
-4.052064418792725,8.841775894165039,1.6395456790924072
-4.1667280197143555,8.935751914978027,1.6470004320144653
-4.253578186035156,8.965751647949219,1.6424627304077148
-4.321254253387451,8.94477367401123,1.6279817819595337
-4.42854642868042,9.006813049316406,1.6287658214569092
-4.506482124328613,9.014155387878418,1.6186705827713013
-4.596222877502441,9.04532241821289,1.6125730276107788
-4.711739540100098,9.12352466583252,1.6146448850631714
-4.790650367736816,9.120393753051758,1.6015626192092896
-4.9109272956848145,9.190945625305176,1.6010953187942505
-1.1735622882843018,2.1621360778808594,0.37344709038734436
-1.1953831911087036,2.1685800552368164,0.3713018596172333
-5.208517074584961,9.30220890045166,1.5784131288528442
-2.5197553634643555,4.427584648132324,0.7441328167915344
-2.53774356842041,4.387761116027832,0.7300752997398376
-1.1923421621322632,2.0311760902404785,0.3344227373600006
-1.2513307332992554,2.100436210632324,0.34214794635772705
-2.920930862426758,4.8270697593688965,0.7772707939147949
-2.979600191116333,4.8476433753967285,0.7713993191719055
-2.995769500732422,4.803215503692627,0.7545173168182373
-3.023136615753174,4.778825759887695,0.7410144209861755
-3.048121929168701,4.746567726135254,0.7257430553436279
-3.033276081085205,4.652058124542236,0.7009629607200623
-3.0487327575683594,4.61146879196167,0.6840758919715881
-3.066316843032837,4.573830604553223,0.6675318479537964
-3.111877202987671,4.5732645988464355,0.6556330919265747
-3.108309030532837,4.502554893493652,0.6335713267326355
-2.9548680782318115,4.223657608032227,0.5827747583389282
-2.853139877319336,4.021854877471924,0.5433042645454407
-2.900527000427246,4.028193950653076,0.5315412878990173
-2.9078454971313477,3.986459732055664,0.5132994651794434
-2.957411766052246,4.000258445739746,0.501646101474762
-2.4834892749786377,3.479921817779541,-0.22699344158172607
-2.4443840980529785,3.477893352508545,-0.2412736564874649
-2.882607936859131,4.164728164672852,-0.305462121963501
-2.8549208641052246,4.19183874130249,-0.3239721655845642
-2.851106643676758,4.2495503425598145,-0.3437929153442383
-2.834474802017212,4.291988372802734,-0.36263135075569153
-2.797269821166992,4.305563449859619,-0.3792251944541931
-2.7665605545043945,4.323935508728027,-0.39513763785362244
-2.7343931198120117,4.342866897583008,-0.4111069440841675
-1.2750370502471924,2.058410882949829,-0.20151185989379883
-1.2441895008087158,2.0401201248168945,-0.2059231698513031
-2.139695167541504,3.5666849613189697,-0.37096092104911804
-2.6506574153900146,4.492496967315674,-0.48070526123046875
-2.6223952770233154,4.516457557678223,-0.4961353838443756
-1.2033437490463257,2.106431484222412,-0.23731008172035217
-2.590486526489258,4.611950874328613,-0.5324119329452515
-2.561898708343506,4.639485836029053,-0.5484185814857483
-2.532500743865967,4.662739276885986,-0.5635021924972534
-2.520169258117676,4.7205657958984375,-0.5828179121017456
-2.492403030395508,4.751037120819092,-0.5989170074462891
-2.4673407077789307,4.784178256988525,-0.615025520324707
-2.439466953277588,4.81402587890625,-0.6309505701065063
-2.4179298877716064,4.857736110687256,-0.6484858989715576
-2.3926925659179688,4.894266128540039,-0.6651387214660645
-2.3545117378234863,4.902299880981445,-0.6776917576789856
-1.532347559928894,3.248955249786377,-0.4566386640071869
-1.0496758222579956,2.2674524784088135,-0.32384809851646423
-1.0057841539382935,2.2142679691314697,-0.32130560278892517
-0.9900511503219604,2.2205018997192383,-0.32709798216819763
-0.9833574891090393,2.247992515563965,-0.3360039293766022
-0.9716166257858276,2.2648656368255615,-0.34334853291511536
-0.9613715410232544,2.285159111022949,-0.35122546553611755
-0.9507653713226318,2.3054392337799072,-0.35921183228492737
-0.9371341466903687,2.31847882270813,-0.36592456698417664
-0.9260885119438171,2.338663101196289,-0.37377116084098816
-0.9121554493904114,2.351531505584717,-0.38046854734420776
-0.9023661613464355,2.3750762939453125,-0.38891494274139404
-0.8904736042022705,2.3951327800750732,-0.3968241512775421
-0.8785387277603149,2.415071725845337,-0.4046294391155243
-0.8716394305229187,2.4494452476501465,-0.41492706537246704
-0.8542957901954651,2.4546308517456055,-0.420317679643631
-0.8368027806282043,2.459744453430176,-0.4255824089050293
-0.8395483493804932,2.527026414871216,-0.44167637825012207
-0.8762173652648926,2.700578212738037,-0.47667694091796875
-0.9001544713973999,2.841552257537842,-0.5064362287521362
-0.8970600962638855,2.902007818222046,-0.5220645666122437
-0.825263261795044,2.737813949584961,-0.496904194355011
-0.7905933260917664,2.6909751892089844,-0.49270620942115784
-0.7660131454467773,2.677123785018921,-0.49449238181114197
-0.7471281886100769,2.6815261840820312,-0.4995073676109314
-0.7301391959190369,2.6932859420776367,-0.5056172609329224
-0.7139980792999268,2.7086422443389893,-0.5124547481536865
-0.7101683616638184,2.772242784500122,-0.5285272002220154
-0.7347869277000427,2.955192804336548,-0.5678017735481262
-0.7138972282409668,2.959399700164795,-0.5725204348564148
-0.6982211470603943,2.98587965965271,-0.5815802812576294
-0.6780575513839722,2.9935379028320312,-0.5870205760002136
-0.6447454690933228,2.9410932064056396,-0.5806217789649963
-0.6189432144165039,2.922254800796509,-0.5805128812789917
-0.5868813991546631,2.869378089904785,-0.5733526349067688
-0.5622680187225342,2.8500640392303467,-0.5728349685668945
-0.5465599298477173,2.8757193088531494,-0.5813806056976318
-0.5181083083152771,2.833496332168579,-0.5759941339492798
-0.48065656423568726,2.7383437156677246,-0.5594515800476074
-0.4588908851146698,2.725867986679077,-0.5596652030944824
-0.4312525987625122,2.6754350662231445,-0.5520408749580383
-0.4061099588871002,2.6361300945281982,-0.5465802550315857
-0.3854033350944519,2.623216390609741,-0.5460925698280334
-0.35982033610343933,2.5760860443115234,-0.53849196434021
-0.33981451392173767,2.562828779220581,-0.5378990769386292
-0.3200303018093109,2.549420118331909,-0.5372724533081055
-0.3013317584991455,2.5435478687286377,-0.5378044247627258
-0.28021031618118286,2.514765501022339,-0.5333947539329529
-0.26067623496055603,2.4972267150878906,-0.5313646197319031
-0.2407321035861969,2.475762367248535,-0.5285261273384094
-0.22073639929294586,2.4465749263763428,-0.5237153768539429
-0.20431119203567505,2.45535945892334,-0.526786744594574
-0.18429148197174072,2.418329954147339,-0.5200393795967102
-0.1674528568983078,2.4192492961883545,-0.5214574933052063
-0.1500852406024933,2.4162771701812744,-0.5219589471817017
-0.13159584999084473,2.3865725994110107,-0.5162434577941895
-0.11499650776386261,2.3872416019439697,-0.5171141624450684
-0.0980798602104187,2.3801658153533936,-0.5163299441337585
-0.08126714825630188,2.372971773147583,-0.5155400633811951
-0.06427410989999771,2.365770101547241,-0.5142748951911926
-0.0476701483130455,2.358454465866089,-0.5129491686820984
-0.03106982447206974,2.3433902263641357,-0.5099601745605469
-0.014626460149884224,2.316760301589966,-0.5044732093811035
0.0014685653150081635,2.3587870597839355,-0.5136337280273438
0.017570696771144867,2.2862422466278076,-0.49765080213546753
0.03323686122894287,2.2708396911621094,-0.4941403567790985
0.04954806715250015,2.2934908866882324,-0.49893370270729065
0.0659421905875206,2.308427333831787,-0.5019095540046692
0.08283855020999908,2.3309571743011475,-0.5061652064323425
0.09954795986413956,2.341923236846924,-0.5079255700111389
0.11686815321445465,2.3565731048583984,-0.5104931592941284
0.13323548436164856,2.3558619022369385,-0.5097650289535522
0.14960162341594696,2.35514760017395,-0.5085239410400391
0.16866768896579742,2.3924143314361572,-0.515487015247345
0.18530860543251038,2.3914554119110107,-0.5142213702201843
0.20289374887943268,2.3979718685150146,-0.5145658850669861
0.22028017044067383,2.40445876121521,-0.5145684480667114
0.2325371503829956,2.357616424560547,-0.5030403137207031
0.254975825548172,2.4133217334747314,-0.5134119391441345
0.27691739797592163,2.4574475288391113,-0.5212811827659607
0.2961471974849701,2.471043825149536,-0.5224269032478333
0.31622791290283203,2.4921793937683105,-0.5248644948005676
0.33612796664237976,2.509368419647217,-0.5264604091644287
0.36006006598472595,2.552915334701538,-0.533555805683136
0.3801312744617462,2.5659945011138916,-0.534222424030304
0.4036538898944855,2.597886800765991,-0.5382605791091919
0.42180559039115906,2.5956223011016846,-0.5352582931518555
0.447609543800354,2.638526678085327,-0.5415555834770203
0.47336578369140625,2.6774420738220215,-0.5469769835472107
0.49759283661842346,2.704920530319214,-0.5496161580085754
0.5272360444068909,2.7585713863372803,-0.5573915839195251
0.5528514385223389,2.785581350326538,-0.5596457719802856
0.5723798871040344,2.7823898792266846,-0.5558762550354004
0.6070467829704285,2.850365400314331,-0.5660277605056763
0.6369189023971558,2.8918519020080566,-0.5705444812774658
0.6665273904800415,2.9293408393859863,-0.5741939544677734
0.6962146162986755,2.962759494781494,-0.576900839805603
0.7205873131752014,2.9736313819885254,-0.5751442909240723
0.7572034597396851,3.0328235626220703,-0.582269549369812
0.8042203783988953,3.12888765335083,-0.5962740182876587
0.8507472276687622,3.21704363822937,-0.6085072159767151
0.8949599862098694,3.2898097038269043,-0.617527961730957
0.9376131296157837,3.354962110519409,-0.6245595216751099
0.9791153073310852,3.4123189449310303,-0.6299343705177307
1.0324344635009766,3.506169557571411,-0.641801655292511
1.091621994972229,3.6142148971557617,-0.6559541821479797
1.1504087448120117,3.7142889499664307,-0.667913019657135
1.2066367864608765,3.8029263019561768,-0.6774774193763733
1.304746389389038,4.015546798706055,-0.7086052298545837
1.3440194129943848,4.0405755043029785,-0.7062034010887146
1.4257640838623047,4.189424991607666,-0.7249372005462646
1.4841841459274292,4.264662265777588,-0.7302943468093872
1.5339778661727905,4.310070514678955,-0.7301762700080872
1.569689393043518,4.3152055740356445,-0.7232191562652588
1.5919727087020874,4.2839274406433105,-0.710078239440918
1.6136513948440552,4.252649307250977,-0.6967630386352539
1.6405432224273682,4.235650062561035,-0.6858765482902527
1.6411895751953125,4.149876117706299,-0.6637980341911316
1.3768584728240967,3.412142753601074,-0.5391156673431396
1.4064866304397583,3.418057680130005,-0.5331346988677979
1.4332642555236816,3.416586399078369,-0.525983989238739
1.451369047164917,3.3933980464935303,-0.5154100060462952
1.4757368564605713,3.3841636180877686,-0.506858229637146
1.5023654699325562,3.3821773529052734,-0.49932995438575745
1.5162370204925537,3.351755380630493,-0.4876651465892792
1.5334813594818115,3.328108072280884,-0.4769340455532074
1.5569322109222412,3.3184401988983154,-0.4682419002056122
1.5802346467971802,3.308664321899414,-0.4592748284339905
1.596327543258667,3.284912586212158,-0.4485398828983307
1.6230756044387817,3.2816600799560547,-0.4404430091381073
1.6461622714996338,3.271348476409912,-0.43137627840042114
2.0222151279449463,3.9520297050476074,-0.511698305606842
2.05676531791687,3.95310378074646,-0.5022993683815002
2.0816168785095215,3.9327566623687744,-0.4898039400577545
2.0869193077087402,3.8785102367401123,-0.47334545850753784
2.092939853668213,3.8280017375946045,-0.4575006663799286
2.1479101181030273,3.8656160831451416,-0.45199140906333923
2.1389987468719482,3.7873244285583496,-0.4328058660030365
2.157684564590454,3.760127544403076,-0.4194559156894684
2.198930501937866,3.7734954357147217,-0.410774290561676
2.20574688911438,3.7256813049316406,-0.39508745074272156
2.2358169555664062,3.718064785003662,-0.38370072841644287
2.273108720779419,3.724003314971924,-0.37362468242645264
2.2869343757629395,3.6893229484558105,-0.3590759336948395
2.30055832862854,3.6544768810272217,-0.34456565976142883
2.341914176940918,3.666308879852295,-0.33442601561546326
2.358168363571167,3.6384620666503906,-0.3205472528934479
2.379634141921997,3.6162872314453125,-0.3066774606704712
2.41752290725708,3.6203455924987793,-0.29479512572288513
2.415388345718384,3.5664730072021484,-0.2784421443939209
2.440617561340332,3.5503287315368652,-0.264412522315979
2.4957311153411865,3.579590082168579,-0.2536202669143677
2.5059151649475098,3.5448286533355713,-0.23810459673404694
2.5222907066345215,3.515010118484497,-0.22191554307937622
2.572869300842285,3.5371475219726562,-0.209168940782547
2.263066291809082,3.0683963298797607,-0.1686159372329712
2.784912347793579,3.946343421936035,0.5675744414329529
2.748286724090576,3.955536365509033,0.5816450715065002
2.722923517227173,3.9848530292510986,0.5984461903572083
2.7103023529052734,4.028694152832031,0.6167029142379761
2.663356065750122,4.020640850067139,0.6264893412590027
2.656787872314453,4.078415870666504,0.6462500691413879
2.6174111366271973,4.083327293395996,0.6572892069816589
2.5880534648895264,4.099996089935303,0.6696637868881226
2.572482109069824,4.144211292266846,0.6864206790924072
2.5158491134643555,4.122548580169678,0.6919681429862976
2.501530885696411,4.1654558181762695,0.7077822089195251
2.4834775924682617,4.201300144195557,0.722331166267395
2.4591856002807617,4.23156213760376,0.7355660796165466
2.4278459548950195,4.252135276794434,0.7472352981567383
2.394723653793335,4.264624118804932,0.7570008039474487
2.3492820262908936,4.252796173095703,0.7622424960136414
2.267808675765991,4.17689323425293,0.7554880976676941
2.2122583389282227,4.14813756942749,0.7568592429161072
2.214583158493042,4.228053569793701,0.7781208753585815
2.188018321990967,4.24890661239624,0.7882176041603088
2.1662838459014893,4.279991626739502,0.8002442717552185
2.1288094520568848,4.284269332885742,0.8067622184753418
2.1082284450531006,4.322847843170166,0.8198105096817017
2.0728402137756348,4.329809665679932,0.8268227577209473
2.0485968589782715,4.356821537017822,0.8374825119972229
2.017251968383789,4.3699049949646,0.845366358757019
1.990872859954834,4.397421836853027,0.8556197285652161
2.0172336101531982,4.544260025024414,0.8893038630485535
2.0057291984558105,4.606627464294434,0.9065547585487366
1.9438793659210205,4.5522871017456055,0.9008268117904663
1.9426758289337158,4.6389546394348145,0.922904908657074
1.9141021966934204,4.666051387786865,0.9326602220535278
1.876640796661377,4.671581268310547,0.9381623864173889
1.8607395887374878,4.730236053466797,0.9543620944023132
3.293397903442383,8.549384117126465,1.7328044176101685
1.796004295349121,4.76068115234375,0.9692506790161133
1.738834023475647,4.711124420166016,0.9630201458930969
1.3292584419250488,3.683502674102783,0.7558220624923706
1.3021934032440186,3.6921963691711426,0.7605020999908447
1.2916507720947266,3.747699022293091,0.7748642563819885
1.625038743019104,4.82362699508667,1.0010133981704712
1.5815128087997437,4.804600238800049,1.0007739067077637
1.5675288438796997,4.880578994750977,1.0196831226348877
1.5491360425949097,4.945590972900391,1.0364270210266113
1.5169439315795898,4.970445156097412,1.04491126537323
1.48959481716156,5.005596160888672,1.0554757118225098
1.4405517578125,4.96704626083374,1.050532341003418
1.4097561836242676,4.990717887878418,1.0586981773376465
1.3655076026916504,4.970320701599121,1.0568766593933105
1.3108232021331787,4.908879280090332,1.0463283061981201
1.282379150390625,4.947059631347656,1.0570956468582153
1.2494710683822632,4.9624505043029785,1.062949299812317
1.2210569381713867,4.996165752410889,1.0727896690368652
1.18429434299469,4.996230602264404,1.0754667520523071
1.1501340866088867,5.0112762451171875,1.0806628465652466
1.1234694719314575,5.063525676727295,1.0939847230911255
1.0943280458450317,5.104303359985352,1.1048822402954102
1.0583751201629639,5.111104965209961,1.1084554195404053
1.0241059064865112,5.125103950500488,1.113633632659912
0.9868598580360413,5.123854637145996,1.1155492067337036
1.506258487701416,8.13464069366455,1.7737702131271362
1.4395291805267334,8.095316886901855,1.7675765752792358
1.3754544258117676,8.066744804382324,1.7637907266616821
1.3288356065750122,8.139368057250977,1.7822126150131226
1.2596280574798584,8.068275451660156,1.76921546459198
1.2079927921295166,8.113798141479492,1.781907320022583
1.1544170379638672,8.143839836120605,1.7909196615219116
0.5694690942764282,4.23252534866333,0.9316086769104004
0.5467562079429626,4.29286527633667,0.9457762837409973
0.5136552453041077,4.273522853851318,0.9424427151679993
0.4846302270889282,4.28422737121582,0.945767879486084
0.4574957489967346,4.317533493041992,0.9541513919830322
0.423329621553421,4.278484344482422,0.9465698599815369
0.3943583071231842,4.292479515075684,0.9502878189086914
0.36936452984809875,4.355731964111328,0.9647687077522278
0.3334009051322937,4.289544582366943,0.9506261348724365
0.3019697070121765,4.280174255371094,0.9491211175918579
0.2726459205150604,4.2895636558532715,0.9518082737922668
0.24191351234912872,4.275905609130859,0.9494263529777527
0.282778263092041,5.701761722564697,1.2668991088867188
0.24562712013721466,5.768260478973389,1.281787395477295
0.20565886795520782,5.800236225128174,1.2890726327896118
0.1660400629043579,5.835726261138916,1.2972021102905273
0.12500794231891632,5.821381092071533,1.2943168878555298
0.08498450368642807,5.852499008178711,1.3016026020050049
0.044661276042461395,5.890964984893799,1.3105891942977905
0.0030435824301093817,5.940659046173096,1.3218144178390503
-0.03863290324807167,5.997812747955322,1.334173560142517
-0.0802868902683258,5.9936676025390625,1.3329585790634155
-0.1227453351020813,6.0349836349487305,1.3419173955917358
-0.1643623560667038,6.018816947937012,1.3381575345993042
-0.20830170810222626,6.078587055206299,1.3513449430465698
-0.2512792646884918,6.077045917510986,1.3509666919708252
-0.17273320257663727,3.576658248901367,0.7947787642478943
-0.19858038425445557,3.5945794582366943,0.7982619404792786
-0.2229851633310318,3.5856714248657227,0.7958247065544128
-0.4306286871433258,6.228607177734375,1.3816810846328735
-0.4801933169364929,6.297957897186279,1.396377444267273
-0.5240049958229065,6.294755935668945,1.3950589895248413
-0.5729385018348694,6.348235607147217,1.4063650369644165
-0.6189306974411011,6.3673996925354,1.40921151638031
-0.6719042062759399,6.450758934020996,1.4262381792068481
-0.7187970876693726,6.461575031280518,1.4272491931915283
-0.7598987817764282,6.426644325256348,1.4182453155517578
-0.7984015941619873,6.372492790222168,1.4050770998001099
-0.8376902341842651,6.329460144042969,1.3944447040557861
-0.8767834901809692,6.290038108825684,1.3844395875930786
-0.9183942079544067,6.269373416900635,1.3779066801071167
-0.9712081551551819,6.3277668952941895,1.388832688331604
-1.0218403339385986,6.366892337799072,1.3955622911453247
-1.0729349851608276,6.401783466339111,1.4013842344284058
-1.1260238885879517,6.443778038024902,1.408797264099121
-1.1777722835540771,6.474066257476807,1.4136930704116821
-1.235123634338379,6.530340194702148,1.423600196838379
-1.2900182008743286,6.575157642364502,1.4307563304901123
-1.3448208570480347,6.615795612335205,1.4370299577713013
-1.3996754884719849,6.652218818664551,1.4424071311950684
-1.4460134506225586,6.643263816833496,1.437960147857666
-1.483114242553711,6.589054107666016,1.4237579107284546
-1.5175427198410034,6.531195163726807,1.4087085723876953
-0.6732596158981323,2.811009407043457,0.6048932671546936
-0.688747227191925,2.7919929027557373,0.5994235277175903
-0.7067995071411133,2.7840182781219482,0.596363365650177
-0.7207276225090027,2.757232904434204,0.589259684085846
-0.7469548583030701,2.7784790992736816,0.5924676060676575
-0.766410231590271,2.7736728191375732,0.590134859085083
-1.7554404735565186,6.189629554748535,1.3132424354553223
-1.7889668941497803,6.1494140625,1.3009876012802124
-1.8194561004638672,6.097814559936523,1.2863643169403076
-1.8526114225387573,6.057071685791016,1.2741405963897705
-1.8881560564041138,6.023291110992432,1.2634241580963135
-1.9173963069915771,5.971076965332031,1.2489453554153442
-1.9462279081344604,5.922800064086914,1.234753966331482
-1.9759984016418457,5.877986907958984,1.2210862636566162
-2.005767345428467,5.836870193481445,1.2083653211593628
-2.038384437561035,5.802591323852539,1.1970707178115845
-2.0647940635681152,5.749864101409912,1.1820045709609985
-2.097109794616699,5.715053558349609,1.1707299947738647
-2.1251914501190186,5.673407077789307,1.1575194597244263
-2.155853509902954,5.638728141784668,1.145556926727295
-2.213365077972412,5.675636291503906,1.1482514142990112
-2.2712349891662598,5.708048343658447,1.14985990524292
-2.3316707611083984,5.7432942390441895,1.1519417762756348
-2.354473352432251,5.685728073120117,1.135414719581604
-2.384458541870117,5.649943828582764,1.122463583946228
-2.4255120754241943,5.642505645751953,1.1153141260147095
-3.757134437561035,8.582354545593262,1.687782883644104
-3.828697681427002,8.582843780517578,1.6788960695266724
-3.941821336746216,8.67379093170166,1.6876413822174072
-3.9990580081939697,8.641928672790527,1.6715948581695557
-4.0815749168396,8.669973373413086,1.66683030128479
-4.156245708465576,8.679985046386719,1.6585849523544312
-4.269062519073486,8.761017799377441,1.663394808769226
-4.36688232421875,8.806081771850586,1.6611003875732422
-4.437564849853516,8.79540729522705,1.6476006507873535
-4.517261981964111,8.809917449951172,1.6383106708526611
-4.627615928649902,8.881875991821289,1.6395854949951172
-4.7056684494018555,8.883379936218262,1.6272138357162476
-1.1834841966629028,2.1971380710601807,0.3992701768875122
-1.1837959289550781,2.162687063217163,0.38973838090896606
-2.9069206714630127,5.228486061096191,0.9338020086288452
-2.512741804122925,4.451246738433838,0.7879215478897095
-2.5558478832244873,4.455206394195557,0.7810550928115845
-5.348269939422607,9.174416542053223,1.5927249193191528
-1.2495843172073364,2.1117916107177734,0.36276888847351074
-1.2617932558059692,2.100909471511841,0.3569568693637848
-2.9430429935455322,4.826589584350586,0.8107608556747437
-2.965256452560425,4.787842273712158,0.7946532368659973
-3.0102105140686035,4.789297103881836,0.7849041819572449
-3.0291996002197266,4.751935005187988,0.7685849666595459
-3.030510187149048,4.684288024902344,0.7470190525054932
-3.0426745414733887,4.632357120513916,0.7278401851654053
-3.0824434757232666,4.626833438873291,0.7157059907913208
-3.0799806118011475,4.560671806335449,0.6941264867782593
-3.0983715057373047,4.522294521331787,0.676245927810669
-3.1578421592712402,4.540131092071533,0.6660544872283936
-2.833993911743164,4.020896911621094,0.5782021880149841
-2.8695833683013916,4.016726970672607,0.5655725002288818
-2.907637119293213,4.010668754577637,0.5515238642692566
-2.9477877616882324,4.01237154006958,0.5381487607955933
-2.9599523544311523,3.976541042327881,0.5194201469421387
-2.4523026943206787,3.462905168533325,-0.23874123394489288
-2.444641590118408,3.5052967071533203,-0.2563704252243042
-2.8714447021484375,4.180644989013672,-0.32257381081581116
-2.8474812507629395,4.214352607727051,-0.3423161208629608
-2.8497142791748047,4.281804084777832,-0.36358919739723206
-2.7988505363464355,4.271875381469727,-0.3783058822154999
-2.7812116146087646,4.314296245574951,-0.39764559268951416
-2.7545270919799805,4.339078903198242,-0.4145905673503876
-1.2619471549987793,2.0205423831939697,-0.1999642699956894
-1.2670300006866455,2.0624027252197266,-0.21097847819328308
-2.707955837249756,4.477466583251953,-0.4720155596733093
-2.6674964427948,4.481912136077881,-0.486329048871994
-2.6458187103271484,4.5200653076171875,-0.5043179988861084
-2.624114990234375,4.557867527008057,-0.5222469568252563
-1.2028439044952393,2.123384952545166,-0.24944986402988434
-2.578218698501587,4.629397869110107,-0.5571219325065613
-2.551541566848755,4.660027027130127,-0.5739735960960388
-2.5256428718566895,4.689929008483887,-0.5904187560081482
-2.5018346309661865,4.727130889892578,-0.6080511212348938
-2.477687358856201,4.764171600341797,-0.6255188584327698
-2.4485464096069336,4.790364742279053,-0.6414151787757874
-2.4282562732696533,4.833481311798096,-0.6595599055290222
-2.3893632888793945,4.842210292816162,-0.6729378700256348
-2.359898090362549,4.871829032897949,-0.689460277557373
-1.0635462999343872,2.2351391315460205,-0.3217254877090454
-1.0606958866119385,2.2698142528533936,-0.3321649730205536
-1.0134886503219604,2.2096869945526123,-0.32855331897735596
-1.008547306060791,2.240767240524292,-0.3384068012237549
-0.9956874251365662,2.2540481090545654,-0.34556761384010315
-0.9823070764541626,2.2673912048339844,-0.3528375029563904
-0.9658106565475464,2.2735302448272705,-0.3588234484195709
-0.9582664966583252,2.300910711288452,-0.36820313334465027
-0.9390197992324829,2.299542188644409,-0.37293288111686707
-0.9283629059791565,2.31956148147583,-0.38110724091529846
-0.9113402366638184,2.3253376483917236,-0.38694921135902405
-0.9084594249725342,2.3668863773345947,-0.39873695373535156
-0.8984472155570984,2.3903491497039795,-0.40754979848861694
-0.8867517113685608,2.4101738929748535,-0.41576457023620605
-0.8746569156646729,2.4300129413604736,-0.4238908290863037
-0.8594732880592346,2.4425933361053467,-0.43089228868484497
-0.9135969877243042,2.655240774154663,-0.47348037362098694
-0.9475091695785522,2.8175177574157715,-0.5077536702156067
-0.9429866671562195,2.870647668838501,-0.522499680519104
-0.9318519830703735,2.9054906368255615,-0.5340876579284668
-0.918962299823761,2.936652660369873,-0.5451639890670776
-0.8858253955841064,2.9014644622802734,-0.5438150763511658
-0.8015551567077637,2.6929383277893066,-0.5092092752456665
-0.7684599161148071,2.6495821475982666,-0.5054267644882202
-0.7518379092216492,2.6613290309906006,-0.5120764970779419
-0.741234540939331,2.695162296295166,-0.5230532288551331
-0.7139049172401428,2.669774055480957,-0.5223045945167542
-0.7027435898780823,2.7035093307495117,-0.5330134630203247
-0.7296828031539917,2.8896594047546387,-0.5741122364997864
-0.714775025844574,2.9160354137420654,-0.5838069319725037
-0.6924025416374207,2.9125518798828125,-0.5872704386711121
-0.648230254650116,2.815645217895508,-0.5716689229011536
-0.6258735060691833,2.807988405227661,-0.5739826560020447
-0.5883830189704895,2.7290198802948,-0.5616065859794617
-0.5621722936630249,2.698478937149048,-0.5588645935058594
-0.5401766896247864,2.6865427494049072,-0.559649646282196
-0.505686342716217,2.610625982284546,-0.5470741987228394
-0.48178452253341675,2.5832314491271973,-0.544495165348053
-0.45624569058418274,2.544372320175171,-0.5393598079681396
-0.4319192171096802,2.5091569423675537,-0.5345127582550049
-0.4093709886074066,2.481283187866211,-0.5311821103096008
-0.383963942527771,2.434394598007202,-0.5237674713134766
-0.3646496832370758,2.4212591648101807,-0.5235278010368347
-0.34283336997032166,2.389171600341797,-0.5187004208564758
-0.32303208112716675,2.3682708740234375,-0.5162327885627747
-0.30257758498191833,2.3396453857421875,-0.5120577812194824
-0.28298419713974,2.314652442932129,-0.5086545348167419
-0.26697880029678345,2.319929599761963,-0.5116022825241089
-0.2462761402130127,2.279592275619507,-0.5042781829833984
-0.22463271021842957,2.2239134311676025,-0.4935145676136017
-0.20627547800540924,2.1946442127227783,-0.488574355840683
-0.19096976518630981,2.1956708431243896,-0.4901810586452484
-0.1742093563079834,2.181469678878784,-0.4881046712398529
-0.15790119767189026,2.1671323776245117,-0.48598915338516235
-0.1448075771331787,2.198317289352417,-0.49411386251449585
-0.12815268337726593,2.1761677265167236,-0.4902062714099884
-0.11299509555101395,2.176830291748047,-0.49099209904670715
-0.0960564836859703,2.1431355476379395,-0.4840524196624756
-0.08244526386260986,2.1778438091278076,-0.49257516860961914
-0.06753227859735489,2.185803174972534,-0.4950849711894989
-0.051605019718408585,2.1556763648986816,-0.48850876092910767
-0.03674732893705368,2.163541078567505,-0.4905008375644684
