X,Y,Z
0.8948633670806885,2.8487541675567627,-0.544052243232727
0.9325556755065918,2.8984732627868652,-0.5481612682342529
0.9835206866264343,2.9842262268066406,-0.5587085485458374
1.0488401651382446,3.109699249267578,-0.5763126015663147
1.1070727109909058,3.2091078758239746,-0.5883838534355164
1.1693087816238403,3.31518292427063,-0.6012746691703796
1.200596570968628,3.32997727394104,-0.5973259210586548
1.229489803314209,3.337271213531494,-0.5919288992881775
1.4474327564239502,3.845794200897217,-0.6739591956138611
1.5034387111663818,3.912792682647705,-0.6775233745574951
1.5916922092437744,4.058157444000244,-0.69413161277771
1.6333012580871582,4.0807695388793945,-0.6893418431282043
1.6545242071151733,4.053150177001953,-0.6757639050483704
1.6848206520080566,4.046615123748779,-0.6656131744384766
1.740618348121643,4.100340843200684,-0.6653023958206177
1.4534821510314941,3.3589794635772705,-0.5374619364738464
1.4565907716751099,3.3042285442352295,-0.5210691690444946
1.489119291305542,3.316567897796631,-0.5153316855430603
1.5097897052764893,3.30015230178833,-0.5048596262931824
1.5364196300506592,3.2977912425994873,-0.49664294719696045
1.5526689291000366,3.2744436264038086,-0.48518121242523193
1.5720458030700684,3.2579641342163086,-0.4748038053512573
1.6054487228393555,3.2689387798309326,-0.46822983026504517
1.6289187669754028,3.2587063312530518,-0.4583922326564789
1.6303915977478027,3.2072184085845947,-0.44294291734695435
1.6366645097732544,3.1660995483398438,-0.4290942847728729
1.6663554906845093,3.1694297790527344,-0.42116424441337585
1.7195631265640259,3.2171852588653564,-0.4189119338989258
1.7268561124801636,3.1792712211608887,-0.4054047167301178
1.7137892246246338,3.103604555130005,-0.38706326484680176
1.7643625736236572,3.143378257751465,-0.3831769526004791
1.8051894903182983,3.1661596298217773,-0.376932829618454
1.318514108657837,2.2770748138427734,-0.2645680010318756
0.9640102386474609,1.638588309288025,-0.18549831211566925
0.8918483257293701,1.49212646484375,-0.16434265673160553
0.9282166361808777,1.5298128128051758,-0.1638491153717041
0.9674005508422852,1.5702733993530273,-0.1632836014032364
0.9867936372756958,1.5771398544311523,-0.15892499685287476
0.9995090365409851,1.5742931365966797,-0.15353935956954956
1.0040719509124756,1.558070182800293,-0.14673961699008942
1.0193933248519897,1.557963490486145,-0.14133697748184204
1.0363622903823853,1.561310052871704,-0.1362067461013794
1.0424669981002808,1.548370599746704,-0.12962622940540314
1.042412281036377,1.5253785848617554,-0.12198711931705475
2.534224510192871,3.655865430831909,-0.2783507704734802
2.5764658451080322,3.665550470352173,-0.2650146782398224
2.6069650650024414,3.654658079147339,-0.24913205206394196
2.5874969959259033,3.5784590244293213,-0.22905756533145905
2.632382869720459,3.5902349948883057,-0.21424533426761627
2.6896331310272217,3.6168746948242188,-0.19924019277095795
2.65091609954834,3.729520559310913,0.5564697980880737
2.6074814796447754,3.7293155193328857,0.569269061088562
2.591264486312866,3.76651930809021,0.5873823165893555
1.0668672323226929,1.5740981101989746,0.2502269148826599
1.0716171264648438,1.6073012351989746,0.260140061378479
1.0418306589126587,1.5889356136322021,0.26168009638786316
1.0259543657302856,1.5891615152359009,0.2658573091030121
1.0222852230072021,1.6090186834335327,0.27317583560943604
0.9973242282867432,1.5964642763137817,0.27487853169441223
1.0014002323150635,1.6294628381729126,0.28431272506713867
0.9776728749275208,1.6159687042236328,0.28547781705856323
0.9770051836967468,1.642566204071045,0.29363587498664856
0.9486421346664429,1.6226309537887573,0.29335808753967285
1.3422434329986572,2.3346352577209473,0.4266206920146942
1.8458292484283447,3.2628822326660156,0.6023060083389282
1.7726417779922485,3.1875081062316895,0.5940254330635071
1.7606724500656128,3.223440408706665,0.606329619884491
1.7781951427459717,3.3132741451263428,0.6288036704063416
1.7544763088226318,3.3244831562042236,0.6362238526344299
2.3810343742370605,4.5899858474731445,0.8855531811714172
2.3426401615142822,4.599181652069092,0.8939544558525085
2.315633535385132,4.63242769241333,0.9072203040122986
2.2801895141601562,4.643858432769775,0.9158854484558105
2.248807907104492,4.661602973937988,0.9256961941719055
2.217987298965454,4.68308687210083,0.9359673857688904
2.1795918941497803,4.690877914428711,0.9432045221328735
2.1507132053375244,4.71934175491333,0.9546669125556946
2.112950086593628,4.726244926452637,0.9616948366165161
2.088669776916504,4.760527610778809,0.9741754531860352
2.044987678527832,4.752771854400635,0.9777483940124512
1.7501544952392578,4.151064872741699,0.8581609725952148
1.7280346155166626,4.18386697769165,0.8691905736923218
1.6986539363861084,4.1986517906188965,0.8765056729316711
1.6717798709869385,4.2163543701171875,0.8843180537223816
1.6375654935836792,4.216117858886719,0.8882928490638733
1.6132131814956665,4.244777202606201,0.8978755474090576
1.5845621824264526,4.2625017166137695,0.9052099585533142
1.5501137971878052,4.265748500823975,0.9095640778541565
1.5251193046569824,4.289821147918701,0.9182131886482239
1.49483060836792,4.299274921417236,0.923790693283081
1.4662429094314575,4.316067695617676,0.9305869340896606
1.434644341468811,4.325589179992676,0.9356167316436768
1.4024401903152466,4.335030555725098,0.940731406211853
1.3781236410140991,4.365817070007324,0.9504439234733582
1.3474156856536865,4.374334335327148,0.9553006291389465
1.3232078552246094,4.404611110687256,0.9649763703346252
1.2914122343063354,4.413076877593994,0.9693616628646851
1.2625246047973633,4.432409763336182,0.9760680198669434
1.2297886610031128,4.440642356872559,0.9804326891899109
1.2000874280929565,4.455742359161377,0.9862828254699707
1.168874740600586,4.463113784790039,0.9904296398162842
1.1414318084716797,4.485054016113281,0.9978626370429993
1.1130099296569824,4.50710916519165,1.0048247575759888
1.0800607204437256,4.514314651489258,1.0084307193756104
1.0476645231246948,4.521152019500732,1.0119705200195312
1.0170952081680298,4.535161018371582,1.0171582698822021
0.9885995984077454,4.556299686431885,1.0239671468734741
0.9551097750663757,4.554861545562744,1.025758981704712
0.7770807147026062,3.8431460857391357,0.8669601678848267
0.7539898157119751,3.870523452758789,0.8743985891342163
0.8632577061653137,4.606109619140625,1.042130708694458
0.8330515623092651,4.62652587890625,1.0483577251434326
0.8033311367034912,4.646625995635986,1.0545400381088257
0.7728439569473267,4.666606903076172,1.060784935951233
0.7425051331520081,4.686370849609375,1.0668259859085083
0.7103827595710754,4.698577404022217,1.0706453323364258
0.6770384311676025,4.703017711639404,1.0727506875991821
0.6473342180252075,4.733638286590576,1.0808861255645752
0.6154348850250244,4.752769947052002,1.0864745378494263
0.5831891298294067,4.764032363891602,1.0902942419052124
0.5525619387626648,4.790207862854004,1.0975881814956665
0.5196672677993774,4.8011932373046875,1.100879192352295
0.4865540564060211,4.811999797821045,1.1040035486221313
0.45331424474716187,4.822576522827148,1.1071321964263916
0.42169395089149475,4.8595194816589355,1.1163884401321411
0.3872572183609009,4.854428291320801,1.1160246133804321
0.35573190450668335,4.887063026428223,1.1243906021118164
0.322674036026001,4.904327869415283,1.1291519403457642
0.28830042481422424,4.90631628036499,1.1298136711120605
0.25550124049186707,4.949909687042236,1.1401185989379883
0.2212090641260147,4.959028720855713,1.1425371170043945
0.18685974180698395,4.967906951904297,1.1449565887451172
0.15257123112678528,4.976541519165039,1.1473746299743652
0.11877137422561646,5.007769584655762,1.155059814453125
0.08342751115560532,5.0160298347473145,1.1571071147918701
0.048755109310150146,5.035536289215088,1.1614205837249756
0.013746230863034725,5.050996780395508,1.164855718612671
-0.021443232893943787,5.058599948883057,1.1665349006652832
-0.056993648409843445,5.088795185089111,1.1734799146652222
-0.09314583986997604,5.095893859863281,1.1751569509506226
-0.12928569316864014,5.121776103973389,1.181222915649414
-0.16584357619285583,5.151354789733887,1.1875272989273071
-0.2015530914068222,5.1502766609191895,1.1866788864135742
-0.23871777951717377,5.179370880126953,1.1928355693817139
-0.2769012451171875,5.219602584838867,1.2016074657440186
-0.2607887089252472,4.336061954498291,0.9978388547897339
-0.29089874029159546,4.334311008453369,0.9971227049827576
-0.3210155665874481,4.332369804382324,0.9963187575340271
-0.352709025144577,4.353138446807861,1.000190258026123
-0.3787478804588318,4.305395126342773,0.9883703589439392
-0.40355587005615234,4.246079444885254,0.9739478230476379
-0.42870885133743286,4.201812744140625,0.9630528688430786
-0.45304733514785767,4.153591632843018,0.9513081908226013
-0.47849178314208984,4.120365142822266,0.9430564045906067
-0.5000198483467102,4.06060791015625,0.9284878373146057
-0.5235718488693237,4.019662857055664,0.9179314374923706
-0.545555830001831,3.974865436553955,0.906583845615387
-0.5674915313720703,3.933720111846924,0.8961338996887207
-0.5884938836097717,3.888662099838257,0.8848497271537781
-0.6095387935638428,3.847252130508423,0.8744570016860962
-0.6286460757255554,3.7943766117095947,0.8615056276321411
-0.6481537222862244,3.7529289722442627,0.8507089018821716
-0.6677128076553345,3.7151613235473633,0.8407594561576843
-0.6889275908470154,3.688530683517456,0.8333883285522461
-0.7069878578186035,3.6467859745025635,0.8226585984230042
-0.7226161956787109,3.593672752380371,0.8094154000282288
-0.7348625063896179,3.5254852771759033,0.7928339838981628
-0.7559927701950073,3.505948543548584,0.7870621681213379
-0.7732501029968262,3.471519947052002,0.7776790857315063
-0.7952411770820618,3.4593183994293213,0.773326575756073
-0.8135413527488708,3.4321248531341553,0.7656747698783875
-0.8296488523483276,3.3935189247131348,0.755482017993927
-0.8477529287338257,3.3660199642181396,0.7478445172309875
-0.862650454044342,3.3273355960845947,0.7377617359161377
-0.8793714046478271,3.299927234649658,0.7297662496566772
-0.8977760076522827,3.2798054218292236,0.7234371304512024
-0.912229061126709,3.2447571754455566,0.7138398885726929
-0.9271950721740723,3.2133514881134033,0.7051182985305786
-0.9431968331336975,3.1854565143585205,0.6972002387046814
-0.9632625579833984,3.172128438949585,0.6925238370895386
-0.9735094308853149,3.1297128200531006,0.6811594367027283
-0.9951040744781494,3.1236770153045654,0.6776512265205383
-1.010374903678894,3.0994033813476562,0.6702668070793152
-1.0219836235046387,3.064087152481079,0.6605322360992432
-1.0360984802246094,3.0358431339263916,0.6523418426513672
-1.05488121509552,3.022007942199707,0.6473029851913452
-1.0638700723648071,2.9830973148345947,0.6365832090377808
-1.0844236612319946,2.9765172004699707,0.632690966129303
-1.0965348482131958,2.9483723640441895,0.6243086457252502
-1.1168850660324097,2.941542863845825,0.6204370856285095
-1.1264889240264893,2.9058420658111572,0.6104844808578491
-1.1341856718063354,2.866586208343506,0.5998601913452148
-1.1567240953445435,2.866732358932495,0.597070574760437
-1.1497489213943481,2.7958824634552,0.5796310901641846
-1.1211344003677368,2.67565655708313,0.5521474480628967
-1.1308131217956543,2.6473989486694336,0.5436999201774597
-1.1464051008224487,2.6331512928009033,0.5381666421890259
-1.1586644649505615,2.611859083175659,0.5310153961181641
-1.1761934757232666,2.6048943996429443,0.5266715884208679
-1.206513524055481,2.625739336013794,0.5279430150985718
-1.2343182563781738,2.6391706466674805,0.5276249051094055
-1.2529770135879517,2.6312947273254395,0.5229606032371521
-1.2683889865875244,2.6163058280944824,0.5167981386184692
-1.2654802799224854,2.5673093795776367,0.5037575960159302
-1.2792088985443115,2.55283784866333,0.49757763743400574
-1.296576976776123,2.545015811920166,0.49266934394836426
-1.3075318336486816,2.523056983947754,0.48492535948753357
-1.316317081451416,2.4977171421051025,0.4765486419200897
-1.3260023593902588,2.4761428833007812,0.4685942530632019
-1.3314673900604248,2.447906494140625,0.4595213830471039
-1.340772271156311,2.4262192249298096,0.45165112614631653
-1.3504633903503418,2.4041857719421387,0.44363725185394287
-1.3632768392562866,2.389090061187744,0.4368304908275604
-1.373607873916626,2.3708441257476807,0.42924946546554565
-1.38933265209198,2.3626821041107178,0.42360764741897583
-1.3941230773925781,2.3339803218841553,0.4140738248825073
-1.4107686281204224,2.325021266937256,0.40805375576019287
-1.4098985195159912,2.290400266647339,0.397309809923172
-1.441641926765442,2.308175802230835,0.3955920338630676
-1.4576858282089233,2.299189567565918,0.38907545804977417
-1.465804100036621,2.2767724990844727,0.380173921585083
-1.480893611907959,2.268115282058716,0.37338194251060486
-1.4829868078231812,2.2400550842285156,0.36343640089035034
-1.490308165550232,2.2177298069000244,0.35406962037086487
-1.4775919914245605,2.1666877269744873,0.34019342064857483
-1.5203055143356323,2.199603796005249,0.3392983078956604
-1.492563009262085,2.1303317546844482,0.3226068317890167
-1.4989514350891113,2.108041286468506,0.3126886487007141
-1.5064020156860352,2.0895912647247314,0.3031488358974457
-1.5199027061462402,2.080944299697876,0.29513752460479736
-1.5347490310668945,2.0712625980377197,0.28627994656562805
-1.499253511428833,2.102318048477173,-0.13989466428756714
-1.4897801876068115,2.1226682662963867,-0.1505051553249359
-1.5006641149520874,2.171405792236328,-0.16294372081756592
-1.4891997575759888,2.188000202178955,-0.1728190928697586
-1.4811351299285889,2.211489200592041,-0.18333537876605988
-1.4737135171890259,2.2343735694885254,-0.19343796372413635
-1.4527114629745483,2.2380032539367676,-0.20193146169185638
-1.4503930807113647,2.2710940837860107,-0.2130168378353119
-1.4340813159942627,2.2806169986724854,-0.22154667973518372
-1.3989228010177612,2.2604258060455322,-0.22704154253005981
-1.3697844743728638,2.250061511993408,-0.2333643138408661
-1.3332399129867554,2.225831985473633,-0.23793020844459534
-1.3210439682006836,2.2412822246551514,-0.2464471012353897
-1.2945473194122314,2.2333831787109375,-0.252360075712204
-1.287850022315979,2.2587807178497314,-0.26189783215522766
-1.2831472158432007,2.287348747253418,-0.27176234126091003
-1.2621501684188843,2.289217948913574,-0.27858036756515503
-1.25259530544281,2.3112215995788574,-0.28775930404663086
-1.2507174015045166,2.3465757369995117,-0.2984868884086609
-1.2337112426757812,2.354623794555664,-0.3057911694049835
-1.2252237796783447,2.3799331188201904,-0.3153630793094635
-1.2216553688049316,2.415601968765259,-0.3264486789703369
-1.2113465070724487,2.4371402263641357,-0.3355279862880707
-1.2683707475662231,2.598151206970215,-0.3641512095928192
-1.224217176437378,2.5538816452026367,-0.364256888628006
-1.209225058555603,2.568535327911377,-0.37253332138061523
-1.1811760663986206,2.5549325942993164,-0.37663546204566956
-1.176645278930664,2.5942530632019043,-0.38856446743011475
-1.1498956680297852,2.5839850902557373,-0.393017441034317
-1.1392220258712769,2.6087613105773926,-0.40269431471824646
-1.313915491104126,3.06711483001709,-0.4803183078765869
-1.2856788635253906,3.061037063598633,-0.48605889081954956
-1.2440119981765747,3.022671937942505,-0.4866690933704376
-1.189281702041626,2.9478042125701904,-0.48091670870780945
-1.1412458419799805,2.886782646179199,-0.477041631937027
-1.0772353410720825,2.7821741104125977,-0.46544602513313293
-1.036668300628662,2.7345986366271973,-0.4630775451660156
-0.978016197681427,2.636005401611328,-0.45177990198135376
-0.9342113733291626,2.572978973388672,-0.44607532024383545
-0.8976596593856812,2.5277440547943115,-0.4430793523788452
-0.8631016612052917,2.4857773780822754,-0.4404814541339874
-0.8232106566429138,2.425180196762085,-0.43433210253715515
-0.7923802137374878,2.3898708820343018,-0.4325259327888489
-0.7610968351364136,2.3505971431732178,-0.429591566324234
-0.7222785353660583,2.2853517532348633,-0.42173486948013306
-0.6981748342514038,2.2637836933135986,-0.4217527508735657
-0.6688556671142578,2.2236080169677734,-0.41815122961997986
-0.6433007717132568,2.194289207458496,-0.41623440384864807
-0.614760160446167,2.153718948364258,-0.4121396243572235
-0.5892525315284729,2.120198965072632,-0.40919607877731323
-0.5712760090827942,2.112388849258423,-0.4111420214176178
-0.5465607047080994,2.0785205364227295,-0.4076511263847351
-0.5242359638214111,2.051867961883545,-0.4054991602897644
-0.5011972188949585,2.0213351249694824,-0.40254727005958557
-0.48878130316734314,2.0315451622009277,-0.40762612223625183
-0.46922874450683594,2.0118753910064697,-0.40642479062080383
-0.44659411907196045,1.9771013259887695,-0.402067631483078
-0.42940840125083923,1.964577317237854,-0.40217891335487366
-0.4114122688770294,1.9482040405273438,-0.4015183746814728
-0.39008089900016785,1.9129401445388794,-0.39662081003189087
-0.3766453266143799,1.9150665998458862,-0.3993360102176666
-0.35392653942108154,1.8682299852371216,-0.39180487394332886
-0.34424063563346863,1.8889250755310059,-0.3984176218509674
-0.3261333405971527,1.8644311428070068,-0.3953712582588196
-0.3054466247558594,1.8209493160247803,-0.38801252841949463
-0.2987302243709564,1.8603060245513916,-0.39831504225730896
-0.2822590470314026,1.8392019271850586,-0.3956988751888275
-0.2600124776363373,1.776413917541504,-0.3839455842971802
-0.2463393211364746,1.7702542543411255,-0.3841327726840973
-0.23498769104480743,1.7791112661361694,-0.3875703811645508
-0.2268257737159729,1.8144068717956543,-0.3968239426612854
-0.21102914214134216,1.789016604423523,-0.3928106725215912
-0.1951838731765747,1.7597907781600952,-0.3875512182712555
-0.1829100102186203,1.7608006000518799,-0.38894933462142944
-0.17041076719760895,1.7617394924163818,-0.3903723359107971
-0.15540167689323425,1.7321850061416626,-0.3850153386592865
-0.1433355063199997,1.7329916954040527,-0.386065274477005
-0.13241852819919586,1.748935341835022,-0.3904484212398529
-0.12022797018289566,1.749592900276184,-0.39144596457481384
-0.10735979676246643,1.7425642013549805,-0.3907538950443268
-0.09461312741041183,1.7316845655441284,-0.3889318108558655
-0.08273985981941223,1.735974907875061,-0.39038026332855225
-0.06958440691232681,1.7097198963165283,-0.3849714696407318
-0.05936808884143829,1.7595417499542236,-0.39671841263771057
-0.04600196331739426,1.7255363464355469,-0.3894214332103729
-0.03385600075125694,1.718152403831482,-0.3878903388977051
-0.022155024111270905,1.7373536825180054,-0.3923809230327606
-0.0100688636302948,1.7336126565933228,-0.3917100429534912
0.0019341085571795702,1.7031339406967163,-0.3849339187145233
0.014085785485804081,1.718366265296936,-0.3881644904613495
0.02665269747376442,1.7601838111877441,-0.39741629362106323
0.03906971588730812,1.7676235437393188,-0.3989197313785553
0.05071869120001793,1.7445036172866821,-0.39354681968688965
0.06452644616365433,1.7899471521377563,-0.4032270014286041
0.07600829750299454,1.7667522430419922,-0.39744874835014343
0.09042780846357346,1.8043808937072754,-0.4053592085838318
0.10406746715307236,1.822880506515503,-0.40898463129997253
0.11773239076137543,1.8375471830368042,-0.4114208519458771
0.1305278092622757,1.8369228839874268,-0.4103465676307678
0.14330671727657318,1.836209774017334,-0.40927332639694214
0.15826717019081116,1.8581907749176025,-0.41325002908706665
0.17051783204078674,1.8497393131256104,-0.4102438688278198
0.18793731927871704,1.894392967224121,-0.41881778836250305
0.2031661421060562,1.912346363067627,-0.4214639365673065
0.2173515409231186,1.9188086986541748,-0.4215812087059021
0.23279477655887604,1.9327539205551147,-0.42317795753479004
0.2482096552848816,1.9466617107391357,-0.4245125949382782
0.26941752433776855,2.0020854473114014,-0.43486055731773376
0.28072550892829895,1.9816875457763672,-0.4287243187427521
0.29455864429473877,1.980126142501831,-0.42665356397628784
0.3116009831428528,1.9973876476287842,-0.42823103070259094
0.324327290058136,1.9881389141082764,-0.42417362332344055
0.34720757603645325,2.039109945297241,-0.4329381585121155
0.36279818415641785,2.0446932315826416,-0.4320249557495117
0.38613685965538025,2.0916101932525635,-0.43943819403648376
0.4144582748413086,2.160881757736206,-0.4513879716396332
0.43584054708480835,2.188554048538208,-0.45449841022491455
0.455826997756958,2.208587169647217,-0.4560258090496063
0.47690433263778687,2.232257843017578,-0.4579881429672241
0.5008261799812317,2.2669975757598877,-0.46203088760375977
0.5133198499679565,2.249220848083496,-0.4553624391555786
0.5548877716064453,2.354445457458496,-0.4734362065792084
0.5868045091629028,2.414635181427002,-0.48210465908050537
0.613048255443573,2.4485220909118652,-0.4851990342140198
0.6359628438949585,2.467313528060913,-0.48523664474487305
0.6740019917488098,2.5415494441986084,-0.4960370659828186
0.7194648385047913,2.6376004219055176,-0.5106713771820068
0.7597335577011108,2.7111403942108154,-0.5204830169677734
0.8031710386276245,2.7916791439056396,-0.5314034819602966
0.8391706943511963,2.8422739505767822,-0.5363977551460266
0.8803847432136536,2.9072537422180176,-0.5438830852508545
0.9296262264251709,2.993880033493042,-0.5547484159469604
0.9890912175178528,3.1094424724578857,-0.5707204937934875
1.0443978309631348,3.2060546875,-0.5828161835670471
1.0962636470794678,3.2874839305877686,-0.5918404459953308
1.1615544557571411,3.4049766063690186,-0.6066473126411438
1.2247226238250732,3.5108835697174072,-0.6189635992050171
1.2071350812911987,3.383607864379883,-0.59006267786026
1.4318642616271973,3.9269344806671143,-0.6774066686630249
1.4822402000427246,3.9798290729522705,-0.6787058711051941
1.5566844940185547,4.0935797691345215,-0.6899942755699158
1.5910576581954956,4.098543643951416,-0.6826580166816711
1.620556354522705,4.088627815246582,-0.6726574301719666
1.6491491794586182,4.078826427459717,-0.6625921726226807
1.6643253564834595,4.036702632904053,-0.6473036408424377
1.4485255479812622,3.4456920623779297,-0.5452558994293213
1.4287621974945068,3.3336403369903564,-0.5204177498817444
1.452454686164856,3.32474946975708,-0.5116371512413025
1.4818506240844727,3.3300273418426514,-0.5051096677780151
1.492461085319519,3.2926442623138428,-0.4920869767665863
1.5158425569534302,3.2832577228546143,-0.4832562506198883
1.5452903509140015,3.287935495376587,-0.47635170817375183
1.5685045719146729,3.2782444953918457,-0.46718230843544006
1.5915597677230835,3.2684073448181152,-0.45804521441459656
1.61127769947052,3.251361846923828,-0.44787776470184326
1.6406874656677246,3.2552714347839355,-0.44047611951828003
1.6259609460830688,3.1726245880126953,-0.42152220010757446
1.6375970840454102,3.141631603240967,-0.4094882607460022
1.7019821405410767,3.2098727226257324,-0.41004678606987
1.7240242958068848,3.199305772781372,-0.40043503046035767
1.710646390914917,3.1237905025482178,-0.3828434348106384
1.7214839458465576,3.092360734939575,-0.37065666913986206
1.7907803058624268,3.1660244464874268,-0.37089017033576965
1.3188929557800293,2.29522442817688,-0.2624857723712921
0.9742220640182495,1.6689196825027466,-0.18616275489330292
0.9622319936752319,1.6224288940429688,-0.1763031929731369
0.9230722784996033,1.533104658126831,-0.16213464736938477
0.9700334072113037,1.5870716571807861,-0.1631799340248108
0.9814666509628296,1.5805965662002563,-0.15756551921367645
1.0026553869247437,1.5908427238464355,-0.1536533534526825
1.0133336782455444,1.5845904350280762,-0.1481068730354309
1.0138486623764038,1.561623215675354,-0.14082984626293182
1.0246211290359497,1.5550899505615234,-0.13504257798194885
1.0416598320007324,1.558311939239502,-0.12999126315116882
1.0481221675872803,1.5450565814971924,-0.12341756373643875
2.513087034225464,3.651432514190674,-0.2784312963485718
2.5550081729888916,3.6614112854003906,-0.2658095061779022
2.580479621887207,3.6445956230163574,-0.2504024803638458
2.600857973098755,3.6215381622314453,-0.23415851593017578
2.6061413288116455,3.580177068710327,-0.21704861521720886
2.6732542514801025,3.6190481185913086,-0.20340567827224731
2.638746976852417,3.741079807281494,0.5363507866859436
2.604064464569092,3.753664255142212,0.5506649613380432
2.580651044845581,3.777132749557495,0.5655481815338135
1.0574008226394653,1.572563886642456,0.24009013175964355
1.0448249578475952,1.5800883769989014,0.2456788271665573
1.0414103269577026,1.6000314950942993,0.2529767155647278
1.0089170932769775,1.5741280317306519,0.25281473994255066
1.0212994813919067,1.6204899549484253,0.2640916705131531
0.9961757063865662,1.6079912185668945,0.26588568091392517
0.9926714897155762,1.6275508403778076,0.27260684967041016
0.9806286096572876,1.6340776681900024,0.27711212635040283
0.9718626737594604,1.6475298404693604,0.2826894223690033
1.3487521409988403,2.325840473175049,0.4036521911621094
1.350954532623291,2.3680989742279053,0.41540247201919556
1.819077730178833,3.2421350479125977,0.5744946002960205
1.7588212490081787,3.190378189086914,0.57069331407547
1.7931573390960693,3.310943841934204,0.5978251695632935
1.7567590475082397,3.2985291481018066,0.6007579565048218
2.401667833328247,4.587292194366455,0.8427583575248718
2.356365919113159,4.582982540130615,0.848494291305542
2.3216254711151123,4.59891939163208,0.8579817414283752
2.291027069091797,4.621108531951904,0.8685368895530701
2.2648727893829346,4.649441719055176,0.8800808787345886
2.2355732917785645,4.674704551696777,0.8910334706306458
2.195507764816284,4.679282188415527,0.8975316286087036
2.1683192253112793,4.711496353149414,0.9093965888023376
2.1308906078338623,4.718511581420898,0.9162673950195312
2.1005618572235107,4.738946437835693,0.9256525039672852
2.0664122104644775,4.752403736114502,0.933490514755249
2.0017926692962646,4.699218273162842,0.9278324842453003
1.7404022216796875,4.169979095458984,0.8275336623191833
1.7100646495819092,4.181245803833008,0.8339067101478577
1.6833897829055786,4.199097156524658,0.8415226340293884
1.6577831506729126,4.220414161682129,0.849839448928833
1.624712586402893,4.227967262268066,0.8549484610557556
1.597611427307129,4.249426364898682,0.8628554344177246
1.5623779296875,4.249082565307617,0.8663771152496338
1.5388908386230469,4.276915550231934,0.8755478262901306
1.5087631940841675,4.286510944366455,0.8810383677482605
1.4773057699203491,4.296372890472412,0.8862981796264648
1.4458507299423218,4.306036472320557,0.8912577629089355
1.4215376377105713,4.337301731109619,0.9007470011711121
1.3903348445892334,4.346386909484863,0.9056450128555298
1.3620758056640625,4.362354278564453,0.9119583368301392
1.3353939056396484,4.385594367980957,0.9199013710021973
1.3036952018737793,4.3942179679870605,0.924205482006073
1.2739427089691162,4.41001558303833,0.9299911260604858
1.2440756559371948,4.425593376159668,0.935783863067627
1.214569091796875,4.440835475921631,0.941521167755127
1.1863659620285034,4.45945930480957,0.9479950070381165
1.1564303636550903,4.474325180053711,0.9537744522094727
1.127982497215271,4.496596813201904,0.9605106115341187
1.0955958366394043,4.503841876983643,0.9640445113182068
1.0684258937835693,4.5331830978393555,0.9723678827285767
1.031129240989685,4.517534255981445,0.9710623025894165
1.0038505792617798,4.546411991119385,0.9793868064880371
0.9751660823822021,4.567539691925049,0.9860719442367554
0.9318368434906006,4.521326065063477,0.9776989221572876
0.760956346988678,3.8301944732666016,0.8295277953147888
0.7407426834106445,3.872547149658203,0.8400322198867798
0.8488073945045471,4.6174116134643555,1.0032613277435303
0.8205568194389343,4.645186424255371,1.0109491348266602
0.788130521774292,4.650190353393555,1.0137383937835693
0.7590646743774414,4.677698612213135,1.0211400985717773
0.7282503843307495,4.697582721710205,1.026584506034851
0.6932036876678467,4.6946845054626465,1.0271258354187012
0.6620074510574341,4.7141337394714355,1.0325907468795776
0.632620632648468,4.744659423828125,1.0405237674713135
0.5981666445732117,4.737117767333984,1.040158748626709
0.5691894888877869,4.774821758270264,1.0497404336929321
0.5355029702186584,4.778399467468262,1.0511845350265503
0.5020408630371094,4.789381504058838,1.0543228387832642
0.4704841673374176,4.815269470214844,1.0607885122299194
0.4387539029121399,4.8409318923950195,1.0672606229782104
0.4053763151168823,4.847352027893066,1.0695401430130005
0.37222206592559814,4.857344627380371,1.0726618766784668
0.3392590582370758,4.882462501525879,1.0787889957427979
0.30593380331993103,4.899789333343506,1.0828930139541626
0.2724388539791107,4.91688346862793,1.0870003700256348
0.23829369246959686,4.926129341125488,1.089428424835205
0.20479077100753784,4.946560382843018,1.0943819284439087
0.17057152092456818,4.970589637756348,1.100197196006775
0.13659986853599548,4.99436616897583,1.1060069799423218
0.10174084454774857,4.99518346786499,1.1060737371444702
0.06744013726711273,5.033900737762451,1.1145445108413696
0.03232567757368088,5.038056373596191,1.115416407585144
-0.003430713666602969,5.045780181884766,1.1171330213546753
-0.038649726659059525,5.068511486053467,1.1222269535064697
-0.07418464869260788,5.090995788574219,1.1273211240768433
-0.10984735190868378,5.105653762817383,1.1305025815963745
-0.145883247256279,5.127802848815918,1.134851336479187
-0.18182675540447235,5.1382622718811035,1.1366640329360962
-0.21835629642009735,5.144636631011963,1.1376187801361084
-0.2556373178958893,5.17363166809082,1.1436338424682617
-0.2921036183834076,5.179502487182617,1.1445894241333008
-0.2777477502822876,4.381842613220215,0.9680762887001038
-0.30438360571861267,4.3267598152160645,0.955295205116272
-0.33275091648101807,4.298158645629883,0.9481871128082275
-0.363127201795578,4.303622245788574,0.9486564993858337
-0.3915124833583832,4.286074161529541,0.9440996646881104
-0.4160844683647156,4.230350017547607,0.9311863780021667
-0.4418998956680298,4.193462371826172,0.9224772453308105
-0.46559393405914307,4.137410640716553,0.90956050157547
-0.48633402585983276,4.070077419281006,0.8936427235603333
-0.5104803442955017,4.036725044250488,0.8852539658546448
-0.5316663384437561,3.9843101501464844,0.872747004032135
-0.5528208017349243,3.9355502128601074,0.861100971698761
-0.576778769493103,3.905477285385132,0.8535799980163574
-0.5981014370918274,3.864006280899048,0.8436411023139954
-0.6204878687858582,3.8338241577148438,0.8359331488609314
-0.640363872051239,3.7923078536987305,0.8255274295806885
-0.6563920378684998,3.731879949569702,0.811076819896698
-0.6791845560073853,3.7127342224121094,0.8056609034538269
-0.6968601942062378,3.6632776260375977,0.7936867475509644
-0.7142464518547058,3.617560386657715,0.7826077938079834
-0.7333101034164429,3.5830078125,0.7739875912666321
-0.7513867020606995,3.5485708713531494,0.7649476528167725
-0.7617106437683105,3.4804270267486572,0.7487165927886963
-0.7841987013816833,3.4681429862976074,0.7445422410964966
-0.8045874238014221,3.4483110904693604,0.7388071417808533
-0.8241832256317139,3.424564838409424,0.7322622537612915
-0.8370404243469238,3.374718427658081,0.7201986908912659
-0.8601820468902588,3.369497537612915,0.7173712253570557
-0.8747497797012329,3.3307931423187256,0.7072818875312805
-0.8933852314949036,3.310612440109253,0.7012196779251099
-0.9119268655776978,3.2902891635894775,0.6951647400856018
-0.9223709106445312,3.2402687072753906,0.6828594207763672
-0.9396417737007141,3.215982437133789,0.6760469675064087
-0.957773745059967,3.1953110694885254,0.6697769165039062
-0.970460057258606,3.1601333618164062,0.660331130027771
-0.9827122092247009,3.1249165534973145,0.650945782661438
-1.0016071796417236,3.111541748046875,0.6461609601974487
-1.0126090049743652,3.072375535964966,0.6360166072845459
-1.0296164751052856,3.0512382984161377,0.6296318769454956
-1.0456063747406006,3.0302960872650146,0.6231531500816345
-1.0571573972702026,2.998584747314453,0.614307165145874
-1.0774236917495728,2.992105722427368,0.6106782555580139
-1.0977987051010132,2.985435962677002,0.6070216298103333
-1.0971941947937012,2.920917272567749,0.59160315990448
-1.1125813722610474,2.899412155151367,0.5849442481994629
-1.1253747940063477,2.874652862548828,0.5774322152137756
-1.1362138986587524,2.8463897705078125,0.5691589117050171
-1.1496435403823853,2.825201988220215,0.5623552203178406
-1.1514347791671753,2.775416851043701,0.5498867630958557
-1.1293857097625732,2.668792247772217,0.5262148976325989
-1.1358537673950195,2.633361339569092,0.5167253613471985
-1.1535391807556152,2.6264758110046387,0.5125754475593567
-1.1711807250976562,2.6194658279418945,0.5084244608879089
-1.1920125484466553,2.6193156242370605,0.5056130290031433
-1.231826901435852,2.6569361686706543,0.5098809003829956
-1.2423620223999023,2.6316096782684326,0.502108633518219
-1.2567827701568604,2.617093563079834,0.4961683452129364
-1.2675063610076904,2.5956640243530273,0.48890218138694763
-1.28142249584198,2.5810937881469727,0.4829756021499634
-1.285996675491333,2.5452470779418945,0.4729086458683014
-1.295209527015686,2.519818067550659,0.4648967683315277
-1.3051056861877441,2.4982357025146484,0.4574050009250641
-1.3181428909301758,2.483567237854004,0.4511532187461853
-1.331037998199463,2.4688236713409424,0.44492748379707336
-1.3411651849746704,2.446702480316162,0.4371890127658844
-1.3475406169891357,2.417670965194702,0.42822566628456116
-1.3559820652008057,2.3961689472198486,0.42045488953590393
-1.369982361793518,2.384680986404419,0.4144831895828247
-1.3784972429275513,2.3628509044647217,0.40664735436439514
-1.3874346017837524,2.3406424522399902,0.39864566922187805
-1.3957157135009766,2.3186798095703125,0.39052242040634155
-1.4069809913635254,2.3037800788879395,0.3835940361022949
-1.418298363685608,2.288708448410034,0.37662243843078613
-1.4387953281402588,2.2860615253448486,0.37139540910720825
-1.4754438400268555,2.309687852859497,0.3702554702758789
-1.4698344469070435,2.2683091163635254,0.35847485065460205
-1.4807630777359009,2.2529549598693848,0.35090702772140503
-1.4925626516342163,2.2369260787963867,0.34293133020401
-1.4707013368606567,2.17329478263855,0.32767799496650696
-1.480416178703308,2.158322334289551,0.31984248757362366
-1.5287672281265259,2.1967215538024902,0.31936588883399963
-1.4972703456878662,2.1204137802124023,0.30210229754447937
-1.5109195709228516,2.1117820739746094,0.29451149702072144
-1.5135658979415894,2.0870327949523926,0.28451982140541077
-1.5307790040969849,2.0803985595703125,0.2765413224697113
-1.5369747877120972,2.062410831451416,0.26691344380378723
-1.4957759380340576,2.1142592430114746,-0.1417790651321411
-1.5047807693481445,2.159705638885498,-0.1535983681678772
-1.5020891427993774,2.189333915710449,-0.16424152255058289
-1.4937478303909302,2.2131402492523193,-0.17473486065864563
-1.4779280424118042,2.2230324745178223,-0.18346746265888214
-1.4655224084854126,2.23980975151062,-0.19279804825782776
-1.4528151750564575,2.256577968597412,-0.20211690664291382
-1.4368054866790771,2.2660574913024902,-0.2103346884250641
-1.434118390083313,2.29914927482605,-0.22095131874084473
-1.4250727891921997,2.322242259979248,-0.2305753231048584
-1.3863781690597534,2.2948849201202393,-0.2347916066646576
-1.3456441164016724,2.2640552520751953,-0.23841367661952972
-1.3169264793395996,2.2530696392059326,-0.2439562827348709
-1.2965556383132935,2.255068778991699,-0.2506929039955139
-1.2725540399551392,2.250037670135498,-0.256426066160202
-1.2784761190414429,2.299347400665283,-0.268412709236145
-1.2579600811004639,2.300934076309204,-0.2748182713985443
-1.2526010274887085,2.3294999599456787,-0.28434550762176514
-1.2424235343933105,2.3516385555267334,-0.29323136806488037
-1.2286350727081299,2.366730213165283,-0.3011986017227173
-1.224077582359314,2.3987419605255127,-0.3112134337425232
-1.213786005973816,2.420433521270752,-0.31995153427124023
-1.2028998136520386,2.442246913909912,-0.3287164568901062
-1.1915688514709473,2.4640820026397705,-0.3376287519931793
-1.189023733139038,2.503048896789551,-0.3487739861011505
-1.203734040260315,2.580817937850952,-0.36548876762390137
-1.1784958839416504,2.5744264125823975,-0.3703761696815491
-1.1536201238632202,2.567716598510742,-0.3751082420349121
-1.1713098287582397,2.6563100814819336,-0.3938520848751068
-1.2224544286727905,2.8271758556365967,-0.42531701922416687
-1.312191128730774,3.0948500633239746,-0.4721235930919647
-1.303382396697998,3.13511061668396,-0.48480069637298584
-1.2811040878295898,3.1430795192718506,-0.49252429604530334
-1.2254855632781982,3.0684876441955566,-0.48695483803749084
-1.1818183660507202,3.022249698638916,-0.485709547996521
-1.1284594535827637,2.946509838104248,-0.4793052077293396
-1.0736697912216187,2.8629395961761475,-0.471273273229599
-1.0252047777175903,2.7934131622314453,-0.465023934841156
-0.9855745434761047,2.745192766189575,-0.4620678722858429
-0.9401423335075378,2.6784298419952393,-0.4558197557926178
-0.8949273824691772,2.607421636581421,-0.4484778046607971
-0.8579598069190979,2.557971954345703,-0.44439926743507385
-0.8216848373413086,2.5081863403320312,-0.44004708528518677
-0.7921375036239624,2.4763600826263428,-0.4386851191520691
-0.7594417929649353,2.4332845211029053,-0.435255765914917
-0.7264661192893982,2.386207103729248,-0.4306851327419281
-0.6996284127235413,2.3572869300842285,-0.4291876256465912
-0.6722195148468018,2.3244149684906006,-0.4268699288368225
-0.6401978731155396,2.272761583328247,-0.42095598578453064
-0.6160021424293518,2.2468018531799316,-0.41952309012413025
-0.5918794870376587,2.2207279205322266,-0.4179118871688843
-0.567492663860321,2.1906564235687256,-0.41541731357574463
-0.5483098030090332,2.1789791584014893,-0.41634848713874817
-0.5256688594818115,2.152247667312622,-0.4142407476902008
-0.5024899840354919,2.121638298034668,-0.4111032783985138
-0.48037779331207275,2.0946128368377686,-0.4086443781852722
-0.4623277187347412,2.082317352294922,-0.4089600443840027
-0.43884751200675964,2.043635606765747,-0.40399065613746643
-0.4260132610797882,2.0536210536956787,-0.40831422805786133
-0.405535489320755,2.0259318351745605,-0.40514129400253296
-0.3867104947566986,2.0056285858154297,-0.4034392833709717
-0.37265655398368835,2.0077319145202637,-0.40619364380836487
-0.3558722138404846,1.994721531867981,-0.4055556654930115
-0.3392869234085083,1.9815870523452759,-0.4048469662666321
-0.3223271667957306,1.9645397663116455,-0.40331870317459106
-0.30954065918922424,1.9738569259643555,-0.40724557638168335
-0.29120054841041565,1.9452651739120483,-0.40305888652801514
-0.2705848217010498,1.89761221408844,-0.3947443962097168
-0.26092153787612915,1.925597906112671,-0.4021652936935425
-0.24553583562374115,1.9117999076843262,-0.40088674426078796
-0.22898687422275543,1.886528730392456,-0.3970298767089844
-0.21386706829071045,1.8725937604904175,-0.3953312635421753
-0.20245040953159332,1.888929843902588,-0.400020569562912
-0.1862182915210724,1.8595595359802246,-0.395042359828949
-0.1746436059474945,1.8757340908050537,-0.3996935188770294
-0.16286803781986237,1.8919025659561157,-0.4040257930755615
-0.14762727916240692,1.8699238300323486,-0.4002438485622406
-0.13459916412830353,1.8706765174865723,-0.40131863951683044
-0.12257207185029984,1.8865821361541748,-0.40567028522491455
-0.10855074226856232,1.8719842433929443,-0.4031076431274414
-0.0951419249176979,1.8649225234985352,-0.4021308720111847
-0.08059635013341904,1.8348852396011353,-0.3962182104587555
-0.0681193396449089,1.842890977859497,-0.39852264523506165
-0.05553731694817543,1.8508656024932861,-0.4005754888057709
-0.043011054396629333,1.8664205074310303,-0.40413039922714233
-0.029916437342762947,1.8589855432510376,-0.4027274250984192
-0.016913754865527153,1.8743653297424316,-0.40629154443740845
-0.003839477663859725,1.8515102863311768,-0.4014267027378082
0.009067682549357414,1.8591617345809937,-0.4029233753681183
0.02190040424466133,1.8514533042907715,-0.40111058950424194
0.03547264263033867,1.8894617557525635,-0.40921977162361145
0.048200078308582306,1.8739460706710815,-0.4057178497314453
0.061456937342882156,1.8736839294433594,-0.4051363468170166
0.07386884093284607,1.8580737113952637,-0.40126940608024597
0.08786264806985855,1.880523920059204,-0.40563908219337463
0.10259610414505005,1.9104974269866943,-0.41163739562034607
0.11544277518987656,1.9023114442825317,-0.40906912088394165
0.13073238730430603,1.928340196609497,-0.4137782156467438
0.14359958469867706,1.9199801683425903,-0.4111345708370209
0.15947124361991882,1.9496110677719116,-0.41663625836372375
0.17375023663043976,1.9563313722610474,-0.41700097918510437
0.19212719798088074,2.004833459854126,-0.4260731041431427
0.2086927592754364,2.0265514850616455,-0.42940691113471985
0.22449558973312378,2.0405619144439697,-0.4311264157295227
0.23782365024089813,2.0316967964172363,-0.4278954863548279
0.2557543218135834,2.0607516765594482,-0.4323553442955017
0.271116703748703,2.066908836364746,-0.4320017993450165
0.2868090867996216,2.0729269981384277,-0.4316021800041199
0.30291804671287537,2.082645893096924,-0.4319843351840973
0.320890873670578,2.103675365447998,-0.43430498242378235
0.3470166325569153,2.1737067699432373,-0.44667214155197144
0.36597827076911926,2.194398880004883,-0.4488271474838257
0.38527852296829224,2.2149341106414795,-0.4509243965148926
0.4085565507411957,2.254187822341919,-0.45642390847206116
0.4300066828727722,2.2820017337799072,-0.4594985842704773
0.45554494857788086,2.3284449577331543,-0.4662587344646454
0.482533723115921,2.378415822982788,-0.4736328423023224
0.5023232698440552,2.3906633853912354,-0.4732273519039154
0.5266726016998291,2.4214823246002197,-0.47621068358421326
0.5503506660461426,2.4483985900878906,-0.4784211218357086
0.5875025391578674,2.531184673309326,-0.49141648411750793
0.6222283840179443,2.598705530166626,-0.501160740852356
0.6459389925003052,2.6174871921539307,-0.5011137127876282
0.6806684136390686,2.676959991455078,-0.5086983442306519
0.7257396578788757,2.773334503173828,-0.5231422781944275
0.762200117111206,2.8321471214294434,-0.5302711725234985
0.8014962673187256,2.8981170654296875,-0.5381796956062317
0.8470050096511841,2.982210874557495,-0.5492362380027771
0.8930822014808655,3.062056541442871,-0.5591784119606018
0.9399909973144531,3.1415276527404785,-0.568892240524292
0.9935843348503113,3.239032506942749,-0.5812615156173706
1.0543105602264404,3.3543903827667236,-0.5964458584785461
1.1073755025863647,3.439753293991089,-0.6059458255767822
1.1646459102630615,3.531750202178955,-0.6162022352218628
1.262128233909607,3.7402641773223877,-0.646108090877533
1.3272466659545898,3.8457069396972656,-0.6575464010238647
1.427383303642273,4.0450263023376465,-0.6844736933708191
1.4794986248016357,4.101633071899414,-0.6867579221725464
1.5202641487121582,4.125243186950684,-0.6831640005111694
1.5495483875274658,4.1158833503723145,-0.6737584471702576
1.5783251523971558,4.106444358825684,-0.6644927263259888
1.604511022567749,4.089492321014404,-0.6539784073829651
1.6145193576812744,4.032986164093018,-0.637130081653595
1.3795146942138672,3.3788702487945557,-0.5270966291427612
1.3915903568267822,3.341691017150879,-0.5145314335823059
1.4182502031326294,3.340108871459961,-0.5075370669364929
1.4416767358779907,3.3313004970550537,-0.4993593990802765
1.4616529941558838,3.3153600692749023,-0.49002331495285034
1.4847335815429688,3.3063089847564697,-0.4817162752151489
1.5117764472961426,3.3037991523742676,-0.47412770986557007
1.5381795167922974,3.301359176635742,-0.46658074855804443
1.5543670654296875,3.2778310775756836,-0.4559963345527649
1.5771881341934204,3.268108367919922,-0.447335809469223
1.6071546077728271,3.2719664573669434,-0.44040340185165405
1.6199424266815186,3.2408640384674072,-0.4285835027694702
1.628159761428833,3.2031219005584717,-0.4161141514778137
1.6202373504638672,3.134185791015625,-0.39969494938850403
1.676834225654602,3.188997745513916,-0.39893126487731934
1.7134943008422852,3.2058606147766113,-0.3931408226490021
1.7354985475540161,3.1951255798339844,-0.38390299677848816
1.7151302099227905,3.105526924133301,-0.3650802969932556
1.7616703510284424,3.1385273933410645,-0.3608455955982208
1.7945716381072998,3.1477882862091064,-0.35368406772613525
1.3231250047683716,2.2850420475006104,-0.2507008910179138
0.972412109375,1.6528133153915405,-0.17679497599601746
0.9460152983665466,1.583083987236023,-0.16487552225589752
0.9647814035415649,1.5904715061187744,-0.1612033098936081
0.9758989810943604,1.5841991901397705,-0.15595920383930206
0.9890166521072388,1.5811539888381958,-0.1509629487991333
0.9996281862258911,1.5749659538269043,-0.1456630527973175
1.0085430145263672,1.5651439428329468,-0.13983818888664246
1.0195715427398682,1.558473825454712,-0.13424697518348694
1.0256507396697998,1.5456042289733887,-0.12815451622009277
1.0405081510543823,1.5455083847045898,-0.12302550673484802
1.0535755157470703,1.5418150424957275,-0.1173759251832962
2.5475518703460693,3.676058769226074,-0.2667778730392456
2.5904102325439453,3.6852197647094727,-0.2540415823459625
2.6113293170928955,3.661864995956421,-0.23848208785057068
2.5870492458343506,3.57938814163208,-0.21939781308174133
2.650923728942871,3.615870952606201,-0.20675694942474365
2.6959381103515625,3.627194881439209,-0.19199667870998383
2.6420369148254395,3.7150068283081055,0.4991879165172577
2.6032159328460693,3.721372365951538,0.5122604370117188
2.6029367446899414,3.780991554260254,0.5322878956794739
1.047258973121643,1.5441266298294067,0.22183381021022797
1.0436172485351562,1.564494252204895,0.229063019156456
1.0526546239852905,1.6042110919952393,0.23918628692626953
1.040928840637207,1.6110869646072388,0.24423480033874512
1.0120208263397217,1.592056155204773,0.24511778354644775
1.0159484148025513,1.625455379486084,0.2540247142314911
0.9877121448516846,1.6058011054992676,0.2544400691986084
0.9842201471328735,1.6253676414489746,0.2609500288963318
0.9713935256004333,1.632359504699707,0.26533228158950806
0.962643563747406,1.6457990407943726,0.27073177695274353
1.3421976566314697,2.3323028087615967,0.3879050612449646
1.8511828184127808,3.269153118133545,0.5495635867118835
1.7698036432266235,3.180619239807129,0.5399596691131592
1.7653851509094238,3.230300188064575,0.5538467764854431
1.7765130996704102,3.306497097015381,0.572134792804718
1.763738989830017,3.3383185863494873,0.582787275314331
2.3770811557769775,4.5799241065979,0.8061753511428833
2.342310905456543,4.596157073974609,0.8155078291893005
2.3141298294067383,4.625999927520752,0.8273578882217407
2.2711033821105957,4.619940757751465,0.8323630690574646
2.2481560707092285,4.655284881591797,0.844810426235199
2.2198538780212402,4.684406280517578,0.8556387424468994
2.1814465522766113,4.692397117614746,0.8626701831817627
2.150235652923584,4.713756084442139,0.8720794320106506
2.116271495819092,4.7276225090026855,0.8800622820854187
2.0840208530426025,4.744689464569092,0.8884657025337219
2.0350468158721924,4.726830959320068,0.8898294568061829
1.7441264390945435,4.134134292602539,0.7823904752731323
1.7227306365966797,4.166897773742676,0.7927106618881226
1.6985715627670288,4.192230224609375,0.8016242384910583
1.6689079999923706,4.2029595375061035,0.8077232241630554
1.6434890031814575,4.228386878967285,0.8161050081253052
1.6136420965194702,4.242889881134033,0.8224422335624695
1.5783504247665405,4.242752552032471,0.8259754180908203
1.5505506992340088,4.26010274887085,0.8328578472137451
1.5244165658950806,4.280705451965332,0.8403700590133667
1.498608112335205,4.305074214935303,0.8483324646949768
1.4646687507629395,4.3076629638671875,0.8517965078353882
1.428307056427002,4.302711009979248,0.8538039326667786
1.4015567302703857,4.326669692993164,0.8615939021110535
1.3734592199325562,4.342782497406006,0.8677617311477661
1.3496840000152588,4.373382091522217,0.8768914937973022
