X,Y,Z
2.0305731296539307,3.9964489936828613,-0.2914051115512848
2.0592949390411377,3.9865071773529053,-0.286224365234375
2.0841448307037354,3.969558000564575,-0.2805325388908386
2.1115498542785645,3.9554431438446045,-0.27491286396980286
2.1279795169830322,3.9204204082489014,-0.2678293287754059
2.1508052349090576,3.8994333744049072,-0.2615702152252197
2.140568494796753,3.8207271099090576,-0.25161683559417725
2.1594953536987305,3.7925026416778564,-0.24487656354904175
2.1933228969573975,3.7914505004882812,-0.23987813293933868
2.2104904651641846,3.7637524604797363,-0.23315230011940002
2.23242449760437,3.7420778274536133,-0.2266271412372589
2.27066707611084,3.7467660903930664,-0.221623495221138
2.2832913398742676,3.711994171142578,-0.2142503261566162
2.31187105178833,3.7038187980651855,-0.2084237039089203
2.341862440109253,3.694537878036499,-0.20221060514450073
2.362928867340088,3.6721839904785156,-0.19517076015472412
2.3782997131347656,3.6439640522003174,-0.18795146048069
2.412076950073242,3.6407883167266846,-0.18168196082115173
2.4104912281036377,3.5858802795410156,-0.1728091686964035
2.429227590560913,3.5640974044799805,-0.16560669243335724
2.4675798416137695,3.566514253616333,-0.15896205604076385
2.482262134552002,3.5375776290893555,-0.15095402300357819
2.5141096115112305,3.5345101356506348,-0.14398977160453796
2.5295708179473877,3.5045411586761475,-0.1353846788406372
2.556384801864624,3.4950127601623535,-0.12758247554302216
2.1749825477600098,2.9324045181274414,-0.1003556028008461
2.783472776412964,3.900454044342041,0.22078904509544373
2.754127264022827,3.920727252960205,0.22954465448856354
2.723902702331543,3.9412777423858643,0.23810234665870667
2.69174861907959,3.953394651412964,0.24552179872989655
2.6701226234436035,3.9863369464874268,0.25413668155670166
2.6315014362335205,3.9927773475646973,0.26086050271987915
2.6156766414642334,4.030614376068115,0.26934072375297546
2.5683188438415527,4.023519039154053,0.2745593190193176
2.554431200027466,4.068759441375732,0.2832605540752411
2.5341055393218994,4.099348068237305,0.29059475660324097
2.483854293823242,4.08397102355957,0.29456067085266113
2.4683454036712646,4.129276752471924,0.3029106855392456
2.4544272422790527,4.173341751098633,0.3109115958213806
2.421222686767578,4.183247089385986,0.3162885010242462
2.3860023021698,4.194032192230225,0.3215228021144867
2.3619987964630127,4.2250237464904785,0.3283212184906006
2.2660064697265625,4.121860504150391,0.32439231872558594
2.2406957149505615,4.144124984741211,0.33013617992401123
2.220686674118042,4.180965900421143,0.33686938881874084
2.1858651638031006,4.190077781677246,0.341395765542984
2.1634645462036133,4.218815803527832,0.3473305106163025
2.1333696842193604,4.233711242675781,0.35220086574554443
2.1107800006866455,4.266373157501221,0.35828813910484314
2.079172134399414,4.281476974487305,0.36291342973709106
2.0485141277313232,4.295849800109863,0.36738404631614685
2.01345157623291,4.299121856689453,0.37084710597991943
1.9906855821609497,4.330780029296875,0.37664908170700073
1.9678314924240112,4.366480350494385,0.38276517391204834
1.987746000289917,4.497926712036133,0.397325336933136
1.9640170335769653,4.529201984405518,0.40300890803337097
1.9354125261306763,4.549595355987549,0.4077564477920532
1.9233121871948242,4.613473892211914,0.41620081663131714
4.264941215515137,10.447402954101562,0.94867342710495
1.8382831811904907,4.597034931182861,0.4200705885887146
1.8289058208465576,4.66738224029541,0.4290994107723236
1.7879115343093872,4.657890319824219,0.4308324158191681
1.7691330909729004,4.710487365722656,0.43802759051322937
1.3332396745681763,3.63090443611145,0.3394661843776703
1.3124350309371948,3.6547696590423584,0.34349244832992554
1.2701376676559448,3.615872859954834,0.3415735065937042
1.6277756690979004,4.739338397979736,0.44999203085899353
1.597355604171753,4.761696815490723,0.45413172245025635
1.5744003057479858,4.809987545013428,0.46078652143478394
1.5350282192230225,4.8060712814331055,0.462429016828537
1.503779411315918,4.823803424835205,0.4661136567592621
1.479192852973938,4.863644599914551,0.4719699025154114
1.4634040594100952,4.937148094177246,0.4809456467628479
1.434404969215393,4.969679355621338,0.48584243655204773
1.4001299142837524,4.987252235412598,0.4893456995487213
1.3394595384597778,4.902916431427002,0.4827735722064972
1.2912617921829224,4.859266757965088,0.4801686108112335
1.2592236995697021,4.87545108795166,0.48342999815940857
1.2338283061981201,4.92181396484375,0.4893991947174072
1.2016836404800415,4.945540428161621,0.49318280816078186
1.1628713607788086,4.93861198425293,0.4939054846763611
1.1379742622375488,4.988062858581543,0.5002667903900146
1.108252763748169,5.018420219421387,0.5047557950019836
1.0761018991470337,5.04110860824585,0.5083224177360535
1.0395748615264893,5.048575401306152,0.5102294683456421
1.0066909790039062,5.070898532867432,0.5136464834213257
0.9767724871635437,5.10822057723999,0.5186090469360352
2.1186835765838623,11.513835906982422,1.171619176864624
2.0045979022979736,11.336523056030273,1.1562681198120117
1.902363896369934,11.22764778137207,1.1472138166427612
1.8034965991973877,11.121590614318848,1.1382263898849487
1.6877855062484741,10.895648956298828,1.1169663667678833
1.5955613851547241,10.799240112304688,1.1089590787887573
1.5014235973358154,10.675084114074707,1.0981029272079468
1.4072707891464233,10.546473503112793,1.086827278137207
1.313995599746704,10.405536651611328,1.0735095739364624
1.2269556522369385,10.29854965209961,1.0636587142944336
1.1457054615020752,10.229491233825684,1.057757019996643
1.0612609386444092,10.113367080688477,1.0470050573349
0.9855185747146606,10.066162109375,1.0434125661849976
0.39227819442749023,4.322392463684082,0.4486269950866699
0.35803309082984924,4.278520584106445,0.44433724880218506
0.3285732865333557,4.288623332977295,0.4456648826599121
0.2984047532081604,4.290773391723633,0.44618910551071167
0.2723744213581085,4.354739189147949,0.4531650245189667
0.31125226616859436,5.613409042358398,0.5845982432365417
0.2726188004016876,5.62312650680542,0.5860841274261475
0.23429082334041595,5.648159027099609,0.5887681245803833
0.19688545167446136,5.707874298095703,0.5950804948806763
0.157208651304245,5.716853141784668,0.596133291721344
0.11742537468671799,5.7527570724487305,0.6000261902809143
0.07751090824604034,5.761178970336914,0.6010804176330566
0.037434469908475876,5.7615532875061035,0.6013243198394775
-0.002571522258222103,5.68787145614624,0.5934767723083496
-0.03205244988203049,4.324077129364014,0.45104795694351196
-0.05892395228147507,4.063476085662842,0.42376163601875305
-0.08953492343425751,4.175628185272217,0.4353751540184021
-0.1164570227265358,4.101129531860352,0.4275472164154053
-0.14504997432231903,4.104119300842285,0.42781922221183777
-0.2498016357421875,5.908092021942139,0.615456759929657
-0.17511099576950073,3.5585215091705322,0.3704189360141754
-0.19954271614551544,3.5456020832061768,0.36880892515182495
-0.2246169000864029,3.551929235458374,0.3692234456539154
-0.26809975504875183,3.817758560180664,0.39661282300949097
-0.2997357249259949,3.881702423095703,0.4030272364616394
-0.3177735209465027,3.775063991546631,0.3915315866470337
-0.33829545974731445,3.7070295810699463,0.38399893045425415
-0.3585590422153473,3.650538444519043,0.37770405411720276
-0.37772777676582336,3.5900723934173584,0.37102797627449036
-0.4074196219444275,3.6299102306365967,0.3747367262840271
-0.43722254037857056,3.6656494140625,0.37803152203559875
-0.4590243399143219,3.631742477416992,0.37395650148391724
-0.48036113381385803,3.601637601852417,0.37023723125457764
-0.49968552589416504,3.5598647594451904,0.36534714698791504
-0.5220420956611633,3.5410385131835938,0.3628339171409607
-0.5477961897850037,3.545107126235962,0.36268362402915955
-0.5728684067726135,3.5412397384643555,0.36172720789909363
-0.5900624394416809,3.49518084526062,0.35629016160964966
-1.1134835481643677,6.331596851348877,0.6440092325210571
-1.164475917816162,6.36610746383667,0.6461204290390015
-1.2157233953475952,6.396313190460205,0.6477933526039124
-1.2692761421203613,6.433679103851318,0.6501942276954651
-1.3266040086746216,6.481863021850586,0.653672456741333
-1.3846479654312134,6.537548542022705,0.6575254797935486
-1.435974359512329,6.5585832595825195,0.6578305959701538
-1.4687243700027466,6.495811462402344,0.6497692465782166
-1.5128148794174194,6.481969356536865,0.6466228365898132
-1.5422126054763794,6.403354167938232,0.6370307207107544
-0.6977654099464417,2.8114633560180664,0.2789369821548462
-0.7033551335334778,2.754056453704834,0.27233344316482544
-0.7220534086227417,2.7493481636047363,0.2709696888923645
-0.742719829082489,2.752028226852417,0.27034541964530945
-0.7684215903282166,2.7693259716033936,0.2711220681667328
-0.7812878489494324,2.741605758666992,0.26751968264579773
-0.9726102948188782,3.326125383377075,0.32339105010032654
-0.9906238317489624,3.304753303527832,0.3200225234031677
-1.0129605531692505,3.2981603145599365,0.3181057274341583
-1.0406118631362915,3.306047201156616,0.3175552785396576
-1.0612592697143555,3.2914938926696777,0.31486186385154724
-1.0817230939865112,3.2768218517303467,0.31217992305755615
-1.0914480686187744,3.232762575149536,0.30653566122055054
-1.2224059104919434,3.5418267250061035,0.33423855900764465
-1.3161662817001343,3.7318711280822754,0.35049211978912354
-1.3504745960235596,3.7446670532226562,0.3499337136745453
-1.3818894624710083,3.7500226497650146,0.34870976209640503
-2.1118836402893066,5.612946033477783,0.5191713571548462
-2.138292074203491,5.569988250732422,0.5122984647750854
-2.1699447631835938,5.541401386260986,0.5067893266677856
-2.2290170192718506,5.57703161239624,0.5070245265960693
-1.4492028951644897,3.5540366172790527,0.32119882106781006
-1.4197684526443481,3.414856195449829,0.3067130446434021
-1.4364678859710693,3.3912155628204346,0.3025764524936676
-1.4529427289962769,3.367488384246826,0.2984601557254791
-1.4890497922897339,3.385998487472534,0.2979958653450012
-1.4951179027557373,3.336703300476074,0.2915952503681183
-1.501723289489746,3.2912418842315674,0.2855086624622345
-1.5268409252166748,3.288519859313965,0.2830514907836914
-1.538705825805664,3.257423162460327,0.2781713604927063
-1.5616824626922607,3.246746778488159,0.274926096200943
-1.5878002643585205,3.243002414703369,0.2722977101802826
-1.6096292734146118,3.2325010299682617,0.26898178458213806
-1.6415871381759644,3.2428884506225586,0.2673451602458954
-1.670459508895874,3.245929002761841,0.26505595445632935
-1.702096939086914,3.2517471313476562,0.26288262009620667
-1.7358676195144653,3.2606520652770996,0.2608577013015747
-2.500551462173462,4.623992919921875,0.36591836810112
-1.1819615364074707,2.151932954788208,0.16841931641101837
-1.1930568218231201,2.1370813846588135,0.1652883142232895
-2.554403305053711,4.501871585845947,0.3439962863922119
-2.5765902996063232,4.471662998199463,0.33720701932907104
-2.5978732109069824,4.441701412200928,0.3305438160896301
-2.614471673965454,4.400678634643555,0.32286953926086426
-1.2571231126785278,2.082875967025757,0.1505846381187439
-2.6614441871643066,4.345898151397705,0.3093426525592804
-2.681840658187866,4.31542444229126,0.30224886536598206
-2.9677529335021973,4.702770233154297,0.32369646430015564
-3.003990650177002,4.689458847045898,0.3170069754123688
-3.0254769325256348,4.657514572143555,0.3089558780193329
-3.04770565032959,4.624812602996826,0.3006953001022339
-3.0545620918273926,4.564579963684082,0.29027217626571655
-3.0817930698394775,4.542015075683594,0.2823121249675751
-3.0932726860046387,4.496854305267334,0.27291178703308105
-3.111218214035034,4.4564433097839355,0.26331278681755066
-3.196361780166626,4.516322135925293,0.2594628632068634
-2.832068681716919,3.947465419769287,0.22002126276493073
-2.901022434234619,3.9847629070281982,0.21466480195522308
-2.8935585021972656,3.9229423999786377,0.2038872390985489
-3.032222032546997,4.2445149421691895,-0.15834595263004303
-2.4489028453826904,3.4803850650787354,-0.13697940111160278
-2.950913667678833,4.262762546539307,-0.17641955614089966
-2.9430148601531982,4.315187454223633,-0.186479851603508
-2.343034267425537,3.490644931793213,-0.15716029703617096
-2.2956113815307617,3.475013017654419,-0.16252966225147247
-2.2579874992370605,3.4713621139526367,-0.16815856099128723
-2.1434719562530518,3.3498568534851074,-0.16768492758274078
-2.1023144721984863,3.338698625564575,-0.17231592535972595
-1.2584320306777954,2.0297348499298096,-0.10776186734437943
-1.263590693473816,2.072183132171631,-0.11303162574768066
-2.026703357696533,3.3796684741973877,-0.1892242431640625
-2.0089550018310547,3.4035446643829346,-0.19514372944831848
-1.9742342233657837,3.400956869125366,-0.1994931697845459
-1.1949334144592285,2.0938162803649902,-0.12556202709674835
-1.1917343139648438,2.1223349571228027,-0.1298830509185791
-1.9133985042572021,3.4658432006835938,-0.21638746559619904
-1.9269273281097412,3.5514912605285645,-0.22596564888954163
-1.9197889566421509,3.5992958545684814,-0.23316538333892822
-1.8674392700195312,3.560493230819702,-0.2346429079771042
-1.7237833738327026,3.3448057174682617,-0.22407890856266022
-1.6865849494934082,3.3328514099121094,-0.22693835198879242
-1.6595486402511597,3.337397575378418,-0.2307196855545044
-1.5967904329299927,3.2680721282958984,-0.22928529977798462
-1.562853455543518,3.2582309246063232,-0.23181770741939545
-1.5324403047561646,3.255133867263794,-0.23481057584285736
-1.512904405593872,3.272571086883545,-0.23916250467300415
-1.4895663261413574,3.2829742431640625,-0.24305424094200134
-2.273983955383301,5.109179496765137,-0.382834255695343
-2.230813980102539,5.110739231109619,-0.3875165283679962
-2.17804217338562,5.086431980133057,-0.3900815546512604
-2.1575140953063965,5.137033939361572,-0.3983936607837677
-2.210225820541382,5.372068405151367,-0.42107176780700684
-2.185986042022705,5.423563480377197,-0.42952120304107666
-2.157808303833008,5.463728427886963,-0.4370344579219818
-2.128054618835449,5.50001335144043,-0.444263756275177
-1.336863398551941,3.5295064449310303,-0.2877293825149536
-2.066052198410034,5.576764106750488,-0.4587932527065277
-2.029203414916992,5.598133087158203,-0.46461066603660583
-1.9432567358016968,5.479593276977539,-0.45869284868240356
-1.6201163530349731,4.672325134277344,-0.39433416724205017
-1.5804494619369507,4.665001392364502,-0.39678043127059937
-1.888981819152832,5.710971355438232,-0.4895535111427307
-1.871824860572815,5.7939910888671875,-0.5004028081893921
-0.9753899574279785,3.092589855194092,-0.26908907294273376
-0.9556410312652588,3.106687545776367,-0.2721235156059265
-0.8865495324134827,2.956609010696411,-0.260703980922699
-0.802424967288971,2.745887279510498,-0.24371209740638733
-0.7733414173126221,2.7176339626312256,-0.24279704689979553
-0.7500667572021484,2.7078256607055664,-0.24339912831783295
-0.7369178533554077,2.7354555130004883,-0.24728208780288696
-0.7135583162307739,2.725386619567871,-0.24777333438396454
-0.7012864351272583,2.7565183639526367,-0.2520022392272949
-1.4958726167678833,6.058886528015137,-0.5570550560951233
-1.4775519371032715,6.171111106872559,-0.5701451897621155
-1.4628896713256836,6.306129455566406,-0.5853934288024902
-1.424492359161377,6.3424835205078125,-0.5915620923042297
-1.3745142221450806,6.325295925140381,-0.592739462852478
-1.318395733833313,6.281253814697266,-0.5913810133934021
-1.2679152488708496,6.259594917297363,-0.5916587710380554
-1.2155697345733643,6.2260870933532715,-0.5908189415931702
-1.1626338958740234,6.184455394744873,-0.5891864895820618
-1.109803318977356,6.138540744781494,-0.5871273875236511
-1.026892900466919,5.9199323654174805,-0.5683319568634033
-0.9424673318862915,5.669761657714844,-0.546021044254303
-0.9538239240646362,5.99862003326416,-0.579521119594574
-0.907258152961731,5.974140167236328,-0.5789874792098999
-0.7057678699493408,4.875648498535156,-0.474037230014801
-0.6800888180732727,4.9458513259887695,-0.4822111129760742
-0.6348198056221008,4.869382381439209,-0.47588440775871277
-0.5987422466278076,4.858128547668457,-0.47593215107917786
-0.6887342929840088,5.927890777587891,-0.5821487307548523
-0.6458016037940979,5.91689395904541,-0.5825064182281494
-0.6036824584007263,5.913372039794922,-0.583284854888916
-0.5553386807441711,5.851589679718018,-0.578171968460083
-0.5137542486190796,5.847449779510498,-0.5787529349327087
-0.4705755412578583,5.819750785827637,-0.5770186185836792
-0.2560266852378845,3.465735673904419,-0.34423694014549255
-0.23444817960262299,3.506166696548462,-0.34865128993988037
-0.21001242101192474,3.515454053878784,-0.34991589188575745
-0.30016207695007324,5.690514087677002,-0.5669830441474915
-0.2591164708137512,5.661324501037598,-0.5646673440933228
-0.21864260733127594,5.6357245445251465,-0.5627309083938599
-0.17889398336410522,5.6215362548828125,-0.5615279674530029
-0.13798905909061432,5.583782196044922,-0.5579062700271606
-0.09860256314277649,5.557379245758057,-0.5554412603378296
-0.059644244611263275,5.526811599731445,-0.5525845289230347
-0.01718810759484768,4.4737372398376465,-0.44747766852378845
0.013870524242520332,4.462102890014648,-0.44616591930389404
0.05543465167284012,5.445244312286377,-0.5442529916763306
0.09323433041572571,5.444751739501953,-0.54401695728302
0.13051548600196838,5.420680522918701,-0.5414518117904663
0.12514780461788177,4.032697677612305,-0.4027116298675537
0.20078593492507935,5.286374568939209,-0.5273590683937073
0.19227765500545502,4.279195785522461,-0.42643383145332336
0.22208325564861298,4.270025730133057,-0.42508289217948914
0.24946050345897675,4.2296319007873535,-0.42065584659576416
0.2783701717853546,4.2200927734375,-0.41932162642478943
0.3058907985687256,4.194893836975098,-0.41608530282974243
0.33554989099502563,4.2005181312561035,-0.4159203767776489
0.36655348539352417,4.213628768920898,-0.4164990782737732
0.47114139795303345,5.012259483337402,-0.49462106823921204
0.5060039162635803,5.00897216796875,-0.4934806823730469
0.5385419130325317,4.986181259155273,-0.49002373218536377
0.5712330937385559,4.967040538787842,-0.48695746064186096
0.6034192442893982,4.939886569976807,-0.4831153154373169
0.6327959299087524,4.897159576416016,-0.4778038561344147
0.6667832732200623,4.892802715301514,-0.47621503472328186
0.6988640427589417,4.876729488372803,-0.473145455121994
0.7313741445541382,4.864284038543701,-0.47045454382896423
0.7608138918876648,4.828467845916748,-0.4655071496963501
0.7906016111373901,4.8002214431762695,-0.4613483250141144
0.8279002904891968,4.8178019523620605,-0.4615206718444824
0.8679455518722534,4.850484848022461,-0.4628588557243347
0.8971381187438965,4.821658134460449,-0.45834165811538696
0.9290465116500854,4.807910919189453,-0.45528444647789
0.9584731459617615,4.778555870056152,-0.4507448375225067
0.9883585572242737,4.75680685043335,-0.44683870673179626
1.0177640914916992,4.734938144683838,-0.4427364468574524
1.0477590560913086,4.716686248779297,-0.43900471925735474
1.075292706489563,4.686790466308594,-0.4342029094696045
1.1084614992141724,4.679309368133545,-0.43147042393684387
1.1352204084396362,4.6491289138793945,-0.426494836807251
1.1652419567108154,4.633946895599365,-0.4227975010871887
1.191246509552002,4.603491306304932,-0.41773882508277893
1.220302700996399,4.58406925201416,-0.41368842124938965
1.2527902126312256,4.5755743980407715,-0.41061002016067505
1.2841864824295044,4.56715726852417,-0.40731531381607056
1.3154699802398682,4.558541297912598,-0.40398845076560974
1.33586585521698,4.512322425842285,-0.39735129475593567
1.3627959489822388,4.488287448883057,-0.3926895558834076
1.3921619653701782,4.471415042877197,-0.38857704401016235
1.4203948974609375,4.4546661376953125,-0.38434046506881714
1.4508440494537354,4.4451518058776855,-0.38075387477874756
1.4767497777938843,4.420506000518799,-0.37585708498954773
1.4987083673477173,4.384622573852539,-0.3700391352176666
1.252601146697998,3.584177017211914,-0.3000897467136383
1.280057668685913,3.583002805709839,-0.2974875271320343
1.3046096563339233,3.574399709701538,-0.2943054437637329
1.600285530090332,4.291721343994141,-0.35036003589630127
1.627241849899292,4.273558139801025,-0.34584420919418335
1.659045696258545,4.269999980926514,-0.3423530161380768
1.6856781244277954,4.251508712768555,-0.33762022852897644
1.7180721759796143,4.247257709503174,-0.33402392268180847
1.7342994213104248,4.203076362609863,-0.32730531692504883
1.7628631591796875,4.19150972366333,-0.323010116815567
1.7912272214889526,4.179799556732178,-0.3186802268028259
1.8142175674438477,4.153206825256348,-0.31312811374664307
1.8431706428527832,4.140773296356201,-0.30868202447891235
1.86504328250885,4.114192008972168,-0.30311688780784607
1.899298071861267,4.116002559661865,-0.29959070682525635
1.9174082279205322,4.082107067108154,-0.29344362020492554
1.9464105367660522,4.06870174407959,-0.28864628076553345
1.9674475193023682,4.041569709777832,-0.28290894627571106
1.9945906400680542,4.0285773277282715,-0.2781093120574951
2.0132052898406982,3.9978249073028564,-0.27206605672836304
2.0463902950286865,3.99442458152771,-0.2678056061267853
2.071833372116089,3.9772238731384277,-0.26257622241973877
2.091517686843872,3.9495999813079834,-0.256564736366272
2.1183648109436035,3.9355955123901367,-0.25145643949508667
2.149550199508667,3.9278769493103027,-0.24664552509784698
2.1248691082000732,3.821544885635376,-0.2356821894645691
2.1636760234832764,3.831415891647339,-0.23194223642349243
2.180736780166626,3.799586534500122,-0.2254541665315628
2.2031636238098145,3.777916669845581,-0.21962511539459229
2.224076271057129,3.756892204284668,-0.2137889415025711
2.2490434646606445,3.742309093475342,-0.2082958221435547
2.2752022743225098,3.7267818450927734,-0.20251654088497162
2.3089542388916016,3.724658727645874,-0.19735269248485565
2.3209335803985596,3.689876079559326,-0.19054467976093292
2.3421831130981445,3.6674745082855225,-0.18416619300842285
2.379913568496704,3.6713459491729736,-0.17902295291423798
2.3908910751342773,3.636505126953125,-0.17198392748832703
2.407416343688965,3.6071314811706543,-0.16490136086940765
2.436309814453125,3.597405195236206,-0.15870130062103271
2.4461302757263184,3.5626375675201416,-0.15142013132572174
2.4704408645629883,3.5461082458496094,-0.14458277821540833
2.494102716445923,3.5297839641571045,-0.13762830197811127
2.521552801132202,3.520108222961426,-0.13078245520591736
2.5414555072784424,3.496391773223877,-0.12294828146696091
2.1745285987854004,2.9522595405578613,-0.09789694100618362
2.7743382453918457,3.917480945587158,0.20350146293640137
2.732025146484375,3.9181809425354004,0.21035239100456238
2.7102315425872803,3.95180344581604,0.21887724101543427
2.6623172760009766,3.941532611846924,0.2243918478488922
2.643507480621338,3.9772162437438965,0.23232001066207886
2.613093376159668,3.996856451034546,0.2392377108335495
2.5935401916503906,4.0277605056762695,0.24637846648693085
2.5762903690338135,4.066160202026367,0.253934383392334
2.528219699859619,4.0591020584106445,0.25867828726768494
2.5239505767822266,4.116384983062744,0.2670936584472656
2.474283456802368,4.10056734085083,0.2707037329673767
2.4591526985168457,4.145595550537109,0.2782052755355835
2.4365363121032715,4.176620006561279,0.2846948802471161
2.4164559841156006,4.210391521453857,0.2912866771221161
2.37988543510437,4.21737813949585,0.2958427667617798
2.318002700805664,4.18015193939209,0.2971786558628082
2.2524478435516357,4.131314754486084,0.2974380552768707
2.230896472930908,4.160351276397705,0.30316928029060364
2.203533411026001,4.183376789093018,0.30839964747428894
2.172409772872925,4.199283123016357,0.31300145387649536
2.142188310623169,4.214447021484375,0.31745317578315735
2.1195921897888184,4.242961406707764,0.3228534460067749
2.09238600730896,4.264801502227783,0.3276529610157013
2.0602846145629883,4.280072212219238,0.3319222927093506
2.0340576171875,4.305208683013916,0.3368869423866272
2.00393009185791,4.319002151489258,0.34086641669273376
1.9735486507415771,4.332656383514404,0.3448158800601959
1.9973289966583252,4.471210956573486,0.3585822880268097
1.9582284688949585,4.471155166625977,0.3613188564777374
4.3914008140563965,10.22602367401123,0.832542896270752
1.9233486652374268,4.566073417663574,0.37440943717956543
1.8907936811447144,4.579351425170898,0.3780454993247986
1.8515124320983887,4.578282833099365,0.38036513328552246
1.8267252445220947,4.613078594207764,0.38568562269210815
1.8107073307037354,4.6692585945129395,0.39279529452323914
1.7835800647735596,4.696066379547119,0.3974360227584839
1.3566086292266846,3.6499197483062744,0.31062597036361694
1.322141408920288,3.637488842010498,0.31120601296424866
1.2957136631011963,3.6467769145965576,0.31365275382995605
1.259499192237854,3.6262800693511963,0.3135097324848175
1.6472419500350952,4.8512797355651855,0.4215502142906189
1.5993090867996216,4.821938991546631,0.4209710657596588
1.5716915130615234,4.855320930480957,0.42572328448295593
1.5389405488967896,4.87371826171875,0.4291973412036896
1.5143451690673828,4.9178361892700195,0.4349571764469147
1.46101975440979,4.864651679992676,0.4320724904537201
1.4268251657485962,4.874555587768555,0.4347168207168579
1.400375485420227,4.91438627243042,0.43981096148490906
0.6466855406761169,2.3326568603515625,0.20949988067150116
1.3078234195709229,4.850771903991699,0.43719592690467834
1.272408127784729,4.8559465408325195,0.4392179250717163
1.2452760934829712,4.890877723693848,0.4439326524734497
1.21420156955719,4.914529323577881,0.44739192724227905
1.1881563663482666,4.960725784301758,0.4528648257255554
1.152720332145691,4.968894004821777,0.45489880442619324
1.117326259613037,4.9767866134643555,0.456927090883255
1.0900505781173706,5.018486022949219,0.46206340193748474
1.0549671649932861,5.0258002281188965,0.4639964699745178
1.0238415002822876,5.055896759033203,0.4677810072898865
0.9879221320152283,5.062882900238037,0.4694540798664093
2.176147222518921,11.596117973327637,1.0776832103729248
2.0677783489227295,11.457505226135254,1.067171335220337
1.952032208442688,11.264323234558105,1.0515565872192383
1.855811595916748,11.173821449279785,1.0451380014419556
1.7449275255203247,10.986656188964844,1.0292656421661377
1.6437240839004517,10.852522850036621,1.0183876752853394
1.549633264541626,10.740364074707031,1.0095425844192505
1.4574360847473145,10.623473167419434,1.0002450942993164
1.3614206314086914,10.463408470153809,0.9868829846382141
1.2742664813995361,10.360550880432129,0.9784515500068665
1.1927846670150757,10.295686721801758,0.973373293876648
1.1021875143051147,10.149137496948242,0.9606163501739502
1.0248417854309082,10.094525337219238,0.9565598368644714
0.4064948260784149,4.301448822021484,0.4080967605113983
0.37452515959739685,4.280856132507324,0.4066500663757324
0.34300610423088074,4.263938903808594,0.4053449332714081
0.31341883540153503,4.277869701385498,0.40691179037094116
0.2859877049922943,4.318721771240234,0.411058247089386
0.3297947645187378,5.5705485343933105,0.5305687189102173
0.2918340563774109,5.588186740875244,0.5326345562934875
0.2547573745250702,5.628870010375977,0.5369260311126709
0.2160903662443161,5.665483474731445,0.5405468344688416
0.1769905686378479,5.682384014129639,0.5422098636627197
0.13822858035564423,5.722339153289795,0.5460999011993408
0.09883751720190048,5.750361919403076,0.5488784909248352
0.05906470865011215,5.766446113586426,0.5505445599555969
0.01829501800239086,5.766701698303223,0.5507294535636902
-0.015740932896733284,4.17240047454834,0.3983887732028961
-0.04567859321832657,4.261637210845947,0.4067738950252533
-0.07239214330911636,4.097936153411865,0.39103734493255615
-0.10271470993757248,4.17120885848999,0.3979349732398987
-0.12812469899654388,4.0576958656311035,0.3870328962802887
-0.15711671113967896,4.064474105834961,0.38762426376342773
-0.27370646595954895,6.001750469207764,0.5720029473304749
-0.18688923120498657,3.5571486949920654,0.3387376666069031
-0.21060839295387268,3.540278196334839,0.3368679881095886
-0.23903903365135193,3.5969722270965576,0.34201109409332275
-0.28902074694633484,3.928767442703247,0.37329739332199097
-0.3110511600971222,3.860804796218872,0.36660435795783997
-0.32996925711631775,3.769512891769409,0.3575347065925598
-0.34758099913597107,3.6781582832336426,0.34841957688331604
-0.36551734805107117,3.6022181510925293,0.34080079197883606
-0.39003509283065796,3.5918846130371094,0.33940696716308594
-0.4235093593597412,3.662550926208496,0.3456812798976898
-0.44468680024147034,3.6248395442962646,0.3417395353317261
-0.4676476716995239,3.6063411235809326,0.3394474685192108
-0.49033239483833313,3.58771014213562,0.3370950520038605
-0.5076501369476318,3.530381917953491,0.3311246335506439
-0.5332245826721191,3.5345606803894043,0.33095285296440125
-0.5547414422035217,3.511643171310425,0.32825911045074463
-0.5848727226257324,3.54232120513916,0.330588161945343
-0.5939833521842957,3.4501559734344482,0.3212882876396179
-1.130898356437683,6.31020975112915,0.5862858891487122
-1.184776782989502,6.355915069580078,0.5891872048377991
-1.242783784866333,6.420322418212891,0.5938320755958557
-1.298871397972107,6.468935966491699,0.5970122218132019
-1.354967713356018,6.51325798034668,0.5998009443283081
-1.4116290807724,6.561152935028076,0.6025038361549377
-1.4537084102630615,6.536255836486816,0.5984934568405151
-1.4852242469787598,6.469534873962402,0.5907272100448608
-1.5264606475830078,6.444171905517578,0.5867576003074646
-0.6729913353919983,2.755653142929077,0.2502095401287079
-0.7034018635749817,2.7963271141052246,0.2531631290912628
-0.7168393731117249,2.768920421600342,0.24979925155639648
-0.7296140789985657,2.7415430545806885,0.24647864699363708
-0.7503404021263123,2.744128465652466,0.2458644062280655
-0.7778497338294983,2.768930435180664,0.2472226917743683
-0.7927964925765991,2.748607635498047,0.24455933272838593
-0.9731802344322205,3.288050889968872,0.29140710830688477
-0.9999350309371948,3.2964444160461426,0.29094621539115906
-1.0199172496795654,3.282322645187378,0.28850868344306946
-1.0555016994476318,3.3161776065826416,0.2902679443359375
-1.0785812139511108,3.3089053630828857,0.28841298818588257
-1.0907753705978394,3.2681546211242676,0.2836163341999054
-1.1203278303146362,3.2830088138580322,0.2835130989551544
-1.282162070274353,3.6762807369232178,0.3159255385398865
-1.3319886922836304,3.737352132797241,0.31958886981010437
-1.3660355806350708,3.750121831893921,0.31905773282051086
-2.098398447036743,5.638442516326904,0.47728872299194336
-2.123291254043579,5.5878095626831055,0.4702741503715515
-2.146724224090576,5.537429332733154,0.46332937479019165
-2.1954500675201416,5.552134990692139,0.46184810996055603
-2.258854627609253,5.598442554473877,0.46288052201271057
-1.4083632230758667,3.4217686653137207,0.2811914384365082
-1.4288358688354492,3.4050419330596924,0.27794185280799866
-1.4423805475234985,3.374138832092285,0.27354395389556885
-1.4805142879486084,3.400327444076538,0.2737741768360138
-1.4741902351379395,3.322474241256714,0.2655814588069916
-1.4908976554870605,3.298133134841919,0.2617289125919342
-1.513391137123108,3.288100481033325,0.25884872674942017
-1.5351967811584473,3.278200149536133,0.2559982240200043
-1.5505458116531372,3.2539358139038086,0.252016544342041
-1.5766164064407349,3.250278949737549,0.24957285821437836
-1.5956870317459106,3.232499122619629,0.24603496491909027
-1.6278916597366333,3.2428271770477295,0.24446658790111542
-1.6564170122146606,3.2460968494415283,0.2423890233039856
-1.6858196258544922,3.24874210357666,0.24017296731472015
-1.7138851881027222,3.2474966049194336,0.23762254416942596
-1.7577110528945923,3.2774147987365723,0.2372197061777115
-2.512080430984497,4.6115288734436035,0.33005526661872864
-1.1896268129348755,2.148930311203003,0.15198588371276855
-2.5430877208709717,4.5193257331848145,0.31571245193481445
-2.5698556900024414,4.495538234710693,0.3100515305995941
-2.583542585372925,4.4520134925842285,0.3029841482639313
-1.9459936618804932,3.302781105041504,0.22168785333633423
-1.2501559257507324,2.0879311561584473,0.13805635273456573
-1.251997709274292,2.0596632957458496,0.1341145932674408
-2.671882152557373,4.332442760467529,0.27764034271240234
-2.6719398498535156,4.268481731414795,0.26895299553871155
-2.99267578125,4.7076239585876465,0.29131266474723816
-3.0070178508758545,4.661795139312744,0.282956063747406
-3.0455210208892822,4.655791759490967,0.27710506319999695
-3.0518624782562256,4.5959601402282715,0.2676689326763153
-3.0630226135253906,4.54665994644165,0.258863240480423
-3.0830256938934326,4.514631748199463,0.25103330612182617
-3.105203151702881,4.480852127075195,0.24263139069080353
-3.13093900680542,4.453785419464111,0.23452119529247284
-2.8463470935821533,3.995771884918213,0.20432893931865692
-2.8826234340667725,3.989341974258423,0.19737087190151215
-2.899728298187256,3.9579670429229736,0.1889600157737732
-2.924454689025879,3.9401001930236816,0.18112681806087494
-2.4578046798706055,3.4650464057922363,-0.12308212369680405
-2.4359211921691895,3.4897313117980957,-0.13049878180027008
-2.932093381881714,4.266623020172119,-0.1670798510313034
-2.8965139389038086,4.2811102867126465,-0.17490004003047943
-2.9136428833007812,4.377414703369141,-0.18604102730751038
-2.869741439819336,4.378016948699951,-0.1927242875099182
-2.2304697036743164,3.457092523574829,-0.15731996297836304
-2.122809648513794,3.3449928760528564,-0.15713024139404297
-2.0720345973968506,3.316751003265381,-0.16037863492965698
-1.2753963470458984,2.074643135070801,-0.1030845046043396
-2.0311784744262695,3.3596715927124023,-0.17136231064796448
-2.0034406185150146,3.366955041885376,-0.17590464651584625
-1.9912497997283936,3.4010820388793945,-0.18181546032428741
-1.9538843631744385,3.395434856414795,-0.18563725054264069
-1.2068846225738525,2.1323890686035156,-0.11903373897075653
-1.1559031009674072,2.075840711593628,-0.11818662285804749
-1.8843138217926025,3.4426608085632324,-0.19973096251487732
-1.879366397857666,3.493903160095215,-0.2064507007598877
-1.925580620765686,3.6414051055908203,-0.21893976628780365
-1.761186122894287,3.3882110118865967,-0.2071208506822586
-1.7062273025512695,3.3416860103607178,-0.20755153894424438
-1.6751309633255005,3.339690923690796,-0.21063928306102753
-1.624250888824463,3.295063018798828,-0.21087785065174103
-1.5714629888534546,3.2468252182006836,-0.21078912913799286
-1.5412077903747559,3.2437996864318848,-0.21347622573375702
-1.521332859992981,3.2615408897399902,-0.2174898236989975
-1.5114620923995972,3.3002312183380127,-0.22288818657398224
-1.4846341609954834,3.3036060333251953,-0.22585134208202362
-2.2499425411224365,5.104842662811279,-0.35311490297317505
-2.2051212787628174,5.102774620056152,-0.35708892345428467
-2.166426420211792,5.110504627227783,-0.36158937215805054
-1.5961313247680664,3.8404316902160645,-0.27461478114128113
-1.552259922027588,3.8118622303009033,-0.2753540575504303
-1.4831441640853882,3.717607259750366,-0.27123162150382996
-1.4326108694076538,3.6660821437835693,-0.27010637521743774
-1.3664207458496094,3.5702736377716064,-0.265523761510849
-1.321646809577942,3.528665781021118,-0.26475226879119873
-1.301669716835022,3.552460193634033,-0.26887747645378113
-1.2794806957244873,3.5685675144195557,-0.27238553762435913
-1.2541073560714722,3.5773329734802246,-0.2753920555114746
-1.233652949333191,3.600698947906494,-0.27932682633399963
-1.212868332862854,3.623971939086914,-0.28326675295829773
-1.1896532773971558,3.639639377593994,-0.28661811351776123
-0.9747047424316406,3.0539286136627197,-0.2422623336315155
-0.9713156223297119,3.1201586723327637,-0.24927526712417603
-0.9467811584472656,3.1193783283233643,-0.25083646178245544
-0.8118509650230408,2.7449445724487305,-0.22216123342514038
-0.7883687615394592,2.7354230880737305,-0.22279386222362518
-0.7619237303733826,2.7144548892974854,-0.22248221933841705
-0.7447556853294373,2.7271509170532227,-0.2247869074344635
-0.7250329256057739,2.7323200702667236,-0.22648222744464874
-0.7086865305900574,2.748532772064209,-0.22907762229442596
-0.6829163432121277,2.726824998855591,-0.2285022735595703
-1.467504858970642,6.037810325622559,-0.5086274743080139
-1.4729828834533691,6.252392292022705,-0.5291171669960022
-1.4461802244186401,6.342240333557129,-0.5392284393310547
-1.401780605316162,6.351921558380127,-0.542514979839325
-1.3485392332077026,6.3193817138671875,-0.5421968698501587
-1.2947885990142822,6.282666206359863,-0.5413247346878052
-1.2405891418457031,6.241770267486572,-0.5398342609405518
-1.1869226694107056,6.204405784606934,-0.5386844277381897
-1.1345621347427368,6.16251802444458,-0.5370704531669617
-1.0836238861083984,6.124022006988525,-0.5357415676116943
-0.9574062824249268,5.640127182006836,-0.4950326383113861
-0.9465557932853699,5.823215961456299,-0.5126250386238098
-0.7581079602241516,4.883667469024658,-0.4312346279621124
-0.7286174297332764,4.9194722175598145,-0.4357118308544159
-0.6964911818504333,4.939686298370361,-0.4388418197631836
-0.6530753970146179,4.878750801086426,-0.4344883859157562
-0.6055465340614319,4.778876304626465,-0.4265556335449219
-0.7129346132278442,5.9612226486206055,-0.5333111882209778
-0.5381603240966797,4.7866926193237305,-0.42924222350120544
-0.6219020485877991,5.90069055557251,-0.5303849577903748
-0.5795040130615234,5.89316463470459,-0.530593991279602
-0.5360859036445618,5.8737263679504395,-0.5296728014945984
-0.4924171268939972,5.8462090492248535,-0.5280392169952393
-0.4484061300754547,5.814525604248047,-0.5260551571846008
-0.24440012872219086,3.485006332397461,-0.31582996249198914
-0.22158607840538025,3.5098800659179688,-0.3183809518814087
-0.31786787509918213,5.663144111633301,-0.5141481757164001
-0.2787711024284363,5.672933101654053,-0.5155066847801208
-0.2379300892353058,5.659158229827881,-0.5147563815116882
-0.19757680594921112,5.633403301239014,-0.5129291415214539
-0.15790435671806335,5.6190667152404785,-0.5117488503456116
-0.11756312102079391,5.565564155578613,-0.5069772601127625
-0.07829923182725906,5.531223773956299,-0.5039739012718201
-0.039082255214452744,5.516061782836914,-0.502743661403656
-0.0006118245655670762,4.458071708679199,-0.40645647048950195
0.02773541398346424,4.076760768890381,-0.37153589725494385
0.07532446086406708,5.476807594299316,-0.4989011287689209
0.1118527427315712,5.402278900146484,-0.4919107258319855
0.11121076345443726,4.020908355712891,-0.3659963011741638
0.1847483515739441,5.318582057952881,-0.4839608073234558
0.21791544556617737,5.227832317352295,-0.4751969575881958
0.20749518275260925,4.266489505767822,-0.3873845636844635
0.23751616477966309,4.272766590118408,-0.38754338026046753
0.263372540473938,4.208934307098389,-0.3813655376434326
0.29318422079086304,4.20701265335083,-0.38081514835357666
0.32083866000175476,4.185562610626221,-0.3782062530517578
0.35147762298583984,4.202701568603516,-0.37906911969184875
0.4508380591869354,4.975196361541748,-0.44795411825180054
0.4903305768966675,5.022376537322998,-0.4514222741127014
0.5234127640724182,4.995662689208984,-0.4482530653476715
0.5531919002532959,4.9495158195495605,-0.44302597641944885
0.5865166187286377,4.93796968460083,-0.4408993124961853
0.6158227324485779,4.895313262939453,-0.43602606654167175
0.6508418321609497,4.898758411407471,-0.43528297543525696
0.6854504346847534,4.8941650390625,-0.4338272213935852
0.7140733003616333,4.854831695556641,-0.42898672819137573
0.7463700175285339,4.842253684997559,-0.426530659198761
0.7748520374298096,4.806401252746582,-0.422053724527359
0.8108724355697632,4.816399097442627,-0.42161768674850464
0.8524412512779236,4.856796741485596,-0.42383497953414917
0.8864694237709045,4.850892543792725,-0.42163512110710144
0.9155260920524597,4.8219122886657715,-0.41748592257499695
0.9458521008491516,4.800374507904053,-0.4140080213546753
0.9761260747909546,4.778606414794922,-0.41053056716918945
1.0044264793395996,4.749057769775391,-0.40636876225471497
1.0359336137771606,4.734528541564941,-0.4032154083251953
1.064159631729126,4.70851993560791,-0.399146169424057
1.0914663076400757,4.678491115570068,-0.39475589990615845
1.1240286827087402,4.670982837677002,-0.392285019159317
1.1507903337478638,4.640613555908203,-0.38781437277793884
1.1812888383865356,4.625141143798828,-0.3843759000301361
1.2110193967819214,4.609622955322266,-0.38099923729896545
1.2379242181777954,4.5825347900390625,-0.3766714930534363
1.2677110433578491,4.566529750823975,-0.3732799291610718
1.3012717962265015,4.565417766571045,-0.37096911668777466
1.3242616653442383,4.526598930358887,-0.3654741942882538
1.348503828048706,4.495285987854004,-0.36066770553588867
1.3797911405563354,4.486026287078857,-0.35761868953704834
1.4086363315582275,4.469127178192139,-0.35398465394973755
1.4367767572402954,4.452232360839844,-0.35013702511787415
1.4627796411514282,4.427610874176025,-0.3456442952156067
1.4895120859146118,4.40661096572876,-0.3414860665798187
1.5100061893463135,4.366922378540039,-0.33589038252830505
1.2687302827835083,3.5889060497283936,-0.27392396330833435
1.2957655191421509,3.587739944458008,-0.27159106731414795
1.5857598781585693,4.299270153045654,-0.32276996970176697
1.6189522743225098,4.295482635498047,-0.319690078496933
1.6489051580429077,4.28433895111084,-0.3161165118217468
1.672394037246704,4.258755207061768,-0.3113285005092621
1.6998660564422607,4.243939399719238,-0.30731984972953796
1.730479121208191,4.236032485961914,-0.3037934899330139
1.7589551210403442,4.220344543457031,-0.29963335394859314
1.775687575340271,4.179745674133301,-0.2937124967575073
1.8069435358047485,4.175102233886719,-0.29026347398757935
1.8289930820465088,4.14872932434082,-0.28529876470565796
1.857878565788269,4.136153221130371,-0.28122639656066895
1.8804570436477661,4.109074115753174,-0.2761008143424988
1.908062219619751,4.096607685089111,-0.27192673087120056
1.9422634840011597,4.098047256469727,-0.2686765193939209
1.9606903791427612,4.0635833740234375,-0.26296159625053406
1.985469102859497,4.043125629425049,-0.2581751346588135
2.0060901641845703,4.015787124633789,-0.25281068682670593
2.0330076217651367,4.00250244140625,-0.24841976165771484
2.060861110687256,3.988513946533203,-0.2438604086637497
2.0865819454193115,3.9709904193878174,-0.23908142745494843
2.1184985637664795,3.9676034450531006,-0.2350730150938034
2.1282639503479004,3.92274808883667,-0.22861960530281067
2.1523196697235107,3.900975227355957,-0.22332413494586945
2.138885498046875,3.8149681091308594,-0.21448354423046112
2.1641595363616943,3.8009536266326904,-0.20972144603729248
2.2035489082336426,3.8101072311401367,-0.20613691210746765
2.2122771739959717,3.764636993408203,-0.19949598610401154
2.2377700805664062,3.7498068809509277,-0.19440868496894836
2.2785933017730713,3.7619481086730957,-0.1907581388950348
2.284238576889038,3.7130441665649414,-0.18379253149032593
2.3095438480377197,3.697617292404175,-0.17848770320415497
2.346243381500244,3.702449083328247,-0.17411155998706818
2.3591251373291016,3.6666975021362305,-0.1675754338502884
2.3757994174957275,3.6375343799591064,-0.1613500416278839
2.40358829498291,3.6288464069366455,-0.15603306889533997
2.414851665496826,3.5934195518493652,-0.14939908683300018
2.426360607147217,3.5575857162475586,-0.14261473715305328
2.458404541015625,3.5547609329223633,-0.13707078993320465
2.477910041809082,3.5318946838378906,-0.13054941594600677
2.5016062259674072,3.5153841972351074,-0.12410107254981995
2.5238261222839355,3.499687910079956,-0.11767829954624176
2.5665414333343506,3.5075011253356934,-0.11142966151237488
2.179380178451538,2.939272880554199,-0.08786389976739883
2.759582042694092,3.8669323921203613,0.17653849720954895
2.742063283920288,3.902909517288208,0.18464407324790955
2.7270002365112305,3.9416239261627197,0.19256871938705444
2.705000877380371,3.9753031730651855,0.2002231776714325
2.6550381183624268,3.961625814437866,0.2049383819103241
2.6195261478424072,3.970852851867676,0.2106558382511139
2.6118052005767822,4.02685546875,0.21892863512039185
2.5875658988952637,4.051421165466309,0.22504466772079468
2.5582687854766846,4.069665908813477,0.23073138296604156
2.5232019424438477,4.082006454467773,0.23600420355796814
2.505862236022949,4.119783401489258,0.24254679679870605
2.472438097000122,4.130522727966309,0.24747173488140106
2.4412364959716797,4.148730754852295,0.2526107430458069
2.421867609024048,4.186813831329346,0.2589614689350128
2.396406650543213,4.210119724273682,0.26417461037635803
2.354879140853882,4.206389427185059,0.26763540506362915
2.268371820449829,4.124740123748779,0.26600131392478943
2.2306952476501465,4.127223968505859,0.2695840299129486
2.2127912044525146,4.163087368011475,0.27520912885665894
2.1829674243927,4.17852258682251,0.27943548560142517
2.1626176834106445,4.215124607086182,0.28498318791389465
2.1311893463134766,4.230818748474121,0.28916093707084656
2.098149061203003,4.238332748413086,0.2925965189933777
2.0750555992126465,4.26676607131958,0.2974507808685303
2.0435991287231445,4.281658172607422,0.3012171983718872
2.0153756141662598,4.3033599853515625,0.30548056960105896
1.9899873733520508,4.327776908874512,0.30984142422676086
1.9591965675354004,4.341540813446045,0.3134913742542267
1.989242434501648,4.494359016418457,0.32706353068351746
1.9702528715133667,4.5407209396362305,0.3329464793205261
1.934446096420288,4.547365665435791,0.33590829372406006
1.9266451597213745,4.618061542510986,0.34357017278671265
1.8701130151748657,4.573694229125977,0.34270232915878296
1.820846676826477,4.547152519226074,0.34286487102508545
1.7990875244140625,4.589066982269287,0.34820228815078735
1.7733526229858398,4.6197123527526855,0.3526777923107147
1.7575584650039673,4.6754937171936035,0.359073281288147
1.3313990831375122,3.6199874877929688,0.2796573340892792
1.3051856756210327,3.6293513774871826,0.2818470597267151
1.2814894914627075,3.6458754539489746,0.28461048007011414
1.6391000747680664,4.77101469039917,0.37435317039489746
1.6256108283996582,4.8412017822265625,0.38177597522735596
1.5765128135681152,4.808023929595947,0.3810666799545288
1.5394419431686401,4.811643123626709,0.38299018144607544
1.4919143915176392,4.781528472900391,0.3822340965270996
1.4657965898513794,4.817907333374023,0.3867844343185425
1.4288861751556396,4.8166022300720215,0.3882991373538971
1.4201875925064087,4.912290573120117,0.39767730236053467
1.385563850402832,4.926031112670898,0.4002420902252197
0.6350765228271484,2.3213255405426025,0.18926696479320526
1.2869187593460083,4.839623928070068,0.3959830105304718
1.2599464654922485,4.874704360961914,0.40023139119148254
1.2278062105178833,4.890756130218506,0.4029465913772583
1.2001032829284668,4.92952823638916,0.407448410987854
1.1649169921875,4.937811851501465,0.40925729274749756
1.138293981552124,4.98381233215332,0.41422343254089355
1.1039572954177856,4.995367527008057,0.4163428544998169
1.0757030248641968,5.033234119415283,0.4206671714782715
1.036885380744934,5.0253214836120605,0.42121121287345886
1.0073963403701782,5.062947750091553,0.4252949655056
0.9655653238296509,5.039259433746338,0.4242101311683655
2.124890089035034,11.531192779541016,0.9728189706802368
2.019929885864258,11.407466888427734,0.9644787907600403
1.906433343887329,11.229328155517578,0.9515576958656311
1.8012828826904297,11.076863288879395,0.9406250715255737
1.6954796314239502,10.912168502807617,0.9280753135681152
1.5989404916763306,10.792753219604492,0.9193816184997559
1.4999366998672485,10.641678810119629,0.9079946279525757
1.409531831741333,10.53995418548584,0.9008316397666931
1.3190934658050537,10.414153099060059,0.8915907144546509
1.2277426719665527,10.268362998962402,0.880386233329773
