X,Y,Z
0.6906558275222778,5.023289203643799,-0.19301222264766693
0.7201550602912903,4.983677387237549,-0.19101330637931824
0.7509413957595825,4.955470561981201,-0.18946541845798492
0.7846209406852722,4.942370891571045,-0.18849636614322662
0.8151537179946899,4.913712501525879,-0.18695195019245148
0.8478793501853943,4.900274753570557,-0.18595851957798004
0.8773403167724609,4.871320724487305,-0.18427658081054688
0.9086418747901917,4.853695869445801,-0.18303529918193817
0.9407027959823608,4.839661598205566,-0.18193666636943817
0.9702558517456055,4.809963703155518,-0.18024931848049164
1.0020544528961182,4.795494556427002,-0.17913679778575897
1.0299054384231567,4.765665531158447,-0.17734554409980774
1.0590966939926147,4.743300437927246,-0.17584574222564697
1.089113712310791,4.724515438079834,-0.17448647320270538
1.122541069984436,4.716720104217529,-0.17352473735809326
1.1478580236434937,4.6785078048706055,-0.17145903408527374
1.1778554916381836,4.663033485412598,-0.170096755027771
1.2038075923919678,4.632243633270264,-0.16818788647651672
1.2336236238479614,4.616350173950195,-0.1668280065059662
1.2641489505767822,4.600028038024902,-0.16544181108474731
1.2928013801574707,4.579929828643799,-0.16393698751926422
1.3217333555221558,4.5635786056518555,-0.16247105598449707
1.3482416868209839,4.539572238922119,-0.16074547171592712
1.3771398067474365,4.522770404815674,-0.1592760533094406
1.4044921398162842,4.498037815093994,-0.15751278400421143
1.433269739151001,4.480796813964844,-0.15601544082164764
1.456404685974121,4.448735237121582,-0.15391677618026733
1.480410099029541,4.420268535614014,-0.1519586145877838
1.5146156549453735,4.421093463897705,-0.15100322663784027
1.5362834930419922,4.384708881378174,-0.14877808094024658
1.2890559434890747,3.598372459411621,-0.1212424635887146
1.3133493661880493,3.5896167755126953,-0.12005928158760071
1.612169861793518,4.315867900848389,-0.14328442513942719
1.6365307569503784,4.290026664733887,-0.14133881032466888
1.6691806316375732,4.285858631134033,-0.14011339843273163
1.7016700506210327,4.281517505645752,-0.13879060745239258
1.7216874361038208,4.248290538787842,-0.13653996586799622
1.7535899877548218,4.243721961975098,-0.13520723581314087
1.7830677032470703,4.231472015380859,-0.13360990583896637
1.8044929504394531,4.201191425323486,-0.13143344223499298
1.8237682580947876,4.167351245880127,-0.12907519936561584
1.8516780138015747,4.155076503753662,-0.12742163240909576
1.88043212890625,4.142194747924805,-0.12571287155151367
1.9092196226119995,4.129057884216309,-0.12399674206972122
1.933555006980896,4.109140872955322,-0.12202584743499756
1.9513092041015625,4.074831008911133,-0.1196119487285614
1.9825739860534668,4.068453788757324,-0.11801806092262268
2.007338523864746,4.047628879547119,-0.11598864942789078
2.0345242023468018,4.034086227416992,-0.11411627382040024
2.061274290084839,4.020536422729492,-0.11222124844789505
2.0849266052246094,3.999570608139038,-0.1100926324725151
2.109450101852417,3.977907657623291,-0.10789483785629272
2.130521059036255,3.9534122943878174,-0.10562802851200104
2.1584227085113525,3.9427542686462402,-0.10372404754161835
2.1491482257843018,3.863178014755249,-0.09998510032892227
2.166367769241333,3.8311851024627686,-0.0974813848733902
2.1922056674957275,3.8165130615234375,-0.09535619616508484
2.2172367572784424,3.802077531814575,-0.09326532483100891
2.235440731048584,3.773310422897339,-0.09074773639440536
2.25723934173584,3.7512505054473877,-0.08838029205799103
2.2938382625579834,3.756518840789795,-0.08661697804927826
2.306922674179077,3.721007823944092,-0.08383902162313461
2.3327741622924805,3.704908847808838,-0.08146125078201294
2.375969886779785,3.7191884517669678,-0.07971452921628952
2.385195732116699,3.680793523788452,-0.07682552188634872
2.4193520545959473,3.677201747894287,-0.0745210200548172
2.4592621326446533,3.683602809906006,-0.07234197854995728
2.4631433486938477,3.6386873722076416,-0.06918806582689285
2.494969129562378,3.6312167644500732,-0.06657514721155167
2.5276052951812744,3.6276841163635254,-0.06401534378528595
2.5508499145507812,3.611426591873169,-0.061187878251075745
2.560399055480957,3.57112455368042,-0.057714369148015976
2.608031749725342,3.5897812843322754,-0.05519883707165718
2.6364777088165283,3.5786986351013184,-0.052012648433446884
2.5562148094177246,3.607292652130127,0.07862809300422668
2.528866767883301,3.6264421939849854,0.0820268839597702
2.516679048538208,3.663304328918457,0.08561808615922928
2.5009682178497314,3.702284336090088,0.08930874615907669
2.5065462589263916,3.7689950466156006,0.09350616484880447
2.516188383102417,3.84210467338562,0.09782079607248306
2.5123977661132812,3.9003713130950928,0.10179302841424942
2.488452434539795,3.9248688220977783,0.1047947034239769
2.468467950820923,3.955817461013794,0.10794930905103683
2.43448805809021,3.967583656311035,0.11050384491682053
2.4014170169830322,3.9784927368164062,0.11296301335096359
2.381622791290283,4.008481979370117,0.11587422341108322
2.3442041873931885,4.012325286865234,0.1179841160774231
2.3272995948791504,4.053628921508789,0.12122537195682526
2.2968931198120117,4.066380500793457,0.12347627431154251
2.2738454341888428,4.092648029327393,0.12612460553646088
2.2508912086486816,4.123049736022949,0.12886248528957367
2.2168524265289307,4.132518768310547,0.13093765079975128
2.1984622478485107,4.168766021728516,0.13380979001522064
2.1724610328674316,4.191103458404541,0.1361975371837616
2.1380186080932617,4.199946880340576,0.13810352981090546
2.1108882427215576,4.222311019897461,0.14044369757175446
2.0779998302459717,4.229827404022217,0.1422276347875595
2.0611419677734375,4.272705078125,0.14522169530391693
2.02644419670105,4.28056526184082,0.14694242179393768
1.9950640201568604,4.295213222503662,0.148900106549263
1.9619029760360718,4.301815509796143,0.15051203966140747
1.9925936460494995,4.450685977935791,0.157148540019989
1.979123592376709,4.507840633392334,0.1605163961648941
1.9210518598556519,4.464902400970459,0.16033786535263062
1.901466727256775,4.507131576538086,0.16316260397434235
1.8670423030853271,4.512988090515137,0.16466109454631805
1.840962290763855,4.5404815673828125,0.16691775619983673
1.8253004550933838,4.5971808433532715,0.17021287977695465
1.8069114685058594,4.650475978851318,0.1734343320131302
1.766089916229248,4.641016960144043,0.17426253855228424
1.7282923460006714,4.638502597808838,0.17534784972667694
1.3167997598648071,3.612701654434204,0.13741852343082428
1.2946487665176392,3.6330888271331787,0.13901545107364655
1.2680712938308716,3.642404794692993,0.14020949602127075
1.604983925819397,4.715368747711182,0.18254698812961578
1.569674015045166,4.718955993652344,0.18372710049152374
1.5384067296981812,4.737396717071533,0.18539266288280487
1.5114554166793823,4.770585536956787,0.18762356042861938
1.4675484895706177,4.751547336578369,0.18782027065753937
1.4625550508499146,4.855042934417725,0.19284340739250183
1.4221376180648804,4.8425774574279785,0.19328224658966064
1.4048655033111572,4.912557125091553,0.19692625105381012
1.379135251045227,4.956267833709717,0.1995037943124771
1.3048917055130005,4.822784900665283,0.19494162499904633
1.2707006931304932,4.8318586349487305,0.19611917436122894
1.2370716333389282,4.8405303955078125,0.19727526605129242
1.2170765399932861,4.90589714050293,0.20067967474460602
1.1821485757827759,4.914388179779053,0.20170153677463531
1.1524763107299805,4.945438385009766,0.20366263389587402
1.1206574440002441,4.9687089920043945,0.20531991124153137
1.08936607837677,4.991602420806885,0.20696018636226654
1.0560786724090576,5.006688117980957,0.20826208591461182
1.020525336265564,5.014019966125488,0.20912456512451172
0.9871749877929688,5.032588958740234,0.21046756207942963
2.185828447341919,11.58242130279541,0.4857313632965088
2.0849337577819824,11.485910415649414,0.48299741744995117
1.9614664316177368,11.250126838684082,0.4743867814540863
1.863577127456665,11.151951789855957,0.4712957441806793
1.751548409461975,10.95665168762207,0.4639929533004761
1.655020833015442,10.85315990447998,0.4605918228626251
1.5584526062011719,10.721485137939453,0.4559648334980011
1.4614417552947998,10.569626808166504,0.4504699110984802
1.3683998584747314,10.432458877563477,0.4455370008945465
1.2843469381332397,10.356582641601562,0.44294852018356323
1.193276047706604,10.210269927978516,0.43735408782958984
1.1033364534378052,10.06330680847168,0.4317425489425659
1.0292689800262451,10.031878471374512,0.4310787320137024
0.9639608263969421,10.085367202758789,0.4340845048427582
0.3792940378189087,4.283968448638916,0.18461592495441437
0.3454555869102478,4.239832401275635,0.18288542330265045
0.3180730938911438,4.281097412109375,0.18485087156295776
0.2871396243572235,4.26762580871582,0.18445885181427002
0.26193997263908386,4.3435211181640625,0.18794038891792297
0.231334388256073,4.337430000305176,0.1878865659236908
0.19804224371910095,4.272656440734863,0.1851709634065628
0.16857531666755676,4.2973480224609375,0.1863226592540741
0.13681410253047943,4.2438063621521,0.18408933281898499
0.10687840729951859,4.2290449142456055,0.18354542553424835
0.027590781450271606,1.5061405897140503,0.06540567427873611
0.01896633394062519,1.670191764831543,0.07256689667701721
0.018356341868638992,4.292787075042725,0.18649381399154663
-0.011823408305644989,4.390374183654785,0.19072234630584717
-0.041057463735342026,4.253602981567383,0.1847791224718094
-0.06737557053565979,4.0581135749816895,0.17629384994506836
-0.09561443328857422,4.057547092437744,0.17628462612628937
-0.1274717152118683,4.1777119636535645,0.18147175014019012
-0.05802592635154724,1.5443317890167236,0.06704092770814896
-0.18050703406333923,4.054673194885254,0.17591767013072968
-0.1871872842311859,3.6363039016723633,0.15768422186374664
-0.20768409967422485,3.553105115890503,0.15400366485118866
-0.23190997540950775,3.543790102005005,0.1535346359014511
-0.2523834705352783,3.479797124862671,0.15062382817268372
-0.30394166707992554,3.8242228031158447,0.16534844040870667
-0.3327508270740509,3.849256753921509,0.16625317931175232
-0.34638506174087524,3.7069802284240723,0.1599440723657608
-0.36550816893577576,3.638481855392456,0.1568346917629242
-0.3862447738647461,3.5892515182495117,0.1545654684305191
-0.4109533727169037,3.586522340774536,0.15419408679008484
-0.7653689980506897,6.295548915863037,0.2702224552631378
-0.8067044615745544,6.274674415588379,0.2689008116722107
-0.8423269987106323,6.2109479904174805,0.2657574415206909
-0.8800980448722839,6.162374019622803,0.263274610042572
-0.9192328453063965,6.133011341094971,0.26157432794570923
-0.5190069675445557,3.308138847351074,0.14078053832054138
-0.5416709780693054,3.304523229598999,0.14032016694545746
-0.5630582571029663,3.2930469512939453,0.13953246176242828
-0.5770387649536133,3.2391223907470703,0.1369546502828598
-0.5928342938423157,3.1966021060943604,0.13486851751804352
-0.6133164763450623,3.1848084926605225,0.13402535021305084
-0.6289653182029724,3.149944305419922,0.1321902722120285
-0.6417952179908752,3.1035497188568115,0.12988591194152832
-0.6550707817077637,3.06089448928833,0.1277494728565216
-0.6724964380264282,3.037151575088501,0.1264069825410843
-0.6917877793312073,3.024831771850586,0.1255393773317337
-0.7069990038871765,2.9972822666168213,0.12396566569805145
-0.6988191604614258,2.874849796295166,0.11849337816238403
-0.7023788690567017,2.8056540489196777,0.11524447053670883
-0.7124611735343933,2.762845039367676,0.11308667808771133
-0.7286487817764282,2.7465312480926514,0.11203281581401825
-0.7473927140235901,2.74151611328125,0.11138622462749481
-0.7691386342048645,2.7476840019226074,0.11117537319660187
-0.798546314239502,2.7799437046051025,0.11201721429824829
-0.9174988269805908,3.111227512359619,0.12483132630586624
-0.9481453895568848,3.134695529937744,0.125245600938797
-0.9800248742103577,3.1617071628570557,0.12575693428516388
-1.0084478855133057,3.177372932434082,0.12575721740722656
-1.064863920211792,3.278186559677124,0.12910793721675873
-1.087800145149231,3.2706844806671143,0.12815433740615845
-1.1318897008895874,3.3259034156799316,0.1296570748090744
-1.1599551439285278,3.3327958583831787,0.12924230098724365
-1.2530220746994019,3.5235562324523926,0.135848730802536
-1.3713334798812866,3.775596857070923,0.14472202956676483
-1.414823293685913,3.8137385845184326,0.14531882107257843
-1.4583433866500854,3.8474974632263184,0.14570751786231995
-1.4735299348831177,3.8082876205444336,0.14332646131515503
-1.4960947036743164,3.7911369800567627,0.14171409606933594
-1.5156126022338867,3.766599416732788,0.13983628153800964
-1.5443509817123413,3.763399362564087,0.1387363225221634
-2.348968029022217,5.610599994659424,0.20532022416591644
-2.378142833709717,5.572914123535156,0.202413871884346
-2.4091362953186035,5.542641639709473,0.1997120976448059
-2.5014147758483887,5.651455879211426,0.20200085639953613
-2.53403639793396,5.619859218597412,0.1991899609565735
-2.5329999923706055,5.5131731033325195,0.19372013211250305
-2.5418803691864014,5.435982704162598,0.18926914036273956
-2.5946853160858154,5.454327583312988,0.18812599778175354
-2.6109635829925537,5.394631385803223,0.1842755377292633
-1.761677861213684,3.5760672092437744,0.12092243134975433
-1.8006291389465332,3.591646671295166,0.12016303092241287
-1.792464017868042,3.5170812606811523,0.11636533588171005
-1.822877049446106,3.5190699100494385,0.1151251420378685
-1.8272103071212769,3.4684054851531982,0.11211474239826202
-1.82539701461792,3.407525062561035,0.10880812257528305
-1.8588720560073853,3.416132688522339,0.107677161693573
-1.1977386474609375,2.1666204929351807,0.06738050282001495
-1.1820183992385864,2.103893518447876,0.06451264023780823
-1.9168763160705566,3.3571460247039795,0.10145631432533264
-1.962198257446289,3.385190486907959,0.10074268281459808
-1.968360424041748,3.3454720973968506,0.09801043570041656
-1.2384432554244995,2.0713279247283936,0.059636641293764114
-1.2485625743865967,2.0561490058898926,0.05815862864255905
-2.511430501937866,4.076153755187988,0.11316528171300888
-2.5259459018707275,4.039638996124268,0.1099821925163269
-2.5519051551818848,4.018739700317383,0.10713107138872147
-2.5618042945861816,3.9753940105438232,0.10362288355827332
-2.5787136554718018,3.945869207382202,0.10052860528230667
-2.556250810623169,3.85318660736084,0.09570678323507309
-2.573192834854126,3.8231489658355713,0.09245969355106354
-2.6017708778381348,3.8132879734039307,0.08967656642198563
-2.5948524475097656,3.747030019760132,0.085355743765831
-2.6331727504730225,3.7489452362060547,0.08258961886167526
-2.6589128971099854,3.735597848892212,0.07945359498262405
-2.7120096683502197,3.755272150039673,0.07671180367469788
-2.7589211463928223,3.769526481628418,0.07376060634851456
-2.8715298175811768,3.870983362197876,0.07222745567560196
-2.9873223304748535,4.211409091949463,-0.08651117235422134
-2.4376988410949707,3.4901249408721924,-0.07495680451393127
-2.406719446182251,3.502006769180298,-0.07841146737337112
-2.8611950874328613,4.227259159088135,-0.09823498874902725
-2.8616132736206055,4.297443866729736,-0.10339491069316864
-2.860102415084839,4.363875865936279,-0.10839950293302536
-2.803997039794922,4.344368934631348,-0.1111166924238205
-2.105665683746338,3.3167762756347656,-0.08723946660757065
-2.089492082595825,3.3453474044799805,-0.09034816920757294
-1.2641334533691406,2.0558278560638428,-0.056885626167058945
-1.2527793645858765,2.0718538761138916,-0.05867668613791466
-2.0042479038238525,3.3696556091308594,-0.09755052626132965
-1.9886279106140137,3.3969383239746094,-0.10037381201982498
-1.9691314697265625,3.4217259883880615,-0.10315582156181335
-1.1958478689193726,2.1140263080596924,-0.06496674567461014
-1.1963225603103638,2.149536371231079,-0.06722928583621979
-1.91035795211792,3.4903202056884766,-0.11104106903076172
-1.8680461645126343,3.4732232093811035,-0.1123192310333252
-1.8808870315551758,3.559225082397461,-0.11695415526628494
-1.8721978664398193,3.6033782958984375,-0.12018745392560959
-1.8497693538665771,3.6236395835876465,-0.12261609733104706
-2.5020945072174072,4.991281032562256,-0.17127089202404022
-2.4717252254486084,5.01934814453125,-0.17454804480075836
-2.4429233074188232,5.0506815910339355,-0.17794975638389587
-2.416590690612793,5.089179039001465,-0.18151608109474182
-2.3960328102111816,5.1418938636779785,-0.18559852242469788
-2.36769700050354,5.176376819610596,-0.18899770081043243
-2.3348000049591064,5.199758529663086,-0.19197583198547363
-1.4950127601623535,3.394105911254883,-0.12664371728897095
-1.4730805158615112,3.412123203277588,-0.1286516934633255
-1.4487744569778442,3.422450542449951,-0.13033409416675568
-1.4338946342468262,3.4540231227874756,-0.1328125298023224
-1.41239595413208,3.4712374210357666,-0.13471953570842743
-1.400338888168335,3.5139052867889404,-0.13758881390094757
-1.3420367240905762,3.4403200149536133,-0.13590984046459198
-1.3180338144302368,3.44952654838562,-0.1374252587556839
-1.296697735786438,3.4658803939819336,-0.13922902941703796
-1.2825194597244263,3.504365921020508,-0.14185237884521484
-1.2652242183685303,3.535472869873047,-0.1442001610994339
-1.248894214630127,3.5701744556427,-0.1467142254114151
-1.2340909242630005,3.6082775592803955,-0.14936253428459167
-1.2185039520263672,3.646451711654663,-0.15197749435901642
-1.1960299015045166,3.666147232055664,-0.153785839676857
-1.0064454078674316,3.1612861156463623,-0.13346049189567566
-0.9713155627250671,3.127279281616211,-0.13286402821540833
-0.9472610354423523,3.1264467239379883,-0.1336568146944046
-0.8211767077445984,2.781181573867798,-0.11956898868083954
-0.7862671613693237,2.7344021797180176,-0.11821075528860092
-0.766930341720581,2.7398502826690674,-0.11909912526607513
-0.744802713394165,2.733776569366455,-0.11947889626026154
-0.7284212708473206,2.7502622604370117,-0.1208561360836029
-0.712811291217804,2.7704367637634277,-0.12230748683214188
-0.6827667951583862,2.733731985092163,-0.12124841660261154
-1.3628954887390137,5.624783515930176,-0.2506293058395386
-1.3379309177398682,5.694863796234131,-0.2549196779727936
-1.2938786745071411,5.688954830169678,-0.25581595301628113
-1.245142936706543,5.659806728363037,-0.25548529624938965
-1.2001311779022217,5.645523548126221,-0.255827933549881
-1.162056565284729,5.6613898277282715,-0.2575370669364929
-1.1211342811584473,5.661618232727051,-0.2585386633872986
-1.0809168815612793,5.66937255859375,-0.25986889004707336
-1.0626775026321411,5.795797348022461,-0.2664876878261566
-1.0156911611557007,5.768505096435547,-0.26606285572052
-0.9635502099990845,5.706168174743652,-0.26401451230049133
-0.9406672120094299,5.816684722900391,-0.2699754536151886
-0.9363300204277039,6.062252044677734,-0.2822475731372833
-0.6816368103027344,4.628688335418701,-0.21602214872837067
-0.6733978986740112,4.807231903076172,-0.22490423917770386
-0.6366738080978394,4.788579940795898,-0.22458532452583313
-0.5818957090377808,4.622514724731445,-0.21733812987804413
-0.5505895614624023,4.634172439575195,-0.21843354403972626
-0.5222848057746887,4.680612087249756,-0.22100287675857544
-0.489398717880249,4.684138774871826,-0.22155466675758362
-0.4603990912437439,4.726256847381592,-0.22394447028636932
-0.5259018540382385,5.817409515380859,-0.2761455774307251
-0.4834555685520172,5.797566890716553,-0.275714248418808
-0.26425984501838684,3.4664947986602783,-0.16505573689937592
-0.24295571446418762,3.511064291000366,-0.16736727952957153
0.04276861622929573,1.4976675510406494,-0.0718507170677185
0.05418332293629646,1.520727276802063,-0.07290137559175491
0.06471920758485794,1.520318627357483,-0.07283076643943787
0.0777890607714653,1.5704967975616455,-0.07518529891967773
0.2965145409107208,5.247354984283447,-0.2510569095611572
0.2694351077079773,4.244429111480713,-0.20295877754688263
0.2976747751235962,4.219091415405273,-0.20146849751472473
0.3262774646282196,4.209166526794434,-0.2007242888212204
0.3586988151073456,4.245704174041748,-0.20220345258712769
0.4604147970676422,5.0319085121154785,-0.23934437334537506
0.49844226241111755,5.059672832489014,-0.24037259817123413
0.4766797423362732,4.512819766998291,-0.21400614082813263
0.5135437250137329,4.559850215911865,-0.2158188819885254
0.5524709820747375,4.6182074546813965,-0.21816791594028473
0.5889231562614441,4.649129390716553,-0.21922113001346588
0.6578985452651978,4.9195556640625,-0.23155176639556885
0.6902823448181152,4.89939022064209,-0.23007220029830933
0.7199944853782654,4.86754035949707,-0.22798317670822144
0.7510502934455872,4.847090244293213,-0.22644473612308502
0.7822037935256958,4.826387405395508,-0.22490300238132477
0.8144509792327881,4.813173294067383,-0.2237231582403183
0.8545587062835693,4.845884799957275,-0.2246076464653015
0.8912478089332581,4.855189800262451,-0.22428955137729645
0.9231653213500977,4.841324329376221,-0.22292287647724152
0.952117383480072,4.81189489364624,-0.2208501100540161
0.9840113520622253,4.797553539276123,-0.2194814532995224
1.0139678716659546,4.775404930114746,-0.21771007776260376
1.0421961545944214,4.74540901184082,-0.21546216309070587
1.0720717906951904,4.7267985343933105,-0.2137630730867386
1.1012201309204102,4.704116344451904,-0.21188507974147797
1.1338915824890137,4.696402072906494,-0.21069101989269257
1.160676121711731,4.6657843589782715,-0.20843124389648438
1.189221739768982,4.642538547515869,-0.20638151466846466
1.2188973426818848,4.626824855804443,-0.2046998143196106
1.2447261810302734,4.595747947692871,-0.20234230160713196
1.2756108045578003,4.583280086517334,-0.20081345736980438
1.307211995124817,4.574429512023926,-0.1993994414806366
1.330123782157898,4.535357475280762,-0.19657215476036072
1.3609840869903564,4.526256561279297,-0.1950809359550476
1.3899353742599487,4.509347915649414,-0.19324801862239838
1.416554570198059,4.484752178192139,-0.1910938024520874
1.4449093341827393,4.467560291290283,-0.18919524550437927
1.467115879058838,4.43161678314209,-0.1864326149225235
1.4946526288986206,4.414233207702637,-0.18448930978775024
1.520218849182129,4.389044284820557,-0.18220411241054535
1.275789499282837,3.6020760536193848,-0.14852416515350342
1.2949655055999756,3.578686237335205,-0.1464710682630539
1.3218871355056763,3.577213764190674,-0.1452993005514145
1.6210204362869263,4.294749736785889,-0.1730768233537674
1.6536694765090942,4.2907257080078125,-0.17154820263385773
1.6861400604248047,4.286533832550049,-0.16999725997447968
1.7091877460479736,4.2606520652771,-0.167500302195549
1.7378743886947632,4.249107360839844,-0.16557955741882324
1.7631784677505493,4.22606086730957,-0.16316047310829163
1.7894816398620605,4.206582546234131,-0.1609085649251938
1.8117700815200806,4.1800947189331055,-0.1583424061536789
1.8366308212280273,4.160775184631348,-0.15603703260421753
1.8680545091629028,4.155401229858398,-0.1542425900697708
1.8974374532699585,4.142146110534668,-0.15209245681762695
1.919217586517334,4.11495304107666,-0.1494302898645401
1.9399919509887695,4.0879998207092285,-0.14672845602035522
1.9640023708343506,4.067928314208984,-0.14428183436393738
1.995669960975647,4.0612688064575195,-0.1422569900751114
2.0240843296051025,4.0472636222839355,-0.13993367552757263
2.043844699859619,4.019887924194336,-0.13713811337947845
2.0740864276885986,4.013238430023193,-0.1350589394569397
2.091132164001465,3.9780168533325195,-0.13193807005882263
2.1167309284210205,3.9601078033447266,-0.12939555943012238
2.139197587966919,3.9392127990722656,-0.12670934200286865
2.1281542778015137,3.8563077449798584,-0.12202440202236176
2.1453518867492676,3.8244762420654297,-0.11895817518234253
2.167450428009033,3.8030872344970703,-0.11621487140655518
2.1884660720825195,3.7820897102355957,-0.11346372961997986
2.217787981033325,3.774109363555908,-0.11105874180793762
2.2404282093048096,3.751699924468994,-0.10811993479728699
2.265230894088745,3.736854076385498,-0.10540586709976196
2.2936859130859375,3.7287051677703857,-0.10286672413349152
2.315243721008301,3.706230878829956,-0.0998048484325409
2.331965208053589,3.677325487136841,-0.09656118601560593
2.3645999431610107,3.6750919818878174,-0.09395819902420044
2.3851611614227295,3.6525323390960693,-0.0907648429274559
2.4145333766937256,3.6426334381103516,-0.087808758020401
2.442258358001709,3.6335926055908203,-0.08484557271003723
2.457782506942749,3.6042919158935547,-0.08129777014255524
2.482703685760498,3.587246894836426,-0.07787976413965225
2.4919493198394775,3.5523147583007812,-0.07412293553352356
2.5295615196228027,3.5545058250427246,-0.07093559950590134
2.5575337409973145,3.5441415309906006,-0.06738891452550888
2.598400354385376,3.5531439781188965,-0.06413143128156662
2.2203049659729004,2.9924793243408203,-0.050816766917705536
2.6125857830047607,3.657888650894165,0.09542111307382584
2.615309476852417,3.7228453159332275,0.10093042254447937
2.631169319152832,3.802133083343506,0.10656571388244629
2.620530366897583,3.8472211360931396,0.1112474650144577
2.5870161056518555,3.8603241443634033,0.11495856940746307
2.5600273609161377,3.878166437149048,0.1185537576675415
2.5304174423217773,3.8974380493164062,0.12221114337444305
2.501194953918457,3.9161438941955566,0.12573952972888947
2.477975845336914,3.9399993419647217,0.12924662232398987
2.444784641265869,3.9513914585113525,0.13230489194393158
2.4291279315948486,3.992952585220337,0.1363748162984848
2.394656181335449,3.9999682903289795,0.13912950456142426
2.3660268783569336,4.016862869262695,0.1421535760164261
2.3359310626983643,4.034332275390625,0.14515633881092072
2.3124594688415527,4.0612101554870605,0.14843599498271942
2.310866594314575,4.124781131744385,0.15300588309764862
2.26145601272583,4.107459545135498,0.15455256402492523
2.234682559967041,4.130862236022949,0.15755780041217804
2.2089362144470215,4.153432369232178,0.16046029329299927
2.179947853088379,4.168619632720947,0.16304875910282135
2.156572103500366,4.198223114013672,0.16614268720149994
2.1144752502441406,4.193264007568359,0.1678915172815323
2.102006196975708,4.243039608001709,0.17174090445041656
2.07580828666687,4.264504432678223,0.1744382679462433
2.044935703277588,4.279297351837158,0.17679446935653687
2.0201501846313477,4.308208465576172,0.17971760034561157
1.9859681129455566,4.3153839111328125,0.18170781433582306
1.9553701877593994,4.329238414764404,0.1839655041694641
1.9911127090454102,4.4927496910095215,0.19257180392742157
1.9614924192428589,4.51417875289917,0.19507814943790436
1.9484513998031616,4.574930191040039,0.19931483268737793
1.9030051231384277,4.555881500244141,0.2000202089548111
1.8780676126480103,4.587217807769775,0.2029697448015213
1.837727427482605,4.582418441772461,0.2041940987110138
1.8072718381881714,4.602811813354492,0.20652690529823303
1.7687238454818726,4.600952625274658,0.20784802734851837
1.7256523370742798,4.5838470458984375,0.20844094455242157
1.33826744556427,3.6327695846557617,0.16628634929656982
1.306742787361145,3.6275761127471924,0.1670067310333252
1.2766588926315308,3.6257987022399902,0.16788627207279205
1.6154067516326904,4.693737030029297,0.218563511967659
1.6088011264801025,4.782468318939209,0.2239300012588501
1.5795848369598389,4.808547496795654,0.22639727592468262
1.549757957458496,4.834560871124268,0.2287190705537796
1.5126514434814453,4.838045597076416,0.22998851537704468
1.4942662715911865,4.900821685791016,0.23408301174640656
1.437886118888855,4.83621883392334,0.23208004236221313
1.408525824546814,4.861028671264648,0.23436258733272552
1.3815747499465942,4.90112829208374,0.23725304007530212
1.346503496170044,4.910810470581055,0.23867206275463104
1.2824467420578003,4.810843467712402,0.23474664986133575
1.2567516565322876,4.849807262420654,0.23757818341255188
1.228716254234314,4.881063461303711,0.24005265533924103
1.1935011148452759,4.889731407165527,0.24131357669830322
1.1631346940994263,4.9170331954956055,0.243454247713089
1.1350529193878174,4.955559253692627,0.2461709827184677
1.1004852056503296,4.963290691375732,0.24735777080059052
1.0740926265716553,5.008920192718506,0.2504504323005676
1.039111614227295,5.020220756530762,0.25178343057632446
1.0050028562545776,5.035067081451416,0.25317373871803284
0.9707356095314026,5.049680233001709,0.25456714630126953
2.1280529499053955,11.505250930786133,0.5815194845199585
2.0281524658203125,11.408268928527832,0.5781254768371582
1.9119964838027954,11.214539527893066,0.5698394775390625
1.8077203035354614,11.073637008666992,0.563823401927948
1.7108056545257568,10.966546058654785,0.5594815611839294
1.6115829944610596,10.831620216369629,0.553718626499176
1.5087321996688843,10.64936351776123,0.5455138087272644
1.4141238927841187,10.516626358032227,0.5398543477058411
1.3219701051712036,10.379104614257812,0.5338073968887329
1.237268328666687,10.291254997253418,0.5300207138061523
1.1608834266662598,10.264758110046387,0.5294104218482971
1.072800874710083,10.121293067932129,0.5227774977684021
0.9927647709846497,10.031396865844727,0.5189114809036255
0.3977412283420563,4.331459999084473,0.2244129180908203
0.3618529438972473,4.268033981323242,0.22137631475925446
0.3294982314109802,4.239335536956787,0.22007961571216583
0.30306416749954224,4.2882208824157715,0.22282226383686066
0.2783218026161194,4.371971130371094,0.22739283740520477
0.24827662110328674,4.389391899108887,0.2285325825214386
0.21659791469573975,4.367618083953857,0.2276383489370346
0.1854112148284912,4.353425979614258,0.22699406743049622
0.15210099518299103,4.272738933563232,0.22286805510520935
0.11948028206825256,4.176205635070801,0.21792270243167877
0.032569512724876404,1.5132142305374146,0.07899948954582214
0.023698925971984863,1.6265164613723755,0.08495771139860153
0.03332842141389847,4.380614757537842,0.22892223298549652
0.0027783941477537155,4.32612943649292,0.2260320484638214
-0.0273126307874918,4.326045989990234,0.22599577903747559
-0.05467690899968147,4.080009460449219,0.21312257647514343
-0.0828547328710556,4.071732521057129,0.21268099546432495
-0.11070733517408371,4.05546236038208,0.2118321657180786
-0.0535527728497982,1.5633599758148193,0.08164568990468979
-0.24516190588474274,5.951703071594238,0.3106229603290558
-0.19504894316196442,4.052306175231934,0.21136504411697388
-0.19611987471580505,3.552273988723755,0.18517917394638062
-0.21937686204910278,3.5274717807769775,0.18379272520542145
-0.24549318850040436,3.5492215156555176,0.1848408728837967
-0.2937884032726288,3.8586266040802,0.20078551769256592
-0.3236422836780548,3.8954014778137207,0.20245908200740814
-0.34507009387016296,3.826997995376587,0.19867311418056488
-0.35344523191452026,3.63816237449646,0.18866288661956787
-0.3739139437675476,3.5890700817108154,0.1859203279018402
-0.4014425575733185,3.609663963317871,0.18679827451705933
-0.4428554177284241,3.7462961673736572,0.193568155169487
-0.4637346863746643,3.7005503177642822,0.19087664783000946
-0.8285121917724609,6.261417388916016,0.32243612408638
-0.8578290939331055,6.155114650726318,0.31645143032073975
-0.8994019627571106,6.14133358001709,0.31524619460105896
-0.9408543109893799,6.127268314361572,0.31402865052223206
-0.5248661041259766,3.266385793685913,0.16701702773571014
-0.5485104918479919,3.2704391479492188,0.16684889793395996
-0.578983724117279,3.31274676322937,0.1686336100101471
-1.149483561515808,6.317957878112793,0.32090410590171814
-1.203485131263733,6.363546371459961,0.3225202262401581
-0.6356963515281677,3.2388322353363037,0.16375452280044556
-0.6527488231658936,3.207608461380005,0.1617095023393631
-0.6746302843093872,3.2031116485595703,0.1610317826271057
-0.7041381001472473,3.2327356338500977,0.1620684266090393
-1.2098463773727417,5.374587535858154,0.2686977684497833
-1.2356958389282227,5.3167009353637695,0.26507318019866943
-1.2671629190444946,5.285285472869873,0.26260602474212646
-0.6913093328475952,2.7992899417877197,0.13860628008842468
-0.7046037316322327,2.7718594074249268,0.13677693903446198
-0.7129545211791992,2.725416898727417,0.13401848077774048
-0.7380044460296631,2.7430267333984375,0.1344175636768341
-0.7624081969261169,2.75662899017334,0.13457167148590088
-0.7896145582199097,2.7814629077911377,0.1352209746837616
-0.8946567177772522,3.0720479488372803,0.14873045682907104
-0.9447923898696899,3.163079261779785,0.15249809622764587
-0.9736339449882507,3.178861618041992,0.15261326730251312
-1.0124179124832153,3.2240781784057617,0.15411268174648285
-1.0568408966064453,3.2878103256225586,0.15638302266597748
-1.092444896697998,3.321423053741455,0.15720057487487793
-1.1274852752685547,3.3509459495544434,0.15780726075172424
-1.140596628189087,3.313560724258423,0.1552523672580719
-1.1739754676818848,3.335052728652954,0.15546363592147827
-1.3514256477355957,3.756608486175537,0.1740889996290207
-1.3941500186920166,3.7951250076293945,0.1748443841934204
-1.4335064888000488,3.822211742401123,0.17505165934562683
-1.4600629806518555,3.81221604347229,0.17352978885173798
-1.483707070350647,3.7947652339935303,0.17167901992797852
-1.509658932685852,3.7845897674560547,0.17004135251045227
-1.5379070043563843,3.7816998958587646,0.1687398999929428
-2.3347041606903076,5.631692886352539,0.24952660501003265
-2.364732503890991,5.593845367431641,0.24605154991149902
-2.394320011138916,5.555863380432129,0.24259380996227264
-2.444490909576416,5.568207740783691,0.24115686118602753
-2.511838912963867,5.619600296020508,0.24142055213451385
-2.553300142288208,5.609579563140869,0.23898859322071075
-2.5544984340667725,5.510351181030273,0.23275251686573029
-2.573784112930298,5.45404577255249,0.22832241654396057
-2.613905668258667,5.4437150955200195,0.22569064795970917
-1.7489135265350342,3.5813491344451904,0.14705553650856018
-1.7702933549880981,3.56219482421875,0.14478082954883575
-1.780975341796875,3.5219860076904297,0.14166881144046783
-1.7917982339859009,3.4858760833740234,0.13867343962192535
-1.8274250030517578,3.49827241897583,0.13760709762573242
-1.849798321723938,3.4821574687957764,0.13533830642700195
-1.870254397392273,3.4624245166778564,0.13293522596359253
-1.175803303718567,2.1425325870513916,0.08120594173669815
-1.1898030042648315,2.134841203689575,0.0798439085483551
-1.9197897911071777,3.3906610012054443,0.12505021691322327
-1.9671390056610107,3.4176652431488037,0.12417495995759964
-1.9366174936294556,3.313586711883545,0.11855438351631165
-1.235054850578308,2.0820045471191406,0.07331684976816177
-1.2612673044204712,2.093681812286377,0.07248999178409576
-2.4986345767974854,4.083216190338135,0.13888758420944214
-2.529620885848999,4.073395252227783,0.13593140244483948
-2.5371737480163574,4.027324199676514,0.13182120025157928
-2.560969829559326,4.003075122833252,0.12825404107570648
-2.5792860984802246,3.972794532775879,0.1244773268699646
-2.5875039100646973,3.9302024841308594,0.12031165510416031
-2.631878614425659,3.9383652210235596,0.11748898774385452
-2.6870365142822266,3.962538957595825,0.11506149917840958
-2.7385506629943848,3.9842171669006348,0.11246001720428467
-2.7986714839935303,4.013952255249023,0.10982172936201096
-2.8641061782836914,4.0492377281188965,0.10709398239850998
-2.8693251609802246,4.002483367919922,0.10207467526197433
-2.8574936389923096,3.9292495250701904,0.09619387239217758
-2.8897833824157715,3.920239210128784,0.09182153642177582
-2.9884705543518066,4.18157434463501,-0.09747413545846939
-2.4633288383483887,3.5005407333374023,-0.08560355752706528
-2.429056167602539,3.505315065383911,-0.08949575573205948
-2.88848876953125,4.236699104309082,-0.11266499012708664
-2.874133348464966,4.279294967651367,-0.11792077869176865
-2.8830957412719727,4.362349510192871,-0.12436892092227936
-2.826798915863037,4.347754955291748,-0.12802717089653015
-2.827885627746582,4.416631698608398,-0.1338782012462616
-2.097572088241577,3.33066463470459,-0.10378847271203995
-2.0607454776763916,3.3259432315826416,-0.10637036710977554
-1.2648134231567383,2.07340669631958,-0.06791634857654572
-2.0003719329833984,3.335111379623413,-0.11183007806539536
-1.9995574951171875,3.3900105953216553,-0.11620782315731049
-1.971998691558838,3.3969902992248535,-0.11883450299501419
-1.9475454092025757,3.410968065261841,-0.12168212234973907
-1.203840732574463,2.144970655441284,-0.07798368483781815
-1.1883492469787598,2.1535282135009766,-0.07972344756126404
-1.8734958171844482,3.4518918991088867,-0.12999333441257477
-1.868310809135437,3.503345489501953,-0.13409927487373352
-1.864400029182434,3.5582993030548096,-0.13838540017604828
-1.869904637336731,3.630125045776367,-0.1432969719171524
-2.51700758934021,4.973977088928223,-0.19924968481063843
-2.4892303943634033,5.009599685668945,-0.20346921682357788
-2.453070878982544,5.027263164520264,-0.20693716406822205
-2.4281444549560547,5.065196514129639,-0.21116767823696136
-2.408884048461914,5.1174211502075195,-0.21598559617996216
-2.371699094772339,5.134620189666748,-0.21929042041301727
-2.3454411029815674,5.1765360832214355,-0.22369050979614258
-1.506783127784729,3.3880300521850586,-0.14803142845630646
-1.482872724533081,3.3984732627868652,-0.15008698403835297
-1.4490574598312378,3.387484073638916,-0.1511341631412506
-1.4367088079452515,3.426532506942749,-0.15441852807998657
-1.421271800994873,3.4582056999206543,-0.15737825632095337
-1.397062063217163,3.4679677486419678,-0.15932297706604004
-1.3520104885101318,3.4270243644714355,-0.15882733464241028
-1.3202491998672485,3.418390989303589,-0.15981097519397736
-1.300391674041748,3.4384303092956543,-0.16210265457630157
-1.2814021110534668,3.4621164798736572,-0.16459952294826508
-1.2647721767425537,3.493056535720825,-0.16736076772212982
-1.252731204032898,3.538733959197998,-0.17082563042640686
-1.2390540838241577,3.5806474685668945,-0.17413116991519928
-1.2216166257858276,3.611276865005493,-0.1768900752067566
-1.2057442665100098,3.649413824081421,-0.1800454705953598
-1.1676980257034302,3.6207101345062256,-0.17979374527931213
-0.9755364656448364,3.100358486175537,-0.1549549400806427
-0.9606446623802185,3.1294355392456055,-0.15740379691123962
-0.9175487160682678,3.0649709701538086,-0.15513412654399872
-0.8030875325202942,2.752923011779785,-0.1401601880788803
-0.7714195847511292,2.7173237800598145,-0.13911840319633484
-0.752051591873169,2.7226946353912354,-0.14015702903270721
-0.7370865941047668,2.742893934249878,-0.14195474982261658
-0.7159819006919861,2.740361452102661,-0.14258405566215515
-0.7032974362373352,2.771777629852295,-0.14491549134254456
-1.4913934469223022,6.061095237731934,-0.3183870017528534
-1.4629672765731812,6.132100582122803,-0.3236108720302582
-1.4449018239974976,6.248440265655518,-0.3312581479549408
-1.416763186454773,6.326748847961426,-0.336947500705719
-1.368833065032959,6.321228981018066,-0.33796337246894836
-1.3217912912368774,6.323164939880371,-0.33937808871269226
-1.2711009979248047,6.301621913909912,-0.3395147919654846
-1.2175480127334595,6.260440349578857,-0.33857908844947815
-1.1652936935424805,6.2226667404174805,-0.3378259837627411
-1.1124746799468994,6.180729389190674,-0.33659476041793823
-1.0296509265899658,5.965527534484863,-0.32589659094810486
-0.9412376284599304,5.691615581512451,-0.31190139055252075
-0.9486042857170105,5.994594573974609,-0.3295269012451172
-0.9161955118179321,6.062680721282959,-0.3343186378479004
-0.6685763597488403,4.644325256347656,-0.2567233741283417
-0.6385028958320618,4.6721272468566895,-0.2588852345943451
-0.6047276854515076,4.668705463409424,-0.25931939482688904
-0.5722708702087402,4.6727471351623535,-0.2601741552352905
-0.545558750629425,4.7269368171691895,-0.2638414204120636
-0.5124462842941284,4.730603218078613,-0.2645244002342224
-0.4749862849712372,4.691355228424072,-0.26277801394462585
-0.4393427073955536,4.671287536621094,-0.2621208429336548
-0.416639119386673,4.786873817443848,-0.26908624172210693
-0.3873696029186249,4.840160369873047,-0.2725791037082672
-0.2561558187007904,3.508540391921997,-0.1978367567062378
-0.23212726414203644,3.518012046813965,-0.19857965409755707
-0.05672771856188774,1.4965245723724365,-0.08482898771762848
-0.046531420201063156,1.504677176475525,-0.08532547950744629
-0.03567468374967575,1.4971681833267212,-0.08493869006633759
-0.025523576885461807,1.512974739074707,-0.08587827533483505
-0.015154304914176464,1.5287116765975952,-0.08681900054216385
0.05844082683324814,1.50426185131073,-0.08531840145587921
0.07099846750497818,1.5505775213241577,-0.08787417411804199
0.2271013706922531,4.295722484588623,-0.24325771629810333
0.2578960955142975,4.309627056121826,-0.24387012422084808
0.2829526960849762,4.233806610107422,-0.23941896855831146
0.3105278015136719,4.208436489105225,-0.23762951791286469
0.33964791893959045,4.206212997436523,-0.23715905845165253
0.3727322220802307,4.242589950561523,-0.23886685073375702
0.4777069091796875,5.035881042480469,-0.28314292430877686
0.5091736316680908,4.997546672821045,-0.2806152105331421
0.49345850944519043,4.532553195953369,-0.25401121377944946
0.5306029319763184,4.579441547393799,-0.2561147212982178
0.569431722164154,4.6298370361328125,-0.2584061622619629
0.6081571578979492,4.676085948944092,-0.26047244668006897
0.6729452013969421,4.907505035400391,-0.2728355824947357
0.7051238417625427,4.891215801239014,-0.27124693989753723
0.7364265322685242,4.870879173278809,-0.2693742513656616
0.7680833339691162,4.85024881362915,-0.2674897313117981
0.7967262864112854,4.814056873321533,-0.2647716701030731
0.8341510891914368,4.8315205574035645,-0.26501959562301636
0.8744249939918518,4.86409330368042,-0.2659743130207062
0.9035600423812866,4.835026264190674,-0.2634827792644501
0.935266375541687,4.821113586425781,-0.2618364095687866
0.9677483439445496,4.806808948516846,-0.26015958189964294
0.9963865280151367,4.777115821838379,-0.2576815187931061
1.0243523120880127,4.747328758239746,-0.2551029920578003
1.0542871952056885,4.72885799407959,-0.25305619835853577
1.0866419076919556,4.721604824066162,-0.25162410736083984
1.1145915985107422,4.6911091804504395,-0.2489367425441742
1.141642689704895,4.660581111907959,-0.24628683924674988
1.1718156337738037,4.6451215744018555,-0.2443457841873169
1.2035895586013794,4.637074947357178,-0.24272838234901428
1.2312453985214233,4.613743782043457,-0.24032753705978394
1.2617522478103638,4.597489356994629,-0.2382735311985016
1.286332130432129,4.562389373779297,-0.23528054356575012
1.317602276802063,4.553546905517578,-0.23353426158428192
1.3463895320892334,4.537071704864502,-0.2313508838415146
1.3727796077728271,4.512938499450684,-0.2287927269935608
1.400057077407837,4.4882988929748535,-0.22617903351783752
1.4288748502731323,4.4711079597473145,-0.22398248314857483
1.4568426609039307,4.453961372375488,-0.22165608406066895
1.4845925569534302,4.436657905578613,-0.2193150818347931
1.5061074495315552,4.400639057159424,-0.2160579264163971
1.5289827585220337,4.368043422698975,-0.21297100186347961
1.2875134944915771,3.596755027770996,-0.17410136759281158
1.3091813325881958,3.5807008743286133,-0.17199411988258362
1.6050175428390503,4.299356460571289,-0.20491833984851837
1.6305253505706787,4.277323246002197,-0.20225097239017487
1.6644644737243652,4.276897430419922,-0.2006058543920517
1.6941779851913452,4.265321731567383,-0.19832196831703186
1.7199900150299072,4.246664524078369,-0.19569222629070282
1.7487678527832031,4.235001564025879,-0.1933867335319519
1.7766937017440796,4.219234943389893,-0.19085878133773804
1.799723505973816,4.192586421966553,-0.18783897161483765
1.8252344131469727,4.173135757446289,-0.18502645194530487
1.8501031398773193,4.15373420715332,-0.18226270377635956
1.8787809610366821,4.140952110290527,-0.17974887788295746
1.901033639907837,4.113699436187744,-0.17660778760910034
1.9253654479980469,4.093852519989014,-0.1737217903137207
1.949831485748291,4.073714733123779,-0.17078563570976257
1.9742846488952637,4.053348541259766,-0.1678420752286911
2.002446174621582,4.039621353149414,-0.16515256464481354
2.0332117080688477,4.0330810546875,-0.162693589925766
2.052896738052368,4.005669116973877,-0.15937723219394684
2.080143451690674,3.991699457168579,-0.15655873715877533
2.1046900749206543,3.970090389251709,-0.15336421132087708
2.131298542022705,3.9559810161590576,-0.15045978128910065
2.1480865478515625,3.924762010574341,-0.14689888060092926
2.138789653778076,3.845280647277832,-0.14151503145694733
2.1501054763793945,3.803234815597534,-0.13753046095371246
2.179563045501709,3.7955474853515625,-0.13470232486724854
2.200545072555542,3.774491310119629,-0.1314460039138794
2.2306320667266846,3.7659778594970703,-0.12849675118923187
2.2562756538391113,3.7507784366607666,-0.12529712915420532
2.284788131713867,3.7427380084991455,-0.12229904532432556
2.302103281021118,3.713857650756836,-0.11850088834762573
2.319573402404785,3.684635877609253,-0.11466766148805618
2.339381456375122,3.662933111190796,-0.1110496073961258
2.36333966255188,3.6476242542266846,-0.10759967565536499
2.393002986907959,3.6376922130584717,-0.10411692410707474
2.417325019836426,3.621680498123169,-0.10038074851036072
2.4363837242126465,3.599560499191284,-0.09650848060846329
2.4613564014434814,3.582634925842285,-0.09254906326532364
2.4800891876220703,3.5602777004241943,-0.08844942599534988
2.503204584121704,3.544161558151245,-0.08442413061857224
2.519038200378418,3.5138232707977295,-0.07974688708782196
2.55025053024292,3.5106589794158936,-0.07574877887964249
2.5970022678375244,3.5249462127685547,-0.07179516553878784
2.672358989715576,3.7729268074035645,0.11893517524003983
2.6621322631835938,3.8181371688842773,0.12467014044523239
2.630403995513916,3.8304412364959717,0.1290905773639679
2.5958797931671143,3.8443422317504883,0.13357914984226227
2.5813474655151367,3.882129669189453,0.1385527402162552
2.553203821182251,3.9005446434020996,0.14275655150413513
2.51914644241333,3.9131882190704346,0.14671280980110168
2.491302490234375,3.9308254718780518,0.15061667561531067
2.4627363681793213,3.9486355781555176,0.15450823307037354
2.4369733333587646,3.9735989570617676,0.15858452022075653
2.442458391189575,4.04779577255249,0.16455547511577606
2.4320883750915527,4.094805717468262,0.16938820481300354
2.413414478302002,4.132837295532227,0.1738031506538391
2.4052064418792725,4.191559314727783,0.17917656898498535
2.372101306915283,4.20127534866333,0.18224410712718964
2.294884443283081,4.132526397705078,0.18183588981628418
2.245455741882324,4.115037441253662,0.18354012072086334
2.2189509868621826,4.138108253479004,0.18701408803462982
2.200446128845215,4.1743292808532715,0.1910327970981598
2.1706864833831787,4.189743995666504,0.19403301179409027
2.146789073944092,4.219425201416016,0.19762958586215973
2.1124532222747803,4.227858066558838,0.20022059977054596
2.093290328979492,4.263348579406738,0.20400896668434143
2.0626821517944336,4.27810525894165,0.20683535933494568
2.031325340270996,4.292952060699463,0.20953235030174255
1.996540904045105,4.300504207611084,0.21188341081142426
1.956667184829712,4.292947292327881,0.2134012132883072
1.9760611057281494,4.41679048538208,0.22149403393268585
1.9503107070922852,4.445143699645996,0.22473925352096558
1.9218394756317139,4.470142364501953,0.22784633934497833
1.886818289756775,4.476443290710449,0.22994281351566315
1.864538311958313,4.510988235473633,0.2334621101617813
1.860594630241394,4.5925774574279785,0.23942066729068756
1.830080509185791,4.613097190856934,0.24210843443870544
1.80728280544281,4.655450344085693,0.2459946870803833
1.7661967277526855,4.64603853225708,0.24708226323127747
1.731093168258667,4.6507887840271,0.24890969693660736
1.3243709802627563,3.636390209197998,0.19578982889652252
1.2954869270324707,3.6384122371673584,0.19700011610984802
1.2713172435760498,3.6551010608673096,0.19903399050235748
1.6073509454727173,4.727518081665039,0.2588319778442383
