X,Y,Z
-0.7522981762886047,3.545522928237915,-0.24625477194786072
-0.7321965098381042,3.573507070541382,-0.24920159578323364
-0.7088087797164917,3.5860700607299805,-0.2510901391506195
-0.6890267729759216,3.6215758323669434,-0.2544930577278137
-0.6739974021911621,3.683760404586792,-0.2597094178199768
-0.6507074236869812,3.7036890983581543,-0.26197633147239685
-0.6294311285018921,3.7349460124969482,-0.26505663990974426
-0.6121286153793335,3.79300594329834,-0.27006983757019043
-0.5892313718795776,3.8241565227508545,-0.2730324864387512
-0.5691856145858765,3.8743882179260254,-0.2773120105266571
-0.5473512411117554,3.9168097972869873,-0.2810622453689575
-0.5247098803520203,3.9552135467529297,-0.28454434871673584
-0.5010406374931335,3.9896271228790283,-0.2877661883831024
-0.4790593683719635,4.043278217315674,-0.2922062873840332
-0.45538052916526794,4.0930023193359375,-0.29635748267173767
-0.4319252669811249,4.146413803100586,-0.30079418420791626
-0.4076225459575653,4.195792198181152,-0.304961234331131
-0.38230445981025696,4.241148948669434,-0.3088633120059967
-0.3513930141925812,4.228142738342285,-0.3083048462867737
-0.3207312226295471,4.222724914550781,-0.308279812335968
-0.2944693863391876,4.271461486816406,-0.31222012639045715
-0.3124222457408905,5.043275356292725,-0.3691030740737915
-0.2751259505748749,5.006383895874023,-0.36688536405563354
-0.23868520557880402,4.97702693939209,-0.3649502694606781
-0.2033151388168335,4.978574752807617,-0.3652520477771759
-0.16881100833415985,4.987638473510742,-0.36612021923065186
-0.133484348654747,4.965303897857666,-0.3646999001502991
-0.0988645926117897,4.962195873260498,-0.3647081255912781
-0.06390376389026642,4.93159818649292,-0.3624570965766907
-0.02889748103916645,4.91634464263916,-0.3612983226776123
0.005337791983038187,4.908636093139648,-0.360712468624115
0.03931548073887825,4.892899513244629,-0.35955411195755005
0.07301639765501022,4.873032569885254,-0.35810962319374084
0.10629066824913025,4.849059581756592,-0.35612747073173523
0.1397215574979782,4.8404412269592285,-0.3552233576774597
0.17303027212619781,4.815999984741211,-0.35317280888557434
0.20653985440731049,4.814703464508057,-0.3528415262699127
0.2396516352891922,4.805391788482666,-0.3519403040409088
0.27208390831947327,4.7880964279174805,-0.3502523899078369
0.3035600185394287,4.758923053741455,-0.34764090180397034
0.3371526300907135,4.756707191467285,-0.34701013565063477
0.3671633005142212,4.715453147888184,-0.3435595631599426
0.40061154961586,4.720594882965088,-0.34350821375846863
0.4311758279800415,4.69448709487915,-0.3409867286682129
0.4609665274620056,4.664316177368164,-0.3381088376045227
0.4929782450199127,4.65327262878418,-0.3366270959377289
0.5244122743606567,4.642058372497559,-0.33516091108322144
0.5548262000083923,4.622890472412109,-0.33313897252082825
0.5867968797683716,4.619020938873291,-0.3320363163948059
0.6166005730628967,4.599497318267822,-0.3297436237335205
0.6478071212768555,4.587421894073486,-0.3279899060726166
0.6762712001800537,4.559762954711914,-0.32515260577201843
0.7013896703720093,4.512678623199463,-0.3209579885005951
0.7312886714935303,4.5001301765441895,-0.31906163692474365
0.7675184607505798,4.525815963745117,-0.3198164403438568
0.7959621548652649,4.5051727294921875,-0.3173102140426636
0.8221826553344727,4.468868732452393,-0.31369873881340027
0.7200685143470764,3.7664926052093506,-0.2635314464569092
0.7430056929588318,3.7462403774261475,-0.2610897719860077
0.7930576801300049,3.8594846725463867,-0.26789095997810364
0.9420163035392761,4.42966365814209,-0.3062247931957245
0.9716689586639404,4.415391445159912,-0.3039756119251251
0.9997810125350952,4.397237777709961,-0.3015005588531494
1.029948353767395,4.39039945602417,-0.29960447549819946
1.0563651323318481,4.3682098388671875,-0.2966596186161041
1.0863673686981201,4.36097526550293,-0.2947458326816559
1.1192020177841187,4.360846042633057,-0.2932794988155365
1.1455552577972412,4.338005065917969,-0.2903047800064087
1.1690908670425415,4.307633876800537,-0.2866591513156891
1.1964514255523682,4.292162895202637,-0.2840297818183899
1.2238651514053345,4.276459217071533,-0.28139251470565796
1.256353735923767,4.275299549102783,-0.279680460691452
1.2813595533370972,4.251731872558594,-0.27647751569747925
1.3080230951309204,4.235596656799316,-0.27365386486053467
1.333383560180664,4.2155656814575195,-0.27059701085090637
1.3601038455963135,4.198976039886475,-0.2677588164806366
1.387330174446106,4.181997299194336,-0.2648741602897644
1.418445110321045,4.179940700531006,-0.26284751296043396
1.439142107963562,4.1482625007629395,-0.25892722606658936
1.4621446132659912,4.12382173538208,-0.25548332929611206
1.5015010833740234,4.143014430999756,-0.25470131635665894
1.5302196741104126,4.132654190063477,-0.25207966566085815
1.5476828813552856,4.0929765701293945,-0.24751879274845123
1.5698230266571045,4.067983150482178,-0.24391581118106842
1.609277367591858,4.08625602722168,-0.24287793040275574
1.6260685920715332,4.0461602210998535,-0.2383612096309662
1.6535800695419312,4.035163879394531,-0.23548637330532074
1.6842830181121826,4.031073570251465,-0.2329375147819519
1.7621463537216187,4.13810920715332,-0.23676948249340057
2.016172170639038,4.644773483276367,-0.2630547285079956
2.0464792251586914,4.627434253692627,-0.259317547082901
2.077619791030884,4.613738059997559,-0.2557092607021332
2.1108205318450928,4.603138446807861,-0.2522338926792145
2.1345598697662354,4.570860385894775,-0.24754644930362701
2.166080951690674,4.556209564208984,-0.24380502104759216
2.199925422668457,4.548837661743164,-0.24036560952663422
2.2268776893615723,4.527209281921387,-0.23618364334106445
2.262299060821533,4.518551349639893,-0.23252034187316895
2.293454647064209,4.50302267074585,-0.22853097319602966
2.3288233280181885,4.49822473526001,-0.22500179708003998
2.369680166244507,4.503513813018799,-0.22196437418460846
1.7307589054107666,3.2345802783966064,-0.15693789720535278
1.752870798110962,3.22279953956604,-0.15386107563972473
1.7311370372772217,3.132490634918213,-0.1470213532447815
1.7368122339248657,3.0937302112579346,-0.14270742237567902
1.806721806526184,3.1664321422576904,-0.14338938891887665
1.3445830345153809,2.3201611042022705,-0.10307485610246658
0.9481502175331116,1.6115444898605347,-0.07019414752721786
0.9593217372894287,1.6049954891204834,-0.06843379884958267
0.9683349132537842,1.5950831174850464,-0.06653084605932236
0.9848816394805908,1.5987648963928223,-0.0651753768324852
0.989259660243988,1.582336187362671,-0.06297982484102249
1.002355694770813,1.5787736177444458,-0.061228495091199875
1.0128979682922363,1.5721040964126587,-0.05931159481406212
1.0167232751846313,1.5557291507720947,-0.05706223100423813
1.0318495035171509,1.5551910400390625,-0.055288612842559814
1.0529273748397827,1.5646573305130005,-0.05384155735373497
1.0520275831222534,1.541751742362976,-0.051269158720970154
2.555091619491577,3.6881256103515625,-0.11792197078466415
2.616936206817627,3.726088047027588,-0.11440804600715637
2.6074187755584717,3.661236524581909,-0.10758315026760101
2.6139156818389893,3.618290662765503,-0.10122141242027283
2.636547327041626,3.601985454559326,-0.09564843773841858
2.6797590255737305,3.6091017723083496,-0.0901910662651062
2.6358325481414795,3.6930246353149414,0.13055257499217987
2.602346897125244,3.7069497108459473,0.13616295158863068
2.5600173473358154,3.702929973602295,0.1406794637441635
1.0653033256530762,1.565443754196167,0.06134551391005516
1.0445433855056763,1.5605292320251465,0.06297914683818817
1.0422152280807495,1.580743670463562,0.06546125560998917
1.021712303161621,1.5754104852676392,0.06689191609621048
1.0307271480560303,1.6159427165985107,0.07024990767240524
0.994488537311554,1.5833640098571777,0.070302315056324
0.9992349743843079,1.6171189546585083,0.07326272875070572
0.9829228520393372,1.6178770065307617,0.07473597675561905
0.9632287621498108,1.6114383935928345,0.07579593360424042
0.9715263843536377,1.6518162488937378,0.07901770621538162
1.3635199069976807,2.3583502769470215,0.11463350057601929
1.8129099607467651,3.1892383098602295,0.1574210524559021
1.7467947006225586,3.123331069946289,0.15639378130435944
1.744335651397705,3.173633575439453,0.16114279627799988
1.76337730884552,3.2653236389160156,0.16800940036773682
1.7325102090835571,3.26400089263916,0.17007656395435333
2.357814311981201,4.517729759216309,0.23826050758361816
2.331907272338867,4.548511028289795,0.24261978268623352
2.290640115737915,4.551772117614746,0.24552464485168457
2.261354446411133,4.574909210205078,0.2493889480829239
2.232846736907959,4.597381114959717,0.25315868854522705
2.1997504234313965,4.613126277923584,0.2564585208892822
2.162587881088257,4.6218695640563965,0.25931641459465027
2.129032850265503,4.637241363525391,0.26253098249435425
2.0991926193237305,4.659205436706543,0.26609259843826294
2.0693423748016357,4.680895805358887,0.26956063508987427
2.0319576263427734,4.688572883605957,0.27209901809692383
1.7780348062515259,4.186148166656494,0.2448139190673828
1.710957646369934,4.108426094055176,0.24204427003860474
1.6847320795059204,4.127529144287109,0.24496373534202576
1.65508234500885,4.139368057250977,0.2473117858171463
1.6278252601623535,4.158402442932129,0.25005894899368286
1.5976942777633667,4.1699323654174805,0.2523651123046875
1.5686229467391968,4.180820941925049,0.2545841634273529
1.5389405488967896,4.191699981689453,0.2568439543247223
1.5034408569335938,4.187866687774658,0.25800737738609314
1.4834781885147095,4.227928161621094,0.26188573241233826
1.4531229734420776,4.2383294105529785,0.26393985748291016
1.4285143613815308,4.263015270233154,0.2668614685535431
1.3885860443115234,4.243250846862793,0.2670314908027649
1.3675531148910522,4.282718658447266,0.2707194685935974
1.334458351135254,4.2848639488220215,0.27206453680992126
1.3105432987213135,4.316577911376953,0.2753022015094757
1.2804347276687622,4.325491905212402,0.277072936296463
1.257829189300537,4.36041784286499,0.2805306613445282
1.224082589149475,4.361806869506836,0.28168928623199463
1.1927940845489502,4.370364665985107,0.2832740545272827
1.1634860038757324,4.386223316192627,0.28534701466560364
1.1406346559524536,4.42433500289917,0.28886473178863525
1.1079216003417969,4.424501419067383,0.28992146253585815
1.0798313617706299,4.44739294052124,0.2923722565174103
1.0463533401489258,4.447291374206543,0.2932145595550537
1.018126130104065,4.469743251800537,0.29556021094322205
0.9849852919578552,4.46909236907959,0.29638391733169556
0.9554965496063232,4.483374118804932,0.29820290207862854
0.915777325630188,4.451779842376709,0.2969610393047333
0.7530033588409424,3.7966387271881104,0.25383490324020386
0.7260668277740479,3.8018195629119873,0.2547689974308014
0.8328589200973511,4.535201549530029,0.3046291470527649
0.8053699731826782,4.563839435577393,0.3072710633277893
0.7743391990661621,4.577038288116455,0.3089066743850708
0.7446469068527222,4.597692489624023,0.3109009563922882
0.71456378698349,4.618181228637695,0.31280988454818726
0.6830449104309082,4.630768775939941,0.3142026662826538
0.653238832950592,4.654687404632568,0.3163791596889496
0.6202344298362732,4.659140110015869,0.3172561824321747
0.5878007411956787,4.663284778594971,0.31811726093292236
0.5586492419242859,4.698223114013672,0.32086262106895447
0.5255672335624695,4.701995849609375,0.32149502635002136
0.49408233165740967,4.721039295196533,0.323188841342926
0.46339771151542664,4.747601509094238,0.3254131078720093
0.42978087067604065,4.75071907043457,0.3260543644428253
0.39826592803001404,4.772979736328125,0.32794880867004395
0.3672201335430145,4.806710720062256,0.33046647906303406
0.33297643065452576,4.801364898681641,0.3303150534629822
0.29984378814697266,4.811330795288086,0.3312329351902008
0.26700887084007263,4.836656093597412,0.3332293927669525
0.23409277200698853,4.853940963745117,0.3346855044364929
0.20104177296161652,4.874906063079834,0.3362787067890167
0.1677786409854889,4.899551868438721,0.33801528811454773
0.1335439682006836,4.900595664978027,0.33814021944999695
0.0991772785782814,4.9247894287109375,0.33988073468208313
0.06527622789144516,4.94873046875,0.3416195511817932
0.030998719856142998,4.964643955230713,0.3428213596343994
-0.0035628254991024733,4.984228134155273,0.3441140055656433
-0.038320042192935944,4.999678611755371,0.34506499767303467
-0.07383865863084793,5.007084369659424,0.34547507762908936
-0.10914090275764465,5.029834747314453,0.34696218371391296
-0.14453968405723572,5.0445451736450195,0.3479107916355133
-0.1796446293592453,5.043425559997559,0.34778422117233276
-0.21491028368473053,5.049872398376465,0.3479612469673157
-0.2508387565612793,5.067750930786133,0.34891363978385925
-0.29011476039886475,5.128135681152344,0.3528001010417938
-0.32424136996269226,5.102688789367676,0.35080087184906006
-0.3024645447731018,4.287856578826904,0.29458722472190857
-0.32985368371009827,4.2545905113220215,0.2921026647090912
-0.36186179518699646,4.283315181732178,0.2936820387840271
-0.3912912607192993,4.2729387283325195,0.2925854027271271
-0.4150676429271698,4.211994647979736,0.28805309534072876
-0.43696022033691406,4.139283180236816,0.2827385663986206
-0.4617871940135956,4.1013288497924805,0.2798202931880951
-0.48736417293548584,4.074858665466309,0.277639776468277
-0.5109542608261108,4.032736778259277,0.27425822615623474
-0.5309211015701294,3.9712324142456055,0.26959228515625
-0.5528207421302795,3.9289371967315674,0.26625412702560425
-0.5738639235496521,3.882633924484253,0.26266196370124817
-0.5937314033508301,3.832371711730957,0.25882434844970703
-0.6193480491638184,3.820474863052368,0.2574770748615265
-0.6384000182151794,3.7739205360412598,0.2537427246570587
-0.6561294198036194,3.7234530448913574,0.24977190792560577
-0.6768556237220764,3.692063808441162,0.24710065126419067
-0.6966661214828491,3.6566965579986572,0.24417899549007416
-0.7137849926948547,3.6097540855407715,0.24050632119178772
-0.7326002717018127,3.5742242336273193,0.23744754493236542
-0.7505106329917908,3.5387017726898193,0.2344093769788742
-0.7688390016555786,3.506901741027832,0.23163868486881256
-0.7861405611038208,3.4711625576019287,0.22862300276756287
-0.7995681762695312,3.4201369285583496,0.22462214529514313
-0.8189303278923035,3.3955748081207275,0.2223152220249176
-0.8382096886634827,3.3748764991760254,0.22018709778785706
-0.8572142124176025,3.3540804386138916,0.21807071566581726
-0.8741499781608582,3.3255996704101562,0.21546807885169983
-0.890122652053833,3.293172597885132,0.2126176953315735
-0.902984619140625,3.2492966651916504,0.2090391218662262
-0.9228999614715576,3.235668897628784,0.20730677247047424
-0.9382587671279907,3.2069625854492188,0.2046079933643341
-0.9543618559837341,3.1819393634796143,0.20216576755046844
-0.9695149660110474,3.152968645095825,0.19947382807731628
-0.9847707748413086,3.1237971782684326,0.1967732161283493
-1.0037232637405396,3.109649419784546,0.19497156143188477
-1.0136817693710327,3.0695669651031494,0.19150231778621674
-1.031852126121521,3.055361747741699,0.1896701157093048
-1.0477635860443115,3.0335307121276855,0.18736033141613007
-1.063664197921753,3.011540651321411,0.1850479394197464
-1.0741212368011475,2.9747676849365234,0.18178901076316833
-1.0941386222839355,2.9675545692443848,0.18029651045799255
-1.1044658422470093,2.9346652030944824,0.177262544631958
-1.1105284690856934,2.8907246589660645,0.17357413470745087
-1.1305992603302002,2.883024215698242,0.17206621170043945
-1.1332733631134033,2.831714630126953,0.16792310774326324
-1.1448113918304443,2.8061115741729736,0.16527995467185974
-1.1605274677276611,2.7912940979003906,0.16329100728034973
-1.1415698528289795,2.6935856342315674,0.15647108852863312
-1.1541407108306885,2.671326160430908,0.15406440198421478
-1.1632080078125,2.6419312953948975,0.1511976420879364
-1.1744328737258911,2.6199631690979004,0.14874786138534546
-1.1951327323913574,2.6192564964294434,0.14751510322093964
-1.2082765102386475,2.600414514541626,0.14522714912891388
-1.2413612604141235,2.623776435852051,0.14528468251228333
-1.284533143043518,2.668117046356201,0.1463746726512909
-1.2627369165420532,2.5790445804595947,0.14017745852470398
-1.2713860273361206,2.5531132221221924,0.13744759559631348
-1.3050230741500854,2.575613021850586,0.13727793097496033
-1.2921442985534668,2.507802963256836,0.1322796791791916
-1.3014053106307983,2.4855031967163086,0.1296798288822174
-1.3143929243087769,2.469921112060547,0.12742199003696442
-1.322357416152954,2.4436049461364746,0.12456948310136795
-1.3391735553741455,2.4345297813415527,0.12259738892316818
-1.3437532186508179,2.4053189754486084,0.1195734515786171
-1.3518571853637695,2.3829405307769775,0.11691641807556152
-1.3646838665008545,2.3667149543762207,0.11447463929653168
-1.3768119812011719,2.350738763809204,0.11206942796707153
-1.4079561233520508,2.3687164783477783,0.11122875660657883
-1.4193328619003296,2.352904796600342,0.10878011584281921
-1.4275667667388916,2.3297312259674072,0.10588975250720978
-1.4269440174102783,2.2935197353363037,0.10238460451364517
-1.4417593479156494,2.2843358516693115,0.10011890530586243
-1.4423432350158691,2.25168514251709,0.09677679091691971
-1.4579182863235474,2.2417349815368652,0.09436225146055222
-1.4765208959579468,2.2389862537384033,0.09220585227012634
-1.4522438049316406,2.1708521842956543,0.08733684569597244
-1.4673833847045898,2.1607506275177,0.08474745601415634
-1.4768328666687012,2.1449294090270996,0.0819171816110611
-1.4861421585083008,2.1290719509124756,0.07906776666641235
-1.4896304607391357,2.102855682373047,0.07568107545375824
-1.5189919471740723,2.1155877113342285,0.07362232357263565
-1.5120753049850464,2.0773234367370605,0.06972945481538773
-1.5213860273361206,2.0609166622161865,0.06643263250589371
-1.5268573760986328,2.1393415927886963,-0.0554305762052536
-1.5163719654083252,2.156259059906006,-0.05872316285967827
-1.504256248474121,2.1741456985473633,-0.06204367056488991
-1.462038278579712,2.1462018489837646,-0.06386755406856537
-1.4899749755859375,2.2214999198913574,-0.06868370622396469
-1.4730844497680664,2.23264479637146,-0.07158613204956055
-1.4528228044509888,2.2364864349365234,-0.07410633563995361
-1.448983073234558,2.2667417526245117,-0.07744548469781876
-1.4277831315994263,2.270843029022217,-0.07989486306905746
-1.4263168573379517,2.3038830757141113,-0.08321747183799744
-1.4217013120651245,2.334115743637085,-0.08646047115325928
-1.403992772102356,2.3447141647338867,-0.08902601897716522
-1.3875231742858887,2.3544068336486816,-0.09140174835920334
-1.3863003253936768,2.391204833984375,-0.09483088552951813
-1.3685836791992188,2.4012932777404785,-0.09721215069293976
-1.3437391519546509,2.3973052501678467,-0.09895345568656921
-1.3304141759872437,2.4135499000549316,-0.10151423513889313
-1.323819875717163,2.4437496662139893,-0.1045960932970047
-1.3077138662338257,2.456733465194702,-0.1069612205028534
-1.297769546508789,2.479543924331665,-0.10968690365552902
-1.3086540699005127,2.5441582202911377,-0.1142919734120369
-1.2932223081588745,2.5606868267059326,-0.11678052693605423
-1.2903714179992676,2.601297378540039,-0.12034310400485992
-1.2688215970993042,2.603099822998047,-0.12207592278718948
-1.246838927268982,2.604954481124878,-0.12376513332128525
-1.2246021032333374,2.6067655086517334,-0.12542329728603363
-1.2092368602752686,2.6224310398101807,-0.12772990763187408
-1.1938220262527466,2.6379575729370117,-0.13003529608249664
-1.160698413848877,2.6142256259918213,-0.13032250106334686
-1.168235421180725,2.6832828521728516,-0.13523106276988983
-1.172011375427246,2.74529767036438,-0.1398358941078186
-1.1618924140930176,2.7748990058898926,-0.14280034601688385
-1.144782543182373,2.79034161567688,-0.14503467082977295
-1.1363075971603394,2.827378034591675,-0.14834284782409668
-1.1317099332809448,2.875298023223877,-0.15225893259048462
-1.100392460823059,2.8539083003997803,-0.152479350566864
-1.0940937995910645,2.8979744911193848,-0.15618185698986053
-1.098572850227356,2.9753293991088867,-0.16167470812797546
-1.0692369937896729,2.961029529571533,-0.162194162607193
-1.0614579916000366,3.005138874053955,-0.1658962070941925
-1.0455906391143799,3.027116060256958,-0.168399378657341
-1.0315110683441162,3.056565284729004,-0.17123538255691528
-1.020267128944397,3.097229480743408,-0.17472971975803375
-1.0007061958312988,3.111710786819458,-0.1767408847808838
-0.9790307283401489,3.11850905418396,-0.1783069223165512
-0.961727499961853,3.1401214599609375,-0.18069322407245636
-0.9482923746109009,3.1766977310180664,-0.1838735193014145
-0.9332959651947021,3.2094929218292236,-0.1868632733821869
-0.9167912006378174,3.2384867668151855,-0.18965905904769897
-0.9004566669464111,3.2672598361968994,-0.1924409568309784
-0.8865029215812683,3.3073441982269287,-0.19581426680088043
-0.8650000691413879,3.321014881134033,-0.19759467244148254
-0.8452600836753845,3.3421061038970947,-0.1998332142829895
-0.8289815783500671,3.37823224067688,-0.20299413800239563
-0.8153698444366455,3.4255716800689697,-0.2068423479795456
-0.7885042428970337,3.419779062271118,-0.20734545588493347
-0.7701975107192993,3.4518489837646484,-0.21014800667762756
-0.7573797106742859,3.5104782581329346,-0.21459271013736725
-0.7396455407142639,3.5500376224517822,-0.21790970861911774
-0.7195020318031311,3.5779685974121094,-0.22050170600414276
-0.7001891136169434,3.6135125160217285,-0.2234261929988861
-0.6811250448226929,3.652791976928711,-0.2266060709953308
-0.6609809398651123,3.6881184577941895,-0.2295617163181305
-0.6420995593070984,3.734910249710083,-0.2332652509212494
-0.6198118329048157,3.7623202800750732,-0.2357269823551178
-0.601833164691925,3.820448875427246,-0.23998358845710754
-0.5778173208236694,3.8438127040863037,-0.2420809268951416
-0.5553281307220459,3.8785805702209473,-0.24491271376609802
-0.5378516912460327,3.9557533264160156,-0.2504591941833496
-0.5132632255554199,3.982551336288452,-0.25277575850486755
-0.49145716428756714,4.036316394805908,-0.256664901971817
-0.4675900638103485,4.078348636627197,-0.25983116030693054
-0.4415980875492096,4.104726314544678,-0.26201847195625305
-0.4189157485961914,4.165833473205566,-0.2664429545402527
-0.3955245614051819,4.234640598297119,-0.2713383138179779
-0.36522620916366577,4.229504585266113,-0.27132922410964966
-0.3350190818309784,4.224151611328125,-0.27131831645965576
-0.3083522617816925,4.265235900878906,-0.2743050158023834
-0.2797181308269501,4.282804012298584,-0.2757957875728607
-0.2940622866153717,5.051290035247803,-0.32567575573921204
-0.25622841715812683,5.002588748931885,-0.322722464799881
-0.22102737426757812,4.996443271636963,-0.3225277364253998
-0.1856340914964676,4.982260704040527,-0.32182884216308594
-0.15092116594314575,4.983413219451904,-0.32213547825813293
-0.11494220048189163,4.957060813903809,-0.3206424117088318
-0.08022316545248032,4.94994592666626,-0.32015183568000793
-0.045393206179142,4.919200897216797,-0.31814873218536377
-0.011110068298876286,4.919397354125977,-0.318162202835083
0.023042578250169754,4.919355392456055,-0.31817567348480225
0.05738958716392517,4.880090713500977,-0.3156534433364868
0.0911741778254509,4.875692367553711,-0.3151604235172272
0.12464386969804764,4.859370231628418,-0.3139122724533081
0.15738308429718018,4.827233791351318,-0.3116595149040222
0.19126562774181366,4.833827972412109,-0.31192299723625183
0.22416020929813385,4.81682014465332,-0.3106788098812103
0.25645437836647034,4.784010887145996,-0.30817174911499023
0.2884528338909149,4.762693881988525,-0.3064173460006714
0.32148122787475586,4.760611057281494,-0.3059166967868805
0.35346201062202454,4.742739677429199,-0.3044160306453705
0.38580119609832764,4.732428073883057,-0.30341753363609314
0.4170647859573364,4.7063422203063965,-0.3011779487133026
0.44886475801467896,4.6956329345703125,-0.2999163568019867
0.4789453446865082,4.669195652008057,-0.29766833782196045
0.5092699527740479,4.646425724029541,-0.29567068815231323
0.5406970381736755,4.635072708129883,-0.29441630840301514
0.5723214745521545,4.623478889465332,-0.29295042157173157
0.6021897792816162,4.604020595550537,-0.2909714877605438
0.6339459419250488,4.599818706512451,-0.2899731397628784
0.6625590324401855,4.572212219238281,-0.28751140832901
0.6966381072998047,4.582981586456299,-0.2874789237976074
0.7232487797737122,4.543405055999756,-0.28411170840263367
0.7544828653335571,4.538398742675781,-0.2828935384750366
0.7803555130958557,4.502444267272949,-0.27976566553115845
0.8116575479507446,4.496983051300049,-0.27854201197624207
0.7091797590255737,3.7785136699676514,-0.23330579698085785
0.7307124733924866,3.7506496906280518,-0.23071445524692535
0.7584525346755981,3.7531707286834717,-0.22995173931121826
0.9240080118179321,4.415851593017578,-0.26950061321258545
0.9572111964225769,4.420831203460693,-0.2687475383281708
0.9880110025405884,4.414138317108154,-0.26729387044906616
1.0156980752944946,4.395941734313965,-0.26499173045158386
1.0463883876800537,4.388837814331055,-0.26332610845565796
1.0765494108200073,4.3816351890563965,-0.2616865336894989
1.1031649112701416,4.3590192794799805,-0.25912991166114807
1.1334455013275146,4.35134220123291,-0.2574763000011444
1.157091498374939,4.321003437042236,-0.25430020689964294
1.189152479171753,4.320490837097168,-0.25287294387817383
1.2124539613723755,4.2898054122924805,-0.24971143901348114
1.2401249408721924,4.273874759674072,-0.24741233885288239
1.2675285339355469,4.25779914855957,-0.24508285522460938
1.2965298891067505,4.249173641204834,-0.24306945502758026
1.3213306665420532,4.225299835205078,-0.24017372727394104
1.3504856824874878,4.216187000274658,-0.23814107477664948
1.376134991645813,4.1956868171691895,-0.23547007143497467
1.4024744033813477,4.1788458824157715,-0.23293042182922363
1.4308632612228394,4.169333457946777,-0.2307344228029251
1.4540218114852905,4.144902229309082,-0.22772936522960663
1.4911624193191528,4.156685829162598,-0.2266584187746048
1.5173372030258179,4.1390156745910645,-0.22401325404644012
1.5398699045181274,4.1141557693481445,-0.22085444629192352
1.5676624774932861,4.10377311706543,-0.21848107874393463
1.587227702140808,4.071258068084717,-0.21492654085159302
1.6131871938705444,4.052773952484131,-0.21207083761692047
1.646894931793213,4.056172847747803,-0.21033872663974762
1.671281099319458,4.037872791290283,-0.20742404460906982
1.70159113407135,4.0337958335876465,-0.20524731278419495
1.9901419878005981,4.627797603607178,-0.23314756155014038
2.0337018966674805,4.638816833496094,-0.23131102323532104
2.0680367946624756,4.6323161125183105,-0.228522390127182
2.094302177429199,4.607799053192139,-0.2248571366071701
2.126040458679199,4.593397617340088,-0.2216385304927826
2.1546473503112793,4.571577548980713,-0.21805284917354584
2.190865993499756,4.567480087280273,-0.2151695042848587
2.2213830947875977,4.552873134613037,-0.21182863414287567
2.2525558471679688,4.537689685821533,-0.2084047794342041
2.2841238975524902,4.522040843963623,-0.204925537109375
2.309042453765869,4.496367454528809,-0.20092977583408356
2.3443737030029297,4.49141788482666,-0.19785703718662262
1.724081039428711,3.2477362155914307,-0.14090344309806824
1.7392325401306152,3.2220306396484375,-0.137633815407753
1.724884271621704,3.145516872406006,-0.13220061361789703
1.7304799556732178,3.1068530082702637,-0.12842707335948944
1.7807378768920898,3.1459014415740967,-0.1277616322040558
1.3256937265396118,2.3044586181640625,-0.09185857325792313
1.2876516580581665,2.2047555446624756,-0.08622748404741287
0.9538520574569702,1.6085255146026611,-0.061675071716308594
0.9630080461502075,1.5985630750656128,-0.060006894171237946
0.9695382118225098,1.5855225324630737,-0.05821738392114639
0.9841831922531128,1.5857290029525757,-0.05688926950097084
0.9971542358398438,1.5822795629501343,-0.05537797883152962
1.0120030641555786,1.582159161567688,-0.053957175463438034
1.0115959644317627,1.5592529773712158,-0.05176275596022606
1.028592824935913,1.5621944665908813,-0.05036582797765732
1.0437121391296387,1.5615938901901245,-0.0487692691385746
1.0340244770050049,1.5258047580718994,-0.046123355627059937
2.5467209815979004,3.7037014961242676,-0.10801735520362854
2.5803537368774414,3.6995410919189453,-0.10381737351417542
2.594788074493408,3.670442819595337,-0.09891517460346222
2.6204676628112793,3.6522858142852783,-0.09389965981245041
2.61617374420166,3.59769868850708,-0.08803179860115051
2.667454242706299,3.618359327316284,-0.08380798995494843
2.6221935749053955,3.7032477855682373,0.11465950310230255
2.582700490951538,3.7069690227508545,0.11916571855545044
2.5587480068206787,3.728130578994751,0.12384813278913498
1.0593774318695068,1.5697362422943115,0.05381975695490837
1.0436042547225952,1.570837140083313,0.05539688840508461
1.0238103866577148,1.565118432044983,0.0566408634185791
1.0330090522766113,1.605628252029419,0.0595557875931263
1.00886070728302,1.5931897163391113,0.06044979393482208
0.9931948184967041,1.593748688697815,0.06178699806332588
0.975014865398407,1.591154932975769,0.06293905526399612
0.9693909287452698,1.6082184314727783,0.06483357399702072
0.962131917476654,1.6215986013412476,0.06653852760791779
1.3395507335662842,2.2962698936462402,0.09581059962511063
1.3394991159439087,2.3367979526519775,0.0991295576095581
1.794745683670044,3.182494640350342,0.1370404064655304
1.7493724822998047,3.154092311859131,0.13778910040855408
1.7725886106491089,3.252577304840088,0.14405347406864166
1.7523119449615479,3.272292137145996,0.14687243103981018
2.3744614124298096,4.510635852813721,0.20503497123718262
2.3421378135681152,4.527356147766113,0.2082727998495102
2.308659553527832,4.544371604919434,0.21145950257778168
2.2754268646240234,4.560955047607422,0.21461112797260284
2.2470622062683105,4.5835490226745605,0.21794947981834412
2.2139432430267334,4.599493503570557,0.22096838057041168
2.183542251586914,4.622498035430908,0.22419284284114838
2.1430771350860596,4.624057769775391,0.22638602554798126
2.1139450073242188,4.6458892822265625,0.22948351502418518
2.0846869945526123,4.667503833770752,0.23257753252983093
2.050593376159668,4.682451248168945,0.2352076768875122
1.9834686517715454,4.622105598449707,0.23407118022441864
1.72352135181427,4.096500396728516,0.20906580984592438
1.6979117393493652,4.115512371063232,0.21162165701389313
1.6714917421340942,4.134622097015381,0.21412117779254913
1.6443246603012085,4.153787612915039,0.21655932068824768
1.610801339149475,4.158425807952881,0.21827685832977295
1.5816835165023804,4.169483184814453,0.2202623039484024
1.5526307821273804,4.18028450012207,0.22223812341690063
1.5199863910675049,4.183864593505859,0.22370918095111847
1.4897840023040771,4.194616317749023,0.22553393244743347
1.4641417264938354,4.220056533813477,0.22818458080291748
1.43972909450531,4.2448320388793945,0.2307567596435547
1.410095453262329,4.254671096801758,0.23253397643566132
1.3819783926010132,4.271997451782227,0.23458682000637054
1.353598952293396,4.289166450500488,0.23662322759628296
1.3267931938171387,4.313769817352295,0.23910728096961975
1.2945019006729126,4.315337657928467,0.24027425050735474
1.266632080078125,4.331640720367432,0.24227331578731537
1.2390062808990479,4.351710796356201,0.24434375762939453
1.2099438905715942,4.367897033691406,0.2461717426776886
1.1786845922470093,4.376356601715088,0.24757839739322662
1.1475286483764648,4.384550094604492,0.24897776544094086
1.1208122968673706,4.407476902008057,0.25120967626571655
1.0915640592575073,4.4227728843688965,0.2529256343841553
1.0636591911315918,4.445539951324463,0.2550092339515686
1.03024423122406,4.445326328277588,0.25578773021698
0.9983818531036377,4.45251989364624,0.25700950622558594
0.9673576354980469,4.459294319152832,0.25819724798202515
0.9377250075340271,4.473523139953613,0.2597891092300415
0.7675871849060059,3.7957749366760254,0.2209465205669403
0.7383927702903748,3.7895944118499756,0.22111158072948456
0.7096408009529114,3.7870991230010986,0.2215082198381424
0.8195421695709229,4.54796838760376,0.2666515111923218
0.7891931533813477,4.561191558837891,0.2680807113647461
0.7622209191322327,4.597352981567383,0.27073922753334045
0.7309773564338684,4.610273361206055,0.27199387550354004
0.6978787183761597,4.615352153778076,0.2728087902069092
0.6688972115516663,4.643233776092529,0.27497509121894836
0.6355095505714417,4.640002727508545,0.2753109633922577
0.6056608557701111,4.663609981536865,0.2772231698036194
0.5756522417068481,4.690947532653809,0.2791845202445984
0.5434510707855225,4.702603340148926,0.2802291214466095
0.51059889793396,4.714092254638672,0.28128471970558167
0.4801674783229828,4.740771293640137,0.283252090215683
0.4464619755744934,4.736196517944336,0.2833670377731323
0.4154287576675415,4.762476444244385,0.2852380573749542
0.3829803168773651,4.776908874511719,0.28630363941192627
0.3494425415992737,4.787275791168213,0.28714457154273987
0.3169618844985962,4.805145263671875,0.28844648599624634
0.2835230529308319,4.807211875915527,0.2888132631778717
0.25204721093177795,4.847988605499268,0.2915220558643341
0.21920143067836761,4.872992038726807,0.29312190413475037
0.184508815407753,4.874420166015625,0.29326722025871277
0.1503952294588089,4.875583171844482,0.2934100925922394
0.11707291752099991,4.9037909507751465,0.29519492387771606
0.08308469504117966,4.912275314331055,0.2958073019981384
0.04934363812208176,4.951715469360352,0.2982930839061737
0.01436062715947628,4.9675421714782715,0.29914939403533936
-0.020308149978518486,4.987022876739502,0.3002412021160126
-0.05515414476394653,5.00236177444458,0.3010978102684021
-0.09007422626018524,5.009659290313721,0.3014846742153168
-0.1252928525209427,5.024508476257324,0.30234038829803467
-0.16044868528842926,5.031320571899414,0.30266839265823364
-0.19684620201587677,5.053459644317627,0.3037581145763397
-0.23277410864830017,5.071467876434326,0.30461642146110535
-0.2679322063922882,5.069750785827637,0.30430367588996887
-0.30643942952156067,5.1222758293151855,0.3072587251663208
-0.2905874252319336,4.349699974060059,0.26076051592826843
-0.3146439790725708,4.258125305175781,0.2550271451473236
-0.3446870744228363,4.263650417327881,0.2550309896469116
-0.3768678903579712,4.292270183563232,0.2564254403114319
-0.4006733000278473,4.227475166320801,0.2522532045841217
-0.4256993234157562,4.181943416595459,0.24924854934215546
-0.4510292410850525,4.140091896057129,0.24647624790668488
-0.4728410542011261,4.07881498336792,0.2424340844154358
-0.49709662795066833,4.0445380210876465,0.2399761825799942
-0.5204005837440491,4.006253719329834,0.2372986525297165
-0.5428289175033569,3.9639570713043213,0.23439976572990417
-0.5625344514846802,3.9021553993225098,0.2303597331047058
-0.5837889909744263,3.859633207321167,0.22747331857681274
-0.6053706407546997,3.8247690200805664,0.22490522265434265
-0.6233214139938354,3.7705533504486084,0.22122050821781158
-0.6451941132545471,3.7431743144989014,0.21913030743598938
-0.6649793982505798,3.704099655151367,0.21636715531349182
-0.6897309422492981,3.6916801929473877,0.21516849100589752
-0.7033488750457764,3.625615119934082,0.2107962816953659
-0.7273454666137695,3.616950750350952,0.20969045162200928
-0.740921676158905,3.5584921836853027,0.2057170420885086
-0.7546885013580322,3.5038015842437744,0.2019847333431244
-0.7777619957923889,3.490812301635742,0.20065896213054657
-0.7932929396629333,3.4473559856414795,0.19760847091674805
-0.8104785680770874,3.4153592586517334,0.19510102272033691
-0.8281438946723938,3.387089490890503,0.19281098246574402
-0.8473977446556091,3.3662941455841064,0.19096195697784424
-0.863213300704956,3.330106496810913,0.1882370412349701
-0.4552205502986908,1.7072688341140747,0.09616786241531372
-0.4545501470565796,1.658994197845459,0.09309525787830353
-0.4678771197795868,1.663421869277954,0.09295731782913208
-0.47697365283966064,1.6527494192123413,0.0919792652130127
-0.49510830640792847,1.6718635559082031,0.0926494300365448
-0.511264443397522,1.6833397150039673,0.09289203584194183
-0.976243793964386,3.1361100673675537,0.1723175346851349
-0.9926518797874451,3.1146483421325684,0.17030122876167297
-1.008815050125122,3.093107223510742,0.16829633712768555
-1.0190201997756958,3.0528340339660645,0.16527464985847473
-1.042748212814331,3.0531227588653564,0.1644574999809265
-1.051091194152832,3.0090322494506836,0.1612658053636551
-1.0661057233810425,2.9872500896453857,0.1591900736093521
-1.0768377780914307,2.954416036605835,0.15654030442237854
-1.0940301418304443,2.939836263656616,0.1548726111650467
-1.1120303869247437,2.9247987270355225,0.15314951539039612
-1.1125792264938354,2.8661410808563232,0.14918389916419983
-1.1260526180267334,2.8441667556762695,0.14706091582775116
-1.1377748250961304,2.818540573120117,0.1447606235742569
-1.1478350162506104,2.789229154586792,0.14228537678718567
-1.1585344076156616,2.759500503540039,0.13975989818572998
-1.136232614517212,2.6545941829681396,0.1334848701953888
-1.1430459022521973,2.621967077255249,0.13081881403923035
-1.1938062906265259,2.689232349395752,0.13312308490276337
-1.1815214157104492,2.6135637760162354,0.12833788990974426
-1.208151936531067,2.622931718826294,0.1277117133140564
-1.2193719148635864,2.600576877593994,0.12552756071090698
-1.2702122926712036,2.6629467010498047,0.12736910581588745
-1.2844552993774414,2.647507905960083,0.1254667490720749
-1.2819883823394775,2.5966503620147705,0.1218661442399025
-1.3038392066955566,2.5945637226104736,0.12054773420095444
-1.2942994832992554,2.533844232559204,0.11648010462522507
-1.296581506729126,2.4976229667663574,0.11358404904603958
-1.3062598705291748,2.4750099182128906,0.11129245907068253
-1.3161128759384155,2.452155590057373,0.10897752642631531
-1.3231185674667358,2.426251173019409,0.10650712996721268
-1.3393268585205078,2.4174182415008545,0.10476271063089371
-1.347947120666504,2.394796133041382,0.10242220014333725
-1.3606971502304077,2.3786611557006836,0.10033329576253891
-1.384284496307373,2.383164167404175,0.09906909614801407
-1.4037396907806396,2.380901336669922,0.09750150889158249
-1.4160887002944946,2.364560127258301,0.09527724236249924
-1.4162975549697876,2.3280322551727295,0.09224776178598404
-1.4231581687927246,2.3055903911590576,0.08976275473833084
-1.4297682046890259,2.2831668853759766,0.08729995042085648
-1.439253330230713,2.2634103298187256,0.0848495364189148
-1.460998773574829,2.263468027114868,0.0830947533249855
-1.4562320709228516,2.224730968475342,0.07994889467954636
-1.4841203689575195,2.234480857849121,0.07847097516059875
-1.490630030632019,2.2114109992980957,0.07576625049114227
-1.4649999141693115,2.143937826156616,0.07157470285892487
-1.5150460004806519,2.185415267944336,0.07090747356414795
-1.491707444190979,2.120823860168457,0.06673496961593628
-1.4959237575531006,2.09877347946167,0.06395436078310013
-1.500836968421936,2.076094627380371,0.06103641912341118
-1.505200743675232,2.0536727905273438,0.05806133523583412
-1.517996907234192,2.0443053245544434,0.05544014275074005
-1.5199705362319946,2.144373655319214,-0.04999151453375816
-1.4833413362503052,2.127093553543091,-0.052062392234802246
-1.5012646913528442,2.185866594314575,-0.05584380775690079
-1.4803845882415771,2.190573215484619,-0.05827472731471062
-1.4768803119659424,2.2210631370544434,-0.06132822483778
-1.4614152908325195,2.231203317642212,-0.06367690861225128
-1.4531689882278442,2.255119562149048,-0.06640900671482086
-1.4407663345336914,2.272247791290283,-0.06891562789678574
-1.430770754814148,2.292307138442993,-0.0714675560593605
-1.4217615127563477,2.316183090209961,-0.07409985363483429
-1.404710292816162,2.326493501663208,-0.07627976685762405
-1.392432689666748,2.3428828716278076,-0.07857561856508255
-1.3988429307937622,2.3934214115142822,-0.08202420920133591
-1.3574044704437256,2.3632078170776367,-0.08273454010486603
-1.3735809326171875,2.430314540863037,-0.08673042804002762
-1.3353480100631714,2.402440071105957,-0.08733166754245758
-1.328908920288086,2.432664155960083,-0.0900125652551651
-1.3114583492279053,2.4420454502105713,-0.09190148860216141
-1.3032442331314087,2.46846342086792,-0.0944303348660469
-1.3212018013000488,2.547118663787842,-0.09895617514848709
-1.3025484085083008,2.5566341876983643,-0.10083641111850739
-1.267044186592102,2.5307602882385254,-0.10125041753053665
-1.2854973077774048,2.613048553466797,-0.10599616914987564
-1.2729259729385376,2.63647198677063,-0.10837165266275406
-1.233651041984558,2.6032607555389404,-0.1083870381116867
-1.2120857238769531,2.6046924591064453,-0.10977348685264587
-1.2034555673599243,2.634390354156494,-0.11234866827726364
-1.1731089353561401,2.6180617809295654,-0.11290225386619568
-1.1587650775909424,2.63716721534729,-0.11498308181762695
-1.1646952629089355,2.702622413635254,-0.11909594386816025
-1.1625375747680664,2.750152826309204,-0.12243722379207611
-1.1546623706817627,2.7872259616851807,-0.12527599930763245
-1.134570837020874,2.7953946590423584,-0.12683434784412384
-1.126406192779541,2.8322529792785645,-0.12968656420707703
-1.124730110168457,2.887363910675049,-0.13342052698135376
-1.1013211011886597,2.887953042984009,-0.1345665156841278
-1.0832934379577637,2.903027057647705,-0.13637642562389374
-1.0760178565979004,2.9472413063049316,-0.1395680159330368
-1.069925308227539,2.995012044906616,-0.14294038712978363
-1.0562033653259277,3.024620294570923,-0.1454552561044693
-1.0370826721191406,3.039409875869751,-0.14719560742378235
-1.0239726305007935,3.07258939743042,-0.14984533190727234
-1.0121228694915771,3.1092913150787354,-0.15267068147659302
-0.9880411624908447,3.1087722778320312,-0.15368087589740753
-0.9701598286628723,3.1306777000427246,-0.1557210087776184
-0.9613502025604248,3.1822738647460938,-0.1592290848493576
-0.9420698285102844,3.200174331665039,-0.161070317029953
-0.9283859133720398,3.2365918159484863,-0.1638459414243698
-0.9120203852653503,3.2654902935028076,-0.16623903810977936
-0.8949502110481262,3.2944142818450928,-0.16854898631572723
-0.8740819692611694,3.312058448791504,-0.17031505703926086
-0.8566386699676514,3.340724229812622,-0.1726391464471817
-0.8352627754211426,3.354114532470703,-0.17418280243873596
-0.8209172487258911,3.3977458477020264,-0.1772558093070984
-0.8013255596160889,3.4224016666412354,-0.17928718030452728
-0.7835706472396851,3.4584619998931885,-0.18194955587387085
-0.7677245140075684,3.501906633377075,-0.1850026547908783
-0.7506209015846252,3.5414540767669678,-0.18787097930908203
-0.7304397821426392,3.569514513015747,-0.19005121290683746
-0.7112680673599243,3.605149984359741,-0.19258815050125122
-0.6890052556991577,3.6292760372161865,-0.19453996419906616
-0.6720975041389465,3.679990530014038,-0.19791918992996216
-0.6531999111175537,3.7229526042938232,-0.2009054571390152
-0.6329072713851929,3.7620160579681396,-0.20359525084495544
-0.6138583421707153,3.8125476837158203,-0.20687726140022278
-0.5895078778266907,3.836078643798828,-0.20872369408607483
-0.5684238076210022,3.878643274307251,-0.21160925924777985
-0.547886848449707,3.928819417953491,-0.2149321734905243
-0.5250054001808167,3.9673192501068115,-0.21750673651695251
-0.5029533505439758,4.017316818237305,-0.2206738442182541
-0.47888869047164917,4.055571556091309,-0.2232149839401245
-0.4561357796192169,4.113103866577148,-0.22684307396411896
-0.43112921714782715,4.151058673858643,-0.2294040024280548
-0.40736013650894165,4.208293437957764,-0.23292557895183563
-0.38029801845550537,4.238213062286377,-0.23488588631153107
-0.34930160641670227,4.225200176239014,-0.23447923362255096
-0.3190877437591553,4.2236528396606445,-0.23472222685813904
-0.2921451926231384,4.2607622146606445,-0.23712122440338135
-0.3108941912651062,5.049030303955078,-0.28126636147499084
-0.2739708125591278,5.019904136657715,-0.2798284888267517
-0.2378397434949875,4.998301029205322,-0.27882155776023865
-0.20176036655902863,4.984257221221924,-0.27825185656547546
-0.1665143221616745,4.969933032989502,-0.27767500281333923
-0.1317586749792099,4.96706485748291,-0.2776349186897278
-0.09721270948648453,4.971759796142578,-0.27789121866226196
-0.062268927693367004,4.952816009521484,-0.27683964371681213
-0.027086695656180382,4.92972993850708,-0.2755703628063202
0.00716165266931057,4.914196014404297,-0.27473607659339905
0.041146475821733475,4.898429870605469,-0.2738298177719116
0.07472838461399078,4.870738506317139,-0.2721208333969116
0.10857976973056793,4.870111465454102,-0.2719377279281616
0.1416984647512436,4.845860004425049,-0.2704493999481201
0.17513349652290344,4.821360111236572,-0.2689593434333801
0.208917498588562,4.827834606170654,-0.2691718339920044
0.2408149689435959,4.795130252838135,-0.2670310139656067
0.27293699979782104,4.773899078369141,-0.26554515957832336
0.30552512407302856,4.764129638671875,-0.2647114396095276
0.33815860748291016,4.746306896209717,-0.2634383738040924
0.36991262435913086,4.728312015533447,-0.26216360926628113
0.4013192355632782,4.710126876831055,-0.26067468523979187
0.43320778012275696,4.699502468109131,-0.25961899757385254
0.46419867873191833,4.680898666381836,-0.2581372857093811
0.49652349948883057,4.669771671295166,-0.2570723593235016
0.5276534557342529,4.654614448547363,-0.255808562040329
0.5588790774345398,4.643156051635742,-0.2545689046382904
0.5889319777488708,4.623757839202881,-0.2528986930847168
0.6187844276428223,4.604160308837891,-0.25123292207717896
0.6502566337585449,4.591987609863281,-0.24997331202030182
0.6799147725105286,4.571960926055908,-0.24831098318099976
0.7102115750312805,4.559511661529541,-0.24689547717571259
0.74036705493927,4.546863555908203,-0.24545510113239288
0.7696889638900757,4.530178070068359,-0.24381251633167267
0.7998512983322144,4.517082214355469,-0.24236957728862762
0.8247216939926147,4.473003387451172,-0.23927173018455505
0.7205166220664978,3.762321710586548,-0.20052063465118408
0.744816243648529,3.7496867179870605,-0.19909612834453583
0.8130418658256531,3.950861930847168,-0.20899328589439392
0.9429153203964233,4.4259161949157715,-0.23324266076087952
0.9725233912467957,4.411580562591553,-0.23160360753536224
1.0028185844421387,4.404864311218262,-0.23024694621562958
1.0320714712142944,4.394166946411133,-0.22867095470428467
1.0621800422668457,4.387057781219482,-0.22729209065437317
1.0926860570907593,4.379631519317627,-0.22589269280433655
1.119775652885437,4.356745719909668,-0.22369329631328583
1.1475554704666138,4.341520309448242,-0.22176100313663483
1.171059250831604,4.311065673828125,-0.21906012296676636
1.2005987167358398,4.303010940551758,-0.21750958263874054
1.2305128574371338,4.2946319580078125,-0.21593639254570007
1.2586283683776855,4.27842378616333,-0.21394242346286774
1.2877858877182007,4.269824504852295,-0.21221764385700226
1.3076328039169312,4.231212615966797,-0.2090216428041458
1.34142005443573,4.237082481384277,-0.20802508294582367
1.3660333156585693,4.212891578674316,-0.20554889738559723
1.3979958295822144,4.2107062339782715,-0.20408271253108978
1.424026370048523,4.193824291229248,-0.20185114443302155
1.4435267448425293,4.158337593078613,-0.19874298572540283
1.4774608612060547,4.163059711456299,-0.19754493236541748
1.5037765502929688,4.145415306091309,-0.19528107345104218
1.5238782167434692,4.113200664520264,-0.1922583431005478
1.5521972179412842,4.102693557739258,-0.19020593166351318
1.574471354484558,4.077560901641846,-0.18750916421413422
1.6056901216506958,4.073854923248291,-0.18577438592910767
1.6309034824371338,4.055509567260742,-0.1833558976650238
1.6582527160644531,4.044501304626465,-0.18119466304779053
1.6889622211456299,4.0403337478637695,-0.17931939661502838
1.9540190696716309,4.585207939147949,-0.2015698105096817
2.013857841491699,4.6360554695129395,-0.20183691382408142
2.045130968093872,4.62246036529541,-0.1991768181324005
