X,Y,Z
2.3083291053771973,3.668938398361206,-0.3355944752693176
2.3297557830810547,3.6472277641296387,-0.32281753420829773
2.3635613918304443,3.645073890686035,-0.31164416670799255
2.374932289123535,3.610753297805786,-0.2977452278137207
2.3959178924560547,3.5885379314422607,-0.2843247950077057
2.447178840637207,3.611445426940918,-0.27429357171058655
2.4577066898345947,3.5769073963165283,-0.25985297560691833
2.4643993377685547,3.535292148590088,-0.2445567399263382
2.511289358139038,3.5509591102600098,-0.2328549474477768
2.525649309158325,3.5224721431732178,-0.21800850331783295
2.5776445865631104,3.543562412261963,-0.20546011626720428
2.1703238487243652,2.942990303039551,-0.15888813138008118
2.78403902053833,3.940863847732544,0.5063378214836121
2.763298273086548,3.9771251678466797,0.523655116558075
2.723114252090454,3.9794042110443115,0.5353968739509583
2.6886372566223145,3.9915637969970703,0.5482363104820251
2.652623414993286,4.004433631896973,0.5607089400291443
2.635558605194092,4.0417327880859375,0.5759779214859009
2.6212973594665527,4.081556797027588,0.5913642644882202
2.5893754959106445,4.100142478942871,0.60331130027771
2.5611743927001953,4.12516450881958,0.6163106560707092
2.5155270099639893,4.115242004394531,0.6232271790504456
2.4973275661468506,4.15181303024292,0.6370455026626587
2.47306227684021,4.182673454284668,0.6497527360916138
2.4491491317749023,4.213009357452393,0.6622970700263977
2.4262378215789795,4.242500305175781,0.6744690537452698
2.3915300369262695,4.25172758102417,0.6831650733947754
2.340317964553833,4.234462261199951,0.6872128248214722
2.2693395614624023,4.179231643676758,0.6849417686462402
2.235905408859253,4.1870269775390625,0.6924899816513062
2.2199580669403076,4.2289886474609375,0.7058548331260681
2.187901020050049,4.244263648986816,0.7142156362533569
2.155734062194824,4.2592854499816895,0.7225584387779236
2.134974718093872,4.29425048828125,0.7341353893280029
2.1044960021972656,4.307924270629883,0.7419853210449219
2.0761349201202393,4.328872203826904,0.7510334849357605
2.048619508743286,4.353463172912598,0.7603105902671814
2.015958070755005,4.367376327514648,0.7677838802337646
1.9846584796905518,4.380431175231934,0.7749225497245789
2.0226006507873535,4.548101902008057,0.8095612525939941
1.989780068397522,4.561288833618164,0.8166726231575012
1.9416927099227905,4.543026924133301,0.8178775906562805
1.9391943216323853,4.630712985992432,0.8381702303886414
1.914760708808899,4.664656162261963,0.8487168550491333
1.8703430891036987,4.648251056671143,0.8500692248344421
1.8556325435638428,4.706808567047119,0.8650677800178528
1.8051084280014038,4.679922103881836,0.8639561533927917
1.7937349081039429,4.753176212310791,0.8813304305076599
1.3554182052612305,3.6711652278900146,0.6836563348770142
1.3243904113769531,3.665278434753418,0.6854349374771118
1.3062934875488281,3.695416212081909,0.6939942240715027
1.6519306898117065,4.783718109130859,0.9017682075500488
1.6390960216522217,4.860234260559082,0.9194304943084717
1.5940250158309937,4.8418288230896,0.9192042350769043
2.857017755508423,8.888072967529297,1.693246603012085
2.7946693897247314,8.906098365783691,1.7025612592697144
2.72645902633667,8.90933609008789,1.709200382232666
2.6641063690185547,8.934619903564453,1.7188342809677124
1.4533329010009766,5.005360126495361,0.9656500816345215
1.4223029613494873,5.033334255218506,0.9738218784332275
2.4692776203155518,8.977742195129395,1.7418456077575684
1.3138288259506226,4.910137176513672,0.9553511738777161
1.282561182975769,4.933416366577148,0.9625983834266663
1.2545533180236816,4.971556663513184,0.9721472859382629
1.2215007543563843,4.990899562835693,0.9780882596969604
1.185523509979248,4.998830795288086,0.9818514585494995
1.1556289196014404,5.028727054595947,0.9899278283119202
1.1281535625457764,5.073528289794922,1.0010490417480469
1.094252586364746,5.088065147399902,1.0062243938446045
1.0579044818878174,5.09514856338501,1.0092490911483765
1.0252176523208618,5.120779514312744,1.0160081386566162
0.9930009245872498,5.149950981140137,1.0235326290130615
1.606099009513855,8.661711692810059,1.7244917154312134
1.5422390699386597,8.652846336364746,1.72573721408844
1.472764492034912,8.609512329101562,1.7201672792434692
1.4155805110931396,8.64157772064209,1.7288269996643066
1.3530983924865723,8.643057823181152,1.7311407327651978
1.2855381965637207,8.617718696594238,1.7282004356384277
1.2236393690109253,8.618226051330566,1.7304701805114746
1.1574535369873047,8.58022689819336,1.7250515222549438
1.100598931312561,8.610127449035645,1.7333619594573975
1.0385338068008423,8.601730346679688,1.7336289882659912
0.980466902256012,8.631155014038086,1.7407970428466797
0.9120383262634277,8.576504707336426,1.7311129570007324
0.8545907735824585,8.612693786621094,1.7398228645324707
0.3993879556655884,4.331843376159668,0.8758026361465454
0.36989545822143555,4.341890335083008,0.8786168694496155
0.3384914994239807,4.328831672668457,0.876796305179596
0.3092571794986725,4.353890419006348,0.8822237849235535
0.2801983058452606,4.378739356994629,0.8875499367713928
0.32367485761642456,5.683895111083984,1.1525338888168335
0.2835775315761566,5.678191184997559,1.1518656015396118
0.24508655071258545,5.70279598236084,1.1574007272720337
0.20677785575389862,5.761591911315918,1.1699507236480713
0.1675771027803421,5.793367385864258,1.1768373250961304
0.12785673141479492,5.824991703033447,1.1831591129302979
0.08735960721969604,5.833375930786133,1.1848173141479492
0.046782415360212326,5.845306396484375,1.1872532367706299
0.005452472250908613,5.876094341278076,1.193579077720642
-0.05169348418712616,8.586188316345215,1.7442545890808105
-0.11179819703102112,8.620039939880371,1.7514057159423828
-0.1716325730085373,8.619184494018555,1.7507773637771606
-0.23204900324344635,8.64095401763916,1.7544198036193848
-0.2911939024925232,8.612557411193848,1.747960090637207
-0.3386506140232086,8.285357475280762,1.6809585094451904
-0.17177273333072662,3.5908310413360596,0.7282999157905579
-0.19672726094722748,3.58963680267334,0.7278741002082825
-0.22119425237178802,3.5806312561035156,0.7258768677711487
-0.5388208627700806,7.842160224914551,1.58841872215271
-0.5928077697753906,7.823317527770996,1.5832881927490234
-0.5524461269378662,6.678390026092529,1.3505394458770752
-0.5915364623069763,6.594649791717529,1.3326401710510254
-0.6227115988731384,6.438238620758057,1.3001478910446167
-0.6659652590751648,6.418842315673828,1.2954107522964478
-0.7166512608528137,6.463901042938232,1.3033021688461304
-0.757127583026886,6.425084114074707,1.2938767671585083
-0.7946586608886719,6.367013931274414,1.2806593179702759
-0.8330003619194031,6.32011079788208,1.269768476486206
-0.8674706816673279,6.24635648727417,1.2535548210144043
-0.9139102101325989,6.2557268142700195,1.2540723085403442
-0.9643868803977966,6.295166015625,1.2606903314590454
-1.0130020380020142,6.323113918304443,1.2642284631729126
-1.0638997554779053,6.3620524406433105,1.2699432373046875
-1.1147202253341675,6.396820068359375,1.2748572826385498
-1.168478012084961,6.442451477050781,1.281950831413269
-1.2219454050064087,6.47614860534668,1.2866523265838623
-1.2787617444992065,6.528388023376465,1.2951079607009888
-1.3321528434753418,6.561532497406006,1.2993558645248413
-1.3903021812438965,6.616964817047119,1.30756676197052
-1.4386117458343506,6.6232075691223145,1.3060897588729858
-1.4754095077514648,6.572760581970215,1.293450117111206
-1.5126551389694214,6.525802135467529,1.2815793752670288
-0.6747020483016968,2.8213400840759277,0.5529598593711853
-0.6924936771392822,2.8095149993896484,0.5494940280914307
-0.7069098353385925,2.7865757942199707,0.5435717701911926
-0.720399796962738,2.7597720623016357,0.5369179248809814
-0.7431799173355103,2.770068645477295,0.5375354886054993
-0.7675395011901855,2.783789873123169,0.5387983322143555
-1.7465745210647583,6.167348861694336,1.190617561340332
-1.78416109085083,6.137584209442139,1.1818742752075195
-1.8154727220535278,6.089472770690918,1.1688003540039062
-1.8453755378723145,6.041436195373535,1.1559048891067505
-1.8805090188980103,6.011578559875488,1.1465682983398438
-1.910510540008545,5.9628987312316895,1.1336357593536377
-1.9390937089920044,5.910312652587891,1.1200302839279175
-1.9689804315567017,5.861021518707275,1.107086181640625
-2.0035486221313477,5.834270000457764,1.0977894067764282
-2.0264384746551514,5.774621963500977,1.0823912620544434
-2.0602941513061523,5.747501850128174,1.0731843709945679
-2.0924277305603027,5.712546348571777,1.0624642372131348
-2.120352268218994,5.666515827178955,1.0497519969940186
-2.1549415588378906,5.638248920440674,1.0401930809020996
-2.1928253173828125,5.624958515167236,1.0329490900039673
-2.2520172595977783,5.665066242218018,1.0355055332183838
-2.3121190071105957,5.704545021057129,1.0378689765930176
-2.3581526279449463,5.703756809234619,1.032712697982788
-2.3855299949645996,5.656165599822998,1.0190620422363281
-2.4089481830596924,5.605754375457764,1.0046466588974
-2.505322217941284,5.725108623504639,1.0203486680984497
-2.5359251499176025,5.692015647888184,1.0088108777999878
-4.044869422912598,8.914056777954102,1.5707529783248901
-2.575601100921631,5.571199417114258,0.9758555293083191
-2.628938674926758,5.586180686950684,0.9725046157836914
-2.6195080280303955,5.472630977630615,0.9464477300643921
-2.6644771099090576,5.4739179611206055,0.9403772950172424
-2.7295639514923096,5.512392520904541,0.9404569864273071
-2.7118096351623535,5.380465984344482,0.9112982153892517
-4.888603210449219,9.536683082580566,1.6033692359924316
-4.99661111831665,9.592568397521973,1.5999926328659058
-2.7823879718780518,5.257594108581543,0.869934618473053
-2.835275888442993,5.2704949378967285,0.8647454977035522
-1.1820487976074219,2.1611886024475098,0.3515219986438751
-1.1764390468597412,2.1164183616638184,0.3410540223121643
-5.537614822387695,9.811873435974121,1.5660737752914429
-5.650828838348389,9.86204719543457,1.558840036392212
-5.788888454437256,9.942239761352539,1.5550634860992432
-1.2223243713378906,2.066197156906128,0.31973451375961304
-1.256080150604248,2.09191632270813,0.3199426829814911
-2.9286770820617676,4.807211875915527,0.7266766428947449
-2.958139657974243,4.781819820404053,0.7137764692306519
-3.027233600616455,4.818196773529053,0.7098518013954163
-2.9944355487823486,4.698540210723877,0.6826410889625549
-3.0509166717529297,4.719385147094727,0.6757798194885254
-3.049898862838745,4.647854804992676,0.6552212238311768
-3.072032928466797,4.611827373504639,0.6396382451057434
-3.075850248336792,4.555034637451172,0.6209108829498291
-3.105707883834839,4.53656005859375,0.6073964238166809
-3.1141855716705322,4.4807939529418945,0.5878481864929199
-3.1956193447113037,4.534761428833008,0.5826088786125183
-2.881375789642334,4.0353875160217285,0.5072638988494873
-2.8958756923675537,3.9980416297912598,0.49037235975265503
-2.945976972579956,4.011420249938965,0.47929608821868896
-2.9410552978515625,3.953947067260742,0.4596323072910309
-2.4532275199890137,3.4635465145111084,-0.21913252770900726
-2.8980579376220703,4.155865669250488,-0.27881985902786255
-2.8857786655426025,4.20117712020874,-0.2969887852668762
-2.8573479652404785,4.228761196136475,-0.31430506706237793
-2.830995559692383,4.254627704620361,-0.3304659426212311
-2.814880847930908,4.296737194061279,-0.3477146625518799
-2.7864625453948975,4.323214054107666,-0.3638136386871338
-1.2817103862762451,2.019585132598877,-0.17606067657470703
-1.2709012031555176,2.0349841117858887,-0.18354640901088715
-1.2678375244140625,2.0637402534484863,-0.1922117918729782
-2.115190267562866,3.4980242252349854,-0.33557653427124023
-2.0781502723693848,3.4919450283050537,-0.34454867243766785
-2.6516377925872803,4.530542373657227,-0.4593060314655304
-2.6374876499176025,4.582299709320068,-0.47681766748428345
-1.1960773468017578,2.1118979454040527,-0.2251494973897934
-2.584212064743042,4.640860080718994,-0.5064505934715271
-2.561046600341797,4.678799152374268,-0.522280216217041
-2.531519889831543,4.702202320098877,-0.5360984802246094
-2.5116398334503174,4.746523857116699,-0.5525427460670471
-2.485668182373047,4.780547618865967,-0.5676324367523193
-2.4545891284942627,4.803762435913086,-0.5813446640968323
-2.4308996200561523,4.840332984924316,-0.5965648293495178
-2.40602707862854,4.877162456512451,-0.6117885112762451
-2.373058557510376,4.900293350219727,-0.6255060434341431
-1.5614737272262573,3.282848596572876,-0.42596885561943054
-1.5529941320419312,3.324371814727783,-0.4382873773574829
-1.5191785097122192,3.3133115768432617,-0.4435415267944336
-1.4950813055038452,3.3231730461120605,-0.45157307386398315
-1.487151861190796,3.368065595626831,-0.4642959535121918
-1.0347883701324463,2.3891866207122803,-0.33410483598709106
-0.9796534776687622,2.306701421737671,-0.32691460847854614
-0.9570170044898987,2.2986702919006348,-0.330098956823349
-0.9407073259353638,2.3046560287475586,-0.3352048993110657
-0.9358783960342407,2.339257001876831,-0.34452641010284424
-0.9187155961990356,2.345299243927002,-0.3496054708957672
-0.9101139307022095,2.3727760314941406,-0.3578653037548065
-0.8932999968528748,2.3784072399139404,-0.36281484365463257
-0.891157865524292,2.4238123893737793,-0.37390998005867004
-0.8842394351959229,2.4584813117980957,-0.38326266407966614
-0.8611663579940796,2.449506998062134,-0.3859175443649292
-0.8463078141212463,2.46209454536438,-0.39186179637908936
-0.8338440656661987,2.4818806648254395,-0.39899009466171265
-0.8221486806869507,2.5053608417510986,-0.4065656363964081
-0.8042324781417847,2.510422468185425,-0.41115301847457886
-0.7907366156578064,2.530120372772217,-0.4182125926017761
-0.7819353938102722,2.564380645751953,-0.42767462134361267
-0.7703656554222107,2.591290235519409,-0.4358167052268982
-0.7519691586494446,2.5959579944610596,-0.4401463270187378
-0.7471868991851807,2.648704767227173,-0.4527081549167633
-0.7387544512748718,2.690300941467285,-0.4634798467159271
-0.7115055322647095,2.6649932861328125,-0.4626891016960144
-0.709073007106781,2.7326364517211914,-0.47780081629753113
-0.7462001442909241,2.960883855819702,-0.5213692784309387
-0.7336714267730713,2.998912811279297,-0.5317550897598267
-0.709953784942627,2.9919590950012207,-0.5342023968696594
-0.6927896738052368,3.0149905681610107,-0.5416626930236816
-0.6815714240074158,3.0641257762908936,-0.5538495182991028
-0.6487573385238647,3.015448570251465,-0.5483605861663818
-0.7825897336006165,3.7645692825317383,-0.6887391209602356
-0.7501015663146973,3.73897647857666,-0.6877697706222534
-0.5665817260742188,2.932096242904663,-0.5421910881996155
-0.538288414478302,2.893805980682373,-0.537883460521698
-0.5193947553634644,2.9044368267059326,-0.542656660079956
-0.5062282085418701,2.9490416049957275,-0.5536648631095886
-0.4867914319038391,2.9595470428466797,-0.558015763759613
-0.4692749083042145,2.985135793685913,-0.5653026103973389
-0.4569385051727295,3.044731616973877,-0.5790776610374451
-0.43457990884780884,3.039677858352661,-0.5806227922439575
-0.41638585925102234,3.064992904663086,-0.5874517560005188
-0.39886146783828735,3.09780216217041,-0.5957715511322021
-0.3744344413280487,3.077183485031128,-0.5938477516174316
-0.35083523392677307,3.064035177230835,-0.5934034585952759
-0.33190006017684937,3.0888819694519043,-0.5999525189399719
-0.3095604181289673,3.0831239223480225,-0.6003603935241699
-0.2901929020881653,3.1077473163604736,-0.6067194938659668
-0.2692013382911682,3.1169614791870117,-0.6101135015487671
-0.24649757146835327,3.1107938289642334,-0.6104208827018738
-0.22482052445411682,3.1121811866760254,-0.6117157936096191
-0.2001650035381317,3.0675177574157715,-0.6039721965789795
-0.1783716380596161,3.0609328746795654,-0.6037370562553406
-0.15609055757522583,3.0427122116088867,-0.6012266278266907
-0.13354425132274628,3.0206127166748047,-0.597480058670044
-0.11080619692802429,2.975386619567871,-0.5890414714813232
-0.09081443399190903,2.9989371299743652,-0.5942427515983582
-0.06998749822378159,2.999366283416748,-0.5948947668075562
-0.04915858060121536,2.99969744682312,-0.5953105092048645
-0.027815382927656174,2.984635591506958,-0.5923124551773071
-0.007048189640045166,2.977085590362549,-0.5908340811729431
0.013753202743828297,3.0000431537628174,-0.5954391360282898
0.03480822220444679,3.0151913166046143,-0.5985238552093506
0.05548708140850067,2.9996607303619385,-0.594937801361084
0.07616975903511047,2.9916515350341797,-0.5928630232810974
0.09758634865283966,2.9988090991973877,-0.5938153862953186
0.11962239444255829,3.028801441192627,-0.5993214249610901
0.14065496623516083,3.0280773639678955,-0.5984145998954773
0.16252297163009644,3.042564630508423,-0.6002686023712158
0.18526870012283325,3.0683746337890625,-0.6043726801872253
0.2075185924768448,3.074871301651001,-0.6046718955039978
0.23174303770065308,3.111834764480591,-0.6108938455581665
0.2521512508392334,3.095214366912842,-0.6061010956764221
0.27434274554252625,3.1013753414154053,-0.6058042049407959
0.29884254932403564,3.130279779434204,-0.6099594235420227
0.3245382010936737,3.1627795696258545,-0.6147882342338562
0.1960497349500656,1.7882468700408936,-0.34651947021484375
0.38229748606681824,3.2769949436187744,-0.6328931450843811
0.399436354637146,3.2290468215942383,-0.6215810179710388
0.4309026896953583,3.2951512336730957,-0.6322353482246399
0.4589661657810211,3.326768636703491,-0.6359800100326538
0.4865422546863556,3.3544864654541016,-0.638598620891571
0.5185422897338867,3.4085612297058105,-0.6461994647979736
0.5507672429084778,3.4585683345794678,-0.6529679894447327
0.5830570459365845,3.5045204162597656,-0.6589258313179016
0.6153290271759033,3.546529531478882,-0.6635083556175232
0.6465727686882019,3.5768721103668213,-0.6657809615135193
0.6828852295875549,3.6334540843963623,-0.672929584980011
0.7252284288406372,3.716120719909668,-0.684798002243042
0.7595576643943787,3.7532525062561035,-0.6878450512886047
0.807023286819458,3.8503715991973877,-0.7015091776847839
0.8531297445297241,3.9319183826446533,-0.7120907306671143
0.9033717513084412,4.028132438659668,-0.7252262830734253
0.9532338976860046,4.116404056549072,-0.7366286516189575
1.0042890310287476,4.204315185546875,-0.7472870945930481
1.0547409057617188,4.284279823303223,-0.7563586235046387
1.1032636165618896,4.348694324493408,-0.7624146342277527
1.1639293432235718,4.457496166229248,-0.7761507630348206
1.2079983949661255,4.498864650726318,-0.7774544954299927
1.241393804550171,4.499003887176514,-0.7715180516242981
1.2749828100204468,4.498855113983154,-0.7655245065689087
1.3049640655517578,4.48347806930542,-0.7568555474281311
1.3296436071395874,4.453347682952881,-0.7455762624740601
1.3606494665145874,4.4452691078186035,-0.73780757188797
1.3812757730484009,4.403804779052734,-0.7245674729347229
1.40040123462677,4.358509063720703,-0.7107928991317749
1.1719757318496704,3.561178684234619,-0.5754058957099915
1.186875343322754,3.524728536605835,-0.5640411376953125
1.210126280784607,3.513784408569336,-0.5568364858627319
1.2386987209320068,3.517164945602417,-0.5518536567687988
1.268696904182434,3.523946523666382,-0.5473734736442566
1.287833333015442,3.5016164779663086,-0.5380815267562866
1.3098440170288086,3.4862756729125977,-0.5298281908035278
1.3301844596862793,3.4672131538391113,-0.5210966467857361
1.3546255826950073,3.4588005542755127,-0.5139915943145752
1.3728654384613037,3.436016321182251,-0.5045685768127441
1.4025046825408936,3.441824197769165,-0.4993259012699127
1.4211121797561646,3.4185068607330322,-0.4896996021270752
1.4422309398651123,3.4023032188415527,-0.48121902346611023
1.468919038772583,3.400378465652466,-0.4746153652667999
1.4830600023269653,3.3699076175689697,-0.4640180468559265
1.5193289518356323,3.3887863159179688,-0.46014687418937683
1.8642890453338623,4.080731391906738,-0.5460973381996155
1.8892627954483032,4.061953544616699,-0.5355600714683533
1.9138767719268799,4.043094635009766,-0.525008499622345
1.9421504735946655,4.030852794647217,-0.5152184963226318
1.9706131219863892,4.018270492553711,-0.5053299069404602
1.9866483211517334,3.9812824726104736,-0.4921688437461853
2.01745867729187,3.9756929874420166,-0.48305776715278625
2.0310935974121094,3.9350345134735107,-0.4695577919483185
2.0661263465881348,3.9355263710021973,-0.4609563946723938
2.0582172870635986,3.857363700866699,-0.44315943121910095
2.1160502433776855,3.902446985244751,-0.4395490884780884
2.144062042236328,3.888338088989258,-0.42870622873306274
2.135035276412964,3.8099780082702637,-0.4110866189002991
2.15315580368042,3.7829957008361816,-0.3991535007953644
2.1869688034057617,3.782649517059326,-0.3899092674255371
2.205796480178833,3.7547757625579834,-0.3775993585586548
2.211912155151367,3.707021951675415,-0.36321523785591125
2.2570292949676514,3.7263708114624023,-0.3555838465690613
2.2628281116485596,3.678280830383301,-0.3411046266555786
2.2965633869171143,3.676734209060669,-0.3309623897075653
2.3378214836120605,3.6886019706726074,-0.32191213965415955
2.3384058475494385,3.633780002593994,-0.3065846860408783
2.3595757484436035,3.6117539405822754,-0.29411405324935913
2.400702714920044,3.622969150543213,-0.2843051254749298
2.4123282432556152,3.588031530380249,-0.2705485224723816
2.4330947399139404,3.5654804706573486,-0.2574242353439331
2.4745848178863525,3.5757243633270264,-0.24644078314304352
2.481008768081665,3.5340938568115234,-0.23161400854587555
2.5144619941711426,3.5304112434387207,-0.21890707314014435
2.555565595626831,3.5401594638824463,-0.20692427456378937
2.229583978652954,3.044607400894165,-0.1662730574607849
2.1752727031707764,2.930145025253296,-0.1485029011964798
2.8067116737365723,3.9434187412261963,0.4725703001022339
2.7779760360717773,3.9619758129119873,0.48692986369132996
2.726407051086426,3.9534671306610107,0.4975857436656952
2.7054555416107178,3.9849390983581543,0.5125275254249573
2.6960322856903076,4.0317769050598145,0.5290685892105103
2.6449811458587646,4.02202844619751,0.5378453135490417
2.622199058532715,4.053752899169922,0.5519815683364868
2.603600263595581,4.087174415588379,0.5656840205192566
2.580709218978882,4.118408679962158,0.5788681507110596
2.5526437759399414,4.143375873565674,0.5911205410957336
2.5185797214508057,4.153596878051758,0.6006882786750793
2.484489917755127,4.163527965545654,0.6102196574211121
2.4642083644866943,4.2010579109191895,0.6232364177703857
2.4319043159484863,4.218339920043945,0.6333132982254028
2.401695489883423,4.234198093414307,0.6426976323127747
2.3715980052948,4.249710559844971,0.6520105600357056
2.277405023574829,4.154424667358398,0.64384526014328
2.2421181201934814,4.16342306137085,0.6515522599220276
2.2263948917388916,4.205591201782227,0.6642215251922607
2.1893553733825684,4.206254959106445,0.6702685356140137
2.175957441329956,4.255399227142334,0.6837977170944214
2.143209457397461,4.270689010620117,0.6918506622314453
2.118134021759033,4.299152851104736,0.7019330263137817
2.0877487659454346,4.3127760887146,0.7093523740768433
2.06553053855896,4.343634605407715,0.7196693420410156
2.028319835662842,4.347175598144531,0.7250109910964966
1.9990745782852173,4.3680195808410645,0.7332354187965393
1.9665049314498901,4.381594181060791,0.7402821779251099
1.9915140867233276,4.52140998840332,0.7685856819152832
1.9442188739776611,4.498769760131836,0.7694063186645508
1.9515098333358765,4.6078596115112305,0.7922809720039368
1.923215627670288,4.635327339172363,0.8012611269950867
1.8800122737884521,4.626917362213135,0.8040876984596252
1.8745794296264648,4.706995010375977,0.822139322757721
1.847044587135315,4.7333292961120605,0.8309224843978882
1.7782853841781616,4.655550956726074,0.8209353089332581
1.7710829973220825,4.739659786224365,0.8393868803977966
1.3391426801681519,3.665998935699463,0.6521095633506775
1.3184367418289185,3.6891028881073,0.6589716076850891
1.2835993766784668,3.67205810546875,0.6586747765541077
1.645896077156067,4.817255020141602,0.8675384521484375
1.6156259775161743,4.842827320098877,0.875178873538971
1.579656958580017,4.853755474090576,0.88028484582901
1.5540257692337036,4.893439292907715,0.8905761241912842
1.5254433155059814,4.921689510345459,0.8987773060798645
1.5021073818206787,4.968181133270264,0.9103883504867554
1.4687682390213013,4.985325813293457,0.9162977933883667
1.4189553260803223,4.9469404220581055,0.9117573499679565
2.51820707321167,9.027511596679688,1.6685768365859985
1.339247226715088,4.935665607452393,0.914818525314331
1.2889437675476074,4.884682655334473,0.907888650894165
1.270027995109558,4.952398777008057,0.9230619668960571
1.2365179061889648,4.968103885650635,0.9281584620475769
1.2037709951400757,4.9912848472595215,0.934538722038269
1.1739691495895386,5.02534294128418,0.9429877996444702
1.1324193477630615,5.006640911102295,0.9415532350540161
1.1081069707870483,5.062568664550781,0.9541807174682617
1.0743203163146973,5.07704496383667,0.9590657949447632
1.0423662662506104,5.106632232666016,0.9664672017097473
1.0074007511138916,5.12093448638916,0.9707432985305786
1.6831012964248657,8.889084815979004,1.687850832939148
1.6242891550064087,8.922505378723145,1.697066307067871
1.550767183303833,8.86840534210205,1.6896647214889526
1.4973117113113403,8.935044288635254,1.705399990081787
1.4309004545211792,8.921756744384766,1.7054458856582642
1.3629510402679443,8.900623321533203,1.7033240795135498
1.3020216226577759,8.924551010131836,1.7099086046218872
1.2276437282562256,8.853028297424316,1.6982755661010742
1.1619467735290527,8.837969779968262,1.6975319385528564
1.1013035774230957,8.852778434753418,1.7025703191757202
1.034777045249939,8.817626953125,1.6980392932891846
0.9789937734603882,8.881430625915527,1.7114651203155518
0.9139993786811829,8.864748001098633,1.7094722986221313
0.8537882566452026,8.893406867980957,1.716306209564209
0.3876001834869385,4.363423824310303,0.8427713513374329
0.35723188519477844,4.365788459777832,0.8439437747001648
0.3257046043872833,4.352642059326172,0.8421558737754822
0.2986701726913452,4.404391765594482,0.8526357412338257
0.343362033367157,5.65042781829834,1.094166874885559
0.30374038219451904,5.664065361022949,1.0971819162368774
0.26405513286590576,5.665903568267822,1.0979604721069336
0.22674423456192017,5.7211012840271,1.109134316444397
0.18880298733711243,5.779881000518799,1.1210662126541138
0.1493612378835678,5.811575412750244,1.127780795097351
0.1083567887544632,5.827822208404541,1.1307740211486816
0.06808826327323914,5.86294412612915,1.1374868154525757
0.02713930606842041,5.855603218078613,1.1360163688659668
-0.020710155367851257,8.881256103515625,1.7230216264724731
-0.0821644738316536,8.857885360717773,1.7185840606689453
-0.14334318041801453,8.768891334533691,1.701499104499817
-0.2034551501274109,8.737117767333984,1.6950223445892334
-0.26110371947288513,8.639883995056152,1.675335168838501
-0.3172720670700073,8.53843879699707,1.6549291610717773
-0.3592061400413513,8.14544677734375,1.5781335830688477
-0.1839013695716858,3.600362777709961,0.6973053812980652
-0.20782627165317535,3.5722591876983643,0.6916503310203552
-0.2317054122686386,3.555504322052002,0.6882321238517761
-0.5685318112373352,7.884576797485352,1.5248945951461792
-0.5272260308265686,6.66870641708374,1.2886196374893188
-0.5746598839759827,6.6805219650268555,1.289838433265686
-0.6114563941955566,6.56587553024292,1.2666980028152466
-0.6440935134887695,6.43201208114624,1.2399615049362183
-0.6831473708152771,6.374289512634277,1.2279878854751587
-0.7342196702957153,6.430781841278076,1.2377426624298096
-0.7738602161407471,6.38796854019165,1.2278987169265747
-0.8112183809280396,6.325794696807861,1.2143902778625488
-0.8444693088531494,6.244476795196533,1.1973215341567993
-0.8910431861877441,6.261735916137695,1.1992121934890747
-0.9379675984382629,6.278641700744629,1.201080560684204
-0.986356794834137,6.30278205871582,1.2043800354003906
-1.0383585691452026,6.345625877380371,1.2104898691177368
-1.0881503820419312,6.376861572265625,1.2143715620040894
-1.140502691268921,6.4190473556518555,1.2203638553619385
-1.194537878036499,6.464535713195801,1.2269933223724365
-1.2446180582046509,6.483114242553711,1.2285301685333252
-1.305445909500122,6.554057598114014,1.2400212287902832
-1.3638142347335815,6.60568380355835,1.24738609790802
-1.4144090414047241,6.62335729598999,1.247990369796753
-1.456272006034851,6.599366664886475,1.2407931089401245
-1.4919694662094116,6.548866271972656,1.2286880016326904
-1.5270798206329346,6.494235515594482,1.2158474922180176
-0.6751099228858948,2.7826223373413086,0.5198547840118408
-0.6962266564369202,2.7857069969177246,0.5192744731903076
-0.7189923524856567,2.7962136268615723,0.5198180675506592
-0.7281749844551086,2.754499912261963,0.5106889009475708
-0.7549665570259094,2.77957820892334,0.513970673084259
-0.7767268419265747,2.7819933891296387,0.5130113363265991
-1.7619714736938477,6.145448684692383,1.1302275657653809
-1.7981810569763184,6.11184549331665,1.1209890842437744
-1.8284491300582886,6.063735485076904,1.108497977256775
-1.8592822551727295,6.0191569328308105,1.0967456102371216
-1.8891680240631104,5.970540523529053,1.0842856168746948
-1.2366204261779785,3.8159101009368896,0.6906836032867432
-1.9446946382522583,5.861573696136475,1.0574370622634888
-1.9804885387420654,5.834373474121094,1.0489299297332764
-2.0135695934295654,5.803802967071533,1.0393011569976807
-2.0424644947052,5.762147426605225,1.0277683734893799
-2.07167911529541,5.720086097717285,1.0161691904067993
-2.1024205684661865,5.681262969970703,1.0051634311676025
-2.1340794563293457,5.645880222320557,0.9948496222496033
-2.1618423461914062,5.603450775146484,0.9830617904663086
-2.2164859771728516,5.633044719696045,0.9835577607154846
-2.2795040607452393,5.679802417755127,0.9869227409362793
-2.33455228805542,5.704537868499756,0.9864164590835571
-2.361250162124634,5.657231330871582,0.9733819961547852
-2.3889055252075195,5.6133599281311035,0.9610387682914734
-2.4327683448791504,5.612678050994873,0.9555089473724365
-2.522487163543701,5.71385383605957,0.9670976400375366
-2.5356109142303467,5.641763687133789,0.9494189023971558
-4.092850208282471,8.939889907836914,1.4953861236572266
-4.209549427032471,9.028633117675781,1.5011178255081177
-2.631420135498047,5.546489238739014,0.9161477088928223
-2.6421759128570557,5.474287033081055,0.897972822189331
-4.5383100509643555,9.246931076049805,1.5064419507980347
-2.7084195613861084,5.423171043395996,0.8771000504493713
-2.711538076400757,5.336496353149414,0.8567755222320557
-2.747677803039551,5.319487571716309,0.8473573923110962
-2.7703897953033447,5.278647422790527,0.8340136408805847
-2.8025853633880615,5.254388809204102,0.8232091069221497
-1.1513632535934448,2.122988700866699,0.3296789526939392
-1.1850523948669434,2.149322748184204,0.33079296350479126
-1.2011996507644653,2.145439863204956,0.32700473070144653
-2.526442527770996,4.444553375244141,0.6707791090011597
-2.57291316986084,4.455068111419678,0.6653124094009399
-6.026740550994873,10.26988410949707,1.5171151161193848
-1.2459287643432617,2.090985059738159,0.3053942620754242
-1.2596616744995117,2.0834248065948486,0.3006928861141205
-2.922400951385498,4.762684345245361,0.6789678931236267
-2.991626501083374,4.799077987670898,0.6749842762947083
-3.0327930450439453,4.793208122253418,0.6649315357208252
-2.996971607208252,4.670444488525391,0.6385997533798218
-3.0472500324249268,4.681183815002441,0.6304590702056885
-3.0719006061553955,4.648167133331299,0.6158288717269897
-3.0798287391662598,4.593305587768555,0.5980017781257629
-3.0919997692108154,4.5492634773254395,0.5817816257476807
-3.1101603507995605,4.510319709777832,0.5656112432479858
-3.1462044715881348,4.49650239944458,0.5522538423538208
-2.9208648204803467,4.119619846343994,0.4949539601802826
-2.8875834941864014,4.016029357910156,0.4710073173046112
-2.925271511077881,4.0096025466918945,0.45811471343040466
-2.9505491256713867,3.9926626682281494,0.4437350630760193
-2.471205472946167,3.46116304397583,-0.20606112480163574
-2.4354262351989746,3.4664995670318604,-0.21962498128414154
-2.874579906463623,4.153201103210449,-0.27763691544532776
-2.8655214309692383,4.205652236938477,-0.2955991327762604
-2.8512625694274902,4.251818656921387,-0.313075989484787
-2.812509536743164,4.257770538330078,-0.326842337846756
-2.8075101375579834,4.320441246032715,-0.34528303146362305
-1.2974859476089478,2.0287749767303467,-0.16822879016399384
-1.2706408500671387,2.017575263977051,-0.17306111752986908
-1.2842751741409302,2.0727901458740234,-0.18366092443466187
-2.1324496269226074,3.498206615447998,-0.3196423053741455
-2.083139419555664,3.4724295139312744,-0.3266020715236664
-2.049626350402832,3.473257303237915,-0.3357278108596802
-2.6390581130981445,4.547749996185303,-0.4513343870639801
-1.207884430885315,2.1152548789978027,-0.21509402990341187
-2.592874526977539,4.616298198699951,-0.4805929660797119
-2.56371808052063,4.644501686096191,-0.49483850598335266
-2.5412917137145996,4.682013988494873,-0.5097070336341858
-2.5154128074645996,4.712234973907471,-0.5236851572990417
-2.4953033924102783,4.756661891937256,-0.5392178893089294
-2.465639591217041,4.783798694610596,-0.552888035774231
-2.4451425075531006,4.8277411460876465,-0.5684128999710083
-2.4175634384155273,4.857539176940918,-0.5821431279182434
-2.3922505378723145,4.894553184509277,-0.5966771841049194
-2.3684964179992676,4.934786319732666,-0.6116434931755066
-1.5689538717269897,3.3280441761016846,-0.4190940856933594
-1.5418444871902466,3.331153631210327,-0.42598873376846313
-1.5139943361282349,3.3343770503997803,-0.43290671706199646
-1.49003267288208,3.3441617488861084,-0.44050073623657227
-1.4989993572235107,3.4282150268554688,-0.45793962478637695
-1.489711046218872,3.473466634750366,-0.47029513120651245
-1.446541428565979,3.4402499198913574,-0.4719388484954834
-0.9697859287261963,2.3535025119781494,-0.32708126306533813
-0.9531759023666382,2.359588623046875,-0.3320232927799225
-0.9249278903007507,2.3368332386016846,-0.3327710032463074
-0.9207001328468323,2.375234842300415,-0.34216609597206116
-0.906473696231842,2.3882951736450195,-0.34796568751335144
-0.8893042802810669,2.394040822982788,-0.35275328159332275
-0.8775511980056763,2.4141626358032227,-0.3595292568206787
-0.8679990172386169,2.441577434539795,-0.3673514723777771
-0.8556485772132874,2.461625576019287,-0.3741203844547272
-0.8457806706428528,2.4888534545898438,-0.3820037245750427
-0.8254588842391968,2.486823558807373,-0.38541969656944275
-0.8124924898147583,2.506673574447632,-0.3920113146305084
-0.8027971982955933,2.5374932289123535,-0.4003913104534149
-0.7849397659301758,2.5423922538757324,-0.4046960175037384
-0.7759459018707275,2.576740264892578,-0.41373181343078613
-0.7619549632072449,2.596350908279419,-0.4202020764350891
-0.7527255415916443,2.6345062255859375,-0.42981094121932983
-0.7445035576820374,2.6762373447418213,-0.4400290846824646
-0.7256913781166077,2.6807143688201904,-0.4441835880279541
-0.7175306677818298,2.7261509895324707,-0.45491909980773926
-0.6896445751190186,2.6968905925750732,-0.4531383514404297
-0.6740109920501709,2.716076374053955,-0.45954328775405884
-0.6802057027816772,2.8249969482421875,-0.4812241196632385
-0.6322981119155884,2.7089991569519043,-0.4644206762313843
-0.6471598744392395,2.863095998764038,-0.4937496781349182
-0.6491822600364685,2.9685490131378174,-0.5149708390235901
-0.9273396730422974,4.388962745666504,-0.7659362554550171
-0.8773806691169739,4.300096035003662,-0.7547836303710938
-0.831559419631958,4.226016044616699,-0.7454900741577148
-0.7853881120681763,4.143972396850586,-0.7346819639205933
-0.7480632662773132,4.1031494140625,-0.7310925722122192
-0.703614354133606,4.020405292510986,-0.720007061958313
-0.6633428335189819,3.952465295791626,-0.7109413743019104
-0.625217080116272,3.8918206691741943,-0.702921986579895
-0.6026490330696106,3.925856828689575,-0.7120031714439392
-0.45328792929649353,3.096284866333008,-0.5638818144798279
-0.420173704624176,3.018979787826538,-0.5519860982894897
-0.4056188464164734,3.0709638595581055,-0.5633063912391663
-0.38320839405059814,3.065678358078003,-0.5641739964485168
-0.3672153949737549,3.1136488914489746,-0.5748907923698425
-0.34633752703666687,3.1233463287353516,-0.5786015391349792
-0.3265025019645691,3.144451856613159,-0.5839856863021851
-0.31005507707595825,3.2075295448303223,-0.5971623659133911
-0.2876979410648346,3.2092790603637695,-0.5989496111869812
-0.2672539949417114,3.2338321208953857,-0.6050308346748352
-0.245024636387825,3.239150047302246,-0.6073124408721924
-0.22350871562957764,3.2558724880218506,-0.6114029288291931
-0.19994989037513733,3.249478340148926,-0.6112021803855896
-0.17775794863700867,3.258228302001953,-0.6138612627983093
-0.1558442860841751,3.2744925022125244,-0.6179718375205994
-0.13367342948913574,3.290719747543335,-0.6215026378631592
-0.11154159903526306,3.3144733905792236,-0.6264578700065613
-0.08808450400829315,3.3150627613067627,-0.6270771622657776
-0.06571462005376816,3.3500161170959473,-0.6342239379882812
-0.04235094413161278,3.3426589965820312,-0.6330733299255371
-0.019194360822439194,3.358227014541626,-0.6359663009643555
0.004205199424177408,3.3966622352600098,-0.6432200074195862
0.028182825073599815,3.3888745307922363,-0.6417517066001892
0.05209844931960106,3.4116296768188477,-0.6460732221603394
0.07613442838191986,3.4266598224639893,-0.6483147144317627
0.10029652714729309,3.437683582305908,-0.6498242020606995
0.1241997703909874,3.4370293617248535,-0.6491556763648987
0.14776815474033356,3.4285387992858887,-0.6470395922660828
0.17202816903591156,3.4276058673858643,-0.6459864974021912
0.19760386645793915,3.4572367668151855,-0.6504438519477844
0.22065117955207825,3.440702438354492,-0.6462419033050537
0.24786277115345,3.485290765762329,-0.6535409688949585
0.2765726149082184,3.541170597076416,-0.6628878712654114
0.30098211765289307,3.531851053237915,-0.6594263315200806
0.3283348083496094,3.5606424808502197,-0.6631338000297546
0.35464051365852356,3.5739333629608154,-0.66396164894104
0.18873313069343567,1.7763270139694214,-0.32920128107070923
0.41814732551574707,3.691645860671997,-0.68207848072052
0.4451592266559601,3.696742057800293,-0.6806897521018982
0.4728046655654907,3.7093117237091064,-0.6807345747947693
0.503778874874115,3.7445261478424072,-0.684930682182312
0.5400779247283936,3.8137803077697754,-0.6951828598976135
0.5728024244308472,3.8524014949798584,-0.699283242225647
0.6059796810150146,3.886897087097168,-0.7025558948516846
0.6380097270011902,3.9135913848876953,-0.7044466733932495
0.6762481331825256,3.9741623401641846,-0.7123989462852478
0.7220045328140259,4.072389125823975,-0.7264933586120605
0.7698668837547302,4.17401123046875,-0.7408899664878845
0.8105179071426392,4.22982931137085,-0.7470396161079407
0.8534297347068787,4.288954734802246,-0.7536116242408752
0.9090438485145569,4.4081878662109375,-0.7704455852508545
0.941382884979248,4.410226821899414,-0.7662737965583801
0.9970030784606934,4.517348766326904,-0.7802795171737671
1.0388860702514648,4.556305885314941,-0.7823677062988281
1.0827754735946655,4.598550796508789,-0.78488689661026
1.1165543794631958,4.59948205947876,-0.7797958254814148
1.1485192775726318,4.592685699462891,-0.7734010219573975
1.1767710447311401,4.570683479309082,-0.7644713521003723
1.2018412351608276,4.537302494049072,-0.7537172436714172
1.2370777130126953,4.540951251983643,-0.7487214803695679
1.263444185256958,4.514801025390625,-0.7387075424194336
1.297032356262207,4.514434337615967,-0.7329497933387756
1.317812442779541,4.469316005706787,-0.7199563384056091
1.0875661373138428,3.596233606338501,-0.574665367603302
1.1152777671813965,3.5967986583709717,-0.5697208642959595
1.1309202909469604,3.5604467391967773,-0.559072732925415
1.1630818843841553,3.575404405593872,-0.5564711093902588
1.1808791160583496,3.546074390411377,-0.5469985008239746
1.2105076313018799,3.553388833999634,-0.5428733825683594
1.2326165437698364,3.538565158843994,-0.5353692173957825
1.2526068687438965,3.5161054134368896,-0.5266346335411072
1.2746714353561401,3.500894784927368,-0.5191120505332947
1.2949272394180298,3.4820475578308105,-0.5108901858329773
1.3231351375579834,3.4848296642303467,-0.5057711601257324
1.3432226181030273,3.4656596183776855,-0.4974498748779297
1.3652089834213257,3.449720621109009,-0.4894893169403076
1.392130970954895,3.4482784271240234,-0.4835771322250366
1.4041509628295898,3.4108872413635254,-0.47255656123161316
1.4308350086212158,3.4091570377349854,-0.4665057063102722
1.4670498371124268,3.428462505340576,-0.4632105529308319
1.7936867475509644,4.111974716186523,-0.5481921434402466
1.8219618797302246,4.100701808929443,-0.5393151640892029
1.8471612930297852,4.082067966461182,-0.529455840587616
1.8824125528335571,4.084201335906982,-0.5221752524375916
1.9075762033462524,4.065103054046631,-0.5121075510978699
1.935943841934204,4.05285120010376,-0.5026742219924927
1.9537913799285889,4.019540786743164,-0.4907633364200592
1.982139229774475,4.006789207458496,-0.4812736213207245
2.0047178268432617,3.983635902404785,-0.47050052881240845
2.0319206714630127,3.9709525108337402,-0.460926353931427
2.0558390617370605,3.950981378555298,-0.45042499899864197
2.0806074142456055,3.9303386211395264,-0.4395861029624939
2.1113433837890625,3.9238476753234863,-0.4304184317588806
2.1343114376068115,3.90362286567688,-0.4197295606136322
2.1181039810180664,3.8114848136901855,-0.40129610896110535
2.1525986194610596,3.811048746109009,-0.39259472489356995
2.1749119758605957,3.7904417514801025,-0.38159146904945374
2.1849515438079834,3.749680995941162,-0.36876600980758667
2.2193427085876465,3.7485616207122803,-0.3595341145992279
2.2411177158355713,3.7275002002716064,-0.34836530685424805
2.253953456878662,3.6933746337890625,-0.33603373169898987
2.2841296195983887,3.684948682785034,-0.3256063461303711
2.3140342235565186,3.67641544342041,-0.3151547908782959
2.3217051029205322,3.635568380355835,-0.3019886016845703
2.363443613052368,3.6467037200927734,-0.29290592670440674
2.3720004558563232,3.6047897338867188,-0.27923324704170227
2.396223545074463,3.5896239280700684,-0.2675437331199646
2.446676254272461,3.6129472255706787,-0.2585478127002716
2.4544620513916016,3.570735454559326,-0.24435098469257355
2.468862533569336,3.542611598968506,-0.23127375543117523
2.5197744369506836,3.5648765563964844,-0.22102342545986176
2.5175352096557617,3.5098068714141846,-0.2052781730890274
2.563046932220459,3.5258185863494873,-0.19395406544208527
2.1704163551330566,2.9433462619781494,-0.1508287489414215
2.7734110355377197,3.9264702796936035,0.4492393136024475
2.7496891021728516,3.9510414600372314,0.46343210339546204
2.70518159866333,3.9518344402313232,0.47450292110443115
2.68742036819458,3.9905011653900146,0.48986199498176575
2.6503641605377197,3.9950966835021973,0.5001852512359619
2.6407155990600586,4.046454906463623,0.5160921812057495
2.605074882507324,4.0587615966796875,0.5269727110862732
2.5761280059814453,4.075791835784912,0.5377181172370911
2.5454509258270264,4.093581676483154,0.5485692024230957
2.513693332672119,4.111739635467529,0.559106707572937
2.505087375640869,4.165477752685547,0.5742543339729309
2.4714560508728027,4.175157070159912,0.5830830335617065
2.4402215480804443,4.192147254943848,0.5926579236984253
2.4151618480682373,4.223132133483887,0.6042513251304626
2.395545244216919,4.259678363800049,0.616298496723175
2.342787265777588,4.234579563140869,0.619204044342041
2.261523962020874,4.15859842300415,0.6142274141311646
2.2372493743896484,4.188050746917725,0.6245532035827637
2.2128217220306396,4.217268943786621,0.6348868608474731
2.1865081787109375,4.238510608673096,0.6437115669250488
2.1491496562957764,4.2390522956848145,0.6493065357208252
2.131080150604248,4.281630992889404,0.6610017418861389
2.1057307720184326,4.310229778289795,0.6706202030181885
2.070957899093628,4.317334175109863,0.6767910122871399
2.0371127128601074,4.32375431060791,0.6827242374420166
2.008927345275879,4.344363212585449,0.6906608939170837
1.9877005815505981,4.382781982421875,0.7012673616409302
2.019439458847046,4.5411481857299805,0.7312734723091125
1.9903943538665771,4.56132698059082,0.7389883399009705
1.9652255773544312,4.592160224914551,0.748559832572937
1.9289331436157227,4.598114967346191,0.7537176609039307
1.8934983015060425,4.60764217376709,0.7592446208000183
1.8695125579833984,4.645561695098877,0.7695151567459106
1.8535618782043457,4.700799465179443,0.7825871706008911
1.8171402215957642,4.705722808837891,0.7873890995979309
1.7726852893829346,4.688703536987305,0.7882518172264099
1.3489123582839966,3.6476125717163086,0.6158444881439209
1.3222261667251587,3.6566660404205322,0.6200137734413147
1.299803614616394,3.6762759685516357,0.6259669065475464
3.248704671859741,9.39960765838623,1.607223391532898
1.6203281879425049,4.796051502227783,0.8234730958938599
1.5963568687438965,4.839811325073242,0.8339146971702576
1.5729221105575562,4.887168884277344,0.8449892401695251
1.5569602251052856,4.960161209106445,0.8606002926826477
1.5067970752716064,4.922443389892578,0.8570060729980469
1.4745292663574219,4.939446926116943,0.8628938794136047
1.4332706928253174,4.926724433898926,0.863496720790863
1.4134446382522583,4.991815090179443,0.8772954940795898
1.3712782859802246,4.978883743286133,0.8774438500404358
1.3105028867721558,4.894924163818359,0.8650599122047424
1.2756448984146118,4.90342903137207,0.8689871430397034
1.2526692152023315,4.956325054168701,0.8808034658432007
1.22139573097229,4.9793195724487305,0.8871743679046631
1.1874009370803833,4.994857311248779,0.8918247818946838
1.1593420505523682,5.036397933959961,0.901176929473877
1.1226778030395508,5.04409122467041,0.9045619368553162
1.0939624309539795,5.081303119659424,0.9132139682769775
1.0600261688232422,5.095762252807617,0.9178391695022583
1.0227789878845215,5.094960689544678,0.919593870639801
0.9893556237220764,5.116746425628662,0.9249846339225769
1.7084121704101562,9.191679000854492,1.6643787622451782
1.6401567459106445,9.187612533569336,1.666418194770813
1.5734573602676392,9.182818412780762,1.668338656425476
1.5069042444229126,9.177541732788086,1.670243263244629
1.442846655845642,9.186990737915039,1.6748567819595337
1.3658013343811035,9.124260902404785,1.6652569770812988
1.301249623298645,9.133052825927734,1.668745994567871
1.23757004737854,9.149018287658691,1.6736338138580322
1.1705365180969238,9.133955001831055,1.6729028224945068
1.10685133934021,9.141263008117676,1.6763360500335693
1.0392028093338013,9.113761901855469,1.6734590530395508
0.9768832325935364,9.14721965789795,1.6810142993927002
0.913159191608429,9.16110610961914,1.684690237045288
0.4016232192516327,4.338589191436768,0.7984200716018677
0.3711880147457123,4.341102123260498,0.7994899749755859
0.3382759392261505,4.308912754058838,0.7941975593566895
0.3124121129512787,4.376145362854004,0.8072865605354309
0.28713783621788025,4.458554744720459,0.823047399520874
0.3234614431858063,5.637771129608154,1.0409730672836304
0.28725847601890564,5.704997539520264,1.0536829233169556
0.24696983397006989,5.699069499969482,1.0529364347457886
0.20827385783195496,5.746615886688232,1.0621286630630493
0.167841374874115,5.732443332672119,1.0599603652954102
0.1304444521665573,5.844712257385254,1.081231713294983
0.08966752886772156,5.837782382965088,1.0798897743225098
0.04904153198003769,5.845958232879639,1.0812546014785767
0.007553895935416222,5.838487148284912,1.079776644706726
-0.050480183213949203,8.911255836486816,1.647994875907898
-0.11137259751558304,8.822364807128906,1.6315723657608032
-0.17155689001083374,8.7599458694458,1.6201235055923462
-0.1648920625448227,6.2128214836120605,1.148916244506836
-0.2864237427711487,8.553544044494629,1.5808954238891602
