X,Y,Z
0.4420744776725769,3.828282356262207,-0.4412923753261566
0.4668038785457611,3.8059566020965576,-0.4376802444458008
0.4922175109386444,3.7950966358184814,-0.43531274795532227
0.5184789299964905,3.7917983531951904,-0.43356460332870483
0.5457916855812073,3.796006202697754,-0.43269434571266174
0.5709964632987976,3.7846455574035645,-0.4300638437271118
0.5953248739242554,3.7653777599334717,-0.42654043436050415
0.6176005005836487,3.738401174545288,-0.4219972789287567
0.6447198390960693,3.7419354915618896,-0.420766144990921
0.6691746711730957,3.729985475540161,-0.4178139865398407
0.692284107208252,3.710202932357788,-0.41400107741355896
0.7159193754196167,3.6940834522247314,-0.4106265604496002
0.7418689131736755,3.6892268657684326,-0.40821921825408936
0.7625722885131836,3.6614716053009033,-0.4032836854457855
0.7952291369438171,3.69054913520813,-0.40461933612823486
0.820963978767395,3.685178756713867,-0.4021628797054291
0.8640332221984863,3.755356788635254,-0.4078789949417114
1.0312790870666504,4.3429341316223145,-0.4691010117530823
1.0575149059295654,4.3209757804870605,-0.4642048180103302
1.0836690664291382,4.298816204071045,-0.4593122601509094
1.113607406616211,4.291508197784424,-0.45602595806121826
1.1412633657455444,4.2765607833862305,-0.45176902413368225
1.1711369752883911,4.268862724304199,-0.4481005370616913
1.2004519701004028,4.26108980178833,-0.4444940388202667
1.227992057800293,4.245523929595947,-0.4400591552257538
1.257585048675537,4.237229824066162,-0.43640443682670593
1.2866374254226685,4.228905200958252,-0.4324520230293274
1.3126788139343262,4.209088325500488,-0.4272918105125427
1.3393946886062622,4.192903518676758,-0.4225659966468811
1.3686591386795044,4.183845520019531,-0.4185532331466675
1.3975478410720825,4.174697399139404,-0.41441434621810913
1.421081304550171,4.150727272033691,-0.4086885154247284
1.4469208717346191,4.133967876434326,-0.4037095606327057
1.4788782596588135,4.131337642669678,-0.40000754594802856
1.5049911737442017,4.114034652709961,-0.3949369490146637
1.5303168296813965,4.0968122482299805,-0.38967740535736084
1.5582789182662964,4.086690902709961,-0.3851138949394226
1.5865379571914673,4.076237678527832,-0.38049012422561646
1.612609624862671,4.058060169219971,-0.3750726282596588
1.6403741836547852,4.047359943389893,-0.3702648878097534
1.661956548690796,4.022144794464111,-0.3641118109226227
1.692598819732666,4.0182366371154785,-0.3598744869232178
1.9388132095336914,4.514742851257324,-0.39989906549453735
1.9734574556350708,4.508720397949219,-0.39472997188568115
2.0309643745422363,4.556191921234131,-0.39417681097984314
2.0716910362243652,4.564001083374023,-0.3900962769985199
2.116659164428711,4.578188896179199,-0.38640886545181274
2.1514456272125244,4.571075439453125,-0.38082149624824524
2.17608642578125,4.542652606964111,-0.3732943534851074
2.2154881954193115,4.5457611083984375,-0.36842334270477295
2.2472422122955322,4.530670642852783,-0.3619309365749359
2.2729973793029785,4.505233287811279,-0.3545738756656647
2.306828022003174,4.497281551361084,-0.3485342562198639
2.3392016887664795,4.485437393188477,-0.3421328663825989
1.7244362831115723,3.250317335128784,-0.24374790489673615
1.7391024827957153,3.225163698196411,-0.23771393299102783
1.721327781677246,3.1420140266418457,-0.22750400006771088
1.727708339691162,3.1032204627990723,-0.220538929104805
1.764743685722351,3.1185595989227295,-0.21735480427742004
1.3272227048873901,2.309044122695923,-0.15764664113521576
1.2855604887008667,2.2027411460876465,-0.14728909730911255
0.950822651386261,1.6035377979278564,-0.10484131425619125
0.9576824903488159,1.5905336141586304,-0.10159946233034134
0.9722406268119812,1.5910043716430664,-0.09920918196439743
0.985335648059845,1.587703824043274,-0.09644623100757599
0.9963058233261108,1.5810226202011108,-0.09345607459545135
1.0150742530822754,1.5877684354782104,-0.09123171865940094
1.0066087245941162,1.5516242980957031,-0.08651377260684967
1.0260151624679565,1.5577595233917236,-0.08406918495893478
1.0363101959228516,1.5511000156402588,-0.08086325228214264
1.0422708988189697,1.5378460884094238,-0.0773037001490593
2.514981985092163,3.6564691066741943,-0.17660629749298096
2.569719076156616,3.6854138374328613,-0.17067374289035797
2.5854251384735107,3.6556878089904785,-0.16163745522499084
2.6330955028533936,3.6700446605682373,-0.15408435463905334
2.6035196781158447,3.5809953212738037,-0.14243626594543457
2.6631851196289062,3.6102566719055176,-0.1347585767507553
2.6168649196624756,3.701326847076416,0.2351316660642624
2.5906565189361572,3.7191720008850098,0.24360789358615875
2.5570969581604004,3.7323122024536133,0.25164565443992615
1.0660651922225952,1.5812045335769653,0.10951666533946991
1.0546866655349731,1.5885933637619019,0.11271171271800995
1.0338677167892456,1.5833998918533325,0.11493813991546631
1.0222134590148926,1.5907293558120728,0.11793284863233566
1.002591609954834,1.5845338106155396,0.11979613453149796
0.9985031485557556,1.6052864789962769,0.12367475777864456
0.9905421733856201,1.6191405057907104,0.1269732117652893
0.9670823216438293,1.6058199405670166,0.12799593806266785
0.9591466784477234,1.619431972503662,0.13109204173088074
1.319342851638794,2.2662320137023926,0.18621166050434113
1.3298472166061401,2.3228659629821777,0.19358685612678528
1.7858072519302368,3.1702208518981934,0.26774901151657104
1.7544589042663574,3.169501543045044,0.27103757858276367
1.7809317111968994,3.274549722671509,0.28346556425094604
1.757680892944336,3.2867136001586914,0.2877817749977112
2.3883378505706787,4.543170928955078,0.40230634808540344
2.3473289012908936,4.54646635055542,0.40675899386405945
2.320521116256714,4.57716703414917,0.4136817455291748
2.287820339202881,4.593104362487793,0.4191364347934723
2.259033203125,4.615510940551758,0.42513492703437805
2.217958450317383,4.617635726928711,0.4290998876094818
2.1904428005218506,4.647491931915283,0.4355415403842926
2.158271551132202,4.666332244873047,0.44092774391174316
2.1175386905670166,4.663134574890137,0.4441099464893341
2.0843358039855957,4.677613735198975,0.4488861560821533
2.056194543838501,4.706599712371826,0.4548587501049042
2.0087215900421143,4.692763328552246,0.4567667841911316
1.7299840450286865,4.121734142303467,0.40389484167099
1.7011444568634033,4.133345603942871,0.4077145457267761
1.6714798212051392,4.14506721496582,0.41138899326324463
1.6441203355789185,4.164004802703857,0.41568294167518616
1.6187824010849,4.190237522125244,0.420787513256073
1.5865325927734375,4.193890571594238,0.4235202372074127
1.5544968843460083,4.197229385375977,0.42621883749961853
1.529666543006897,4.222557544708252,0.4309684634208679
1.5016071796417236,4.240543365478516,0.4348897635936737
1.4740498065948486,4.26221227645874,0.4392610490322113
1.4403207302093506,4.261100769042969,0.44120290875434875
1.4142296314239502,4.281797409057617,0.4454083740711212
1.386175274848938,4.298826217651367,0.44910457730293274
1.3505078554153442,4.293577671051025,0.4503387212753296
1.3235291242599487,4.317936420440674,0.45473530888557434
1.2973790168762207,4.341803073883057,0.45905160903930664
1.271412968635559,4.365383625030518,0.46334588527679443
1.2429025173187256,4.381382942199707,0.46680349111557007
1.2155860662460327,4.404909610748291,0.47080618143081665
1.1799416542053223,4.398244380950928,0.47160598635673523
1.1518185138702393,4.421492576599121,0.47566094994544983
1.1229017972946167,4.4366888999938965,0.47881412506103516
1.0937855243682861,4.4517035484313965,0.4819783866405487
1.064948320388794,4.4704413414001465,0.48532813787460327
1.0329962968826294,4.477713108062744,0.4873480200767517
1.00045645236969,4.484872341156006,0.48940175771713257
0.9704930782318115,4.499180793762207,0.49222394824028015
0.9359835386276245,4.490402698516846,0.4925277829170227
0.7683334946632385,3.8188717365264893,0.41995367407798767
0.7411758303642273,3.824084758758545,0.4213228225708008
0.8401859998703003,4.508738040924072,0.49773141741752625
0.8190748691558838,4.5755767822265625,0.5061084628105164
0.7896857261657715,4.596323490142822,0.5094130635261536
0.7589259147644043,4.609194755554199,0.511870265007019
0.7296634316444397,4.633403778076172,0.5155226588249207
0.6974743604660034,4.646068572998047,0.5176572203636169
0.6657191514968872,4.658429145812988,0.5197737812995911
0.6316874623298645,4.655189037322998,0.5201767086982727
0.6032168865203857,4.690141677856445,0.5248644948005676
0.5724161863327026,4.709504127502441,0.527840793132782
0.5416733026504517,4.732553005218506,0.5311134457588196
0.5086151957511902,4.743927955627441,0.5328750014305115
0.4782891571521759,4.778194904327393,0.537230908870697
0.443911075592041,4.773614406585693,0.5372480154037476
0.4114006757736206,4.784219741821289,0.5389933586120605
0.3799367845058441,4.810086250305176,0.5424885749816895
0.3458051383495331,4.812579154968262,0.5432085394859314
0.3143419325351715,4.849691390991211,0.5476279258728027
0.2808081805706024,4.859469890594482,0.5489897727966309
0.24759775400161743,4.876766681671143,0.5512288212776184
0.21533264219760895,4.917096138000488,0.556100070476532
0.1801832765340805,4.910684585571289,0.5557205080986023
0.1466340571641922,4.93506383895874,0.5586740374565125
0.11260586231946945,4.955359935760498,0.560960054397583
0.0781705230474472,4.963776588439941,0.5619285106658936
0.04370679333806038,4.987479209899902,0.5646551251411438
0.008452379144728184,5.018704891204834,0.5682628154754639
-0.026385094970464706,5.018632411956787,0.5683532953262329
-0.06149778142571449,5.037741184234619,0.5704834461212158
-0.09678124636411667,5.052752494812012,0.5719123482704163
-0.13181772828102112,5.051997184753418,0.57158362865448
-0.16741445660591125,5.06651496887207,0.5730094313621521
-0.20324021577835083,5.065242290496826,0.5726731419563293
-0.2399291694164276,5.094761848449707,0.5758483409881592
-0.2776104509830475,5.135660648345947,0.5802003145217896
-0.3100234866142273,5.083336353302002,0.5737630724906921
-0.29310426115989685,4.314332485198975,0.48654043674468994
-0.3214697539806366,4.285135746002197,0.4828423857688904
-0.3518467843532562,4.290609836578369,0.48308226466178894
-0.38201621174812317,4.29199743270874,0.48288390040397644
-0.4069522023200989,4.239091396331787,0.4765072166919708
-0.43097853660583496,4.186093807220459,0.4699026644229889
-0.4543856680393219,4.12905216217041,0.4628712832927704
-0.4787616431713104,4.091225624084473,0.4580405354499817
-0.5004591345787048,4.033968925476074,0.4510645270347595
-0.5254644155502319,4.007399082183838,0.4475514888763428
-0.5452437996864319,3.9460842609405518,0.4401035010814667
-0.5683347582817078,3.9115772247314453,0.4354389011859894
-0.587568998336792,3.8578171730041504,0.428682416677475
-0.6067032217979431,3.8078103065490723,0.4223822057247162
-0.6286757588386536,3.7768232822418213,0.41821733117103577
-0.6495830416679382,3.7418880462646484,0.41364631056785583
-0.6678160429000854,3.69541597366333,0.40773528814315796
-0.6934836506843567,3.690847396850586,0.40626639127731323
-0.7052955627441406,3.6175684928894043,0.3972875773906708
-0.7261390089988708,3.593787908554077,0.3937853276729584
-0.7399982213973999,3.5355796813964844,0.3865303695201874
-0.7555491328239441,3.488738536834717,0.3805602490901947
-0.776623010635376,3.4683568477630615,0.37735655903816223
-0.7967451810836792,3.4480228424072266,0.3740667998790741
-0.8148255348205566,3.420015811920166,0.36997371912002563
-0.8317357301712036,3.3881237506866455,0.3654881417751312
-0.8495984077453613,3.3598270416259766,0.36140498518943787
-0.8675028085708618,3.3313441276550293,0.3573160469532013
-0.886216938495636,3.310521364212036,0.3538990616798401
-0.9045541882514954,3.289639472961426,0.3504444658756256
-0.9152277112007141,3.242487907409668,0.3442299962043762
-0.9332430958747864,3.2213644981384277,0.34079524874687195
-0.9582750201225281,3.222317934036255,0.3396822512149811
-0.9635800123214722,3.160034418106079,0.3319200575351715
-0.9849482178688049,3.1536543369293213,0.32987186312675476
-0.9944061636924744,3.1101126670837402,0.32396960258483887
-1.0106314420700073,3.0887327194213867,0.3204093873500824
-1.0251185894012451,3.0595829486846924,0.31601259112358093
-1.0464098453521729,3.052579164505005,0.3139539659023285
-1.0581512451171875,3.019930601119995,0.3091205954551697
-1.0810890197753906,3.0202856063842773,0.30762583017349243
-1.0760431289672852,2.943769693374634,0.29834672808647156
-1.1031277179718018,2.9547197818756104,0.29793599247932434
-1.1213014125823975,2.939781665802002,0.29488012194633484
-1.1174328327178955,2.870647668838501,0.28638118505477905
-1.1309386491775513,2.84885835647583,0.28255459666252136
-1.1412582397460938,2.8198115825653076,0.2780439555644989
-1.1560550928115845,2.8013925552368164,0.27458125352859497
-1.1441841125488281,2.7180681228637695,0.2647615373134613
-1.1412944793701172,2.6603450775146484,0.25749051570892334
-1.1465319395065308,2.624394655227661,0.25227370858192444
-1.1924376487731934,2.6809425354003906,0.2559383511543274
-1.1882613897323608,2.6233408451080322,0.24865984916687012
-1.2003883123397827,2.600925922393799,0.2446988970041275
-1.241297960281372,2.6422336101531982,0.2466750591993332
-1.2773239612579346,2.6728012561798096,0.2475127875804901
-1.2797939777374268,2.6329734325408936,0.24183477461338043
-1.2703640460968018,2.5684807300567627,0.23389454185962677
-1.2798376083374023,2.5422565937042236,0.22945331037044525
-1.2967605590820312,2.5339267253875732,0.2265612781047821
-1.3062937259674072,2.511739492416382,0.22242943942546844
-1.3158687353134155,2.4893884658813477,0.21828030049800873
-1.3148380517959595,2.4460670948028564,0.21225406229496002
-1.3315038681030273,2.43729829788208,0.20921145379543304
-1.3421252965927124,2.418377161026001,0.20520171523094177
-1.35805344581604,2.40972900390625,0.20211802423000336
-1.3593950271606445,2.3733906745910645,0.1966061145067215
-1.371738076210022,2.357534646987915,0.19280129671096802
-1.379165530204773,2.3353800773620605,0.18842466175556183
-1.414702296257019,2.359851360321045,0.18774624168872833
-1.4231010675430298,2.336843490600586,0.18313317000865936
-1.4430590867996216,2.3340208530426025,0.1800752878189087
-1.4291566610336304,2.278663158416748,0.17295977473258972
-1.4484226703643799,2.2759861946105957,0.16983307898044586
-1.437042474746704,2.223358631134033,0.16282834112644196
-1.4750292301177979,2.250082492828369,0.16163669526576996
-1.4570233821868896,2.1921539306640625,0.1543712615966797
-1.4852262735366821,2.201711893081665,0.1516556441783905
-1.5043891668319702,2.1984052658081055,0.14793460071086884
-1.5052369832992554,2.169682502746582,0.14242428541183472
-1.4907690286636353,2.118213415145874,0.1353466659784317
-1.5162585973739624,2.124338388442993,0.13185590505599976
-1.504408597946167,2.0802817344665527,0.12525451183319092
-1.50942063331604,2.0576090812683105,0.1196712851524353
-1.5226495265960693,2.0481202602386475,0.11476358026266098
-1.5099884271621704,2.1310770511627197,-0.08766255527734756
-1.4784990549087524,2.119593858718872,-0.09184005856513977
-1.4691812992095947,2.140061140060425,-0.09727600961923599
-1.458119511604309,2.1568212509155273,-0.1023545041680336
-1.4806290864944458,2.2260842323303223,-0.1099630668759346
-1.4644612073898315,2.2365212440490723,-0.11459247767925262
-1.4567784070968628,2.2598931789398193,-0.11977821588516235
-1.4418103694915771,2.273850917816162,-0.12448152899742126
-1.4231873750686646,2.280712842941284,-0.1286640167236328
-1.412916898727417,2.300596237182617,-0.13344745337963104
-1.3997795581817627,2.3174846172332764,-0.13807135820388794
-1.399097204208374,2.354027509689331,-0.1437835693359375
-1.3863457441329956,2.3703529834747314,-0.1482263207435608
-1.376258373260498,2.3939783573150635,-0.15317478775978088
-1.3473460674285889,2.383270025253296,-0.1558026671409607
-1.3381918668746948,2.406036138534546,-0.1605057716369629
-1.3280550241470337,2.4291813373565674,-0.16523568332195282
-1.3156665563583374,2.4489376544952393,-0.16976650059223175
-1.298115611076355,2.458026170730591,-0.17348894476890564
-1.2878737449645996,2.4807333946228027,-0.17809906601905823
-1.2839179039001465,2.517578601837158,-0.18372151255607605
-1.2761861085891724,2.5474259853363037,-0.1888701617717743
-1.2651782035827637,2.570035457611084,-0.19344688951969147
-1.2260502576828003,2.5368196964263916,-0.19379672408103943
-1.1858432292938232,2.4996445178985596,-0.19367042183876038
-1.1728858947753906,2.5183942317962646,-0.1977999210357666
-1.1844637393951416,2.5900325775146484,-0.20610563457012177
-1.1866816282272339,2.644367218017578,-0.21306955814361572
-1.155044436454773,2.624061107635498,-0.21401232481002808
-1.142189621925354,2.646393299102783,-0.21844275295734406
-1.1129980087280273,2.628960132598877,-0.2195069044828415
-1.0881768465042114,2.6222169399261475,-0.221351757645607
-1.1249665021896362,2.766822576522827,-0.23605532944202423
-1.1268587112426758,2.828752279281616,-0.24385590851306915
-1.112398624420166,2.850918769836426,-0.24829672276973724
-1.111637830734253,2.9093708992004395,-0.2558271288871765
-1.0962393283843994,2.9315693378448486,-0.2601657211780548
-1.0820057392120361,2.9573140144348145,-0.264848917722702
-1.0691550970077515,2.986530065536499,-0.269845187664032
-1.0502691268920898,3.0011966228485107,-0.27354535460472107
-1.0262647867202759,3.0010037422180176,-0.2757299244403839
-1.0146448612213135,3.0375277996063232,-0.28131845593452454
-0.9981772899627686,3.0590925216674805,-0.2855220437049866
-0.9791892766952515,3.073126792907715,-0.2890428900718689
-0.9603821039199829,3.0910253524780273,-0.292794406414032
-0.9451446533203125,3.119863271713257,-0.29757073521614075
-0.9275399446487427,3.1411163806915283,-0.3016447424888611
-0.9056785702705383,3.1472370624542236,-0.30426254868507385
-0.8951172828674316,3.1944658756256104,-0.3107803463935852
-0.8674088716506958,3.1817145347595215,-0.3113691508769989
-0.8534610867500305,3.2214622497558594,-0.31715384125709534
-0.8289477229118347,3.2195892333984375,-0.3188216984272003
-0.815845787525177,3.262788772583008,-0.3249838054180145
-0.8000306487083435,3.298496723175049,-0.33020398020744324
-0.7783976197242737,3.3114354610443115,-0.33316901326179504
-0.767589807510376,3.3735604286193848,-0.34114983677864075
-0.7474319338798523,3.3937830924987793,-0.34489792585372925
-0.7293583154678345,3.425321340560913,-0.3497306704521179
-0.7099421620368958,3.453010082244873,-0.3540208637714386
-0.6916553378105164,3.488220453262329,-0.35912418365478516
-0.6748331785202026,3.5348379611968994,-0.36546698212623596
-0.6572093963623047,3.5774693489074707,-0.37141841650009155
-0.6347774863243103,3.597116231918335,-0.37480583786964417
-0.6152970790863037,3.6357953548431396,-0.38010886311531067
-0.5946822166442871,3.670536994934082,-0.3850419819355011
-0.578772246837616,3.7397468090057373,-0.3936537206172943
-0.5549765229225159,3.758877992630005,-0.3970203101634979
-0.5378088355064392,3.8279271125793457,-0.405363529920578
-0.5129847526550293,3.846858263015747,-0.40843015909194946
-0.4909374415874481,3.888739585876465,-0.4139646887779236
-0.47167864441871643,3.9574811458587646,-0.4224027395248413
-0.44709113240242004,3.9914536476135254,-0.42712104320526123
-0.42444467544555664,4.044584274291992,-0.4336027503013611
-0.3999074697494507,4.085992336273193,-0.43886780738830566
-0.3745638132095337,4.123374938964844,-0.44373366236686707
-0.34424564242362976,4.10640811920166,-0.44277340173721313
-0.3157365918159485,4.116382598876953,-0.4445905387401581
-0.28647807240486145,4.110658168792725,-0.4444756507873535
-0.26043838262557983,4.155116558074951,-0.44981372356414795
-0.23109027743339539,4.148994445800781,-0.44970041513442993
-0.20013904571533203,4.107755184173584,-0.44579577445983887
-0.17131705582141876,4.116777420043945,-0.4471389353275299
-0.14152462780475616,4.086788654327393,-0.44408345222473145
-0.11258821934461594,4.07211446762085,-0.4427112936973572
-0.0844484269618988,4.080529689788818,-0.44386959075927734
-0.055876877158880234,4.0654520988464355,-0.4424932599067688
-0.027027452364563942,4.050210475921631,-0.44082319736480713
0.00112723873462528,4.023126602172852,-0.4377747178077698
0.029122700914740562,4.030798435211182,-0.4385298192501068
0.056962545961141586,4.0149760246276855,-0.43675002455711365
0.08405716717243195,3.9756674766540527,-0.4324372112751007
0.1119278147816658,3.9827966690063477,-0.4328552484512329
0.13927802443504333,3.958671808242798,-0.4298422336578369
0.16680829226970673,3.9576587677001953,-0.4293685257434845
0.1933453381061554,3.937061071395874,-0.42679303884506226
0.21985295414924622,3.92016339302063,-0.4246314465999603
0.24749894440174103,3.926389694213867,-0.42462223768234253
0.2735656201839447,3.901393413543701,-0.42124757170677185
0.30002865195274353,3.8917481899261475,-0.41956737637519836
0.32712021470069885,3.8896560668945312,-0.41872069239616394
0.3527320623397827,3.871915102005005,-0.4161413013935089
0.376499205827713,3.83858585357666,-0.4116072356700897
0.4031456708908081,3.8321049213409424,-0.4099636971950531
0.4297351837158203,3.829343557357788,-0.4087536633014679
0.45452985167503357,3.8109612464904785,-0.405897319316864
0.48097798228263855,3.8078558444976807,-0.40456366539001465
0.508330762386322,3.8123037815093994,-0.4038302004337311
0.5329704880714417,3.79341197013855,-0.4006262719631195
0.5615612268447876,3.805158853530884,-0.4006933867931366
0.5909980535507202,3.820521593093872,-0.4011472165584564
0.6174220442771912,3.8165252208709717,-0.3993844985961914
0.7582801580429077,4.490550994873047,-0.46817970275878906
0.7879254817962646,4.477787494659424,-0.465133398771286
0.8224100470542908,4.487626075744629,-0.4644116759300232
0.7016742825508118,3.684117555618286,-0.37986597418785095
0.7429593801498413,3.7594640254974365,-0.3859739303588867
0.7641823887825012,3.731632709503174,-0.3814249038696289
0.9294050931930542,4.384325981140137,-0.4461630582809448
0.9605106711387634,4.377887725830078,-0.44349703192710876
0.9909616112709045,4.371363639831543,-0.4408474564552307
1.015749216079712,4.342015743255615,-0.4356096088886261
1.0492956638336182,4.350325107574463,-0.43417447805404663
1.0756429433822632,4.3281569480896,-0.4297075867652893
1.1063238382339478,4.320716857910156,-0.42667677998542786
1.136202096939087,4.313262939453125,-0.4235627055168152
1.1637839078903198,4.298168659210205,-0.4195329248905182
1.1932615041732788,4.290398597717285,-0.41624531149864197
1.2251991033554077,4.289800643920898,-0.4136366546154022
1.246820330619812,4.251473903656006,-0.4073742628097534
1.278268814086914,4.250589370727539,-0.40452930331230164
1.3096448183059692,4.249512195587158,-0.40162986516952515
1.3283135890960693,4.20734977722168,-0.3948706388473511
1.3588279485702515,4.202024936676025,-0.3915694057941437
1.388456106185913,4.192680358886719,-0.38777658343315125
1.4158748388290405,4.179752826690674,-0.3835321068763733
1.4367796182632446,4.1482648849487305,-0.3776247203350067
1.4655582904815674,4.138543128967285,-0.37368521094322205
1.4917789697647095,4.121242046356201,-0.36906805634498596
1.5172340869903564,4.104008197784424,-0.36428841948509216
1.5401941537857056,4.0791802406311035,-0.3587725758552551
1.5654377937316895,4.061581611633301,-0.3539561629295349
1.5937875509262085,4.050909519195557,-0.34971627593040466
1.6187843084335327,4.0329670906066895,-0.3447679579257965
1.64914071559906,4.029442310333252,-0.34096676111221313
1.6800522804260254,4.025473117828369,-0.3370636999607086
1.8011747598648071,4.2326340675354,-0.3506273031234741
2.0117783546447754,4.638574600219727,-0.3800542652606964
2.041595458984375,4.621713638305664,-0.3743283450603485
2.0808303356170654,4.625988006591797,-0.37032264471054077
2.1071150302886963,4.597391605377197,-0.3634905219078064
2.139003276824951,4.583084583282471,-0.3578648269176483
2.168229103088379,4.565464496612549,-0.3518395721912384
2.1956162452697754,4.544142246246338,-0.3455558121204376
2.2271504402160645,4.529217720031738,-0.339645117521286
2.2591161727905273,4.513811111450195,-0.3335765302181244
2.2929093837738037,4.505932807922363,-0.32803747057914734
2.3285160064697266,4.501245975494385,-0.3227215111255646
2.363499402999878,4.4922380447387695,-0.3169008493423462
1.7287122011184692,3.23171067237854,-0.2242041826248169
1.7465579509735107,3.213545560836792,-0.21912376582622528
1.7289950847625732,3.1301109790802,-0.20959430932998657
1.7622830867767334,3.138667106628418,-0.2062302827835083
1.8047459125518799,3.164240598678589,-0.20388245582580566
1.3389949798583984,2.312051773071289,-0.14599791169166565
0.9473841190338135,1.6104490756988525,-0.09954290091991425
0.9567403197288513,1.6005271673202515,-0.09669534116983414
0.9733631610870361,1.6043338775634766,-0.09468838572502136
0.979955792427063,1.5913126468658447,-0.09166478365659714
0.9910449981689453,1.5845870971679688,-0.08891212195158005
1.0015499591827393,1.5781208276748657,-0.08616481721401215
1.012033224105835,1.5715692043304443,-0.08337221294641495
1.0229688882827759,1.5646262168884277,-0.08044600486755371
1.0269012451171875,1.54816472530365,-0.07704103738069534
1.0369244813919067,1.5416113138198853,-0.07414594292640686
1.063026785850525,1.55707585811615,-0.07208672165870667
2.562494993209839,3.7002370357513428,-0.1644292175769806
2.5909855365753174,3.690218687057495,-0.15710939466953278
2.6166887283325195,3.6723785400390625,-0.14893747866153717
2.6079306602478027,3.6117124557495117,-0.139133483171463
2.641307830810547,3.607069492340088,-0.13113625347614288
2.6930716037750244,3.6274306774139404,-0.12358658015727997
2.636150360107422,3.698742628097534,0.2099713683128357
2.613642930984497,3.7237460613250732,0.21855047345161438
2.5680296421051025,3.71700382232666,0.22492563724517822
1.0634233951568604,1.5648887157440186,0.09748218208551407
1.056762933731079,1.5786045789718628,0.10085275024175644
1.0448497533798218,1.5863242149353027,0.10380643606185913
1.028250813484192,1.587652325630188,0.106345035135746
1.0086978673934937,1.5814950466156006,0.10812237858772278
1.0010662078857422,1.5953694581985474,0.11122119426727295
0.9929616451263428,1.6094110012054443,0.11433279514312744
0.977462112903595,1.60957932472229,0.11631834506988525
0.9697038531303406,1.6231757402420044,0.11926347762346268
0.9613930583000183,1.636983036994934,0.1221548467874527
1.3527772426605225,2.342582941055298,0.1774262636899948
1.821611762046814,3.2056920528411865,0.2461767941713333
1.7430546283721924,3.1199002265930176,0.24275659024715424
1.7473833560943604,3.1839945316314697,0.25095701217651367
1.766819953918457,3.275130271911621,0.2612758278846741
1.747472882270813,3.2939980030059814,0.2658221423625946
2.373453378677368,4.553584098815918,0.37147629261016846
2.328854560852051,4.549875259399414,0.37509506940841675
2.2951784133911133,4.566519737243652,0.38036656379699707
2.2666420936584473,4.589025020599365,0.38594308495521545
2.2403507232666016,4.618825435638428,0.3920336067676544
2.202847719192505,4.627793312072754,0.39625275135040283
2.1687769889831543,4.643446445465088,0.4010455906391144
2.1329894065856934,4.651031970977783,0.40499165654182434
2.102891683578491,4.672856330871582,0.41022801399230957
2.071685552597046,4.694906711578369,0.4151861369609833
2.0340847969055176,4.702452659606934,0.4188838303089142
1.7723861932754517,4.178910255432129,0.3748762905597687
1.7177737951278687,4.129744529724121,0.37300264835357666
1.6878712177276611,4.1417341232299805,0.37656325101852417
1.6519062519073486,4.139144420623779,0.3786036968231201
1.6245659589767456,4.158002853393555,0.3826220631599426
1.5978800058364868,4.176364421844482,0.3865586817264557
1.5686883926391602,4.187117099761963,0.3897833824157715
1.5436395406723022,4.212703227996826,0.39430680871009827
1.5104230642318726,4.216180801391602,0.39661189913749695
1.4875603914260864,4.248762130737305,0.401680052280426
1.4524472951889038,4.244171142578125,0.4032100439071655
1.4277307987213135,4.2686872482299805,0.40749990940093994
1.4005416631698608,4.289693355560303,0.4113903045654297
1.3695709705352783,4.299428462982178,0.41402438282966614
1.3431477546691895,4.323797225952148,0.41809505224227905
1.3079546689987183,4.318068027496338,0.4192473888397217
1.28445303440094,4.349207401275635,0.42397341132164
1.2540397644042969,4.357828617095947,0.42648476362228394
1.226435661315918,4.381607532501221,0.4302661120891571
1.195061445236206,4.390044689178467,0.43254122138023376
1.1676501035690308,4.4132819175720215,0.43629971146583557
1.136865496635437,4.421092510223389,0.4385237693786621
1.1078698635101318,4.436241626739502,0.441501647233963
1.0776562690734863,4.451475143432617,0.4442973732948303
1.048473596572876,4.470228672027588,0.4473533034324646
1.018216848373413,4.4849982261657715,0.45003849267959595
0.9866686463356018,4.491853713989258,0.45193395018577576
0.9602315425872803,4.521237373352051,0.4561123847961426
0.8008503317832947,3.9070465564727783,0.3952065110206604
0.7527599334716797,3.80953311920166,0.3861325681209564
0.7242555022239685,3.807007074356079,0.3866831362247467
0.8342904448509216,4.5612993240356445,0.464284747838974
0.807792067527771,4.5974812507629395,0.4689674973487854
0.7764884233474731,4.610591888427734,0.47134310007095337
0.7472005486488342,4.63496732711792,0.47473064064979553
0.7131739258766174,4.632335662841797,0.4751634895801544
0.6803979277610779,4.637138366699219,0.47638049721717834
0.6497853994369507,4.657097339630127,0.4791797697544098
0.6198483109474182,4.684571266174316,0.4827846884727478
0.5891680717468262,4.7040696144104,0.48558422923088074
0.5593883395195007,4.734992027282715,0.48937374353408813
0.5260498523712158,4.738722324371338,0.4902326166629791
0.4934895634651184,4.749948501586914,0.4918919801712036
0.4608958959579468,4.760940074920654,0.4935515820980072
0.4279249608516693,4.771729469299316,0.49522024393081665
0.39729058742523193,4.805480480194092,0.49929171800613403
0.36368757486343384,4.808076858520508,0.4998999536037445
0.3315858244895935,4.833713054656982,0.5028166770935059
0.2989038825035095,4.855255603790283,0.5053346157073975
0.26437127590179443,4.857205390930176,0.5058439373970032
0.2316921204328537,4.882159233093262,0.5087684988975525
0.1983642578125,4.8991289138793945,0.5108882784843445
0.16523759067058563,4.931432723999023,0.5143668055534363
0.1310683786869049,4.940217018127441,0.5153184533119202
0.09633678197860718,4.960431098937988,0.5174890756607056
0.06185799092054367,4.96873664855957,0.5184419751167297
0.02736290916800499,4.984572410583496,0.520206093788147
-0.007361007854342461,5.007937908172607,0.5227821469306946
-0.042344219982624054,5.03109073638916,0.5250759720802307
-0.07809999585151672,5.0423455238342285,0.5260437726974487
-0.11352190375328064,5.057242393493652,0.5274195075035095
-0.14915481209754944,5.071890354156494,0.5287937521934509
-0.18476775288581848,5.078518867492676,0.5293567180633545
-0.220427006483078,5.08489990234375,0.5299193263053894
-0.25690534710884094,5.106584072113037,0.5318105816841125
-0.2940182089805603,5.124108791351318,0.5331729650497437
-0.2798631191253662,4.350418567657471,0.452304869890213
-0.30427443981170654,4.267038822174072,0.4432988166809082
-0.3339099586009979,4.264878749847412,0.44275835156440735
-0.3665017783641815,4.2973551750183105,0.4458327293395996
-0.394198477268219,4.267671585083008,0.4422328770160675
-0.4174913167953491,4.2030720710754395,0.4349706470966339
-0.44274383783340454,4.165407180786133,0.4305301904678345
-0.46500077843666077,4.104413032531738,0.423708438873291
-0.4870246946811676,4.047153472900391,0.4173041880130768
-0.5136445164680481,4.028278350830078,0.41487881541252136
-0.5346344709396362,3.9746851921081543,0.4086800217628479
-0.5542945265769958,3.9171626567840576,0.40205076336860657
-0.5794698596000671,3.9018423557281494,0.3997839093208313
-0.6004377603530884,3.85945463180542,0.3947673439979553
-0.6170997619628906,3.7900116443634033,0.387005090713501
-0.642160952091217,3.7780706882476807,0.3851563632488251
-0.6599006056785583,3.7277870178222656,0.3791882395744324
-0.6790441870689392,3.688915729522705,0.3743852376937866
-0.6969941258430481,3.6461315155029297,0.3692179024219513
-0.7160835862159729,3.61086368560791,0.3648386299610138
-0.7345839738845825,3.5715672969818115,0.360063761472702
-0.7472146153450012,3.5094797611236572,0.3530278503894806
-0.7627398371696472,3.466494083404541,0.347709059715271
-0.7863612174987793,3.461361885070801,0.34621283411979675
-0.8045913577079773,3.433363676071167,0.3424533009529114
-0.8251431584358215,3.412637233734131,0.33941173553466797
-0.8404080867767334,3.373006820678711,0.3345339894294739
-0.8597959876060486,3.352217674255371,0.3314739465713501
-0.8785662055015564,3.3314316272735596,0.32828661799430847
-0.8910228610038757,3.2880148887634277,0.32290053367614746
-0.9044097661972046,3.2482078075408936,0.31788644194602966
-0.9248648881912231,3.234520435333252,0.31545335054397583
-0.9407614469528198,3.205784797668457,0.3115794360637665
-0.9558278322219849,3.177140474319458,0.3075799345970154
-0.969281017780304,3.144761323928833,0.3031977415084839
-0.9885455369949341,3.1307835578918457,0.3005964159965515
-1.0005117654800415,3.0944693088531494,0.2958778738975525
-1.0146981477737427,3.065448522567749,0.29187819361686707
-1.034524917602539,3.0548903942108154,0.2896004021167755
-1.0525386333465576,3.040691375732422,0.2868584990501404
-1.0522428750991821,2.975029230117798,0.2793048024177551
-1.0754743814468384,2.975180149078369,0.27792808413505554
-1.0934991836547852,2.960501194000244,0.27517032623291016
-1.107217788696289,2.934802532196045,0.27140572667121887
-1.1282886266708374,2.931143045425415,0.26951441168785095
-1.1351345777511597,2.891101837158203,0.26430532336235046
-1.1347041130065918,2.832855463027954,0.2574530243873596
-1.1471184492111206,2.8070411682128906,0.25357067584991455
-1.1547338962554932,2.7704086303710938,0.2487490177154541
-1.1382732391357422,2.680398941040039,0.23905709385871887
-1.1330171823501587,2.6193156242370605,0.23202954232692719
-1.154092788696289,2.618812322616577,0.23036977648735046
-1.1739248037338257,2.6144564151763916,0.22834794223308563
-1.1985399723052979,2.6206068992614746,0.2272312194108963
-1.2076876163482666,2.5951550006866455,0.2232484370470047
-1.2399017810821533,2.6189656257629395,0.2235015332698822
-1.2815887928009033,2.6597025394439697,0.2250860631465912
-1.2830067873001099,2.6159262657165527,0.21949107944965363
-1.3078279495239258,2.6212546825408936,0.2179827094078064
-1.2881406545639038,2.539806365966797,0.20923322439193726
-1.297798752784729,2.5175833702087402,0.20543743669986725
-1.3079508543014526,2.4949653148651123,0.2015538364648819
-1.3219648599624634,2.4789671897888184,0.1981787234544754
-1.3271024227142334,2.449888229370117,0.19370537996292114
-1.333761215209961,2.4242746829986572,0.18954814970493317
-1.3426024913787842,2.401770830154419,0.18559390306472778
-1.3593555688858032,2.392557144165039,0.18262603878974915
-1.3676775693893433,2.3700575828552246,0.17854370176792145
-1.3752602338790894,2.347837209701538,0.17453506588935852
-1.4110512733459473,2.372209310531616,0.1738934963941574
-1.4114776849746704,2.3358232975006104,0.1687183529138565
-1.4267793893814087,2.3267414569854736,0.1654733419418335
-1.4462469816207886,2.3241159915924072,0.16262714564800262
-1.4455389976501465,2.2879765033721924,0.15735800564289093
-1.4507665634155273,2.2617714405059814,0.15275447070598602
-1.4653167724609375,2.2526071071624756,0.1492517590522766
-1.4800981283187866,2.243157148361206,0.14567819237709045
-1.4830490350723267,2.2133378982543945,0.140562504529953
-1.4973729848861694,2.203911066055298,0.13677439093589783
-1.4804729223251343,2.149528741836548,0.13024970889091492
-1.4864301681518555,2.1266415119171143,0.12545689940452576
-1.4933037757873535,2.1077239513397217,0.12089735269546509
-1.502249836921692,2.0919885635375977,0.11643930524587631
-1.5031239986419678,2.062701940536499,0.11093941330909729
-1.5160377025604248,2.0534634590148926,0.10651944577693939
-1.5225163698196411,2.1320693492889404,-0.07972691208124161
-1.490748405456543,2.120896100997925,-0.08371614664793015
-1.4772629737854004,2.1348724365234375,-0.08849894255399704
-1.4838190078735352,2.177537441253662,-0.09433160722255707
-1.4801998138427734,2.208052158355713,-0.09972864389419556
-1.4687696695327759,2.224836826324463,-0.10427870601415634
-1.4563863277435303,2.242072820663452,-0.10887335240840912
-1.4352811574935913,2.2461771965026855,-0.11275374889373779
-1.427814245223999,2.269196033477783,-0.11734940111637115
-1.4152352809906006,2.2860405445098877,-0.12163335829973221
-1.412312388420105,2.3196732997894287,-0.12684811651706696
-1.407785415649414,2.3495466709136963,-0.13176561892032623
-1.3946949243545532,2.366190195083618,-0.13590268790721893
-1.37711501121521,2.376246929168701,-0.13966012001037598
-1.3718572854995728,2.406053304672241,-0.14446736872196198
-1.3472212553024292,2.4018454551696777,-0.14718493819236755
-1.3368080854415894,2.4252657890319824,-0.1516137272119522
-1.319258689880371,2.4346368312835693,-0.15509545803070068
-1.3058199882507324,2.450495481491089,-0.15892267227172852
-1.3006912469863892,2.4838569164276123,-0.16387690603733063
-1.3074053525924683,2.541651725769043,-0.17051847279071808
-1.2978384494781494,2.568183183670044,-0.17509600520133972
-1.2902026176452637,2.597944974899292,-0.17985180020332336
-1.2815407514572144,2.6280505657196045,-0.18458853662014008
-1.210211157798767,2.528071880340576,-0.18011212348937988
-1.1924536228179932,2.536278247833252,-0.1831517219543457
-1.1843394041061401,2.565639019012451,-0.18771937489509583
-1.1991475820541382,2.6486382484436035,-0.19626617431640625
-1.1641305685043335,2.621403217315674,-0.19664639234542847
-1.1738263368606567,2.6935489177703857,-0.20443081855773926
-1.116545557975769,2.6119470596313477,-0.20051008462905884
-1.1082426309585571,2.644862651824951,-0.20524530112743378
-1.128774642944336,2.7500035762786865,-0.21573802828788757
-1.1357218027114868,2.8226499557495117,-0.22371742129325867
-1.11739981174469,2.8339126110076904,-0.22687791287899017
-1.1195284128189087,2.8997585773468018,-0.23433785140514374
-1.1070008277893066,2.9293315410614014,-0.23893873393535614
-1.0859791040420532,2.9369571208953857,-0.24178045988082886
-1.0773423910140991,2.977207899093628,-0.24729059636592865
-1.056053638458252,2.9846034049987793,-0.24995964765548706
-1.0448464155197144,3.021303653717041,-0.25508829951286316
-1.0333799123764038,3.0579185485839844,-0.2602425217628479
-1.020201325416565,3.090824842453003,-0.2651338577270508
-0.9935996532440186,3.0829017162323,-0.26641401648521423
-0.9762992262840271,3.1045382022857666,-0.2701651155948639
-0.9632808566093445,3.1409735679626465,-0.27524691820144653
-0.9514341950416565,3.1809499263763428,-0.2806462347507477
-0.9358006119728088,3.2096991539001465,-0.2850973904132843
-0.9169030785560608,3.231127977371216,-0.2887455224990845
-0.9002088904380798,3.259845018386841,-0.29305046796798706
-0.8812927007675171,3.2809243202209473,-0.29669156670570374
-0.8652328848838806,3.3131494522094727,-0.30136507749557495
-0.8476623892784119,3.3415794372558594,-0.3056216239929199
-0.8235198259353638,3.347416877746582,-0.30774199962615967
-0.8088015913963318,3.3908214569091797,-0.31332075595855713
-0.789492130279541,3.415144920349121,-0.31715449690818787
-0.7691164016723633,3.4355454444885254,-0.3206495940685272
-0.7408039569854736,3.4216887950897217,-0.3207413852214813
-0.7385172247886658,3.533351421356201,-0.33263301849365234
-0.7228730320930481,3.584035634994507,-0.3388340175151825
-0.7060195803642273,3.6308095455169678,-0.34470510482788086
-0.6834980249404907,3.6507680416107178,-0.34802645444869995
-0.6522071361541748,3.6247239112854004,-0.3467283546924591
-0.640734076499939,3.7134618759155273,-0.35646548867225647
-0.6179026961326599,3.7368805408477783,-0.3599543869495392
-0.5967862606048584,3.7716517448425293,-0.3645619750022888
-0.576867401599884,3.8178658485412598,-0.37018662691116333
-0.5523146986961365,3.837078332901001,-0.37303051352500916
-0.5354578495025635,3.9178335666656494,-0.3819182217121124
-0.5086232423782349,3.925194263458252,-0.3836681842803955
-0.4822508990764618,3.9362213611602783,-0.3857957720756531
-0.46188634634017944,4.001171588897705,-0.39304232597351074
-0.43679478764533997,4.031259059906006,-0.39676332473754883
-0.4156132936477661,4.103733062744141,-0.4046942889690399
-0.3857634365558624,4.098729133605957,-0.4050273895263672
-0.36094585061073303,4.143807411193848,-0.4103206694126129
-0.33011043071746826,4.122900009155273,-0.40882110595703125
-0.30351772904396057,4.1560540199279785,-0.4126121699810028
-0.2760007381439209,4.181274890899658,-0.4156418740749359
-0.24367332458496094,4.136486053466797,-0.41173604130744934
-0.2149002104997635,4.138009548187256,-0.4124448299407959
-0.18552248179912567,4.127719402313232,-0.411672443151474
-0.15614284574985504,4.113340854644775,-0.4104728400707245
-0.12628549337387085,4.075442790985107,-0.40694257616996765
-0.09800194203853607,4.099514007568359,-0.40962347388267517
-0.06964816153049469,4.107834815979004,-0.4107443690299988
-0.040304768830537796,4.0343756675720215,-0.403337687253952
-0.01228120643645525,4.0462212562561035,-0.4044799506664276
0.015813767910003662,4.034550666809082,-0.4032909572124481
0.044689007103443146,4.061546325683594,-0.4059866964817047
0.07244347035884857,4.033939838409424,-0.4032020568847656
0.10027813166379929,4.025606632232666,-0.40203696489334106
0.12800046801567078,4.017081260681152,-0.4008733630180359
0.15621235966682434,4.02390193939209,-0.40126052498817444
0.18313713371753693,3.9994583129882812,-0.39855021238327026
0.21347181499004364,4.036926746368408,-0.4019438922405243
0.23911981284618378,3.9966228008270264,-0.3973381817340851
0.3145131468772888,4.7086005210876465,-0.46744462847709656
0.3494638204574585,4.737405776977539,-0.4696448743343353
0.3767740726470947,4.665202617645264,-0.46185773611068726
0.4087049663066864,4.650907039642334,-0.4596950113773346
0.4416067600250244,4.655832767486572,-0.45920127630233765
0.4730207920074463,4.645053863525391,-0.45718061923980713
0.5052661299705505,4.641781330108643,-0.45591872930526733
0.5357378125190735,4.622832298278809,-0.4531410336494446
0.5645236372947693,4.588212013244629,-0.4486594796180725
0.5962091088294983,4.584362983703613,-0.4470142424106598
0.6278296709060669,4.580299377441406,-0.44537100195884705
0.6552153825759888,4.545197010040283,-0.44073012471199036
0.6839643120765686,4.521456241607666,-0.4372229278087616
0.718303382396698,4.532060623168945,-0.43681126832962036
0.7470325231552124,4.511840343475342,-0.4333321154117584
0.7742307186126709,4.483767509460449,-0.429130494594574
0.8040161728858948,4.470810890197754,-0.42639753222465515
0.6978451013565063,3.731273889541626,-0.3546319305896759
0.7280145287513733,3.7494614124298096,-0.3548981249332428
0.7527342438697815,3.7368316650390625,-0.35216864943504333
0.8078930974006653,3.872626304626465,-0.36341428756713867
0.9464943408966064,4.384232044219971,-0.4096652567386627
0.9770047664642334,4.377754211425781,-0.40730926394462585
1.0132499933242798,4.397705554962158,-0.4071098864078522
1.0359209775924683,4.356687068939209,-0.40125566720962524
1.0660146474838257,4.349666118621826,-0.398594468832016
1.098213791847229,4.349920272827148,-0.3965991139411926
1.1244800090789795,4.327377796173096,-0.3924461305141449
1.1541569232940674,4.319826602935791,-0.38947436213493347
1.1822419166564941,4.3044257164001465,-0.3857775032520294
1.2078468799591064,4.281405448913574,-0.38144436478614807
1.2420231103897095,4.288094997406006,-0.3797633945941925
1.2671189308166504,4.264788627624512,-0.37525445222854614
1.2895188331604004,4.233946800231934,-0.3700346350669861
1.3167272806167603,4.2176971435546875,-0.3660793900489807
1.3508204221725464,4.223540306091309,-0.36406081914901733
1.380137324333191,4.214338302612305,-0.36072567105293274
1.4026708602905273,4.186666011810303,-0.3556303083896637
1.431168556213379,4.177307605743408,-0.3521222472190857
1.4548404216766357,4.152920246124268,-0.3473365902900696
1.4790421724319458,4.128122806549072,-0.34247684478759766
1.510058879852295,4.1254801750183105,-0.3393780589103699
1.5354111194610596,4.10810661315918,-0.3350007236003876
1.5606886148452759,4.090540885925293,-0.33062395453453064
1.580695629119873,4.058089256286621,-0.3250223398208618
1.612127423286438,4.054406642913818,-0.32164818048477173
1.6308168172836304,4.022029399871826,-0.3159307837486267
1.6640241146087646,4.025586128234863,-0.3130563199520111
1.7010616064071655,4.035778045654297,-0.31060516834259033
1.98305082321167,4.614844799041748,-0.3514431118965149
2.028926372528076,4.633554458618164,-0.3488515019416809
2.0555193424224854,4.609392166137695,-0.34309616684913635
2.0921030044555664,4.606122016906738,-0.33884140849113464
2.1242218017578125,4.591772556304932,-0.3337288498878479
2.1502890586853027,4.567078113555908,-0.327759712934494
2.1849255561828613,4.559636116027832,-0.3229440450668335
2.2127861976623535,4.5378828048706055,-0.3171214163303375
2.2409462928771973,4.515715599060059,-0.3112296462059021
2.278416156768799,4.514779090881348,-0.306698739528656
2.3051130771636963,4.4928154945373535,-0.30071961879730225
2.3449513912200928,4.49453067779541,-0.2962222099304199
1.7295923233032227,3.2587108612060547,-0.2113019973039627
1.7365038394927979,3.2198996543884277,-0.205316424369812
1.7223498821258545,3.1435115337371826,-0.19703833758831024
1.725128173828125,3.0976810455322266,-0.19066143035888672
1.7752653360366821,3.136897087097168,-0.18946720659732819
1.3570208549499512,2.360741376876831,-0.1397767961025238
1.2902337312698364,2.2102620601654053,-0.12823542952537537
0.9533647298812866,1.6074079275131226,-0.09125509858131409
0.9641187191009521,1.6011148691177368,-0.0888720154762268
0.9685507416725159,1.5848652124404907,-0.08594817668199539
0.9837841391563416,1.5847837924957275,-0.08377458155155182
0.9945500493049622,1.5781813859939575,-0.08125801384449005
1.006951093673706,1.5750601291656494,-0.07890904694795609
1.0155117511749268,1.5650333166122437,-0.0761304572224617
1.0219435691833496,1.5516307353973389,-0.07313909381628036
1.0430188179016113,1.56119704246521,-0.07116799801588058
1.0491546392440796,1.54778254032135,-0.0680849552154541
2.5373849868774414,3.689429521560669,-0.15616361796855927
2.565403461456299,3.6798088550567627,-0.14959703385829926
2.5949411392211914,3.668898582458496,-0.1425553262233734
2.6195473670959473,3.651658773422241,-0.13497187197208405
2.6039440631866455,3.5813183784484863,-0.12555794417858124
2.6633174419403076,3.610710620880127,-0.11907497048377991
2.6188175678253174,3.7023894786834717,0.19286195933818817
2.588249683380127,3.7139294147491455,0.1997966468334198
2.5725367069244385,3.752854347229004,0.2081296145915985
1.0670725107192993,1.5817430019378662,0.09023120254278183
1.0469781160354614,1.5762547254562378,0.09223152697086334
1.034786581993103,1.584123969078064,0.09495681524276733
1.0232551097869873,1.5914418697357178,0.0975218415260315
1.0077002048492432,1.5919586420059204,0.09957922995090485
0.9953534603118896,1.5995501279830933,0.10207144170999527
0.9917061924934387,1.6199817657470703,0.10530559718608856
0.968255341053009,1.6066985130310059,0.10625499486923218
0.9562105536460876,1.6137490272521973,0.10846180468797684
1.344367504119873,2.308168888092041,0.1576005071401596
1.3278263807296753,2.3175199031829834,0.16057327389717102
1.78416907787323,3.1656644344329834,0.22239553928375244
1.7492015361785889,3.1581337451934814,0.22478799521923065
1.7798293828964233,3.270019769668579,0.23574520647525787
