X,Y,Z
1.4319006204605103,1.981605887413025,-0.049514126032590866
1.4710252285003662,2.006336212158203,-0.04735498130321503
1.4671828746795654,1.975262999534607,-0.04385988414287567
1.485727071762085,2.086463451385498,0.07544326782226562
1.4796555042266846,2.109764575958252,0.0790005773305893
1.4676251411437988,2.12752628326416,0.08235053718090057
1.4478931427001953,2.131458282470703,0.084968201816082
1.4365001916885376,2.148439884185791,0.08801159262657166
1.428582787513733,2.1723108291625977,0.09134937077760696
1.412946105003357,2.1824018955230713,0.09398002177476883
1.4010170698165894,2.199230670928955,0.09681550413370132
1.3842910528182983,2.209683895111084,0.09936243295669556
1.372645616531372,2.2260053157806396,0.10205325484275818
1.3606330156326294,2.2423958778381348,0.10470488667488098
1.3514223098754883,2.2660439014434814,0.10772234201431274
1.3348748683929443,2.275721549987793,0.11000096052885056
1.322872519493103,2.291630268096924,0.11251380294561386
1.311606526374817,2.3114614486694336,0.11517448723316193
1.2924472093582153,2.3176534175872803,0.11716288328170776
1.2775578498840332,2.3302390575408936,0.11942865699529648
1.264758586883545,2.3459770679473877,0.12179955840110779
1.2509840726852417,2.3620822429656982,0.12414232641458511
1.244241714477539,2.3919565677642822,0.12723314762115479
1.2344996929168701,2.4144394397735596,0.1298804134130478
1.2171324491500854,2.423137664794922,0.13179516792297363
1.2061662673950195,2.445927143096924,0.13439643383026123
1.2034287452697754,2.4862418174743652,0.1379932463169098
1.19586980342865,2.5157289505004883,0.1409706473350525
1.1849054098129272,2.538043260574341,0.14355291426181793
1.172808289527893,2.560730218887329,0.14609161019325256
1.153717279434204,2.5692873001098633,0.14785730838775635
1.1462305784225464,2.6024022102355957,0.15101221203804016
1.1249492168426514,2.6030783653259277,0.15226474404335022
1.1093802452087402,2.618131160736084,0.15430854260921478
1.0902801752090454,2.626049041748047,0.15589168667793274
1.0766682624816895,2.648411750793457,0.15836626291275024
1.066698431968689,2.6775569915771484,0.16121022403240204
1.048020839691162,2.6848299503326416,0.16274493932724
1.0314626693725586,2.699498414993286,0.16463632881641388
1.0146247148513794,2.7141122817993164,0.16652396321296692
1.0040138959884644,2.7470474243164062,0.1695723831653595
0.9835309982299805,2.7502195835113525,0.17074699699878693
0.9566361904144287,2.734828233718872,0.17076651751995087
0.939443051815033,2.748944044113159,0.17251481115818024
0.9146648645401001,2.740769147872925,0.17287184298038483
0.8970021605491638,2.754720687866211,0.1746443808078766
0.8825175166130066,2.775686264038086,0.17683464288711548
0.8758469223976135,2.8226559162139893,0.18070869147777557
0.888308584690094,2.9370179176330566,0.18882301449775696
0.8693978786468506,2.9507241249084473,0.19050195813179016
0.8524859547615051,2.971803903579712,0.19267289340496063
0.8355372548103333,2.9927303791046143,0.19484348595142365
0.8177301287651062,3.0096893310546875,0.19675658643245697
0.7943388223648071,3.0078134536743164,0.1973356157541275
0.7786349654197693,3.036001682281494,0.19986484944820404
0.7607145309448242,3.0565435886383057,0.20190848410129547
0.7388243675231934,3.0618393421173096,0.2029605358839035
0.722836434841156,3.0896100997924805,0.20549799501895905
0.7045542001724243,3.109754800796509,0.20748677849769592
0.6949526071548462,3.1717371940612793,0.2122015506029129
0.6772401928901672,3.1994147300720215,0.21464654803276062
0.6611954569816589,3.238518476486206,0.21788807213306427
0.6401131749153137,3.2506356239318848,0.21931275725364685
0.6189256906509399,3.2626094818115234,0.2207404524087906
0.6000338196754456,3.2898595333099365,0.22306080162525177
0.5794121623039246,3.309331178665161,0.22485744953155518
0.5581179261207581,3.328744888305664,0.2266748547554016
0.5378516316413879,3.3517658710479736,0.22874076664447784
0.5156840085983276,3.3630828857421875,0.23001950979232788
0.49327945709228516,3.374272108078003,0.23124459385871887
0.47157052159309387,3.3930740356445312,0.2328888326883316
0.4548417925834656,3.45428729057312,0.23746952414512634
0.43719860911369324,3.51151180267334,0.24179387092590332
0.4127626419067383,3.5144269466400146,0.24239091575145721
0.3908731937408447,3.5404131412506104,0.2445935755968094
0.36888304352760315,3.5701637268066406,0.24695393443107605
0.3460361957550049,3.595911979675293,0.24898946285247803
0.32171598076820374,3.6137890815734863,0.25049978494644165
0.2986261546611786,3.64311146736145,0.2528137266635895
0.27503517270088196,3.668386220932007,0.2548610270023346
0.25560057163238525,3.7596018314361572,0.2615111768245697
0.23120388388633728,3.7923953533172607,0.2639460265636444
0.2058781087398529,3.825057029724121,0.2663700580596924
0.1796579658985138,3.8380637168884277,0.2674376368522644
0.15380926430225372,3.8625681400299072,0.2693204879760742
0.1282181441783905,3.9024739265441895,0.27229270339012146
0.10253727436065674,3.9616878032684326,0.2766094207763672
0.0755298063158989,4.020753860473633,0.28073644638061523
0.047773510217666626,4.044558048248291,0.28241539001464844
0.019688952714204788,4.068170070648193,0.28409484028816223
-0.008713928051292896,4.10717248916626,0.28686344623565674
-0.037765052169561386,4.157664775848389,0.2904495596885681
-0.06827368587255478,4.223530292510986,0.29506179690361023
-0.09903022646903992,4.285298824310303,0.29923903942108154
-0.12881796061992645,4.284519195556641,0.2990608811378479
-0.1580229252576828,4.267955780029297,0.2977958023548126
-0.1883738785982132,4.282339096069336,0.29870447516441345
-0.22265581786632538,4.3704514503479,0.30476847290992737
-0.2573346793651581,4.434925556182861,0.3090881109237671
-0.29230186343193054,4.499175548553467,0.3132738471031189
-0.32672637701034546,4.543720722198486,0.3160957992076874
-0.3609073758125305,4.576345443725586,0.3180982172489166
-0.4003620743751526,4.663058280944824,0.3238674998283386
-0.4390895962715149,4.722226142883301,0.32772693037986755
-0.48333749175071716,4.835451126098633,0.33518874645233154
-0.5294764637947083,4.952179431915283,0.34279561042785645
-0.6151703596115112,5.401493549346924,0.37338605523109436
-0.6407777070999146,5.300446510314941,0.3659141957759857
-0.6915960311889648,5.400210380554199,0.37231147289276123
-0.7181428670883179,5.314225673675537,0.36592650413513184
-0.7442947626113892,5.235914707183838,0.3598642647266388
-0.7819347381591797,5.242319107055664,0.3596092462539673
-0.8239074349403381,5.275408744812012,0.3611951470375061
-0.8464740514755249,5.181100368499756,0.35406678915023804
-0.8909900784492493,5.225108623504639,0.3564196527004242
-0.9156283140182495,5.153640270233154,0.35088101029396057
-0.9303187727928162,5.036197662353516,0.34202831983566284
-0.9632701277732849,5.022148609161377,0.3402336835861206
-1.0165525674819946,5.111109733581543,0.3454202711582184
-1.0438683032989502,5.061921119689941,0.3412521779537201
-1.0708671808242798,5.016517162322998,0.337380588054657
-1.0994806289672852,4.982480049133301,0.3341844975948334
-1.1394509077072144,5.001582145690918,0.3344435393810272
-1.1672481298446655,4.967244625091553,0.33114463090896606
-1.1806483268737793,4.871975898742676,0.32380151748657227
-1.214455485343933,4.863759994506836,0.32227885723114014
-1.2083653211593628,4.70052433013916,0.31053197383880615
-1.235280990600586,4.67347526550293,0.3076108396053314
-1.266941785812378,4.665102958679199,0.3059219419956207
-1.2990673780441284,4.656371593475342,0.30420517921447754
-1.329028606414795,4.63991117477417,0.3019981384277344
-1.359126329421997,4.623169898986816,0.29978039860725403
-1.3953545093536377,4.628774166107178,0.2989138066768646
-1.124050259590149,3.639603853225708,0.23399211466312408
-1.1467546224594116,3.6244356632232666,0.2319646030664444
-1.4778635501861572,4.562503337860107,0.29069674015045166
-1.5021986961364746,4.530033111572266,0.2873167395591736
-1.5309443473815918,4.512291431427002,0.28484755754470825
-1.5881333351135254,4.579379558563232,0.2875634729862213
-1.626757264137268,4.590768337249756,0.2867618203163147
-1.6530158519744873,4.564932346343994,0.28361228108406067
-1.6725088357925415,4.520562171936035,0.2793271839618683
-1.7120795249938965,4.530885696411133,0.27841928601264954
-1.7466259002685547,4.530370235443115,0.27666980028152466
-1.7769215106964111,4.518721103668213,0.2742507755756378
-1.7947571277618408,4.474018573760986,0.2698119878768921
-1.839179277420044,4.494043350219727,0.26925960183143616
-1.867271065711975,4.474143981933594,0.26629316806793213
-1.897134780883789,4.461721420288086,0.26362404227256775
-1.9222644567489624,4.438360691070557,0.26032501459121704
-1.9527512788772583,4.425192356109619,0.25758451223373413
-1.9579118490219116,4.354729175567627,0.2515237033367157
-2.007188081741333,4.383936882019043,0.2511742115020752
-2.00661563873291,4.307018756866455,0.24466465413570404
-2.0335490703582764,4.290213108062744,0.2416110336780548
-2.0921902656555176,4.335851192474365,0.24195849895477295
-2.082801342010498,4.240789890289307,0.23447422683238983
-2.1146039962768555,4.233914852142334,0.23178794980049133
-2.169053077697754,4.272191047668457,0.23152472078800201
-2.174246311187744,4.212719440460205,0.2259497046470642
-2.1963179111480713,4.183809280395508,0.2219512164592743
-2.1718688011169434,4.068892478942871,0.21335914731025696
-2.1837105751037598,4.027243614196777,0.20866180956363678
-2.221453905105591,4.033466815948486,0.2064581960439682
-2.245607376098633,4.011303424835205,0.2026611715555191
-2.2728652954101562,3.996096611022949,0.1991826593875885
-2.295438766479492,3.974339485168457,0.1952628493309021
-2.3252551555633545,3.966191530227661,0.19207033514976501
-2.352842092514038,3.9500701427459717,0.188303142786026
-2.379394054412842,3.9343130588531494,0.18450966477394104
-2.400766611099243,3.9123294353485107,0.18038110435009003
-2.4311728477478027,3.9028894901275635,0.1767198145389557
-2.4583029747009277,3.886042833328247,0.17261254787445068
-2.479257583618164,3.863616943359375,0.1681830734014511
-2.495496988296509,3.834709644317627,0.16348332166671753
-2.502403974533081,3.788353681564331,0.15784728527069092
-2.48237943649292,3.7033894062042236,0.15053820610046387
-2.4642298221588135,3.6263229846954346,0.14371508359909058
-2.0365476608276367,2.9540624618530273,0.11386812478303909
-2.056168794631958,2.9405860900878906,0.11000590026378632
-2.070075750350952,2.921389579772949,0.10591194778680801
-2.099294424057007,2.9198739528656006,0.10212040692567825
-1.094718098640442,1.5021023750305176,0.05055851861834526
-1.0994800329208374,1.488997220993042,0.04811263456940651
-2.0754456520080566,2.9086251258850098,-0.08640032261610031
-2.053225040435791,2.924203634262085,-0.09131024777889252
-2.49336576461792,3.607290267944336,-0.117833212018013
-2.432072401046753,3.5733907222747803,-0.12153194844722748
-2.4308810234069824,3.6305391788482666,-0.12831023335456848
-2.400881290435791,3.640915632247925,-0.1331399381160736
-2.377732753753662,3.6651971340179443,-0.13848437368869781
-2.3501532077789307,3.682750701904297,-0.14348895847797394
-2.328545570373535,3.705491781234741,-0.1484067291021347
-2.29701566696167,3.7157540321350098,-0.15281404554843903
-2.2691993713378906,3.732612133026123,-0.1574859470129013
-2.2385733127593994,3.7417755126953125,-0.16164730489253998
-2.219128131866455,3.77127742767334,-0.16659796237945557
-2.194967031478882,3.794217824935913,-0.17126955091953278
-2.1680400371551514,3.809478282928467,-0.1754406839609146
-2.1408979892730713,3.8246078491210938,-0.1795375496149063
-2.11220645904541,3.8403313159942627,-0.18368680775165558
-2.0806448459625244,3.8484582901000977,-0.1873636692762375
-2.0611014366149902,3.8764595985412598,-0.1919015645980835
-2.034778356552124,3.894554615020752,-0.1958945393562317
-2.0062594413757324,3.9091293811798096,-0.19971036911010742
-1.988516092300415,3.944227933883667,-0.2045648843050003
-1.9538747072219849,3.943902015686035,-0.20748457312583923
-1.9387296438217163,3.9859189987182617,-0.21255987882614136
-1.9130158424377441,4.006779670715332,-0.2165406495332718
-1.8748620748519897,3.998745918273926,-0.21886251866817474
-1.8597570657730103,4.039989948272705,-0.22385063767433167
-1.8267476558685303,4.046273231506348,-0.22687853872776031
-1.8037216663360596,4.0734710693359375,-0.23105107247829437
-1.7859805822372437,4.1108832359313965,-0.23575760424137115
-1.7602109909057617,4.130277633666992,-0.2394219934940338
-1.7364020347595215,4.157073020935059,-0.2434256225824356
-1.7058874368667603,4.169498443603516,-0.24664980173110962
-1.6794084310531616,4.188455581665039,-0.2501777708530426
-1.6473246812820435,4.1926140785217285,-0.2528110444545746
-1.6228318214416504,4.2186970710754395,-0.25662505626678467
-1.592547059059143,4.230043411254883,-0.25955408811569214
-1.5646816492080688,4.248560428619385,-0.2629548907279968
-1.537651538848877,4.266531944274902,-0.26626768708229065
-1.5099505186080933,4.284510612487793,-0.26949161291122437
-1.4792289733886719,4.295043468475342,-0.27219754457473755
-1.4484333992004395,4.305355072021484,-0.27490338683128357
-1.1817636489868164,3.5967373847961426,-0.23135818541049957
-1.1470409631729126,3.575078248977661,-0.2316037118434906
-1.1261887550354004,3.597914457321167,-0.23459666967391968
-1.3304429054260254,4.358917236328125,-0.28605470061302185
-1.3018490076065063,4.375517845153809,-0.28898102045059204
-1.2745277881622314,4.395572662353516,-0.29213640093803406
-1.2450343370437622,4.411962985992432,-0.29497063159942627
-1.2156286239624023,4.4280924797058105,-0.29768896102905273
-1.1881029605865479,4.451547622680664,-0.30092135071754456
-1.1589750051498413,4.467126846313477,-0.30361199378967285
-1.1297610998153687,4.4824957847595215,-0.3063046336174011
-1.0975340604782104,4.490358829498291,-0.30830439925193787
-1.054990291595459,4.452359199523926,-0.307110458612442
-1.0252442359924316,4.467167377471924,-0.3095623850822449
-0.9941393733024597,4.474060535430908,-0.31146126985549927
-0.9661955833435059,4.4959940910339355,-0.3143889307975769
-0.9370773434638977,4.517955780029297,-0.31715211272239685
-0.911292314529419,4.55490779876709,-0.32097551226615906
-0.8807235360145569,4.568736553192139,-0.32319119572639465
-0.8524893522262573,4.593789100646973,-0.3262103497982025
-0.8203724026679993,4.599520206451416,-0.3277953863143921
-0.7887665629386902,4.612850189208984,-0.3297743797302246
-0.7613076567649841,4.648950576782227,-0.3333902060985565
-0.7335807681083679,4.684858798980713,-0.3370160460472107
-0.7026710510253906,4.701312065124512,-0.33926305174827576
-0.6719896793365479,4.721444606781006,-0.34167852997779846
-0.6392239928245544,4.733770847320557,-0.34340059757232666
-0.6069346070289612,4.745792388916016,-0.34510526061058044
-0.575607419013977,4.765308380126953,-0.34737181663513184
-0.5433640480041504,4.776851654052734,-0.3490729331970215
-0.5067097544670105,4.749463081359863,-0.3478008210659027
-0.46610257029533386,4.679176330566406,-0.3432326316833496
-0.42311257123947144,4.577572345733643,-0.33637121319770813
-0.38814595341682434,4.545422077178955,-0.3346009850502014
-0.3540720045566559,4.516883850097656,-0.3331020176410675
-0.3184024691581726,4.46090841293335,-0.3294445872306824
-0.28145599365234375,4.373574256896973,-0.3233259916305542
-0.24766717851161957,4.3287577629089355,-0.3203621506690979
-0.2145460546016693,4.271983623504639,-0.31651362776756287
-0.18065623939037323,4.1760382652282715,-0.3097636103630066
-0.15020175278186798,4.13823938369751,-0.3072015047073364
-0.12249661237001419,4.178111553192139,-0.3102708160877228
-0.0918557345867157,4.1321258544921875,-0.3069811165332794
-0.06255438178777695,4.097596645355225,-0.30455276370048523
-0.033835284411907196,4.07454776763916,-0.3029903769493103
-0.0054614730179309845,4.043515682220459,-0.3007356822490692
0.022563323378562927,4.020089626312256,-0.29891127347946167
0.0502740703523159,3.9614076614379883,-0.29448044300079346
0.07652132213115692,3.8947577476501465,-0.2894746661186218
0.10294962674379349,3.8707737922668457,-0.28765514492988586
0.1285051852464676,3.8310458660125732,-0.2845851182937622
0.15458358824253082,3.818410634994507,-0.28338780999183655
0.1799393743276596,3.793924331665039,-0.28132694959640503
0.2050027996301651,3.7614667415618896,-0.2786879241466522
0.22710545361042023,3.6938726902008057,-0.27346813678741455
0.24957719445228577,3.6455955505371094,-0.26962241530418396
0.2727614641189575,3.6166276931762695,-0.2670736312866211
0.2965477705001831,3.599159002304077,-0.26539111137390137
0.32054394483566284,3.581496238708496,-0.2637037932872772
0.3424343764781952,3.548198938369751,-0.2608887255191803
0.3658351004123688,3.534156560897827,-0.25943806767463684
0.3812447786331177,3.4502816200256348,-0.25273123383522034
0.40733394026756287,3.4669671058654785,-0.2534123659133911
0.4245191514492035,3.406074285507202,-0.24843063950538635
0.44521358609199524,3.3799073696136475,-0.2460116446018219
0.4654764235019684,3.3536341190338135,-0.24354204535484314
0.48751184344291687,3.342694044113159,-0.2420588880777359
0.5076515674591064,3.320054769515991,-0.2397456020116806
0.5310086011886597,3.3164663314819336,-0.23881109058856964
0.5476269125938416,3.274329662322998,-0.2351282685995102
0.5729484558105469,3.285886764526367,-0.2352491021156311
0.5913394689559937,3.2589478492736816,-0.23249179124832153
0.6058046817779541,3.212759256362915,-0.22838769853115082
0.31062033772468567,1.5870792865753174,-0.11242502927780151
0.32187095284461975,1.5848753452301025,-0.11186638474464417
0.32963424921035767,1.5673942565917969,-0.1102096289396286
0.3437124490737915,1.5803682804107666,-0.11064773797988892
0.35628896951675415,1.585614800453186,-0.11054264008998871
0.3690073788166046,1.5907505750656128,-0.11042825132608414
0.39207956194877625,1.6374131441116333,-0.11317285150289536
0.3940393626689911,1.5968756675720215,-0.1098511666059494
0.4001938998699188,1.5752954483032227,-0.10781744867563248
0.7756496667861938,2.9678852558135986,-0.2021026611328125
0.800225019454956,2.9775960445404053,-0.2017292082309723
0.8212890028953552,2.971952199935913,-0.20029662549495697
0.8395249247550964,2.9588513374328613,-0.19827520847320557
0.8575319647789001,2.945667028427124,-0.19622787833213806
0.8620395660400391,2.8875410556793213,-0.1912180334329605
0.8695386648178101,2.8405752182006836,-0.1869744509458542
0.8674281239509583,2.763780355453491,-0.18079328536987305
0.8838697075843811,2.7504820823669434,-0.17870162427425385
0.9001480340957642,2.7370941638946533,-0.1766204684972763
0.9189020395278931,2.7309587001800537,-0.17501035332679749
0.9378960728645325,2.7245986461639404,-0.17337587475776672
0.9566718935966492,2.7181694507598877,-0.17169326543807983
0.9780909419059753,2.718937397003174,-0.17037686705589294
0.9992489218711853,2.7196531295776367,-0.16908086836338043
1.0098378658294678,2.6908719539642334,-0.16594189405441284
1.0313442945480347,2.691166877746582,-0.16460378468036652
1.0410796403884888,2.6624200344085693,-0.16140319406986237
1.0594159364700317,2.655292510986328,-0.15949693322181702
1.0716429948806763,2.6336584091186523,-0.15674929320812225
1.0899593830108643,2.6262447834014893,-0.1548345983028412
1.1033631563186646,2.6080548763275146,-0.15225230157375336
1.1209430694580078,2.60066294670105,-0.15026944875717163
1.1262089014053345,2.5644545555114746,-0.14662064611911774
1.13443922996521,2.53531813621521,-0.14339375495910645
1.1486526727676392,2.5204520225524902,-0.1409751921892166
1.1589702367782593,2.498647689819336,-0.1381247192621231
1.164050579071045,2.466231346130371,-0.13471925258636475
1.1779534816741943,2.451082229614258,-0.1322096586227417
1.1880325078964233,2.4289638996124268,-0.1293514370918274
1.1972897052764893,2.4071083068847656,-0.12646934390068054
1.2062911987304688,2.3852434158325195,-0.1236141175031662
1.222705602645874,2.376983880996704,-0.12142418324947357
1.2427704334259033,2.3754799365997314,-0.11955023556947708
1.2460229396820068,2.3429946899414062,-0.11604945361614227
1.2616099119186401,2.3347489833831787,-0.11380591243505478
1.27772855758667,2.326079845428467,-0.1114773377776146
1.2898080348968506,2.310579538345337,-0.10880530625581741
1.2973662614822388,2.288524866104126,-0.10581707209348679
1.3089598417282104,2.273019552230835,-0.10310498625040054
1.3287312984466553,2.2706797122955322,-0.10093680769205093
1.3399027585983276,2.255138874053955,-0.09815657883882523
1.35472571849823,2.246372699737549,-0.09566774219274521
1.361854076385498,2.223876714706421,-0.09253706783056259
1.3772634267807007,2.2144761085510254,-0.08987892419099808
1.3874872922897339,2.198962688446045,-0.08700275421142578
1.3978862762451172,2.1832048892974854,-0.08408362418413162
1.4087573289871216,2.167003870010376,-0.08105723559856415
1.4270668029785156,2.164452314376831,-0.078518807888031
1.4328328371047974,2.141977071762085,-0.07518866658210754
1.4432927370071411,2.125612497329712,-0.07199450582265854
1.4502341747283936,2.1067745685577393,-0.06872624158859253
1.4640754461288452,2.097276210784912,-0.06570304185152054
1.4648112058639526,2.068214178085327,-0.06193535774946213
1.4735511541366577,2.0524823665618896,-0.05855729430913925
1.4597762823104858,2.004704713821411,-0.05419573560357094
1.4727014303207397,1.9953176975250244,-0.05082842335104942
1.4874267578125,2.103916645050049,0.08845522999763489
1.4710637331008911,2.1152408123016357,0.09195373952388763
1.4596372842788696,2.132462501525879,0.09558556973934174
1.4440041780471802,2.1429343223571777,0.09878155589103699
1.4361352920532227,2.1668243408203125,0.10254289954900742
1.4246113300323486,2.183601140975952,0.10585585236549377
1.4088457822799683,2.193665027618408,0.1087394654750824
1.3921083211898804,2.20418119430542,0.11161044985055923
1.37982976436615,2.2209393978118896,0.11475229263305664
1.3682153224945068,2.2371299266815186,0.11773829162120819
1.355380654335022,2.253901958465576,0.12071184813976288
1.3385138511657715,2.2638189792633057,0.12331701815128326
1.3305130004882812,2.2864720821380615,0.12650111317634583
1.319314956665039,2.3063085079193115,0.1295430064201355
1.3020299673080444,2.3159732818603516,0.13196898996829987
1.288988709449768,2.3320415019989014,0.13471384346485138
1.2801512479782104,2.3545496463775635,0.13778424263000488
1.2627986669540405,2.3637702465057373,0.14001646637916565
1.248560905456543,2.380000352859497,0.14269496500492096
1.2386122941970825,2.402630090713501,0.1456950306892395
1.2253347635269165,2.41804838180542,0.14823588728904724
1.2075997591018677,2.4268269538879395,0.15029935538768768
1.1999455690383911,2.4565627574920654,0.15366937220096588
1.197051763534546,2.496826648712158,0.1577325165271759
1.1829156875610352,2.512052536010742,0.1601698100566864
1.1746152639389038,2.541619062423706,0.16347338259220123
1.1656306982040405,2.571338653564453,0.16677339375019073
1.149916172027588,2.586815357208252,0.16917544603347778
1.133400797843933,2.5982275009155273,0.171258345246315
1.1148337125778198,2.6061246395111084,0.1731247752904892
1.0988298654556274,2.6212527751922607,0.17536576092243195
1.0856484174728394,2.6434876918792725,0.17810028791427612
1.0725151300430298,2.6655421257019043,0.18082520365715027
1.0567365884780884,2.680103063583374,0.18303020298480988
1.0401722192764282,2.6948184967041016,0.18522128462791443
1.0260940790176392,2.716773509979248,0.18783873319625854
1.0117753744125366,2.738654136657715,0.1904715597629547
0.9923525452613831,2.7456412315368652,0.1920585185289383
0.9653984904289246,2.730332374572754,0.1920689046382904
0.9532985687255859,2.759228229522705,0.19513623416423798
0.9234071373939514,2.73638653755188,0.19447289407253265
0.9061150550842285,2.75026798248291,0.19642068445682526
0.8770878314971924,2.726830005645752,0.19568850100040436
0.8779178857803345,2.795982837677002,0.2016075849533081
0.8885781764984131,2.9027369022369385,0.210250124335289
0.8810950517654419,2.9537534713745117,0.21481747925281525
0.8598521947860718,2.9599101543426514,0.216147780418396
0.8430848717689514,2.9808349609375,0.21856044232845306
0.8253932595252991,2.9978127479553223,0.2206871211528778
0.8083927035331726,3.0184855461120605,0.22306711971759796
0.7883754372596741,3.0317413806915283,0.22479920089244843
0.7724012732505798,3.059880256652832,0.2276410609483719
0.7523877620697021,3.07279896736145,0.2293686866760254
0.7327605485916138,3.0854625701904297,0.23107382655143738
0.7147705554962158,3.1055870056152344,0.23335351049900055
0.6923654675483704,3.110581398010254,0.23438572883605957
0.6890859007835388,3.202944278717041,0.24199117720127106
0.6678581833839417,3.2153189182281494,0.24358555674552917
0.6521309018135071,3.254232883453369,0.24720315635204315
0.6294653415679932,3.2586164474487305,0.24821029603481293
0.6104980111122131,3.285923957824707,0.25093168020248413
0.588545560836792,3.2977774143218994,0.2523462474346161
0.5678028464317322,3.317157030105591,0.25435227155685425
0.5455218553543091,3.3287241458892822,0.25577646493911743
0.5253466367721558,3.351619005203247,0.2580781579017639
0.502748429775238,3.3628952503204346,0.25951167941093445
0.48353156447410583,3.3971338272094727,0.26259616017341614
0.4653201401233673,3.4428632259368896,0.2665291130542755
0.4499136507511139,3.5155487060546875,0.27257582545280457
0.42520204186439514,3.518571615219116,0.2732413411140442
0.40292036533355713,3.540740966796875,0.27540504932403564
0.3786451518535614,3.5512001514434814,0.27668339014053345
0.3575626313686371,3.5924885272979736,0.2801697850227356
0.3337177634239197,3.6103909015655518,0.2818390130996704
0.3096756935119629,3.628131151199341,0.28351154923439026
0.28764045238494873,3.6728804111480713,0.28731194138526917
0.2669043242931366,3.7485928535461426,0.2935623526573181
0.24280959367752075,3.7814157009124756,0.2964402139186859
0.21813219785690308,3.8141050338745117,0.2991390526294708
0.19207270443439484,3.827183485031128,0.3003157377243042
0.1666417121887207,3.8595380783081055,0.30302175879478455
0.14036887884140015,3.8917365074157715,0.3057359755039215
0.11473605036735535,3.943202018737793,0.3099793493747711
0.08893508464097977,4.017861366271973,0.3159959614276886
0.06125185266137123,4.041745185852051,0.31786492466926575
0.033239640295505524,4.065435886383057,0.31973424553871155
0.004446711391210556,4.0967206954956055,0.32221704721450806
-0.024302823469042778,4.131697177886963,0.3250060975551605
-0.053896740078926086,4.1976213455200195,0.3302464783191681
-0.08446850627660751,4.267232894897461,0.33568987250328064
-0.11452849209308624,4.282131671905518,0.33669933676719666
-0.14375028014183044,4.265681266784668,0.3352601230144501
-0.17422354221343994,4.272357940673828,0.33565282821655273
-0.21058613061904907,4.411096096038818,0.3464355170726776
-0.23995022475719452,4.386213302612305,0.3443813920021057
-0.2772747874259949,4.497195720672607,0.3528670072555542
-0.30993545055389404,4.518522262573242,0.35420504212379456
-0.3508041799068451,4.636652946472168,0.363132506608963
-0.39372941851615906,4.766119480133057,0.3729535937309265
-0.4449158310890198,4.965012550354004,0.3882018029689789
-0.5015593767166138,5.190547943115234,0.40552496910095215
-0.5414211750030518,5.225757122039795,0.4077809453010559
-0.5879505276679993,5.3109283447265625,0.41383203864097595
-0.6291298270225525,5.345493793487549,0.4159560203552246
-0.6592480540275574,5.286988735198975,0.41085895895957947
-0.6949051022529602,5.274632930755615,0.4093710482120514
-0.7304224371910095,5.262036323547363,0.4078857898712158
-0.7610111832618713,5.21449613571167,0.4034409821033478
-0.8067155480384827,5.2747063636779785,0.407315194606781
-0.8335934281349182,5.211458683013916,0.4016737639904022
-0.8656753897666931,5.182624340057373,0.3987099528312683
-0.901718020439148,5.176567077636719,0.39751455187797546
-0.9286351203918457,5.120443820953369,0.39247748255729675
-0.9585319757461548,5.083338737487793,0.388641357421875
-0.9977850317955017,5.099708557128906,0.3889317810535431
-1.032662034034729,5.092872142791748,0.38746628165245056
-1.0598363876342773,5.047601222991943,0.38309258222579956
-1.0997627973556519,5.063085556030273,0.383348673582077
-1.1172573566436768,4.975564002990723,0.3756996989250183
-1.1422723531723022,4.930028915405273,0.37111273407936096
-1.17215096950531,4.907119274139404,0.36825835704803467
-1.199908971786499,4.876463890075684,0.36484840512275696
-1.2175202369689941,4.803928375244141,0.3583173453807831
-1.2229655981063843,4.685992240905762,0.3484378755092621
-1.2538566589355469,4.673925876617432,0.3462889790534973
-1.2854995727539062,4.665463447570801,0.34438490867614746
-1.3150076866149902,4.6492743492126465,0.34192657470703125
-1.3404443264007568,4.617806911468506,0.33835139870643616
-1.3753149509429932,4.615818977355957,0.3369208872318268
-1.116750717163086,3.6560473442077637,0.26579749584198
-1.1367725133895874,3.633667469024658,0.26299387216567993
-1.154198169708252,3.6037495136260986,0.25966715812683105
-1.4857155084609985,4.532909870147705,0.32516157627105713
-1.520272135734558,4.529821872711182,0.32342982292175293
-1.5833613872528076,4.611461162567139,0.32774031162261963
-1.6414657831192017,4.678106784820557,0.3307332396507263
-1.6650686264038086,4.645099639892578,0.3266729712486267
-1.686920166015625,4.608338832855225,0.3223835229873657
-1.7216472625732422,4.603981018066406,0.3203269839286804
-1.7458733320236206,4.57000207901001,0.3161977231502533
-1.7552851438522339,4.50388240814209,0.3097253739833832
-1.8070350885391235,4.546542167663574,0.31072884798049927
-1.8623623847961426,4.5959367752075195,0.3121575117111206
-1.8808553218841553,4.550651550292969,0.30708664655685425
-1.9176353216171265,4.548168182373047,0.3048873841762543
-1.8864893913269043,4.392134189605713,0.2922923266887665
-1.9064173698425293,4.358194828033447,0.28790637850761414
-1.941911220550537,4.359771728515625,0.2858778238296509
-2.0012385845184326,4.410256862640381,0.28694477677345276
-2.0322163105010986,4.396277904510498,0.2837221324443817
-2.0613741874694824,4.382892608642578,0.28044283390045166
-2.083744525909424,4.355224609375,0.2762669324874878
-2.0961315631866455,4.30615234375,0.2707284986972809
-2.1260550022125244,4.291670799255371,0.2673306167125702
-2.1554248332977295,4.277215003967285,0.26379159092903137
-2.2013649940490723,4.2978410720825195,0.26238444447517395
-2.2008426189422607,4.228087902069092,0.2554838955402374
-2.2211601734161377,4.195616722106934,0.2507408559322357
-2.259188175201416,4.197649002075195,0.2480248659849167
-2.262427568435669,4.138421058654785,0.24160298705101013
-2.2313685417175293,4.017673969268799,0.23165564239025116
-2.2589426040649414,4.002457141876221,0.2278023064136505
-2.294185161590576,4.000583648681641,0.22464711964130402
-2.316246271133423,3.9790475368499756,0.22027352452278137
-2.3341784477233887,3.9506568908691406,0.2155427783727646
-2.3658413887023926,3.941115379333496,0.21161317825317383
-2.3967089653015137,3.931792974472046,0.20767128467559814
-2.418030023574829,3.9097702503204346,0.20298981666564941
-2.4393744468688965,3.8875021934509277,0.19828684628009796
-2.4664177894592285,3.8706367015838623,0.19363588094711304
-2.492178440093994,3.854336738586426,0.1888742744922638
-2.512559413909912,3.8319787979125977,0.18386350572109222
-2.5342466831207275,3.8085339069366455,0.17858222126960754
-2.5685508251190186,3.804574489593506,0.17406399548053741
-2.627974271774292,3.839934825897217,0.17122161388397217
-2.0417380332946777,2.940410614013672,0.1274324357509613
-2.0658984184265137,2.933229446411133,0.12331104278564453
-2.0797085762023926,2.914048910140991,0.11865685880184174
-2.1084797382354736,2.912790536880493,0.11443241685628891
-1.104108452796936,1.5046932697296143,0.05684896185994148
-1.1134897470474243,1.4978593587875366,0.054289788007736206
-2.0647878646850586,2.915846586227417,-0.09761403501033783
-2.0425376892089844,2.9312920570373535,-0.10298775136470795
-2.4361495971679688,3.551360607147217,-0.1303522288799286
-2.4448416233062744,3.6207828521728516,-0.1383512318134308
-2.4128963947296143,3.632544994354248,-0.14412057399749756
-2.391408681869507,3.6558351516723633,-0.1499817669391632
-2.3644626140594482,3.6730899810791016,-0.155524343252182
-2.3367702960968018,3.690531015396118,-0.16107717156410217
-2.3104236125946045,3.7068498134613037,-0.16633540391921997
-2.283066987991333,3.7235262393951416,-0.1715162694454193
-2.2592132091522217,3.746924638748169,-0.17701320350170135
-2.2288804054260254,3.7557406425476074,-0.18156296014785767
-2.2016777992248535,3.7715163230895996,-0.1863919496536255
-2.177124261856079,3.794499158859253,-0.1916375607252121
-2.1538126468658447,3.8165066242218018,-0.1966492235660553
-2.130472183227539,3.83827543258667,-0.2015804499387741
-2.094651222229004,3.839930772781372,-0.20539554953575134
-2.0702271461486816,3.8617677688598633,-0.21026217937469482
-2.042827844619751,3.8760924339294434,-0.21462373435497284
-2.020282745361328,3.9008398056030273,-0.2194545418024063
-1.9953159093856812,3.922185182571411,-0.2240891456604004
-1.9707528352737427,3.94307017326355,-0.22864845395088196
-1.9466041326522827,3.963503360748291,-0.2331320196390152
-1.9172977209091187,3.977522134780884,-0.23720233142375946
-1.888317346572876,3.9911227226257324,-0.2411978542804718
-1.8698824644088745,4.025373935699463,-0.24638459086418152
-1.8416755199432373,4.038120269775391,-0.2502381205558777
-1.8124172687530518,4.0511040687561035,-0.2539784610271454
-1.7924374341964722,4.0853118896484375,-0.2590811848640442
-1.770723581314087,4.115765571594238,-0.26396697759628296
-1.748049259185791,4.142147064208984,-0.2685381770133972
-1.7152456045150757,4.147171497344971,-0.2715913653373718
-1.691198706626892,4.173635959625244,-0.27606797218322754
-1.6644530296325684,4.19253396987915,-0.2800295054912567
-1.634697675704956,4.203991889953613,-0.28351277112960815
-1.607488989830017,4.222591400146484,-0.2873047888278961
-1.5771933794021606,4.2337775230407715,-0.2905709743499756
-1.549652099609375,4.252010822296143,-0.29432645440101624
-1.5199369192123413,4.2625017166137695,-0.29751351475715637
-1.4944151639938354,4.287808895111084,-0.3017129600048065
-1.4611538648605347,4.2908101081848145,-0.3042145073413849
-1.4328794479370117,4.308335304260254,-0.30775898694992065
-1.1558475494384766,3.5582242012023926,-0.2560412883758545
-1.1310392618179321,3.5660126209259033,-0.2584647536277771
-1.34579336643219,4.352021217346191,-0.3175208270549774
-1.3170143365859985,4.368756294250488,-0.32080647349357605
-1.2893751859664917,4.388978004455566,-0.32435905933380127
-1.2609052658081055,4.405148506164551,-0.32760632038116455
-1.2319825887680054,4.421220302581787,-0.33076485991477966
-1.2046091556549072,4.4447197914123535,-0.33436891436576843
-1.172481656074524,4.453112602233887,-0.3368898928165436
-1.1431794166564941,4.4685821533203125,-0.3399103879928589
-1.1139014959335327,4.4838128089904785,-0.3429246246814728
-1.0786001682281494,4.47623872756958,-0.34399035573005676
-1.0398540496826172,4.453237056732178,-0.3438127338886261
-1.011196494102478,4.4756364822387695,-0.3471826910972595
-0.9799929857254028,4.482407093048096,-0.3493098020553589
-0.9519397020339966,4.504208564758301,-0.35261285305023193
-0.9201335906982422,4.51066780090332,-0.35447415709495544
-0.8957985639572144,4.555115699768066,-0.3593500554561615
-0.864622175693512,4.568912982940674,-0.361860066652298
-0.8390668034553528,4.609157562255859,-0.3664568066596985
-0.8042199611663818,4.599410533905029,-0.3670176863670349
-0.7795556783676147,4.650919437408447,-0.3722603917121887
-0.7511623501777649,4.683072566986084,-0.37598875164985657
-0.7201443314552307,4.703571796417236,-0.37882643938064575
-0.6863037347793579,4.700632572174072,-0.3797682523727417
-0.6556391716003418,4.720616340637207,-0.38245779275894165
-0.6225228309631348,4.724994659423828,-0.3837187588214874
-0.5923073887825012,4.752318382263184,-0.3868653178215027
-0.5617806911468506,4.77944278717041,-0.3900225758552551
-0.5270724296569824,4.775455951690674,-0.3906751573085785
-0.4881250560283661,4.7247114181518555,-0.38732287287712097
-0.44720080494880676,4.646556377410889,-0.38154512643814087
-0.40739521384239197,4.568066120147705,-0.37573620676994324
-0.37197619676589966,4.528047561645508,-0.3730910122394562
-0.3369997441768646,4.491673469543457,-0.3707616627216339
-0.29796740412712097,4.381222724914551,-0.36213257908821106
-0.2652135491371155,4.348182678222656,-0.35976168513298035
-0.2322690635919571,4.30324125289917,-0.3564172089099884
-0.19920094311237335,4.23860502243042,-0.35144686698913574
-0.16470912098884583,4.12706184387207,-0.342594176530838
-0.1375565379858017,4.174769878387451,-0.3467837870121002
-0.10827332735061646,4.1678290367126465,-0.346317857503891
-0.07838954031467438,4.121760845184326,-0.34261566400527954
-0.04938668757677078,4.094943523406982,-0.3405279517173767
-0.020170750096440315,4.056248664855957,-0.33746954798698425
0.007987335324287415,4.025147438049316,-0.3348860740661621
0.03574872761964798,3.997755527496338,-0.33250612020492554
0.0623866505920887,3.9234652519226074,-0.32624387741088867
0.0885816141963005,3.87624454498291,-0.32225072383880615
0.11455375701189041,3.844416618347168,-0.31955409049987793
0.14098811149597168,3.824083089828491,-0.3176645338535309
0.16611140966415405,3.791933536529541,-0.3146945834159851
0.19201287627220154,3.7829463481903076,-0.31366461515426636
0.21446551382541656,3.7154834270477295,-0.30780622363090515
0.23630543053150177,3.651773691177368,-0.30228185653686523
0.2601277530193329,3.622877597808838,-0.2995004653930664
0.2839929461479187,3.6055169105529785,-0.29758498072624207
0.30699604749679565,3.5802392959594727,-0.29503482580184937
0.3304121792316437,3.5625667572021484,-0.29312995076179504
0.3532419800758362,3.5408647060394287,-0.2909114956855774
0.3749121129512787,3.5073776245117188,-0.28758537769317627
0.39561742544174194,3.4738271236419678,-0.2841872274875641
0.41540980339050293,3.4362919330596924,-0.28048884868621826
0.4333372116088867,3.3870484828948975,-0.2758598327636719
0.45479729771614075,3.368587017059326,-0.27376148104667664
0.4763328731060028,3.3499598503112793,-0.27151140570640564
0.49828198552131653,3.338977575302124,-0.26983100175857544
0.5183266401290894,3.316305160522461,-0.26722410321235657
0.5388227701187134,3.297339916229248,-0.2649330496788025
0.560417890548706,3.2859222888946533,-0.2632655203342438
0.5790150165557861,3.2590646743774414,-0.26022106409072876
0.6004151105880737,3.2473719120025635,-0.25832751393318176
0.6131911277770996,3.193545341491699,-0.2531284987926483
0.6323161125183105,3.17402982711792,-0.2506709098815918
0.6559779047966003,3.177276849746704,-0.25002309679985046
0.660768449306488,3.092805862426758,-0.24233877658843994
0.6807020306587219,3.0806150436401367,-0.24030785262584686
0.7053374648094177,3.091160774230957,-0.24007751047611237
0.7116575837135315,3.021831750869751,-0.23365922272205353
0.7335900068283081,3.0206997394561768,-0.2325436919927597
0.7561682462692261,3.023280143737793,-0.2315424084663391
0.7753033638000488,3.0105080604553223,-0.22935491800308228
0.7929786443710327,2.9939322471618652,-0.22691458463668823
0.8097331523895264,2.973417282104492,-0.22418008744716644
0.8282446265220642,2.9603466987609863,-0.22198066115379333
0.8463470339775085,2.94724702835083,-0.21966652572155
0.8558526635169983,2.90403413772583,-0.2151154726743698
0.870248556137085,2.8795342445373535,-0.21199879050254822
0.8695167303085327,2.806535005569458,-0.205349862575531
0.8781889081001282,2.7671897411346436,-0.201132670044899
0.8874039649963379,2.7316184043884277,-0.19717010855674744
0.9088143706321716,2.732917547225952,-0.19586382806301117
0.9252850413322449,2.7192845344543457,-0.1934952437877655
0.9467965960502625,2.7202558517456055,-0.19216987490653992
0.9705278873443604,2.7285726070404053,-0.19122347235679626
0.9890908002853394,2.7220373153686523,-0.18923677504062653
0.9996183514595032,2.6933939456939697,-0.185722216963768
1.0159252882003784,2.6790900230407715,-0.18317244946956635
1.0343191623687744,2.6721832752227783,-0.1811070293188095
1.0466972589492798,2.650742292404175,-0.17801934480667114
1.064637541770935,2.643728494644165,-0.1759195178747177
1.0755786895751953,2.618375301361084,-0.17257742583751678
1.094037652015686,2.610860586166382,-0.17038065195083618
1.1116361618041992,2.6035614013671875,-0.16814713180065155
1.1198527812957764,2.5746867656707764,-0.1645423173904419
1.137543797492981,2.567063331604004,-0.1622839719057083
1.1489684581756592,2.5450079441070557,-0.15911033749580383
1.145257830619812,2.49113130569458,-0.15388374030590057
1.148751139640808,2.4552576541900635,-0.14985641837120056
1.1688387393951416,2.4545421600341797,-0.14796899259090424
1.1791056394577026,2.432441473007202,-0.14476680755615234
1.1954926252365112,2.4245712757110596,-0.1423702836036682
1.2084773778915405,2.409543514251709,-0.1395130455493927
1.2177506685256958,2.3875064849853516,-0.13627555966377258
1.2271794080734253,2.365247964859009,-0.13300621509552002
1.2430670261383057,2.357077121734619,-0.13049399852752686
1.253226637840271,2.338557720184326,-0.12741462886333466
1.2654204368591309,2.3232381343841553,-0.12448276579380035
1.2780669927597046,2.3075294494628906,-0.12146357446908951
1.2933154106140137,2.2991549968719482,-0.1188325360417366
1.3046505451202393,2.283892869949341,-0.1158551499247551
1.3164942264556885,2.2682039737701416,-0.11277908086776733
1.3319464921951294,2.259300947189331,-0.11001432687044144
1.3470876216888428,2.2504422664642334,-0.10718555748462677
1.354047179222107,2.2281455993652344,-0.10373792052268982
1.3654181957244873,2.21216082572937,-0.10052169859409332
1.3840100765228271,2.2099249362945557,-0.0979074239730835
1.3900318145751953,2.1877920627593994,-0.09442228078842163
1.401282548904419,2.1714510917663574,-0.09099670499563217
1.4199119806289673,2.1687817573547363,-0.0881740003824234
1.4253207445144653,2.146634101867676,-0.08456460386514664
1.4357575178146362,2.130384683609009,-0.08104048669338226
1.4541698694229126,2.127448081970215,-0.07798895984888077
1.4636094570159912,2.111591339111328,-0.07440539449453354
1.4715156555175781,2.0919058322906494,-0.07052475214004517
1.4712697267532349,2.063485860824585,-0.06639488786458969
1.4526878595352173,2.0096383094787598,-0.06144993007183075
1.4662419557571411,1.9998825788497925,-0.05769919976592064
1.4717780351638794,1.981341004371643,-0.05370529368519783
1.4785873889923096,2.07627010345459,0.0967792347073555
1.4741259813308716,2.1031343936920166,0.10140924155712128
1.462290644645691,2.1206812858581543,0.10556983947753906
1.451804757118225,2.1371400356292725,0.10939372330904007
1.4353224039077759,2.1480636596679688,0.11289029568433762
1.4277628660202026,2.1716198921203613,0.11699263006448746
1.4121912717819214,2.1816015243530273,0.12024230509996414
1.3997119665145874,2.198709011077881,0.12378750741481781
1.3831866979599,2.2089645862579346,0.12691926956176758
1.3717877864837646,2.2250638008117676,0.13023100793361664
1.363273024559021,2.2483882904052734,0.13393205404281616
1.3459608554840088,2.2586166858673096,0.13690239191055298
1.3378019332885742,2.281397581100464,0.14047302305698395
1.3175733089447021,2.283970832824707,0.14275048673152924
1.310055136680603,2.3105688095092773,0.14648710191249847
1.2909963130950928,2.316638708114624,0.1489216387271881
1.2838826179504395,2.342684745788574,0.15257422626018524
1.2669386863708496,2.351729393005371,0.15505167841911316
1.2494490146636963,2.360905408859253,0.15750524401664734
1.24290931224823,2.390592336654663,0.16132806241512299
1.2297163009643555,2.406008243560791,0.16413269937038422
1.2190688848495483,2.428723096847534,0.16742843389511108
1.207985758781433,2.4514944553375244,0.17067445814609528
1.1949914693832397,2.470693588256836,0.1736924797296524
1.1977773904800415,2.521080493927002,0.17886005342006683
1.189820647239685,2.5505218505859375,0.18255917727947235
1.1710693836212158,2.559032440185547,0.184694305062294
1.1519230604171753,2.5675504207611084,0.1868671476840973
1.1415061950683594,2.593353748321533,0.1902419924736023
1.1264630556106567,2.6082658767700195,0.19281594455242157
1.110666036605835,2.623351812362671,0.19531458616256714
1.0944782495498657,2.638441562652588,0.1977980136871338
1.0807238817214966,2.6607871055603027,0.20087115466594696
1.0621387958526611,2.668118715286255,0.20274406671524048
1.0463383197784424,2.6825785636901855,0.20516666769981384
1.0324125289916992,2.7045223712921143,0.20804420113563538
1.0182229280471802,2.7264020442962646,0.2109406590461731
1.0008544921875,2.7409825325012207,0.21330823004245758
0.9830123782157898,2.7514355182647705,0.21530921757221222
0.9495850801467896,2.7176663875579834,0.2138289511203766
0.9374821186065674,2.746450185775757,0.21713680028915405
0.9102317690849304,2.7308528423309326,0.2169470638036728
0.890210747718811,2.737319231033325,0.21852770447731018
0.8781930208206177,2.7656071186065674,0.22181785106658936
0.8738941550254822,2.8198983669281006,0.22723083198070526
0.8862670063972473,2.9341108798980713,0.23737041652202606
0.8717771768569946,2.9626970291137695,0.24063313007354736
0.8526322245597839,2.976248264312744,0.24269665777683258
0.8345517516136169,2.993380069732666,0.24506309628486633
0.815731942653656,3.0065174102783203,0.24709880352020264
0.7963612675666809,3.019653558731079,0.24902772903442383
0.7825062274932861,3.055335760116577,0.25278398394584656
0.7625471949577332,3.0682973861694336,0.2546834349632263
0.7404702305793762,3.0735931396484375,0.25596731901168823
0.722581684589386,3.0937387943267822,0.2584785521030426
0.7008892893791199,3.0986249446868896,0.2596819996833801
0.6946179270744324,3.1757078170776367,0.26682278513908386
0.680813729763031,3.2223856449127197,0.2714480459690094
0.6590297818183899,3.234762191772461,0.2732194662094116
0.639499843120575,3.2544586658477783,0.27559998631477356
0.6168314814567566,3.2587385177612305,0.2766916751861572
0.5980726480484009,3.2858943939208984,0.279602974653244
0.577459990978241,3.305309772491455,0.2818126678466797
0.5568440556526184,3.3285012245178223,0.28437426686286926
0.5346497297286987,3.339945077896118,0.2859373092651367
0.5148772597312927,3.3666000366210938,0.28881701827049255
0.4947928786277771,3.393134832382202,0.2917078137397766
0.4761808216571808,3.4350345134735107,0.29572081565856934
0.4590742290019989,3.4961915016174316,0.30142539739608765
0.43630871176719666,3.5147321224212646,0.303472101688385
0.41261494159698486,3.5253682136535645,0.30485033988952637
0.39017802476882935,3.547437906265259,0.30723369121551514
0.3685949742794037,3.5809884071350098,0.3105827569961548
0.3456615209579468,3.6066904067993164,0.3130919933319092
0.32121309638023376,3.6245341300964355,0.3149434030056
0.297292023897171,3.64605450630188,0.3171277344226837
0.27706974744796753,3.717850685119629,0.32370561361312866
0.2551516592502594,3.777883768081665,0.32928574085235596
0.2297702431678772,3.795070171356201,0.3310645520687103
0.20401059091091156,3.8199005126953125,0.3333769142627716
0.17816554009914398,3.8406476974487305,0.33534881472587585
0.15253929793834686,3.872882604598999,0.33834218978881836
0.12680377066135406,3.9127213954925537,0.34201914072036743
0.10164982825517654,3.9951775074005127,0.34944409132003784
0.07396417111158371,4.030799865722656,0.3526684641838074
0.046119775623083115,4.054563522338867,0.35472971200942993
0.017981795594096184,4.085915565490723,0.35747209191322327
-0.01064385287463665,4.120962142944336,0.3605552613735199
-0.03969733417034149,4.167481899261475,0.3646601140499115
