X,Y,Z
0.24003569781780243,1.6582168340682983,-0.40030530095100403
0.2562274932861328,1.6870988607406616,-0.40525496006011963
0.26565951108932495,1.6707968711853027,-0.3993547856807709
0.2836012542247772,1.706955075263977,-0.4059869647026062
0.3001333177089691,1.731796145439148,-0.40951019525527954
0.31387659907341003,1.7377554178237915,-0.40846505761146545
0.3303039073944092,1.758604884147644,-0.4109434485435486
0.3455807864665985,1.771844506263733,-0.41161248087882996
0.37241658568382263,1.8410414457321167,-0.4248594045639038
0.39007362723350525,1.8615169525146484,-0.4266740083694458
0.4106936752796173,1.892988920211792,-0.4308917820453644
0.42734506726264954,1.905714750289917,-0.4308454990386963
0.45109283924102783,1.9481010437011719,-0.43716704845428467
0.4648169279098511,1.9457387924194336,-0.4332926571369171
0.4904145300388336,1.9914811849594116,-0.44006597995758057
0.5084864497184753,2.0036089420318604,-0.4392620623111725
0.5284224152565002,2.0230789184570312,-0.4398735761642456
0.5675214529037476,2.1125755310058594,-0.45538535714149475
0.5936378836631775,2.1500651836395264,-0.4594651162624359
0.6224138736724854,2.194678783416748,-0.4649215638637543
0.653175413608551,2.2426793575286865,-0.4706864655017853
0.6876440644264221,2.3015036582946777,-0.47843417525291443
0.7207435965538025,2.3526651859283447,-0.4843735694885254
0.7580950260162354,2.4144747257232666,-0.49227336049079895
0.7998442053794861,2.4869117736816406,-0.501945436000824
0.8429176807403564,2.558908224105835,-0.5109504461288452
0.8916434645652771,2.6451127529144287,-0.5225543975830078
0.9392176866531372,2.723536729812622,-0.5322476625442505
0.9904289245605469,2.8087716102600098,-0.5428283214569092
1.0480207204818726,2.908021926879883,-0.5555050373077393
1.1083828210830688,3.010291576385498,-0.5683088302612305
1.1802763938903809,3.1369776725769043,-0.5850313901901245
1.2467012405395508,3.2450811862945557,-0.5977769494056702
1.3018590211868286,3.320329427719116,-0.603837788105011
1.4239847660064697,3.5595741271972656,-0.6389700174331665
1.5396357774734497,3.772388219833374,-0.6681875586509705
1.6231637001037598,3.8983705043792725,-0.6809669733047485
1.7002558708190918,4.006019115447998,-0.6899136900901794
1.8800841569900513,4.346653938293457,-0.7378551959991455
1.9328725337982178,4.384747505187988,-0.7333244681358337
1.933902621269226,4.3061203956604,-0.7092629075050354
1.5176576375961304,3.3174149990081787,-0.5377078056335449
1.5311200618743896,3.2872660160064697,-0.5243164896965027
1.5512099266052246,3.2708799839019775,-0.5130859017372131
1.5843340158462524,3.2823455333709717,-0.5061560869216919
1.5935219526290894,3.2450056076049805,-0.49165189266204834
1.6201022863388062,3.2420504093170166,-0.48222607374191284
1.6695290803909302,3.2837483882904053,-0.4793034493923187
1.5946476459503174,3.084181308746338,-0.4415026605129242
1.625045895576477,3.0916237831115723,-0.4338063895702362
1.6467750072479248,3.081538677215576,-0.4234989881515503
1.7021074295043945,3.132464647293091,-0.4212762713432312
1.7241407632827759,3.1218388080596924,-0.4104131758213043
1.7494499683380127,3.1180238723754883,-0.4006020724773407
1.7889059782028198,3.137260675430298,-0.39336758852005005
1.3261210918426514,2.288999557495117,-0.27984970808029175
0.9635008573532104,1.6377760171890259,-0.19507119059562683
0.8992940783500671,1.5048372745513916,-0.17432130873203278
0.8978909254074097,1.4790912866592407,-0.16644124686717987
0.9202388525009155,1.4933925867080688,-0.16306990385055542
0.9778138995170593,1.5635786056518555,-0.16548633575439453
0.9993565678596497,1.5736466646194458,-0.16097892820835114
1.010443925857544,1.5671911239624023,-0.15461720526218414
1.0146151781082153,1.5511568784713745,-0.14745716750621796
1.036250114440918,1.5608229637145996,-0.14249959588050842
1.0361911058425903,1.5380158424377441,-0.13450178503990173
1.0574368238449097,1.5477025508880615,-0.12935464084148407
2.543222188949585,3.667668342590332,-0.29134601354599
2.5774292945861816,3.664083480834961,-0.275715708732605
2.6060538291931152,3.6545791625976562,-0.25960373878479004
2.5950253009796143,3.586876153945923,-0.23857130110263824
2.6375999450683594,3.5956063270568848,-0.2225089818239212
2.6891679763793945,3.6167984008789062,-0.2067621648311615
2.639003038406372,3.719583511352539,0.6121581792831421
2.616238832473755,3.7424631118774414,0.6289688944816589
2.5734803676605225,3.7412219047546387,0.6413103938102722
1.0635948181152344,1.572231411933899,0.2746966779232025
1.0392639636993408,1.5596152544021606,0.2770911753177643
1.0400906801223755,1.5858302116394043,0.28628313541412354
1.0313795804977417,1.599648356437683,0.2932826280593872
1.0192290544509888,1.6064140796661377,0.2987295985221863
1.0075857639312744,1.6127722263336182,0.303925096988678
0.9990862011909485,1.6261461973190308,0.310258686542511
0.994257390499115,1.6461623907089233,0.31789177656173706
0.9661085605621338,1.6261467933654785,0.31762421131134033
0.9543809294700623,1.6321521997451782,0.322243332862854
1.3312023878097534,2.3159897327423096,0.46181613206863403
1.8468440771102905,3.26969313621521,0.6583549380302429
1.7757728099822998,3.19756817817688,0.6498096585273743
1.7671082019805908,3.235785484313965,0.6635059714317322
1.781110405921936,3.3183512687683105,0.6860993504524231
1.7663936614990234,3.3506436347961426,0.6982654333114624
2.383370876312256,4.603667259216309,0.9669201374053955
2.3468894958496094,4.611617088317871,0.9756568074226379
2.3132801055908203,4.626376152038574,0.9859941005706787
2.288443088531494,4.662298679351807,1.0000916719436646
2.2563605308532715,4.6843414306640625,1.0112677812576294
2.2179882526397705,4.692086696624756,1.0193287134170532
2.1910195350646973,4.719666957855225,1.031448245048523
2.1541879177093506,4.726179599761963,1.0390328168869019
2.121245861053467,4.747528553009033,1.0492829084396362
2.0795133113861084,4.747358798980713,1.0546987056732178
2.0440261363983154,4.760859966278076,1.063180685043335
1.7459295988082886,4.145913124084473,0.9304156303405762
1.7296112775802612,4.188432693481445,0.9445908069610596
1.704047441482544,4.2138671875,0.9545760154724121
1.6699168682098389,4.21781063079834,0.9594847559928894
1.6385786533355713,4.228600978851318,0.9659972190856934
1.6136119365692139,4.2530951499938965,0.9755721688270569
1.5861459970474243,4.2701311111450195,0.9834499955177307
1.5551785230636597,4.280075550079346,0.989662766456604
1.5211410522460938,4.282886981964111,0.9936357140541077
1.487099051475525,4.2854413986206055,0.9975960850715637
1.4653862714767456,4.323834419250488,1.0099656581878662
1.4373174905776978,4.340012550354004,1.0170843601226807
1.4038081169128418,4.341657638549805,1.0209131240844727
1.3750697374343872,4.357624530792236,1.0277849435806274
1.3455531597137451,4.373667240142822,1.0343174934387207
1.3212954998016357,4.407758712768555,1.0451980829238892
1.28714919090271,4.408771514892578,1.0482890605926514
1.260306477546692,4.431244850158691,1.0564508438110352
1.230649709701538,4.446336269378662,1.0629680156707764
1.1990693807601929,4.4539008140563965,1.0673816204071045
1.1687774658203125,4.468847274780273,1.0731751918792725
1.1421254873275757,4.498319149017334,1.082524299621582
1.10960054397583,4.505477428436279,1.086574673652649
1.0791481733322144,4.519721031188965,1.0923686027526855
1.0508664846420288,4.541038513183594,1.0998940467834473
1.0172088146209717,4.539980411529541,1.1019150018692017
0.9870197176933289,4.55751371383667,1.107884407043457
0.9504088759422302,4.54508638381958,1.106624722480774
0.7746019959449768,3.8434784412384033,0.9373597502708435
0.7569140195846558,3.896657705307007,0.9519014358520508
0.860930860042572,4.603031158447266,1.1263519525527954
0.8368626832962036,4.652992248535156,1.1405385732650757
0.8051443696022034,4.665642738342285,1.145021915435791
0.7738563418388367,4.685703277587891,1.1512396335601807
0.7423267960548401,4.70171594619751,1.1565059423446655
0.7089669108390808,4.706246852874756,1.15900719165802
0.6782814264297485,4.725496292114258,1.1651723384857178
0.6453098654747009,4.729503631591797,1.1676398515701294
0.6154845952987671,4.763510227203369,1.177397608757019
0.5836977362632751,4.7823686599731445,1.1828548908233643
0.550753116607666,4.79348087310791,1.186460256576538
0.5188993811607361,4.815677165985107,1.1928733587265015
0.4839472472667694,4.8074493408203125,1.1918045282363892
0.45366033911705017,4.844256401062012,1.201954960823059
0.41937077045440674,4.8469085693359375,1.2037149667739868
0.38786157965660095,4.8796467781066895,1.2124963998794556
0.3535469174385071,4.882012367248535,1.2134647369384766
0.3215015232563019,4.918181896209717,1.2228975296020508
0.2869790196418762,4.920074462890625,1.223870873451233
0.25326043367385864,4.944456577301025,1.2305070161819458
0.21985620260238647,4.9685797691345215,1.2371342182159424
0.1852811574935913,4.969747066497803,1.2381080389022827
0.15162226557731628,5.004942893981934,1.2469050884246826
0.1164027750492096,4.994462966918945,1.244267463684082
0.08160585165023804,5.036803245544434,1.2548511028289795
0.046431202441453934,5.037201404571533,1.2550468444824219
0.011485777795314789,5.060096263885498,1.260908603668213
-0.023960210382938385,5.109278202056885,1.273384928703308
-0.05960116162896156,5.1165337562561035,1.2754110097885132
-0.09513064473867416,5.082034111022949,1.2662822008132935
-0.13152329623699188,5.1230854988098145,1.2760485410690308
-0.16830645501613617,5.16008996963501,1.2848625183105469
-0.20417197048664093,5.158951282501221,1.2842371463775635
-0.20078082382678986,4.313113212585449,1.073445439338684
-0.22812595963478088,4.262531757354736,1.0606765747070312
-0.2600874900817871,4.291266918182373,1.0674784183502197
-0.2930474579334259,4.3388447761535645,1.0784944295883179
-0.3224528431892395,4.329457759857178,1.0753945112228394
-0.3493310213088989,4.289631366729736,1.0647914409637451
-0.37968072295188904,4.294966697692871,1.0654546022415161
-0.40614062547683716,4.250948429107666,1.0539166927337646
-0.4302901327610016,4.195497989654541,1.0396201610565186
-0.4547167718410492,4.151329040527344,1.0278236865997314
-0.4797714948654175,4.118407726287842,1.0185452699661255
-0.4992808699607849,4.043914318084717,0.9990606904029846
-0.5227175951004028,4.003137588500977,0.9879631996154785
-0.5437318086624146,3.9509847164154053,0.9741393327713013
-0.5701173543930054,3.940028429031372,0.9705299735069275
-0.5901110172271729,3.8876166343688965,0.9567683935165405
-0.6108525991439819,3.846522331237793,0.9453495144844055
-0.6295892000198364,3.7940540313720703,0.931057333946228
-0.6516814231872559,3.7677602767944336,0.9232836961746216
-0.6694061160087585,3.718909502029419,0.9100489020347595
-0.6876964569091797,3.6736302375793457,0.897735595703125
-0.7075195908546448,3.6394588947296143,0.8882061839103699
-0.7343582510948181,3.6424591541290283,0.8876919150352478
-0.7449281215667725,3.5672762393951416,0.86766517162323
-0.7556596398353577,3.499608039855957,0.8496003150939941
-0.7729881405830383,3.465322494506836,0.8397191166877747
-0.7901135087013245,3.4309041500091553,0.8298569917678833
-0.8158199191093445,3.433352470397949,0.8289473652839661
-0.8357242345809937,3.4096498489379883,0.8217411637306213
-0.8497952818870544,3.3676793575286865,0.8098372220993042
-0.8727406859397888,3.362565040588379,0.8066797852516174
-0.8858450651168823,3.3205199241638184,0.7947207689285278
-0.8933855891227722,3.260077953338623,0.7784472107887268
-0.9145441055297852,3.2470619678497314,0.7734899520874023
-0.9287886023521423,3.212062358856201,0.7633886933326721
-0.9510133862495422,3.2063300609588623,0.7601156830787659
-0.9605672359466553,3.16054630279541,0.7470747828483582
-0.979736328125,3.1475062370300293,0.7418407797813416
-0.9991716146469116,3.134232521057129,0.7365562915802002
-1.011569619178772,3.0990285873413086,0.7261587977409363
-1.0199960470199585,3.052905321121216,0.713275671005249
-1.0412843227386475,3.046556234359741,0.7096527218818665
-1.049325704574585,3.004326343536377,0.6973386406898499
-1.0696362257003784,2.9980602264404297,0.6934376955032349
-1.0759270191192627,2.9520678520202637,0.6803650259971619
-1.0992223024368286,2.9525415897369385,0.6780285239219666
-1.1010050773620605,2.8956542015075684,0.662570595741272
-1.1184529066085815,2.88169002532959,0.6568971276283264
-1.1575971841812134,2.924799919128418,0.6638791561126709
-1.1419429779052734,2.8291375637054443,0.6393783092498779
-1.143615961074829,2.7798612117767334,0.6255664229393005
-1.1129207611083984,2.6527538299560547,0.5943140387535095
-1.134659767150879,2.6527938842773438,0.5916900038719177
-1.146822214126587,2.631840944290161,0.5841928720474243
-1.1648865938186646,2.624910831451416,0.5796121954917908
-1.1888689994812012,2.6319496631622314,0.5781850814819336
-1.2069898843765259,2.6247029304504395,0.5735644102096558
-1.2337082624435425,2.6344664096832275,0.5725817680358887
-1.2555636167526245,2.63366436958313,0.5692596435546875
-1.2651705741882324,2.6088814735412598,0.5603815913200378
-1.2758904695510864,2.5876388549804688,0.552390992641449
-1.2830982208251953,2.5594189167022705,0.5429500341415405
-1.2908577919006348,2.530801296234131,0.533332347869873
-1.312442660331726,2.5294394493103027,0.5295004844665527
-1.316909670829773,2.497904062271118,0.5190408229827881
-1.3266947269439697,2.4764480590820312,0.510673463344574
-1.3324227333068848,2.4482686519622803,0.5010300278663635
-1.3424620628356934,2.4263851642608643,0.4925398826599121
-1.3634196519851685,2.4246673583984375,0.48814600706100464
-1.3681303262710571,2.3966481685638428,0.4781966209411621
-1.3766801357269287,2.3751566410064697,0.4695509672164917
-1.3872060775756836,2.3568222522735596,0.4615243077278137
-1.388254165649414,2.3215813636779785,0.45011499524116516
-1.4041407108306885,2.3132264614105225,0.44380754232406616
-1.4154168367385864,2.2985122203826904,0.4361681342124939
-1.4228764772415161,2.2769622802734375,0.4271615445613861
-1.4268791675567627,2.248364210128784,0.41663363575935364
-1.4321329593658447,2.223362445831299,0.4067690670490265
-1.4468263387680054,2.2150890827178955,0.39984914660453796
-1.4573419094085693,2.2001760005950928,0.39170992374420166
-1.4604926109313965,2.171539306640625,0.3806881606578827
-1.5036855936050415,2.2043089866638184,0.38034170866012573
-1.4806526899337769,2.1416637897491455,0.3634442389011383
-1.495301604270935,2.1327946186065674,0.3555390238761902
-1.5063153505325317,2.1169228553771973,0.3460979461669922
-1.511299729347229,2.095681667327881,0.3354978561401367
-1.5182970762252808,2.0775856971740723,0.32549989223480225
-1.5287117958068848,2.0617306232452393,0.3152455985546112
-1.5189982652664185,2.130918025970459,-0.1482076644897461
-1.4867587089538574,2.1195075511932373,-0.15740369260311127
-1.4826322793960571,2.1453733444213867,-0.16856658458709717
-1.4927436113357544,2.1943359375,-0.18176129460334778
-1.4804824590682983,2.2111599445343018,-0.19235818088054657
-1.473242998123169,2.2338311672210693,-0.2030489146709442
-1.4624005556106567,2.253974199295044,-0.21376359462738037
-1.4434667825698853,2.260612964630127,-0.22293563187122345
-1.4024192094802856,2.230424165725708,-0.22797678411006927
-1.3692715167999268,2.213484525680542,-0.2341402918100357
-1.330474853515625,2.1861515045166016,-0.23892094194889069
-1.310573697090149,2.188152551651001,-0.24655911326408386
-1.3101763725280762,2.2236146926879883,-0.25790467858314514
-1.2954957485198975,2.2357120513916016,-0.26664796471595764
-1.2909499406814575,2.264235496520996,-0.27716177701950073
-1.282077431678772,2.28609561920166,-0.2869316041469574
-1.268518090248108,2.3014683723449707,-0.29605910181999207
-1.251711130142212,2.3096158504486084,-0.30403953790664673
-1.2497930526733398,2.344836950302124,-0.3155342936515808
-1.2325385808944702,2.352883815765381,-0.3234062194824219
-1.2790491580963135,2.484874963760376,-0.3486749529838562
-1.3483598232269287,2.6658496856689453,-0.3816022574901581
-1.4446717500686646,2.906629800796509,-0.42405015230178833
-1.316336989402771,2.6965715885162354,-0.40071043372154236
-1.2380993366241455,2.5826656818389893,-0.3907197415828705
-1.2048214673995972,2.558716058731079,-0.3938005566596985
-1.18308424949646,2.5591161251068115,-0.40047702193260193
-1.1704484224319458,2.5806725025177,-0.41055992245674133
-1.1596248149871826,2.6054868698120117,-0.4210888743400574
-1.1379095315933228,2.6053757667541504,-0.42755603790283203
-1.198141098022461,2.7968478202819824,-0.4657832384109497
-1.1523948907852173,2.7436413764953613,-0.4635394215583801
-1.0896838903427124,2.647207021713257,-0.4536779224872589
-1.0346989631652832,2.564232349395752,-0.4455175995826721
-0.9892560243606567,2.502295970916748,-0.44048991799354553
-0.9419269561767578,2.4327268600463867,-0.4337735176086426
-0.8985333442687988,2.3698208332061768,-0.4278932213783264
-0.8626335263252258,2.324565887451172,-0.42500150203704834
-0.818377673625946,2.253631591796875,-0.4168703854084015
-0.7906057834625244,2.225759983062744,-0.4164577126502991
-0.7595813870429993,2.186702013015747,-0.41378292441368103
-0.7304478883743286,2.1509687900543213,-0.4115626811981201
-0.7027239799499512,2.1187407970428467,-0.40974271297454834
-0.6698047518730164,2.067934036254883,-0.40404847264289856
-0.6458348631858826,2.042407512664795,-0.4031215012073517
-0.6166743040084839,1.998311996459961,-0.3983764052391052
-0.5936357975006104,1.9723619222640991,-0.39692166447639465
-0.5774540305137634,1.9682972431182861,-0.3997492492198944
-0.5527060031890869,1.9346710443496704,-0.3965703248977661
-0.5256268382072449,1.8896937370300293,-0.3908636271953583
-0.5061957836151123,1.8703835010528564,-0.3901674747467041
-0.48606550693511963,1.847230315208435,-0.38850316405296326
-0.465393602848053,1.8201839923858643,-0.38593152165412903
-0.44865551590919495,1.8078358173370361,-0.38645797967910767
-0.43591225147247314,1.8102118968963623,-0.38990354537963867
-0.41011619567871094,1.756697177886963,-0.3810957968235016
-0.3977345824241638,1.7588454484939575,-0.3842962086200714
-0.3788357973098755,1.7310513257980347,-0.3809211552143097
-0.35776928067207336,1.691953182220459,-0.3748820424079895
-0.34740370512008667,1.7012914419174194,-0.3793005645275116
-0.32808876037597656,1.6656396389007568,-0.3736632168292999
-0.3241842985153198,1.7085118293762207,-0.3856731653213501
-0.30737385153770447,1.6838887929916382,-0.38239598274230957
-0.29534855484962463,1.6854872703552246,-0.38482338190078735
-0.2677258253097534,1.5930430889129639,-0.36565086245536804
-0.2589849531650543,1.6094026565551758,-0.371370404958725
-0.24425439536571503,1.5880804061889648,-0.3683565557003021
-0.2414458692073822,1.6457996368408203,-0.383409708738327
-0.22764386236667633,1.6319326162338257,-0.3818759024143219
-0.20874488353729248,1.5764565467834473,-0.37052255868911743
-0.1925131380558014,1.5359241962432861,-0.362599641084671
-0.18000639975070953,1.5217771530151367,-0.3604951500892639
-0.16770640015602112,1.507536768913269,-0.3583599030971527
-0.15954221785068512,1.5310086011886597,-0.36521458625793457
-0.14867617189884186,1.5317460298538208,-0.3667043149471283
-0.14176376163959503,1.5740925073623657,-0.3778369724750519
-0.12546731531620026,1.5104165077209473,-0.36347538232803345
-0.11495067179203033,1.510993242263794,-0.3645551800727844
-0.10231681913137436,1.4811911582946777,-0.358305960893631
-0.09370837360620499,1.512001872062683,-0.3664471507072449
-0.08235988765954971,1.4972853660583496,-0.36346372961997986
-0.07158485800027847,1.4900710582733154,-0.36231011152267456
-0.061838049441576004,1.5055350065231323,-0.36669203639030457
-0.051377225667238235,1.505817174911499,-0.3671480119228363
-0.04032379016280174,1.4908905029296875,-0.36376383900642395
-0.0305680762976408,1.5214115381240845,-0.3714849650859833
-0.019702747464179993,1.4987441301345825,-0.3662377595901489
-0.009390692226588726,1.513994574546814,-0.3700629770755768
0.0011361964279785752,1.5216304063796997,-0.3718441426753998
0.011777198873460293,1.5064245462417603,-0.3680606186389923
0.02248060517013073,1.5215011835098267,-0.3716951608657837
0.03446982055902481,1.585861325263977,-0.3872109055519104
0.04345308244228363,1.5136245489120483,-0.36914387345314026
0.05426239222288132,1.5209847688674927,-0.3705257773399353
0.06725611537694931,1.5775682926177979,-0.38390085101127625
0.0767187848687172,1.5430796146392822,-0.37499698996543884
0.08811290562152863,1.5540902614593506,-0.376884400844574
0.10544385761022568,1.6559650897979736,-0.400769978761673
0.10975442826747894,1.5531363487243652,-0.3751314878463745
0.12909747660160065,1.6623759269714355,-0.40066084265708923
0.13898222148418427,1.6390348672866821,-0.39383193850517273
0.15112289786338806,1.6459107398986816,-0.39431509375572205
0.15773572027683258,1.5959711074829102,-0.38123735785484314
0.178854301571846,1.6896450519561768,-0.4024348258972168
0.18895989656448364,1.6736620664596558,-0.3970789611339569
0.20856373012065887,1.73688805103302,-0.41046416759490967
0.21829931437969208,1.7169499397277832,-0.4042013883590698
0.22824765741825104,1.7007240056991577,-0.39886584877967834
0.24813562631607056,1.756111979484558,-0.4099234342575073
0.26489999890327454,1.784978985786438,-0.4146824777126312
0.2717617154121399,1.7459546327590942,-0.4036637246608734
0.29133445024490356,1.7896392345428467,-0.4118140637874603
0.3096531629562378,1.821952223777771,-0.4169583320617676
0.325108140707016,1.8353651762008667,-0.41765549778938293
0.3469732105731964,1.8824067115783691,-0.42594626545906067
0.36449134349823,1.903035283088684,-0.428190141916275
0.37659552693367004,1.8936012983322144,-0.4233781397342682
0.39451828598976135,1.9140515327453613,-0.4251615107059479
0.41754090785980225,1.9567571878433228,-0.43180879950523376
0.4403594136238098,1.995529294013977,-0.4374851882457733
0.46119949221611023,2.0229640007019043,-0.440397709608078
0.47918641567230225,2.0353317260742188,-0.439740926027298
0.4998393952846527,2.0587427616119385,-0.4414803683757782
0.5393968820571899,2.156203508377075,-0.4589218199253082
0.5622047781944275,2.182892322540283,-0.46097901463508606
0.5922623872756958,2.2353367805480957,-0.4681299030780792
0.6233671307563782,2.287442207336426,-0.47496792674064636
0.6539900898933411,2.3356120586395264,-0.4808773398399353
0.682148814201355,2.37246036529541,-0.4842252731323242
0.7238419055938721,2.45324969291687,-0.49606963992118835
0.7567048072814941,2.500582456588745,-0.5009158849716187
0.8053908944129944,2.5951735973358154,-0.5148792266845703
0.8435085415840149,2.6527698040008545,-0.5212541222572327
0.889499843120575,2.732001304626465,-0.5313301086425781
0.9366416931152344,2.810776472091675,-0.5410060286521912
0.9900394082069397,2.903595447540283,-0.5530040264129639
1.051164150238037,3.0140161514282227,-0.5679268836975098
1.1102207899093628,3.112938165664673,-0.5798240900039673
1.1676888465881348,3.204137086868286,-0.5899980068206787
1.232027530670166,3.3091323375701904,-0.6022455096244812
1.278786063194275,3.363030433654785,-0.6048381328582764
1.294026494026184,3.33398699760437,-0.5921582579612732
1.5279972553253174,3.8567116260528564,-0.6762101650238037
1.6131012439727783,3.9906179904937744,-0.6906670928001404
1.6723092794418335,4.055808067321777,-0.6927443742752075
1.7037028074264526,4.05299711227417,-0.6827589273452759
1.9373252391815186,4.522027015686035,-0.7511438131332397
1.93899405002594,4.439258575439453,-0.7266208529472351
1.4834402799606323,3.3328857421875,-0.5375274419784546
1.4971425533294678,3.302844285964966,-0.5245361328125
1.5169864892959595,3.2867729663848877,-0.5138481855392456
1.5468565225601196,3.291437864303589,-0.5062976479530334
1.5672775506973267,3.2747061252593994,-0.4952736794948578
1.5832598209381104,3.2512736320495605,-0.48332569003105164
1.6058353185653687,3.241633892059326,-0.4734957218170166
1.6498119831085205,3.2730929851531982,-0.4693785011768341
1.6481868028640747,3.214501142501831,-0.4523436725139618
1.6094943284988403,3.087512969970703,-0.426076740026474
1.6585891246795654,3.128797769546509,-0.4230375289916992
1.7121198177337646,3.176340103149414,-0.4205177426338196
1.710039734840393,3.1214096546173096,-0.40436914563179016
1.7163865566253662,3.083740472793579,-0.39065253734588623
1.7704447507858276,3.1304147243499756,-0.3873949646949768
1.3148152828216553,2.2869179248809814,-0.2760342061519623
0.9777587056159973,1.6746958494186401,-0.19706803560256958
0.9356718063354492,1.5783528089523315,-0.18092623353004456
0.8806909918785095,1.4623658657073975,-0.16296742856502533
0.8989794850349426,1.470049262046814,-0.15909992158412933
0.9809601306915283,1.580067753791809,-0.16580790281295776
0.987834095954895,1.5671982765197754,-0.15921178460121155
1.0135470628738403,1.5837498903274536,-0.1554558277130127
1.015714168548584,1.5644065141677856,-0.14815038442611694
1.015715479850769,1.5417057275772095,-0.1405314952135086
1.0354713201522827,1.547866940498352,-0.13526391983032227
1.0369994640350342,1.5285804271697998,-0.1278967559337616
2.521193504333496,3.6637604236602783,-0.2925228476524353
2.5738582611083984,3.6854283809661865,-0.27936264872550964
2.589113473892212,3.6568217277526855,-0.26232776045799255
2.587167263031006,3.6019012928009033,-0.24282100796699524
2.607422113418579,3.578733205795288,-0.22532643377780914
2.6676955223083496,3.612978458404541,-0.21130312979221344
2.628499746322632,3.730367660522461,0.5913751721382141
2.604905605316162,3.7538578510284424,0.6077479124069214
2.576678991317749,3.7754855155944824,0.6235367059707642
1.0547209978103638,1.5704874992370605,0.264252245426178
1.0517786741256714,1.5900770425796509,0.2721220850944519
1.0390865802764893,1.5974310636520386,0.2777526378631592
1.0181597471237183,1.5915647745132446,0.28101450204849243
1.0272630453109741,1.6306359767913818,0.29190850257873535
1.002587914466858,1.617807149887085,0.29351502656936646
1.0019506216049194,1.644469141960144,0.3021084666252136
0.9775161147117615,1.6312894821166992,0.3032982647418976
0.9736083745956421,1.6507054567337036,0.3103485107421875
1.3461105823516846,2.3205957412719727,0.4409346282482147
2.5392541885375977,4.455606937408447,0.8553540110588074
1.8239248991012573,3.25610613822937,0.6312499642372131
1.7670842409133911,3.2068400382995605,0.6274192929267883
1.7930941581726074,3.3095104694366455,0.6532530784606934
1.7713147401809692,3.328397035598755,0.6623874306678772
2.3971498012542725,4.588097095489502,0.9206667542457581
2.3621251583099365,4.599871635437012,0.9300943613052368
2.329289197921753,4.614570140838623,0.9400478005409241
2.2966461181640625,4.633233070373535,0.9503492712974548
2.2683041095733643,4.662320137023926,0.962655782699585
2.2324376106262207,4.677607536315918,0.9722934365272522
2.199131965637207,4.691501140594482,0.9812138676643372
2.1624836921691895,4.698190212249756,0.9886758327484131
2.133854866027832,4.726314067840576,1.0001094341278076
2.1045854091644287,4.754417896270752,1.0114907026290894
2.0750539302825928,4.7823076248168945,1.022908091545105
2.0088984966278076,4.721400260925293,1.0151398181915283
1.7423222064971924,4.17523193359375,0.9022834300994873
1.714704990386963,4.19349479675293,0.9104369878768921
1.6863889694213867,4.211812973022461,0.9184204936027527
1.6523468494415283,4.215660095214844,0.9232933521270752
1.6268960237503052,4.240550994873047,0.9327889680862427
1.5941959619522095,4.243427753448486,0.9373539090156555
1.566651463508606,4.260490417480469,0.9449780583381653
1.5378684997558594,4.2778544425964355,0.9521527290344238
1.5114905834197998,4.302212238311768,0.9609479308128357
1.4792940616607666,4.312116622924805,0.966640830039978
1.4513362646102905,4.328463554382324,0.9736310839653015
1.4279752969741821,4.3591389656066895,0.9839149713516235
1.3944573402404785,4.360801696777344,0.9873940944671631
1.3626577854156494,4.369758605957031,0.9921805262565613
1.3357861042022705,4.396890163421631,1.0012080669403076
1.3028438091278076,4.401696681976318,1.0051486492156982
1.2771859169006348,4.428008079528809,1.0139756202697754
1.2461109161376953,4.435789585113525,1.018616795539856
1.2164967060089111,4.4509148597717285,1.024640679359436
1.18822181224823,4.473402500152588,1.0320557355880737
1.1534302234649658,4.473681926727295,1.0344431400299072
1.1267379522323608,4.503127574920654,1.0435911417007446
1.0969305038452148,4.517414569854736,1.049233078956604
1.0669772624969482,4.531498432159424,1.054887056350708
1.0366594791412354,4.545482158660889,1.060319185256958
1.0034230947494507,4.552157402038574,1.0636510848999023
0.9730876684188843,4.569653511047363,1.069541096687317
0.7877588868141174,3.833638906478882,0.8988284468650818
0.7719678282737732,3.8944456577301025,0.9146678447723389
0.7369295358657837,3.8579769134521484,0.9077032208442688
0.8518276214599609,4.637215614318848,1.09302818775177
0.820173978805542,4.650051116943359,1.097321629524231
0.7895954847335815,4.670177459716797,1.103399634361267
0.7576103806495667,4.682579517364502,1.107712984085083
0.7286089658737183,4.71352481842041,1.116469383239746
0.697327733039856,4.733025550842285,1.1225931644439697
0.6632364392280579,4.7296462059021,1.1233211755752563
0.6309173107147217,4.741234302520752,1.1272306442260742
0.5973561406135559,4.745154857635498,1.12901771068573
0.5681968927383423,4.78659200668335,1.139796495437622
0.5326365828514099,4.774952411651611,1.1379961967468262
0.5018379092216492,4.80842924118042,1.1470140218734741
0.46947982907295227,4.822728157043457,1.1515001058578491
0.43728888034820557,4.840590000152588,1.1568989753723145
0.40584659576416016,4.8735737800598145,1.1652249097824097
0.37215888500213623,4.883630752563477,1.1680938005447388
0.3382999300956726,4.9010701179504395,1.1727979183197021
0.305137038230896,4.922026634216309,1.1783950328826904
0.2717200219631195,4.938951015472412,1.183084487915039
0.23765967786312103,4.948060035705566,1.1859631538391113
0.20349843800067902,4.956982612609863,1.1886345148086548
0.16871754825115204,4.973419666290283,1.1925766468048096
0.13435882329940796,4.989595890045166,1.1965152025222778
0.09972325712442398,5.0055341720581055,1.2004560232162476
0.06529435515403748,5.040219783782959,1.2089524269104004
0.030392292886972427,5.055673599243164,1.2128955125808716
-0.005393669009208679,5.086076736450195,1.2204917669296265
-0.04068649560213089,5.085949897766113,1.2203538417816162
-0.07630593329668045,5.108450412750244,1.2253339290618896
-0.11182409524917603,5.111713409423828,1.2257561683654785
-0.14793828129768372,5.133713722229004,1.230729341506958
-0.18475602567195892,5.163049221038818,1.2375162839889526
-0.22135871648788452,5.16172981262207,1.2370116710662842
-0.2590482234954834,5.194328308105469,1.244698166847229
-0.24224606156349182,4.263386249542236,1.0210000276565552
-0.27786165475845337,4.35665225982666,1.0426139831542969
-0.30647069215774536,4.3321404457092285,1.036080002784729
-0.3357962369918823,4.314985752105713,1.031351923942566
-0.3670622408390045,4.327953815460205,1.0338822603225708
-0.39261797070503235,4.276361465454102,1.0210442543029785
-0.4193182587623596,4.243544578552246,1.0126913785934448
-0.442461758852005,4.184274196624756,0.9974679350852966
-0.4708763062953949,4.173930644989014,0.993952751159668
-0.48647820949554443,4.061527729034424,0.9662264585494995
-0.5097324848175049,4.020744323730469,0.9556156396865845
-0.5341905951499939,3.9911067485809326,0.947706401348114
-0.552423357963562,3.919898271560669,0.929991602897644
-0.578372597694397,3.9050655364990234,0.9254395365715027
-0.5970392823219299,3.848893642425537,0.9108026027679443
-0.6167442798614502,3.803908586502075,0.8988898396492004
-0.6403020620346069,3.785083055496216,0.8932199478149414
-0.6572825908660889,3.728595495223999,0.8787142038345337
-0.6771121025085449,3.690729856491089,0.868658721446991
-0.6975756883621216,3.6564271450042725,0.8594862222671509
-0.7181941270828247,3.629746913909912,0.8517001271247864
-0.741489589214325,3.6178998947143555,0.847341775894165
-0.7424989342689514,3.5016045570373535,0.8186138272285461
-0.7722001075744629,3.5230636596679688,0.8221608400344849
-0.781216025352478,3.4475200176239014,0.8030773997306824
-0.8018366694450378,3.4277267456054688,0.7970791459083557
-0.8211165070533752,3.40419340133667,0.7900720834732056
-0.840605616569519,3.3844246864318848,0.7836393117904663
-0.8636753559112549,3.379305601119995,0.7806400060653687
-0.8706013560295105,3.31125545501709,0.7631450295448303
-0.8936131000518799,3.3058106899261475,0.7601436972618103
-0.9085679054260254,3.270768165588379,0.750377893447876
-0.9230251312255859,3.235680103302002,0.7406603693962097
-0.9353492856025696,3.1971521377563477,0.7297295928001404
-0.953044056892395,3.176769495010376,0.7229700088500977
-0.9678889513015747,3.149087429046631,0.7146424055099487
-0.9850257039070129,3.128528594970703,0.7079569697380066
-0.9998764991760254,3.1005189418792725,0.6996152997016907
-1.0216009616851807,3.094196319580078,0.6962127685546875
-1.0344477891921997,3.062565326690674,0.6867102980613708
-1.0476816892623901,3.034658670425415,0.678093671798706
-1.0554969310760498,2.9922778606414795,0.666318416595459
-1.0722237825393677,2.9749724864959717,0.6601527333259583
-1.0957950353622437,2.9753758907318115,0.6579033732414246
-1.0978699922561646,2.918302297592163,0.6430109739303589
-1.1124968528747559,2.8972880840301514,0.6356870532035828
-1.1251164674758911,2.8727705478668213,0.6276641488075256
-1.1416850090026855,2.8588764667510986,0.622018039226532
-1.1658716201782227,2.8624229431152344,0.6201201677322388
-1.1419975757598877,2.748898506164551,0.5929352045059204
-1.1211421489715576,2.646365165710449,0.5682076215744019
-1.1480730772018433,2.6607825756073,0.5684289932250977
-1.1598231792449951,2.639860153198242,0.5611188411712646
-1.1776788234710693,2.6328606605529785,0.5567969083786011
-1.193124771118164,2.618422269821167,0.5508065223693848
-1.226516604423523,2.6420443058013916,0.5527721643447876
-1.247733473777771,2.6415863037109375,0.5494257807731628
-1.262137532234192,2.6272263526916504,0.543129026889801
-1.2679706811904907,2.595522403717041,0.5333103537559509
-1.2758979797363281,2.5669422149658203,0.5240731239318848
-1.294438362121582,2.558689832687378,0.5189370512962341
-1.2979174852371216,2.5234344005584717,0.5082281231880188
-1.3094570636749268,2.5055034160614014,0.5009526014328003
-1.3262231349945068,2.497709035873413,0.4957413673400879
-1.3327878713607788,2.469081401824951,0.4862704575061798
-1.339236855506897,2.4403488636016846,0.4768160581588745
-1.344831109046936,2.4119551181793213,0.46720126271247864
-1.3533018827438354,2.3906044960021973,0.4589981436729431
-1.3635183572769165,2.37253999710083,0.45147210359573364
-1.3766061067581177,2.3571808338165283,0.444225013256073
-1.3933032751083374,2.348477840423584,0.43822282552719116
-1.3972299098968506,2.3203234672546387,0.42829790711402893
-1.4166618585586548,2.318686008453369,0.4233948588371277
-1.420640230178833,2.2902019023895264,0.41339901089668274
-1.4246623516082764,2.261531352996826,0.4033582806587219
-1.4646406173706055,2.292250156402588,0.4036305844783783
-1.4358301162719727,2.2154617309570312,0.3849387466907501
-1.446980357170105,2.200139284133911,0.3769170939922333
-1.4585201740264893,2.1844258308410645,0.3686874806880951
-1.494526982307434,2.2080583572387695,0.3667900562286377
-1.4783025979995728,2.154737949371338,0.3521539270877838
-1.4983869791030884,2.151564836502075,0.3451823890209198
-1.5043305158615112,2.1297383308410645,0.33518972992897034
-1.504634976387024,2.1022346019744873,0.32426899671554565
-1.514492154121399,2.0868496894836426,0.31494420766830444
-1.5269109010696411,2.07427978515625,0.30568811297416687
-1.535502552986145,2.059537410736084,0.2959897220134735
-1.4950132369995117,2.1143059730529785,-0.14894536137580872
-1.4821771383285522,2.127373456954956,-0.15890510380268097
-1.5012269020080566,2.1892685890197754,-0.17277511954307556
-1.480220913887024,2.1933274269104004,-0.18217749893665314
-1.4557571411132812,2.1901633739471436,-0.1903701275587082
-1.4603935480117798,2.232933759689331,-0.20264136791229248
-1.4481405019760132,2.2493221759796143,-0.21240270137786865
-1.4506298303604126,2.2884511947631836,-0.22419953346252441
-1.398034691810608,2.2424490451812744,-0.22770264744758606
-1.369334101676941,2.231865406036377,-0.23419931530952454
-1.3373048305511475,2.214056968688965,-0.23955151438713074
-1.310829520225525,2.2063560485839844,-0.24586112797260284
-1.2984336614608765,2.2217774391174316,-0.25465306639671326
-1.2958112955093384,2.253819227218628,-0.2653483748435974
-1.2829948663711548,2.269132614135742,-0.2740320861339569
-1.2698737382888794,2.2844295501708984,-0.28275370597839355
-1.264600396156311,2.312979221343994,-0.29298314452171326
-1.255220651626587,2.3347439765930176,-0.3024054169654846
-1.2484972476959229,2.3636810779571533,-0.3129434883594513
-1.2365689277648926,2.3820383548736572,-0.3219854235649109
-1.2266616821289062,2.4035606384277344,-0.3313603401184082
-1.285616159439087,2.5638091564178467,-0.360258013010025
-1.4055031538009644,2.853550672531128,-0.4084821939468384
-1.2395620346069336,2.562638759613037,-0.37356042861938477
-1.2013229131698608,2.528322458267212,-0.3749956786632538
-1.1959210634231567,2.563973903656006,-0.38666918873786926
-1.1804090738296509,2.5785233974456787,-0.3952619433403015
-1.1524513959884644,2.564584732055664,-0.3993416726589203
-1.160624623298645,2.6317477226257324,-0.41610434651374817
-1.2792056798934937,2.958303451538086,-0.474779337644577
-1.2441736459732056,2.934161901473999,-0.47774553298950195
-1.1920653581619263,2.8667829036712646,-0.4733508825302124
-1.129238486289978,2.770310401916504,-0.46369239687919617
-1.079095482826233,2.7019362449645996,-0.4582134187221527
-1.0268863439559937,2.6259500980377197,-0.4512110948562622
-0.983417272567749,2.5671935081481934,-0.4466571807861328
-0.9394172430038452,2.5044267177581787,-0.4410475492477417
-0.8988626599311829,2.44852614402771,-0.4362469017505646
-0.8565676808357239,2.3849620819091797,-0.4298301935195923
-0.8240208625793457,2.346433639526367,-0.4277555048465729
-0.7860718369483948,2.2893381118774414,-0.42192959785461426
-0.7562018632888794,2.253814220428467,-0.4197358191013336
-0.728091299533844,2.2216553688049316,-0.41803786158561707
-0.6983079314231873,2.1818654537200928,-0.414722740650177
-0.6676846742630005,2.1382157802581787,-0.41051775217056274
-0.641269326210022,2.105289936065674,-0.4079587161540985
-0.60988849401474,2.053717851638794,-0.4016425609588623
-0.5910810232162476,2.042381763458252,-0.40307164192199707
-0.567250669002533,2.012434244155884,-0.4007205367088318
-0.5468716621398926,1.9934287071228027,-0.40021491050720215
-0.5285186171531677,1.981706976890564,-0.40118855237960815
-0.5068178176879883,1.9549299478530884,-0.39898985624313354
-0.48834019899368286,1.9391056299209595,-0.39896029233932495
-0.46552926301956177,1.9045970439910889,-0.39470621943473816
-0.4449951946735382,1.8773361444473267,-0.39187368750572205
-0.4238356649875641,1.8461997509002686,-0.3881942629814148
-0.4125272035598755,1.8559117317199707,-0.3930283486843109
-0.3946649730205536,1.8356964588165283,-0.39123180508613586
-0.38021495938301086,1.8303155899047852,-0.3925281763076782
-0.35607975721359253,1.776113510131836,-0.3832908272743225
-0.3390163481235504,1.7554917335510254,-0.3812580406665802
-0.3252808153629303,1.749768614768982,-0.3821514844894409
-0.31298795342445374,1.7514797449111938,-0.38457125425338745
-0.29682767391204834,1.7305275201797485,-0.38200512528419495
-0.279144287109375,1.6981475353240967,-0.3768642544746399
-0.27001330256462097,1.7184466123580933,-0.38325637578964233
-0.2483784407377243,1.6557260751724243,-0.3709016740322113
-0.243276447057724,1.70228111743927,-0.3830259144306183
-0.22935158014297485,1.688380479812622,-0.3815922737121582
-0.2185470014810562,1.6970818042755127,-0.38514673709869385
-0.20856548845767975,1.7133269309997559,-0.39019477367401123
-0.19209538400173187,1.676540493965149,-0.38318854570388794
-0.18035942316055298,1.6774799823760986,-0.38477733731269836
-0.16939601302146912,1.685927391052246,-0.3880407214164734
-0.1583242416381836,1.694372534751892,-0.39099666476249695
-0.1484535187482834,1.717910885810852,-0.39747288823127747
-0.12635144591331482,1.5934326648712158,-0.36967289447784424
-0.12432730197906494,1.7192542552947998,-0.3999355733394623
-0.10319684445858002,1.5794097185134888,-0.3680221736431122
-0.09910295903682709,1.6976467370986938,-0.39625445008277893
-0.08729207515716553,1.698106050491333,-0.39706358313560486
-0.07291228324174881,1.6452921628952026,-0.38542523980140686
-0.06147338077425957,1.6456550359725952,-0.3858700692653656
-0.050495900213718414,1.661157488822937,-0.3898225426673889
-0.039127614349126816,1.6689808368682861,-0.39199623465538025
-0.02752760425209999,1.6691209077835083,-0.3923858106136322
-0.015651412308216095,1.6616418361663818,-0.39071333408355713
-0.0042436812072992325,1.7225559949874878,-0.40499845147132874
0.007554338779300451,1.6845232248306274,-0.3960384428501129
0.018934613093733788,1.6540157794952393,-0.3888671398162842
0.03101283311843872,1.6843136548995972,-0.3957872986793518
0.04196075722575188,1.6537452936172485,-0.388214111328125
0.05515289679169655,1.699122428894043,-0.39847809076309204
0.06757575273513794,1.7140017747879028,-0.4016023874282837
0.07773179560899734,1.6756318807601929,-0.39212268590927124
0.09020207077264786,1.690441370010376,-0.39483344554901123
0.10288218408823013,1.7051607370376587,-0.3975289762020111
0.11547210067510605,1.7121843099594116,-0.39842694997787476
0.12681575119495392,1.7039666175842285,-0.39573079347610474
0.1399335265159607,1.7185063362121582,-0.3979892432689667
0.15292483568191528,1.7291574478149414,-0.3993493318557739
0.17002539336681366,1.7814077138900757,-0.41029784083366394
0.1772199273109436,1.727431297302246,-0.39676904678344727
0.19258512556552887,1.7568246126174927,-0.40203768014907837
0.20926475524902344,1.7936650514602661,-0.4089713394641876
0.22506429255008698,1.819025993347168,-0.41325414180755615
0.24173584580421448,1.8480403423309326,-0.4183391034603119
0.2549055516719818,1.846759557723999,-0.416172057390213
0.2678426504135132,1.8454209566116333,-0.41397932171821594
0.28820958733558655,1.8930143117904663,-0.4227379858493805
0.3026355504989624,1.8989897966384888,-0.4221680760383606
0.32469138503074646,1.9500885009765625,-0.431311696767807
0.3370315432548523,1.9408433437347412,-0.4269436001777649
0.3549381494522095,1.961542010307312,-0.42912423610687256
0.3700980246067047,1.9671106338500977,-0.4280191659927368
0.3934154808521271,2.013855457305908,-0.4356290400028229
0.40904733538627625,2.0192291736602783,-0.43404197692871094
0.43185439705848694,2.058159351348877,-0.4396204352378845
0.4611881971359253,2.123006582260132,-0.4505561590194702
0.4853103458881378,2.161522388458252,-0.4557051956653595
0.5056663751602173,2.1812362670898438,-0.456561416387558
0.5299000144004822,2.215672254562378,-0.4604281485080719
0.5592414736747742,2.2684855461120605,-0.46799296140670776
0.5896520614624023,2.3209784030914307,-0.4752204716205597
0.6195265054702759,2.369611978530884,-0.4812593460083008
0.6411684155464172,2.384640693664551,-0.48037636280059814
0.6855624914169312,2.4808177947998047,-0.4956609010696411
0.7250553369522095,2.55440354347229,-0.5061641335487366
0.7648135423660278,2.6239283084869385,-0.515180766582489
0.8096450567245483,2.707864761352539,-0.5268464088439941
0.8467435240745544,2.761960029602051,-0.532455325126648
0.8927459120750427,2.841353416442871,-0.5427027344703674
0.93743896484375,2.9130611419677734,-0.550904393196106
0.9907515645027161,3.006162166595459,-0.562690794467926
1.051291823387146,3.1170248985290527,-0.5774932503700256
1.1097444295883179,3.216325044631958,-0.5897391438484192
1.1746381521224976,3.3296399116516113,-0.6038805842399597
1.2123509645462036,3.362607955932617,-0.6030731201171875
1.2107412815093994,3.2867159843444824,-0.5827955603599548
1.4449186325073242,3.838505983352661,-0.6726770401000977
1.517539620399475,3.9486944675445557,-0.6837019920349121
1.5916498899459839,4.058193683624268,-0.6940191984176636
1.6273597478866577,4.066551685333252,-0.6867385506629944
1.6591404676437378,4.06378698348999,-0.6774804592132568
1.6852222681045532,4.0464677810668945,-0.6654903888702393
1.7466788291931152,4.114578723907471,-0.6674711108207703
1.45636785030365,3.3661746978759766,-0.5384633541107178
1.4630836248397827,3.318279504776001,-0.5232211351394653
1.4799832105636597,3.2952511310577393,-0.5119224190711975
1.5129567384719849,3.3072242736816406,-0.5058601498603821
1.5296157598495483,3.2838900089263916,-0.4944745898246765
1.5463255643844604,3.260322093963623,-0.4830385148525238
1.5724459886550903,3.25779390335083,-0.4746464788913727
1.605304479598999,3.269019365310669,-0.46816110610961914
1.6217619180679321,3.2449607849121094,-0.4563778042793274
1.6448227167129517,3.2346913814544678,-0.4466477036476135
1.629782795906067,3.152215003967285,-0.42706966400146484
1.6659636497497559,3.1696367263793945,-0.4211564362049103
1.7121572494506836,3.203552722930908,-0.41705241799354553
1.7199921607971191,3.1653552055358887,-0.40345582365989685
1.7214808464050293,3.117124319076538,-0.3885715901851654
1.7601290941238403,3.1368515491485596,-0.38230034708976746
1.7939198017120361,3.145768642425537,-0.374356210231781
1.3072117567062378,2.256695508956909,-0.2620219588279724
0.9638382792472839,1.63869047164917,-0.18548889458179474
0.8877312541007996,1.4855276346206665,-0.163592129945755
0.9184169173240662,1.5130215883255005,-0.16194763779640198
0.9858289957046509,1.600061297416687,-0.16629040241241455
0.988540768623352,1.5806362628936768,-0.15927371382713318
1.012280821800232,1.593863844871521,-0.1553514152765274
1.0042881965637207,1.5579452514648438,-0.1465848684310913
1.0147595405578613,1.5516810417175293,-0.1407989263534546
1.0365188121795654,1.5612144470214844,-0.1361134946346283
1.0405632257461548,1.5449700355529785,-0.12917061150074005
1.0464116334915161,1.5320813655853271,-0.12257552146911621
2.548109769821167,3.6747279167175293,-0.2794879376888275
2.577270984649658,3.665027618408203,-0.2644187808036804
2.5970635414123535,3.64255428314209,-0.24830985069274902
2.5931012630462646,3.5840654373168945,-0.22898074984550476
2.6464126110076904,3.6089985370635986,-0.21500857174396515
2.6940088272094727,3.6233534812927246,-0.19946621358394623
2.649068593978882,3.730800151824951,0.5566885471343994
2.599710464477539,3.7158894538879395,0.566946268081665
2.570225954055786,3.7340610027313232,0.5817949175834656
1.0660747289657593,1.574622392654419,0.2503059208393097
1.0589770078659058,1.5878286361694336,0.25690674781799316
1.0425539016723633,1.5885131359100342,0.261364221572876
1.0255200862884521,1.589444875717163,0.26583975553512573
1.0261638164520264,1.615722894668579,0.27424895763397217
1.0144113302230835,1.6222751140594482,0.27924469113349915
0.9976414442062378,1.6227318048477173,0.28299519419670105
0.9889114499092102,1.6362440586090088,0.2890399694442749
0.9729741811752319,1.6359829902648926,0.29242831468582153
0.9571154713630676,1.6355788707733154,0.2956620752811432
1.3502929210662842,2.3478400707244873,0.42889147996902466
1.8482582569122314,3.270355463027954,0.603624701499939
1.7778853178024292,3.197833299636841,0.5958758592605591
1.7656909227371216,3.2294979095458984,0.6075152158737183
1.7792813777923584,3.312751293182373,0.6284845471382141
1.750389575958252,3.3179566860198975,0.6347804069519043
2.383258581161499,4.597538948059082,0.8867043256759644
2.346917152404785,4.605665683746338,0.8951667547225952
2.315861463546753,4.62807035446167,0.9062466025352478
