X,Y,Z
-0.9550879597663879,2.807572841644287,-0.5022730231285095
-0.950556218624115,2.8607711791992188,-0.5171331167221069
-0.9443719983100891,2.9102959632873535,-0.5312947630882263
-0.921325147151947,2.9084651470184326,-0.5361571907997131
-0.9087215065956116,2.939478874206543,-0.5470960140228271
-0.8201724886894226,2.72017765045166,-0.5109754800796509
-0.7888885736465454,2.684363842010498,-0.5086848735809326
-0.761008620262146,2.659419536590576,-0.5084380507469177
-0.7463487982749939,2.678520917892456,-0.5165063738822937
-0.725407600402832,2.6753172874450684,-0.520214855670929
-0.7172064185142517,2.7202670574188232,-0.5330492258071899
-0.7093337178230286,2.768916606903076,-0.5467684864997864
-0.7320612668991089,2.9441401958465576,-0.5858836770057678
-0.7095398902893066,2.9407143592834473,-0.5896344184875488
-0.6687099933624268,2.858844041824341,-0.5770820379257202
-0.6451552510261536,2.8476009368896484,-0.5786789059638977
-0.6128509044647217,2.7949984073638916,-0.5717865228652954
-0.5833686590194702,2.753408193588257,-0.5671019554138184
-0.5625067949295044,2.749098062515259,-0.5695825219154358
-0.5276267528533936,2.6733171939849854,-0.5570786595344543
-0.499575138092041,2.627293825149536,-0.5506467819213867
-0.47288259863853455,2.5847971439361572,-0.5448679327964783
-0.4530998766422272,2.579841136932373,-0.5467414855957031
-0.42929136753082275,2.5483524799346924,-0.5426867604255676
-0.40533745288848877,2.512899398803711,-0.5377405285835266
-0.3813372552394867,2.473475456237793,-0.5318856835365295
-0.361799955368042,2.4603443145751953,-0.5315041542053223
-0.3400596082210541,2.4320452213287354,-0.5274906158447266
-0.3210545778274536,2.4186835289001465,-0.5266664624214172
-0.30177655816078186,2.4013924598693848,-0.5249829292297363
-0.2823239862918854,2.3801681995391846,-0.5224126577377319
-0.2615020275115967,2.3437366485595703,-0.5159592032432556
-0.2443750947713852,2.337500810623169,-0.5161482691764832
-0.22296762466430664,2.2894012928009033,-0.5071098208427429
-0.20768842101097107,2.298093318939209,-0.5106186866760254
-0.1904100775718689,2.2839646339416504,-0.5086641311645508
-0.17450350522994995,2.284944772720337,-0.5099667906761169
-0.15753693878650665,2.2706000804901123,-0.5078664422035217
-0.14193175733089447,2.27897310256958,-0.5108879804611206
-0.124825119972229,2.256838798522949,-0.5067886114120483
-0.10986007750034332,2.2727081775665283,-0.5109773278236389
-0.0926489308476448,2.238973617553711,-0.5040318369865417
-0.07722294330596924,2.2432010173797607,-0.5056480169296265
-0.0606425516307354,2.2168829441070557,-0.5002704858779907
-0.045399028807878494,2.224817991256714,-0.5022196769714355
-0.030202031135559082,2.244077682495117,-0.506751537322998
-0.01459894422441721,2.2441811561584473,-0.506983757019043
0.0010041199857369065,2.244175910949707,-0.5072159767150879
0.016747387126088142,2.2251269817352295,-0.5026237368583679
0.03188730403780937,2.2021634578704834,-0.49716877937316895
0.047215014696121216,2.201953649520874,-0.49687740206718445
0.0631740391254425,2.224492311477661,-0.5017412304878235
0.0786638855934143,2.2241504192352295,-0.5010676383972168
0.0938158705830574,2.216118097305298,-0.4985353946685791
0.10949881374835968,2.215585231781006,-0.49770504236221313
0.12620317935943604,2.2377874851226807,-0.5020111799240112
0.14031720161437988,2.2142655849456787,-0.495840847492218
0.15759482979774475,2.240152597427368,-0.5004739761352539
0.17229914665222168,2.227893114089966,-0.496600866317749
0.18904657661914825,2.2383170127868652,-0.49778804183006287
0.20601609349250793,2.2524590492248535,-0.499723881483078
0.22172513604164124,2.2513771057128906,-0.49787232279777527
0.24221645295619965,2.2957205772399902,-0.506060004234314
0.21638824045658112,1.9227383136749268,-0.4225046932697296
0.22457431256771088,1.8760290145874023,-0.4109334349632263
0.30584144592285156,2.412668466567993,-0.5263418555259705
0.328738808631897,2.4564411640167236,-0.5337085127830505
0.3448184132575989,2.4470748901367188,-0.5295196771621704
0.36805444955825806,2.4867279529571533,-0.535934329032898
0.3904098570346832,2.5148980617523193,-0.5394394397735596
0.41655805706977844,2.5655977725982666,-0.5475862622261047
0.43448781967163086,2.563302755355835,-0.5443925857543945
0.4470828175544739,2.530750274658203,-0.534831166267395
0.47931939363479614,2.6072728633880615,-0.5480877161026001
0.5068843364715576,2.6535003185272217,-0.5545569658279419
0.5362064242362976,2.703192710876465,-0.5615939497947693
0.5682649612426758,2.7639267444610596,-0.5708631277084351
0.5924049615859985,2.7831883430480957,-0.571418046951294
0.6209384799003601,2.8210504055023193,-0.5753046870231628
0.6585264205932617,2.896035671234131,-0.5866258144378662
0.686244010925293,2.9220752716064453,-0.587827742099762
0.7139905691146851,2.947950601577759,-0.5890161991119385
0.743034303188324,2.977402925491333,-0.5904192328453064
0.7877744436264038,3.06608510017395,-0.6033620238304138
0.8318769931793213,3.1469058990478516,-0.614507794380188
0.8796008229255676,3.2346181869506836,-0.6266677975654602
0.9260594248771667,3.31463623046875,-0.6368675827980042
0.9736693501472473,3.394242525100708,-0.6465785503387451
1.0268052816390991,3.488133668899536,-0.6587330102920532
1.0880790948867798,3.60356068611145,-0.6745991706848145
1.1491420269012451,3.710960865020752,-0.6882835030555725
1.210045337677002,3.8142778873443604,-0.7006996273994446
1.3033968210220337,4.01215934753418,-0.7299575209617615
1.3693889379501343,4.117655277252197,-0.7418342232704163
1.4306566715240479,4.2042951583862305,-0.7498635649681091
1.4917259216308594,4.28682279586792,-0.7564941048622131
1.535174012184143,4.314115047454834,-0.753029465675354
1.5604053735733032,4.290350914001465,-0.7407083511352539
1.5907076597213745,4.280897617340088,-0.7308839559555054
1.6178666353225708,4.264181137084961,-0.7195038199424744
1.6350733041763306,4.222082614898682,-0.7039638757705688
1.3431503772735596,3.3968212604522705,-0.5593624114990234
1.3614414930343628,3.374227523803711,-0.5487857460975647
1.4084748029708862,3.4231836795806885,-0.5495253801345825
1.4323246479034424,3.414644479751587,-0.5409392714500427
1.4564555883407593,3.405794858932495,-0.5322273969650269
1.4717334508895874,3.375298500061035,-0.5200590491294861
1.4920672178268433,3.359250545501709,-0.5101264715194702
1.5154087543487549,3.3501217365264893,-0.5012751817703247
1.5358198881149292,3.333627700805664,-0.49124228954315186
1.5627366304397583,3.3309738636016846,-0.48324358463287354
1.5762131214141846,3.3002195358276367,-0.4709140956401825
1.599046230316162,3.29050874710083,-0.46180039644241333
1.6257621049880981,3.2873435020446777,-0.4534359276294708
2.001161575317383,3.9767568111419678,-0.5388655662536621
2.028548002243042,3.9643983840942383,-0.5274070501327515
2.0415709018707275,3.924262046813965,-0.5123277902603149
2.073591709136963,3.917772054672241,-0.5012402534484863
2.058788776397705,3.8259425163269043,-0.47959670424461365
2.1055564880371094,3.850613594055176,-0.47260376811027527
2.111504077911377,3.7999751567840576,-0.4562876522541046
2.1422531604766846,3.7930796146392822,-0.4451039433479309
2.14951229095459,3.7456324100494385,-0.42904555797576904
2.174960136413574,3.7322590351104736,-0.4171742796897888
2.213085651397705,3.7382843494415283,-0.40706878900527954
2.2354423999786377,3.7172257900238037,-0.39387810230255127
2.2524921894073486,3.6899943351745605,-0.38008472323417664
2.294677734375,3.701899290084839,-0.36994028091430664
2.308472156524658,3.6670265197753906,-0.3549486994743347
2.320777177810669,3.632788896560669,-0.34015583992004395
2.3663482666015625,3.650968313217163,-0.3302253186702728
2.3750531673431396,3.6092758178710938,-0.31423670053482056
2.387108325958252,3.5744104385375977,-0.2988035976886749
2.4414117336273193,3.604750156402588,-0.2889740467071533
2.444772243499756,3.556398630142212,-0.2720012068748474
2.473350763320923,3.5471696853637695,-0.25810396671295166
2.5191848278045654,3.563661575317383,-0.24593602120876312
2.5266530513763428,3.52109432220459,-0.22839297354221344
2.56827449798584,3.530496835708618,-0.21451759338378906
2.161022901535034,2.930048704147339,-0.16553916037082672
2.7847390174865723,3.946795701980591,0.5652740597724915
2.7606117725372314,3.97094464302063,0.581528902053833
2.724414348602295,3.984236240386963,0.5957645177841187
2.71022367477417,4.02907133102417,0.6145768761634827
2.6640231609344482,4.020547866821289,0.6242433190345764
2.649820566177368,4.064850807189941,0.6417731642723083
2.6217823028564453,4.090052604675293,0.6562783718109131
2.5879604816436768,4.100398063659668,0.6675570011138916
2.5819766521453857,4.156881809234619,0.6864596009254456
2.545438528060913,4.168299674987793,0.6974021792411804
2.517223834991455,4.192422866821289,0.7104014158248901
2.4930994510650635,4.218409061431885,0.7231391072273254
2.460420608520508,4.231196403503418,0.7335370779037476
2.41573429107666,4.228307723999023,0.7409203052520752
2.390835762023926,4.2582855224609375,0.753926694393158
2.364051580429077,4.280265808105469,0.7650812864303589
2.2689568996429443,4.176607131958008,0.7536199688911438
2.2025630474090576,4.127444267272949,0.7511501312255859
2.211592674255371,4.221282005310059,0.7748719453811646
2.187774181365967,4.249383926391602,0.7863162755966187
2.164524555206299,4.276943683624268,0.7975658774375916
2.1351003646850586,4.294414520263672,0.8067542314529419
2.1060991287231445,4.315723419189453,0.8163512349128723
2.0763070583343506,4.337072849273682,0.8261211514472961
2.045259714126587,4.35029411315918,0.8340140581130981
2.011094093322754,4.35621452331543,0.8405070900917053
1.9920108318328857,4.397312641143799,0.8535267114639282
2.021512269973755,4.551225662231445,0.8883705735206604
1.9966790676116943,4.58585262298584,0.9001500010490417
1.9753276109695435,4.627071857452393,0.9131983518600464
1.9247665405273438,4.596944332122803,0.9120566844940186
1.9033454656600952,4.637688159942627,0.9247839450836182
1.874711513519287,4.664552688598633,0.9343699216842651
1.840157151222229,4.676939487457275,0.9411196708679199
1.8208781480789185,4.728400230407715,0.9557965397834778
3.2392635345458984,8.589071273803711,1.7437536716461182
3.1308176517486572,8.479726791381836,1.7290812730789185
1.3273435831069946,3.6764276027679443,0.7524423599243164
1.315657615661621,3.728530168533325,0.7659001350402832
1.2728314399719238,3.693777084350586,0.761604368686676
1.63459312915802,4.853341102600098,1.0042598247528076
1.5908406972885132,4.834409713745117,1.003922700881958
1.5695475339889526,4.88449764251709,1.0178446769714355
1.5328078269958496,4.891074180603027,1.0221792459487915
1.5111401081085205,4.948812484741211,1.0373364686965942
1.4839327335357666,4.9879326820373535,1.0486364364624023
1.4627959728240967,5.0449652671813965,1.0636975765228271
1.4117467403411865,4.998789310455322,1.0570499897003174
1.3763837814331055,5.007622241973877,1.0618689060211182
1.3194828033447266,4.938878059387207,1.0496673583984375
1.2812542915344238,4.940113067626953,1.0523971319198608
1.2493290901184082,4.963162422180176,1.0597888231277466
1.2190814018249512,4.9894866943359375,1.0678777694702148
1.1858800649642944,5.004457950592041,1.0736020803451538
1.1592823266983032,5.04904842376709,1.0856753587722778
1.120820164680481,5.049138069152832,1.0875871181488037
1.0909996032714844,5.086196422576904,1.097497820854187
1.0583800077438354,5.111847877502441,1.1050221920013428
1.0254473686218262,5.1334028244018555,1.1116888523101807
0.9896053671836853,5.1396942138671875,1.1150976419448853
1.5200759172439575,8.207048416137695,1.7839902639389038
1.4631459712982178,8.22417163848877,1.7901180982589722
1.3962979316711426,8.184494972229004,1.7837146520614624
1.3356273174285889,8.178215026855469,1.7846620082855225
1.2802001237869263,8.201615333557129,1.7921611070632935
1.2124230861663818,8.145371437072754,1.7823431491851807
1.1593819856643677,8.179177284240723,1.7922621965408325
1.09749436378479,8.15223503112793,1.788512945175171
1.0368702411651611,8.136435508728027,1.7864694595336914
0.5195264220237732,4.319647789001465,0.9492399096488953
0.48556196689605713,4.2925333976745605,0.944122314453125
0.4574868381023407,4.318298816680908,0.9506860375404358
0.4251658320426941,4.298259258270264,0.9471944570541382
0.3928461968898773,4.2741804122924805,0.9428460001945496
0.3657800257205963,4.310816287994385,0.9514174461364746
0.33726850152015686,4.335904598236084,0.9573417901992798
0.3011966049671173,4.265702247619629,0.9422761797904968
0.2727830410003662,4.2903547286987305,0.9481967687606812
0.32012084126472473,5.6553263664245605,1.2505468130111694
0.28337574005126953,5.710497856140137,1.263497233390808
0.24543587863445282,5.754012584686279,1.2738386392593384
0.20565608143806458,5.786027908325195,1.2809292078018188
0.165897935628891,5.810123443603516,1.2863296270370483
0.125662699341774,5.830131530761719,1.290889024734497
0.08552820980548859,5.861298084259033,1.2979824542999268
0.04473312944173813,5.861676216125488,1.2983216047286987
0.003364158095791936,5.941859245300293,1.3164093494415283
-0.05224426090717316,8.172760009765625,1.810657024383545
-0.08052222430706024,6.036792755126953,1.3369685411453247
-0.12298529595136642,6.059083461761475,1.3414978981018066
-0.16662614047527313,6.115391254425049,1.35361909866333
-0.20838883519172668,6.09133243560791,1.3480145931243896
-0.25069287419319153,6.070773124694824,1.3432482481002808
-0.17358647286891937,3.596445322036743,0.7956792116165161
-0.19935469329357147,3.6105430126190186,0.7983554005622864
-0.22386807203292847,3.6016502380371094,0.7958223819732666
-0.43289077281951904,6.264198303222656,1.3832205533981323
-0.47588780522346497,6.246107578277588,1.3783586025238037
-0.5243961215019226,6.303804397583008,1.3902944326400757
-0.5720165967941284,6.342132568359375,1.3980131149291992
-0.6220384240150452,6.399095058441162,1.4098893404006958
-0.6712325215339661,6.444538116455078,1.4183006286621094
-0.718951940536499,6.4629807472229,1.420791506767273
-0.7598679065704346,6.428098678588867,1.411657452583313
-0.7991359233856201,6.381567478179932,1.4000413417816162
-0.8355123996734619,6.315847396850586,1.3842979669570923
-0.8736476898193359,6.268826484680176,1.3727409839630127
-0.9199532866477966,6.278247356414795,1.3732439279556274
-0.9682044982910156,6.306482791900635,1.3773411512374878
-1.017491102218628,6.338127136230469,1.3822243213653564
-1.0704123973846436,6.388230323791504,1.3911683559417725
-1.1226824522018433,6.426535129547119,1.3975521326065063
-1.177586317062378,6.475702285766602,1.4063353538513184
-1.2291479110717773,6.497994899749756,1.4092892408370972
-1.2860966920852661,6.554087162017822,1.4188708066940308
-1.3391956090927124,6.587307929992676,1.4233278036117554
-1.398315668106079,6.646297454833984,1.4333745241165161
-1.4439752101898193,6.637507915496826,1.428826093673706
-1.479385256767273,6.57586669921875,1.4129019975662231
-1.515859842300415,6.525367736816406,1.3995205163955688
-0.6753789186477661,2.8190298080444336,0.6033936738967896
-0.6964139342308044,2.822291135787964,0.6026250720024109
-0.6977498531341553,2.7475316524505615,0.5852574706077576
-0.7264719605445862,2.780141830444336,0.5907812118530273
-0.7399411201477051,2.753326416015625,0.5836868286132812
-0.7662877440452576,2.7744193077087402,0.5867777466773987
-1.7541321516036987,6.183518409729004,1.3047113418579102
-1.785380482673645,6.1359968185424805,1.2908321619033813
-1.8178664445877075,6.091796398162842,1.2776906490325928
-1.8502415418624878,6.051279067993164,1.2654845714569092
-1.8808118104934692,6.003005027770996,1.2516707181930542
-1.9146268367767334,5.965432643890381,1.2401596307754517
-1.9468094110488892,5.92402458190918,1.227945327758789
-1.974226951599121,5.871910572052002,1.212745189666748
-2.0014445781707764,5.823567867279053,1.1984546184539795
-2.033179998397827,5.789577007293701,1.1872153282165527
-2.0591824054718018,5.736992359161377,1.1721433401107788
-2.0967884063720703,5.7166056632995605,1.1637046337127686
-2.1261165142059326,5.6744065284729,1.1509039402008057
-2.1554698944091797,5.636129856109619,1.1380976438522339
-2.200423002243042,5.640869617462158,1.1341304779052734
-2.2526872158050537,5.663081645965576,1.133674144744873
-2.3198556900024414,5.716336727142334,1.1392016410827637
-2.363009214401245,5.708558082580566,1.1325405836105347
-2.388335943222046,5.657986164093018,1.1171150207519531
-2.4217746257781982,5.632906913757324,1.1063919067382812
-2.4858736991882324,5.678044319152832,1.1094520092010498
-3.918613910675049,8.789003372192383,1.7082070112228394
-3.983881711959839,8.770828247070312,1.6953208446502686
-4.095398902893066,8.849492073059082,1.7009575366973877
-4.164843559265137,8.845481872558594,1.6897138357162476
-4.285654544830322,8.94874095916748,1.6987435817718506
-4.361047267913818,8.953782081604004,1.6889712810516357
-2.698099136352539,5.4431233406066895,1.019898533821106
-4.5390143394470215,8.996521949768066,1.6742053031921387
-4.659745693206787,9.085350036621094,1.6784424781799316
-4.734593868255615,9.084639549255371,1.6657193899154663
-4.82609748840332,9.113892555236816,1.6583985090255737
-4.9054107666015625,9.10998249053955,1.6442389488220215
-1.1804195642471313,2.156193256378174,0.38598474860191345
-1.174481987953186,2.111823797225952,0.3746264576911926
-2.513657808303833,4.4516777992248535,0.7825483679771423
-5.362704277038574,9.35151195526123,1.6284064054489136
-5.481832027435303,9.40698528289795,1.621751308441162
-1.2283705472946167,2.0753607749938965,0.3541046679019928
-1.262235164642334,2.101059675216675,0.35450342297554016
-2.930610418319702,4.8078694343566895,0.802230179309845
-2.9770381450653076,4.808716773986816,0.7926512956619263
-3.019329309463501,4.802692890167236,0.7818640470504761
-3.054919958114624,4.7914557456970215,0.7697242498397827
-3.051131010055542,4.717808246612549,0.747499406337738
-3.059126615524292,4.659350395202637,0.7272520065307617
-3.059720993041992,4.591473579406738,0.7056108713150024
-3.093930959701538,4.580023288726807,0.6923585534095764
-3.09798264503479,4.5231733322143555,0.6721402406692505
-3.122178077697754,4.489963054656982,0.6543957591056824
-2.9422569274902344,4.17297887802124,0.5961547493934631
-2.865382194519043,4.01068115234375,0.5611789226531982
-2.9255075454711914,4.03651762008667,0.5517495274543762
-2.9530954360961914,4.018532752990723,0.5358316898345947
-2.9600162506103516,3.9768569469451904,0.5166288614273071
-2.4522409439086914,3.463444232940674,-0.23144766688346863
-2.91960072517395,4.187294960021973,-0.2968811094760895
-2.884547710418701,4.200768947601318,-0.3142245411872864
-2.8647940158843994,4.241122245788574,-0.33394187688827515
-2.853841781616211,4.28934383392334,-0.35307660698890686
-2.802959442138672,4.27950382232666,-0.3673536777496338
-2.806344985961914,4.354807376861572,-0.38904082775115967
-2.779500961303711,4.379775524139404,-0.405526340007782
-1.2620267868041992,2.0210959911346436,-0.19377146661281586
-1.2468191385269165,2.0297999382019043,-0.2011025995016098
-2.164522171020508,3.579761028289795,-0.36550647020339966
-2.6716558933258057,4.490109443664551,-0.47188302874565125
-2.6420021057128906,4.515012264251709,-0.48787152767181396
-2.6280651092529297,4.566404819488525,-0.5066914558410645
-1.2029465436935425,2.1242318153381348,-0.24162259697914124
-2.582341194152832,4.638082504272461,-0.540305495262146
-2.5593767166137695,4.675662994384766,-0.5573748350143433
-2.533442258834839,4.70570707321167,-0.5732473134994507
-2.5059773921966553,4.736189842224121,-0.5894227027893066
-2.4835824966430664,4.776831150054932,-0.6067008376121521
-2.4526443481445312,4.799717426300049,-0.62157142162323
-2.4254822731018066,4.829071521759033,-0.6371867656707764
-2.4074244499206543,4.879556655883789,-0.655566930770874
-1.5885837078094482,3.279909133911133,-0.448622465133667
-1.5568610429763794,3.2724013328552246,-0.4551776349544525
-1.0578956604003906,2.2641565799713135,-0.3201402425765991
-1.0171740055084229,2.2181215286254883,-0.3186027705669403
-1.0089669227600098,2.242260217666626,-0.32707828283309937
-0.9930180907249451,2.24851655960083,-0.3328860104084015
-0.9889938235282898,2.283189296722412,-0.34302982687950134
-0.969394862651825,2.282308578491211,-0.3476884067058563
-0.9617804288864136,2.3098058700561523,-0.3567087650299072
-0.9453964829444885,2.3156838417053223,-0.36235329508781433
-0.9289278984069824,2.321458339691162,-0.36795350909233093
-0.9203578233718872,2.3488950729370117,-0.3769862949848175
-0.9062238931655884,2.361769676208496,-0.3836706876754761
-0.8962633609771729,2.385310411453247,-0.39209088683128357
-0.8873206973075867,2.412440061569214,-0.40115171670913696
-0.8752151131629944,2.4323766231536865,-0.4089156985282898
-0.8574395775794983,2.4377799034118652,-0.414361834526062
-0.8452005386352539,2.4574649333953857,-0.42214149236679077
-0.8376412987709045,2.4916927814483643,-0.43249648809432983
-0.8655040860176086,2.635836601257324,-0.4619789123535156
-0.8960492014884949,2.7950611114501953,-0.49462440609931946
-0.906963050365448,2.8996410369873047,-0.5180899500846863
-0.8864796757698059,2.904923439025879,-0.5239171385765076
-0.8021966218948364,2.696218490600586,-0.4904968738555908
-0.7733743786811829,2.6676738262176514,-0.4894598126411438
-0.7565901279449463,2.6795599460601807,-0.49580344557762146
-0.7376761436462402,2.6839048862457275,-0.5007791519165039
-0.7104052901268005,2.6585419178009033,-0.49998781085014343
-0.7041023969650269,2.7109973430633545,-0.5136920213699341
-0.7337941527366638,2.90869140625,-0.5552728772163391
-0.7297865152359009,2.979966402053833,-0.5730947852134705
-0.708807647228241,2.984096050262451,-0.5779171586036682
-0.68565833568573,2.980721950531006,-0.5811100006103516
-0.6688334345817566,3.003308057785034,-0.5893347263336182
-0.6420990824699402,2.9807817935943604,-0.5887141823768616
-0.621151864528656,2.9843389987945557,-0.593148946762085
-0.5767687559127808,2.8713245391845703,-0.5738710761070251
-0.5576758980751038,2.8821158409118652,-0.5793039798736572
-0.5360862016677856,2.87764048576355,-0.5816282033920288
-0.503084123134613,2.808910846710205,-0.5709080100059509
-0.4795073866844177,2.789052724838257,-0.5695638060569763
-0.457454651594162,2.7765791416168213,-0.5696693062782288
-0.43352174758911133,2.7526304721832275,-0.5674487352371216
-0.4029037654399872,2.6792562007904053,-0.554919421672821
-0.38148775696754456,2.6624972820281982,-0.5537201762199402
-0.36288344860076904,2.66457200050354,-0.5562391877174377
-0.33643296360969543,2.605825901031494,-0.5460405349731445
-0.31825169920921326,2.607592821121216,-0.5484986305236816
-0.29800188541412354,2.5941007137298584,-0.5476258993148804
-0.27990803122520447,2.595712184906006,-0.5495339035987854
-0.2591227889060974,2.570577621459961,-0.5457899570465088
-0.24121852219104767,2.571918487548828,-0.5476757884025574
-0.21868328750133514,2.519843816757202,-0.538179874420166
-0.20265842974185944,2.5438919067382812,-0.544408917427063
-0.18188729882240295,2.5030510425567627,-0.5367443561553955
-0.163966566324234,2.496354579925537,-0.5364052653312683
-0.14433881640434265,2.4590327739715576,-0.5294921398162842
-0.12642528116703033,2.444528341293335,-0.5271091461181641
-0.10945087671279907,2.452831745147705,-0.5294975638389587
-0.09296710044145584,2.4686379432678223,-0.5335263013839722
-0.07556582242250443,2.4614334106445312,-0.5326096415519714
-0.05861348658800125,2.469419240951538,-0.534789502620697
-0.041316092014312744,2.462092399597168,-0.5333214998245239
-0.02367999404668808,2.4393773078918457,-0.5285468697547913
-0.006678896490484476,2.4241726398468018,-0.5254205465316772
0.010238014161586761,2.439399480819702,-0.5288753509521484
0.027180887758731842,2.439347982406616,-0.5285136699676514
0.04469451308250427,2.4697155952453613,-0.5347638726234436
0.06205803155899048,2.477058172225952,-0.5360491275787354
0.07933414727449417,2.469006061553955,-0.534024178981781
0.0959072858095169,2.4533021450042725,-0.5299445390701294
0.11437496542930603,2.483288288116455,-0.5356193780899048
0.13083772361278534,2.467376232147217,-0.5314152836799622
0.14982958137989044,2.4971017837524414,-0.5370618104934692
0.1687825620174408,2.515289783477783,-0.5399619936943054
0.18572543561458588,2.5067527294158936,-0.5368452072143555
0.20441028475761414,2.5209481716156006,-0.5386189222335815
0.22395309805870056,2.5426206588745117,-0.5419988632202148
0.24163757264614105,2.5413355827331543,-0.5404284596443176
0.261959046125412,2.562814474105835,-0.5431958436965942
0.19552388787269592,1.7899137735366821,-0.37815865874290466
0.30338194966316223,2.609156608581543,-0.5494879484176636
0.3262648284435272,2.6453704833984375,-0.555359423160553
0.3476730287075043,2.666325092315674,-0.5575522184371948
0.36921289563179016,2.6833088397979736,-0.5587632656097412
0.394500195980072,2.726674795150757,-0.5654826760292053
0.4181334972381592,2.7546942234039307,-0.5689804553985596
0.43914729356765747,2.7636804580688477,-0.5682615041732788
0.4659673273563385,2.8065550327301025,-0.5742146372795105
0.49144625663757324,2.8378844261169434,-0.5777531266212463
0.5143510103225708,2.850102424621582,-0.5773271322250366
0.5456046462059021,2.9074060916900635,-0.5859177708625793
0.5783743858337402,2.9682869911193848,-0.5947036147117615
0.6051862835884094,2.9950575828552246,-0.5965741872787476
0.6363731026649475,3.040367603302002,-0.6020675897598267
0.6661583185195923,3.07409405708313,-0.6051357388496399
0.705233633518219,3.148926258087158,-0.6157601475715637
0.7419461607933044,3.2084457874298096,-0.6231880187988281
0.7760090231895447,3.2526862621307373,-0.6275227069854736
0.8217570781707764,3.341371774673462,-0.6402729153633118
0.8625335097312927,3.4035427570343018,-0.647350549697876
0.908631443977356,3.484060049057007,-0.6576153635978699
0.9629186987876892,3.5901172161102295,-0.6724370121955872
1.017823576927185,3.691908836364746,-0.6861534118652344
1.0825036764144897,3.8228206634521484,-0.7047781348228455
1.1279778480529785,3.8791608810424805,-0.7089372277259827
1.2057383060455322,4.0421462059021,-0.7323578000068665
1.2747596502304077,4.167464256286621,-0.7484719753265381
1.3248345851898193,4.225954055786133,-0.7522439956665039
1.3814573287963867,4.302459716796875,-0.758567750453949
1.4349453449249268,4.36362361907959,-0.7618297934532166
1.4681371450424194,4.362258434295654,-0.7541590332984924
1.4963856935501099,4.346036434173584,-0.7439494729042053
1.5293185710906982,4.344331741333008,-0.7358318567276001
1.5439488887786865,4.29155969619751,-0.7191384434700012
1.5687816143035889,4.2676615715026855,-0.707366943359375
1.3007524013519287,3.4626526832580566,-0.5674903988838196
1.330466389656067,3.4691779613494873,-0.5619763731956482
1.351798415184021,3.4539074897766113,-0.5528692007064819
1.3731995820999146,3.4384095668792725,-0.5437185168266296
1.3946161270141602,3.422698974609375,-0.534541130065918
1.4159835577011108,3.406832218170166,-0.5251225233078003
1.4426836967468262,3.405280590057373,-0.5179604291915894
1.466572880744934,3.396322727203369,-0.5096186995506287
1.4874976873397827,3.3800101280212402,-0.5001499652862549
1.511141061782837,3.3707592487335205,-0.4916338622570038
1.5284571647644043,3.347181558609009,-0.4808858036994934
1.548635482788086,3.330583095550537,-0.4712536633014679
1.568877935409546,3.3137457370758057,-0.4615699052810669
1.5885543823242188,3.296966075897217,-0.4518483579158783
1.9560490846633911,3.990510940551758,-0.5378689169883728
1.9810152053833008,3.970984935760498,-0.5259121060371399
2.0091683864593506,3.9582574367523193,-0.5149431228637695
2.043673515319824,3.9594597816467285,-0.5056657195091248
2.0672757625579834,3.9398272037506104,-0.49370524287223816
2.0565757751464844,3.8546297550201416,-0.473529577255249
2.076427936553955,3.827669143676758,-0.46067023277282715
2.1311144828796387,3.865548849105835,-0.4552902281284332
2.1214663982391357,3.7877559661865234,-0.4364762604236603
2.1521666049957275,3.780672788619995,-0.42562127113342285
2.182405710220337,3.773583173751831,-0.4147242307662964
2.1962168216705322,3.7397875785827637,-0.4009099304676056
2.210663318634033,3.705385446548462,-0.3867552876472473
2.257032632827759,3.7241501808166504,-0.3781135380268097
2.2658729553222656,3.6834769248962402,-0.3633996248245239
2.2825543880462646,3.655992031097412,-0.3500528335571289
2.3293333053588867,3.6737587451934814,-0.3404771089553833
2.3422915935516357,3.6389236450195312,-0.3258015513420105
2.349586248397827,3.598156690597534,-0.3109549283981323
2.4007163047790527,3.621607780456543,-0.3010435998439789
2.4125030040740967,3.5867021083831787,-0.2861661911010742
2.4318041801452637,3.5652425289154053,-0.2724725306034088
2.4704718589782715,3.5681161880493164,-0.2596736252307892
2.4767813682556152,3.5266826152801514,-0.2437775880098343
2.508852243423462,3.524054527282715,-0.23064051568508148
2.5519628524780273,3.5325064659118652,-0.21704111993312836
2.229407787322998,3.0442614555358887,-0.17475269734859467
2.1844875812530518,2.942363739013672,-0.15653415024280548
2.8117024898529053,3.9518375396728516,0.5301281809806824
2.7713778018951416,3.959118127822876,0.5443835258483887
2.7428152561187744,3.97695255279541,0.558851420879364
2.711806535720825,3.9961280822753906,0.5732086300849915
2.677936553955078,4.012191295623779,0.5869406461715698
2.6597471237182617,4.04559326171875,0.6021994948387146
2.624605655670166,4.057301998138428,0.6142473816871643
2.586411952972412,4.066062927246094,0.6254041194915771
2.5828816890716553,4.125970363616943,0.6439923644065857
2.5411078929901123,4.122749328613281,0.6524794697761536
2.52549409866333,4.16677188873291,0.6680618524551392
2.484614133834839,4.171416282653809,0.6774616837501526
2.473871946334839,4.220957279205322,0.6935226917266846
2.4436862468719482,4.236773490905762,0.7040190100669861
2.4152121543884277,4.260259628295898,0.7153381109237671
2.382451057434082,4.276952266693115,0.7255132794380188
2.2745590209960938,4.153935432434082,0.7115620970726013
2.248641014099121,4.175230503082275,0.7218531370162964
2.2104666233062744,4.176556587219238,0.7283978462219238
2.207195997238159,4.2464704513549805,0.7467858195304871
2.1683716773986816,4.2475666999816895,0.7530835270881653
2.1445279121398926,4.275426387786865,0.7639656066894531
2.120896339416504,4.302914142608643,0.7747602462768555
2.093518018722534,4.327723026275635,0.7845678329467773
2.057616710662842,4.334935665130615,0.7912337183952332
2.0290863513946533,4.3554558753967285,0.8002310991287231
2.001460313796997,4.375319957733154,0.8089854121208191
1.969781756401062,4.3882737159729,0.8165401220321655
1.9944838285446167,4.531884670257568,0.847928524017334
1.9775105714797974,4.584115982055664,0.8624407649040222
1.9530282020568848,4.618338108062744,0.8735825419425964
1.9292895793914795,4.651995658874512,0.8845465183258057
1.8929635286331177,4.657247066497803,0.8902540802955627
1.85585618019104,4.66264533996582,0.8953399658203125
1.8130437135696411,4.653481960296631,0.8975913524627686
1.8102670907974243,4.748070240020752,0.9199457764625549
1.7768094539642334,4.759492874145508,0.9261286854743958
1.335340976715088,3.6557457447052,0.7144812941551208
1.3245956897735596,3.707746982574463,0.7275464534759521
1.292373776435852,3.701979398727417,0.7290447950363159
2.9667375087738037,8.70018196105957,1.7196035385131836
2.906534433364868,8.726593971252441,1.7310435771942139
1.5917860269546509,4.894522190093994,0.97440105676651
1.559693694114685,4.911806583404541,0.9813312292098999
1.535616397857666,4.958564758300781,0.9936787486076355
1.495129108428955,4.953918933868408,0.9956101775169373
1.4569522142410278,4.956307411193848,0.9989951848983765
1.4238286018371582,4.972943305969238,1.0052392482757568
1.4120477437973022,5.066933631896973,1.0272338390350342
1.351388931274414,4.983255863189697,1.0132112503051758
1.300967812538147,4.936385154724121,1.0060280561447144
1.2653734683990479,4.944815158843994,1.01002037525177
1.235263466835022,4.975296497344971,1.0185797214508057
1.2038826942443848,5.001864433288574,1.0264099836349487
1.1740936040878296,5.031739234924316,1.0349208116531372
1.140567660331726,5.04649019241333,1.0403856039047241
1.0997475385665894,5.031317234039307,1.039198398590088
1.0731995105743408,5.083341598510742,1.0517421960830688
1.0414575338363647,5.116599082946777,1.0605175495147705
1.0052188634872437,5.123167514801025,1.063769817352295
1.5956180095672607,8.442434310913086,1.7561293840408325
1.5270122289657593,8.399567604064941,1.7504292726516724
1.4692471027374268,8.416645050048828,1.7567404508590698
1.4083943367004395,8.426175117492676,1.7608875036239624
1.3382662534713745,8.370894432067871,1.75152587890625
1.2812079191207886,8.394449234008789,1.7587320804595947
1.221532940864563,8.394777297973633,1.761123538017273
1.1598179340362549,8.37952709197998,1.7603241205215454
1.1003942489624023,8.386695861816406,1.764328122138977
1.040140151977539,8.386089324951172,1.7655233144760132
0.9768428802490234,8.358466148376465,1.7611122131347656
0.9170028567314148,8.356966018676758,1.7622835636138916
0.43842118978500366,4.270668029785156,0.9013784527778625
0.40726444125175476,4.258097171783447,0.89955735206604
0.3835681676864624,4.332912445068359,0.9162676930427551
0.3508305549621582,4.304771900177002,0.9109368920326233
0.31751903891563416,4.265031337738037,0.9028564691543579
0.29043668508529663,4.308931350708008,0.912526547908783
0.3420376479625702,5.6649346351623535,1.200247883796692
0.3014496862888336,5.659360885620117,1.1996862888336182
0.2653890550136566,5.733633041381836,1.2161059379577637
0.2269575446844101,5.7733025550842285,1.2252588272094727
0.1875350922346115,5.805229663848877,1.232090711593628
0.1474330872297287,5.825448036193848,1.236382246017456
0.10603003948926926,5.826296806335449,1.2366247177124023
0.06579650938510895,5.865053653717041,1.2449734210968018
0.0250342208892107,5.872961044311523,1.2468347549438477
-0.022605087608098984,8.394829750061035,1.782577395439148
-0.08081073313951492,8.386809349060059,1.7810450792312622
-0.14016561210155487,8.386210441589355,1.7801817655563354
-0.19780445098876953,8.36229419708252,1.7744717597961426
-0.25591662526130676,8.3608980178833,1.7736262083053589
-0.3154534101486206,8.397283554077148,1.780879259109497
-0.2720552384853363,6.108277797698975,1.2951548099517822
-0.18634313344955444,3.6180245876312256,0.7670130133628845
-0.21052435040473938,3.5938687324523926,0.7615039348602295
-0.4044964909553528,6.174393177032471,1.3072848320007324
-0.45330169796943665,6.255629062652588,1.3235266208648682
-0.49652087688446045,6.252668857574463,1.3220065832138062
-0.5429713726043701,6.283661365509033,1.3277183771133423
-0.5910356640815735,6.318048477172852,1.3341889381408691
-0.6422492861747742,6.386380672454834,1.3478938341140747
-0.688704788684845,6.405109405517578,1.35033118724823
-0.7401911616325378,6.465310096740723,1.3614704608917236
-0.7768633365631104,6.396052360534668,1.3454121351242065
-0.8169720768928528,6.35302734375,1.3349295854568481
-0.8533658981323242,6.290873050689697,1.3205313682556152
-0.8949518799781799,6.2701520919799805,1.3149075508117676
-0.9406155347824097,6.279503345489502,1.3153691291809082
-0.9900674819946289,6.315184593200684,1.3207684755325317
-1.0415289402008057,6.354136943817139,1.3268458843231201
-1.0960122346878052,6.4116644859313965,1.336867332458496
-1.1458775997161865,6.434752464294434,1.3397164344787598
-1.1997474431991577,6.476251125335693,1.3464336395263672
-1.2536003589630127,6.513546943664551,1.3523117303848267
-1.3109747171401978,6.569485664367676,1.3613379001617432
-1.3666960000991821,6.6098833084106445,1.36692476272583
-1.4214318990707397,6.646243572235107,1.371751070022583
-1.4589118957519531,6.599833965301514,1.3595339059829712
-1.497252106666565,6.556825160980225,1.3480771780014038
-1.5341838598251343,6.509862899780273,1.3359012603759766
-0.6795520782470703,2.795790433883667,0.5724827647209167
-0.698567271232605,2.7915701866149902,0.5701858997344971
-0.7137042880058289,2.7723803520202637,0.5648674964904785
-0.7345560789108276,2.7753255367279053,0.5640847682952881
-0.7519336938858032,2.7632007598876953,0.5602312088012695
-0.7736654877662659,2.765643358230591,0.5593335628509521
-1.7667955160140991,6.151640892028809,1.2409809827804565
-1.798751950263977,6.107605934143066,1.2283154726028442
-1.8313628435134888,6.067059516906738,1.2164406776428223
-1.863440752029419,6.026352882385254,1.2046319246292114
-1.8911330699920654,5.966642379760742,1.1889617443084717
-1.9281784296035767,5.9398417472839355,1.1799968481063843
-1.9599254131317139,5.8983049392700195,1.168092131614685
-1.9862111806869507,5.8462419509887695,1.1534841060638428
-2.0156586170196533,5.804954528808594,1.1411056518554688
-2.048489570617676,5.774378776550293,1.130919098854065
-2.0817203521728516,5.739328861236572,1.1197229623794556
-2.1059634685516357,5.682656288146973,1.1044738292694092
-2.1386237144470215,5.651250839233398,1.0940395593643188
-2.1683194637298584,5.616631984710693,1.0825060606002808
-2.22446346282959,5.649815082550049,1.0840612649917603
-2.286444664001465,5.692854881286621,1.0873430967330933
-2.3395814895629883,5.710156440734863,1.0855998992919922
-2.370816469192505,5.673739910125732,1.0736881494522095
-2.4065639972686768,5.651857852935791,1.0641356706619263
-2.4399030208587646,5.62654447555542,1.0537165403366089
-2.5343568325042725,5.738129615783691,1.0687634944915771
-3.999582290649414,8.890382766723633,1.6467081308364868
-2.5776195526123047,5.6248250007629395,1.0359725952148438
-4.220011234283447,9.04467487335205,1.6561524868011475
-4.331699848175049,9.12695598602295,1.6605545282363892
-4.412193775177002,9.138288497924805,1.6517695188522339
-4.534399509429932,9.231770515441895,1.6576223373413086
-4.611845970153809,9.226506233215332,1.6452962160110474
-4.711693286895752,9.265570640563965,1.6406972408294678
-4.807261943817139,9.302090644836426,1.6345208883285522
-4.914206027984619,9.358304977416992,1.6316890716552734
-4.999607563018799,9.364404678344727,1.619425654411316
-1.1849311590194702,2.182784080505371,0.3743285536766052
-1.18327796459198,2.144819974899292,0.36464086174964905
-2.496943950653076,4.457472801208496,0.7508317828178406
-2.549348831176758,4.482755184173584,0.7480617165565491
-5.561312675476074,9.621929168701172,1.5893374681472778
-5.694263458251953,9.695841789245605,1.585142970085144
-1.258013129234314,2.1103732585906982,0.34125182032585144
-1.2719186544418335,2.1028337478637695,0.3362126350402832
-2.927028179168701,4.767172813415527,0.7531988024711609
-3.0004208087921143,4.81025505065918,0.7503483891487122
-3.0205516815185547,4.772123336791992,0.734636127948761
-3.047506809234619,4.7476983070373535,0.7209149599075317
-3.0438098907470703,4.6736226081848145,0.6994069814682007
-3.0537045001983643,4.618165016174316,0.6803833842277527
-3.072174072265625,4.5799560546875,0.6635522842407227
-3.080125093460083,4.5297532081604,0.6451978087425232
-3.1205978393554688,4.522924900054932,0.6322529315948486
-3.1478970050811768,4.496593475341797,0.6162409782409668
-2.8667361736297607,4.041244029998779,0.5423673987388611
-6.775468349456787,9.418512344360352,1.235371470451355
-2.927779197692871,4.010820388793945,0.5131897330284119
-2.957871198654175,4.00030517578125,0.4985564649105072
-2.461247682571411,3.4483532905578613,-0.2174295336008072
-2.434702157974243,3.466146469116211,-0.2328309714794159
-2.8828072547912598,4.165311813354492,-0.29546335339546204
-2.86006760597229,4.198598861694336,-0.3135136365890503
-2.8526883125305176,4.254065036773682,-0.33296459913253784
-2.8266286849975586,4.279486656188965,-0.34955471754074097
-2.810509443283081,4.3259358406066895,-0.3682541847229004
-2.8038666248321533,4.384465217590332,-0.38749051094055176
-1.2741893529891968,2.023526668548584,-0.18516013026237488
-1.2712249755859375,2.052260398864746,-0.19414782524108887
-1.248016357421875,2.0475728511810303,-0.19984909892082214
-2.114065170288086,3.5243184566497803,-0.35430851578712463
-2.6632602214813232,4.513864994049072,-0.4666385352611542
-2.6297953128814697,4.531917095184326,-0.481235146522522
-1.2071903944015503,2.1140663623809814,-0.23014889657497406
-2.5873637199401855,4.6068196296691895,-0.5137394666671753
-2.5620315074920654,4.641550540924072,-0.5300183892250061
-2.5397391319274902,4.678746223449707,-0.5461485981941223
-2.51369047164917,4.70880651473999,-0.561428964138031
-2.489741563796997,4.746203899383545,-0.5775545835494995
-2.4672985076904297,4.786835670471191,-0.594162106513977
-2.4432930946350098,4.823574542999268,-0.6102055907249451
-2.4190433025360107,4.860119819641113,-0.6260846853256226
-2.3971099853515625,4.903831958770752,-0.6429166197776794
-1.5912268161773682,3.314478874206543,-0.4419982433319092
-1.5494635105133057,3.2859530448913574,-0.4454425573348999
-1.5289802551269531,3.302920341491699,-0.4548957943916321
-1.0302079916000366,2.268627882003784,-0.31738096475601196
-1.0076138973236084,2.260999917984009,-0.32105666399002075
-0.9978124499320984,2.281463384628296,-0.32867246866226196
-0.9783412218093872,2.2806591987609863,-0.3331502079963684
-0.9708369970321655,2.3082735538482666,-0.34178271889686584
-0.9510995745658875,2.307284116744995,-0.3462487757205963
-0.9347168803215027,2.3131563663482666,-0.3516392707824707
-0.9209222197532654,2.3261985778808594,-0.3580074906349182
-0.9153112769126892,2.3608014583587646,-0.36772677302360535
-0.9053213000297546,2.3845107555389404,-0.37580606341362
-0.8854755759239197,2.3828694820404053,-0.37996479868888855
-0.8816671967506409,2.4246068000793457,-0.39087459444999695
-0.8616860508918762,2.422764301300049,-0.39476191997528076
-0.852059543132782,2.449878692626953,-0.4033779203891754
-0.8446815609931946,2.4842278957366943,-0.41326645016670227
-0.8327792286872864,2.5077335834503174,-0.4213734269142151
-0.8112886548042297,2.501789093017578,-0.42437082529067993
-0.7993049025535583,2.5250484943389893,-0.4323385953903198
-0.803144633769989,2.599745750427246,-0.4492326080799103
-0.812581479549408,2.6967360973358154,-0.47013524174690247
-0.7836549878120422,2.668334484100342,-0.4690825045108795
-0.7686366438865662,2.6878747940063477,-0.4765172302722931
-0.743495523929596,2.6701292991638184,-0.47726383805274963
-0.7307022213935852,2.6967575550079346,-0.4859165847301483
-0.7145175337791443,2.712240219116211,-0.49230411648750305
-0.7048245072364807,2.753699541091919,-0.5034956932067871
-0.7351797819137573,2.9593677520751953,-0.5450940728187561
-0.7206918001174927,2.9897446632385254,-0.5546668767929077
-0.7048759460449219,3.016385793685913,-0.5632268786430359
-0.6869866847991943,3.035457134246826,-0.5703866481781006
-0.6656442284584045,3.0393896102905273,-0.5747358798980713
-0.7107114195823669,3.3588192462921143,-0.6392148733139038
-0.6502232551574707,3.1823158264160156,-0.6091276407241821
-0.5729022026062012,2.9073574542999268,-0.5595088005065918
-0.5524812340736389,2.910602569580078,-0.5631618499755859
-0.5341762900352478,2.9250128269195557,-0.5690047740936279
-0.5199644565582275,2.9658234119415283,-0.5799794793128967
-0.49789959192276,2.9612064361572266,-0.5816771388053894
-0.4771430790424347,2.9639971256256104,-0.584851861000061
-0.4564165472984314,2.9666333198547363,-0.5880189538002014
-0.43901437520980835,2.991873264312744,-0.5957155823707581
-0.41136616468429565,2.9488346576690674,-0.5893439650535583
-0.3917669653892517,2.9587135314941406,-0.5934577584266663
-0.36776217818260193,2.9342496395111084,-0.5906981229782104
-0.34638944268226624,2.9286181926727295,-0.5917308926582336
-0.3191796839237213,2.869616985321045,-0.5816249847412109
-0.29397347569465637,2.8218743801116943,-0.5735120177268982
-0.2724817097187042,2.808250665664673,-0.5723496079444885
-0.25224554538726807,2.8020668029785156,-0.5726892352104187
-0.2321065068244934,2.795764684677124,-0.5728925466537476
-0.21063008904457092,2.7703306674957275,-0.5687223672866821
-0.19028836488723755,2.756192207336426,-0.56688392162323
-0.17076607048511505,2.757199287414551,-0.5682014226913452
-0.14989514648914337,2.7274937629699707,-0.56318598985672
-0.1301795095205307,2.7130227088928223,-0.5608170628547668
-0.11224003881216049,2.7366490364074707,-0.5662721991539001
-0.09215576946735382,2.706632137298584,-0.5606529712677002
-0.07297324389219284,2.7070679664611816,-0.5613738298416138
-0.05413893982768059,2.7074246406555176,-0.5617862939834595
-0.035182397812604904,2.700059652328491,-0.5603296160697937
-0.01632830873131752,2.6887383460998535,-0.5580780506134033
0.002356253331527114,2.6887600421905518,-0.5582075119018555
0.02149851620197296,2.707789897918701,-0.5622212290763855
0.0400286428630352,2.688544988632202,-0.5578122735023499
0.058960460126399994,2.699765205383301,-0.559752345085144
0.07758930325508118,2.6955583095550537,-0.5585201978683472
0.0970027893781662,2.7141590118408203,-0.5620384216308594
0.11586727946996689,2.713602066040039,-0.5611540675163269
0.135440856218338,2.720569133758545,-0.5617038011550903
0.1552203744649887,2.7350504398345947,-0.5638404488563538
0.17326101660728455,2.7188403606414795,-0.5596770644187927
0.1964615285396576,2.778902769088745,-0.5709781646728516
0.21608220040798187,2.781615972518921,-0.5701475143432617
0.2370380014181137,2.795610189437866,-0.5716252326965332
0.2586243450641632,2.817094564437866,-0.5746632218360901
0.17357076704502106,1.756394863128662,-0.3574402332305908
0.3103557229042053,2.9320473670959473,-0.5947386622428894
0.3247761130332947,2.876997947692871,-0.5816791653633118
0.3460710644721985,2.882690906524658,-0.5809287428855896
0.37003135681152344,2.9110634326934814,-0.5847834348678589
0.3943982720375061,2.9393301010131836,-0.5881852507591248
0.4207829535007477,2.97882342338562,-0.5936327576637268
0.44379955530166626,2.9915618896484375,-0.5937305092811584
0.47089317440986633,3.0268120765686035,-0.5982422828674316
0.5012271404266357,3.08085036277771,-0.606254518032074
0.5310347676277161,3.127140522003174,-0.6123088002204895
0.5608423948287964,3.169403076171875,-0.6175121068954468
0.589252769947052,3.2000844478607178,-0.6204022765159607
0.6203070878982544,3.2418370246887207,-0.6253892779350281
0.6590537428855896,3.3172640800476074,-0.6361483335494995
0.6953926682472229,3.3773610591888428,-0.6439018845558167
0.7254220843315125,3.4033234119415283,-0.6450701355934143
0.7633166313171387,3.462799072265625,-0.6525141000747681
0.8105445504188538,3.559486150741577,-0.6664323210716248
0.8446125984191895,3.592071056365967,-0.6679471135139465
0.8905754685401917,3.673016309738159,-0.6784003973007202
0.9629358053207397,3.8542580604553223,-0.7070611119270325
1.004287600517273,3.904407024383545,-0.7111973166465759
1.0542020797729492,3.9840259552001953,-0.7201753258705139
1.1168837547302246,4.103915691375732,-0.7360771894454956
1.1798690557479858,4.219565391540527,-0.7509875893592834
1.2339162826538086,4.2975754737854,-0.7589033246040344
1.2889013290405273,4.37522029876709,-0.7660306096076965
1.3360767364501953,4.422841548919678,-0.7677345275878906
1.3677335977554321,4.414578437805176,-0.7595076560974121
1.4011739492416382,4.413559436798096,-0.752660870552063
1.4296430349349976,4.397755146026611,-0.7429136037826538
1.4603334665298462,4.38910436630249,-0.7343277931213379
1.4774501323699951,4.339991569519043,-0.7190359234809875
1.500386118888855,4.309014320373535,-0.7068633437156677
1.243509292602539,3.4921164512634277,-0.5668390989303589
1.274418592453003,3.5026895999908447,-0.5624836683273315
1.2989033460617065,3.4948580265045166,-0.5551430583000183
1.3166824579238892,3.468707323074341,-0.54490065574646
1.3437697887420654,3.467766523361206,-0.5385459661483765
