X,Y,Z
-1.1388614177703857,2.915571928024292,0.4883265495300293
-1.134159803390503,2.847472906112671,0.4746263027191162
-1.1474756002426147,2.826047897338867,0.4687880575656891
-1.1450855731964111,2.765017509460449,0.45636388659477234
-1.1332812309265137,2.6826298236846924,0.44049665331840515
-1.1302369832992554,2.6257214546203613,0.42879432439804077
-1.150948405265808,2.625739812850952,0.42632007598876953
-1.1685593128204346,2.6185388565063477,0.42268624901771545
-1.186635136604309,2.6110000610351562,0.41894564032554626
-1.2280279397964478,2.652177572250366,0.4229058027267456
-1.239682674407959,2.6302921772003174,0.41672009229660034
-1.250535488128662,2.6086480617523193,0.41045087575912476
-1.2611520290374756,2.5869648456573486,0.4042242169380188
-1.2754909992218018,2.5719380378723145,0.39899370074272156
-1.283440113067627,2.542665481567383,0.3914843797683716
-1.2990857362747192,2.5310182571411133,0.3866550922393799
-1.3284226655960083,2.547020673751831,0.38589972257614136
-1.3181374073028564,2.487476110458374,0.3737495243549347
-1.324404001235962,2.4584617614746094,0.3661492168903351
-1.3305790424346924,2.429335355758667,0.3585564196109772
-1.3414571285247803,2.410749912261963,0.35231974720954895
-1.3497549295425415,2.389005422592163,0.34568241238594055
-1.3658370971679688,2.3805322647094727,0.34093400835990906
-1.3748652935028076,2.358105182647705,0.3340446352958679
-1.3870760202407837,2.342641592025757,0.32808950543403625
-1.3907554149627686,2.314065456390381,0.32015928626060486
-1.3979753255844116,2.2922489643096924,0.3132796585559845
-1.4387474060058594,2.322585344314575,0.3132134974002838
-1.4299346208572388,2.2739200592041016,0.302421897649765
-1.465640902519226,2.297992706298828,0.301195353269577
-1.4410616159439087,2.2268354892730713,0.2874052822589874
-1.4717684984207153,2.2400314807891846,0.2843687832355499
-1.4910807609558105,2.2373292446136475,0.27914246916770935
-1.4641859531402588,2.167205572128296,0.265571653842926
-1.5053447484970093,2.1963772773742676,0.2639480233192444
-1.5164265632629395,2.18007493019104,0.2564775049686432
-1.4944552183151245,2.1202659606933594,0.2440132051706314
-1.5039759874343872,2.10473370552063,0.23657920956611633
-1.5119922161102295,2.0853803157806396,0.2283431887626648
-1.5205528736114502,2.070272922515869,0.22049345076084137
-1.5296765565872192,2.0546352863311768,0.21229767799377441
-1.487747073173523,2.1015021800994873,-0.1304800808429718
-1.4837394952774048,2.1276307106018066,-0.13972270488739014
-1.4677605628967285,2.1381356716156006,-0.14789220690727234
-1.481908917427063,2.193964719772339,-0.15935051441192627
-1.4533106088638306,2.1844022274017334,-0.16560356318950653
-1.4622868299484253,2.2339210510253906,-0.17640690505504608
-1.454253911972046,2.257113218307495,-0.18507792055606842
-1.4402068853378296,2.2701058387756348,-0.19269873201847076
-1.4434667825698853,2.313429117202759,-0.20311662554740906
-1.4143019914627075,2.3033485412597656,-0.2086099088191986
-1.4059134721755981,2.3260514736175537,-0.21687531471252441
-1.4004300832748413,2.3559014797210693,-0.22588437795639038
-1.394852876663208,2.385615825653076,-0.23489904403686523
-1.373826265335083,2.388124704360962,-0.24112828075885773
-1.3371421098709106,2.3635692596435547,-0.24440516531467438
-1.308322787284851,2.352277994155884,-0.24892857670783997
-1.2952784299850464,2.3676722049713135,-0.2560548186302185
-1.26529061794281,2.3522818088531494,-0.25977984070777893
-1.2475950717926025,2.3610010147094727,-0.2661859691143036
-1.2268790006637573,2.3623764514923096,-0.27157148718833923
-1.2171835899353027,2.3841500282287598,-0.2792140245437622
-1.2050083875656128,2.4026615619659424,-0.28645768761634827
-1.2011319398880005,2.4385569095611572,-0.2958504259586334
-1.1902077198028564,2.4604341983795166,-0.3035939037799835
-1.1760444641113281,2.475100517272949,-0.31036531925201416
-1.167879581451416,2.5039420127868652,-0.3188796043395996
-1.1771138906478882,2.571572780609131,-0.33250877261161804
-1.165316104888916,2.5931990146636963,-0.3402026891708374
-1.1703108549118042,2.6538712978363037,-0.3531191349029541
-1.1153644323349,2.5797719955444336,-0.3480502665042877
-1.175394892692566,2.7725279331207275,-0.3790917992591858
-1.268855333328247,3.0518460273742676,-0.42269882559776306
-1.289517879486084,3.1639246940612793,-0.4437389671802521
-1.2810741662979126,3.2081668376922607,-0.45539355278015137
-1.2759336233139038,3.263357639312744,-0.4688495695590973
-1.266660213470459,3.3074965476989746,-0.48070573806762695
-1.248536229133606,3.329958200454712,-0.48940274119377136
-1.2298802137374878,3.352431058883667,-0.4980030655860901
-1.197971224784851,3.3383588790893555,-0.501172661781311
-1.1817114353179932,3.367781639099121,-0.5108924508094788
-1.1428515911102295,3.3312113285064697,-0.5104022026062012
-1.1006253957748413,3.2833986282348633,-0.5078551769256592
-1.0579348802566528,3.231504440307617,-0.5045373439788818
-1.012816071510315,3.1680705547332764,-0.499193400144577
-0.970517098903656,3.111692190170288,-0.4948256313800812
-0.924770176410675,3.040128469467163,-0.48748400807380676
-0.885575532913208,2.986612558364868,-0.48287931084632874
-0.8484337329864502,2.9363834857940674,-0.4786444306373596
-0.8162881731987,2.900644540786743,-0.4766553044319153
-0.7773774862289429,2.8386693000793457,-0.46992915868759155
-0.7459551095962524,2.8024983406066895,-0.46739766001701355
-0.7126772999763489,2.754732847213745,-0.4627592861652374
-0.683049738407135,2.7178492546081543,-0.45983782410621643
-0.6584566831588745,2.699481725692749,-0.4597582519054413
-0.6243532299995422,2.6396965980529785,-0.45242154598236084
-0.5985502600669861,2.6134488582611084,-0.4508032500743866
-0.5676732063293457,2.560590982437134,-0.44446805119514465
-0.554486870765686,2.58654522895813,-0.4516676962375641
-0.5205886960029602,2.5144693851470947,-0.4414728879928589
-0.4930322766304016,2.4684932231903076,-0.43576136231422424
-0.4769074320793152,2.4789812564849854,-0.4400201737880707
-0.45395466685295105,2.4514803886413574,-0.4374878704547882
-0.43269485235214233,2.4314424991607666,-0.4358728229999542
-0.4111093282699585,2.407440423965454,-0.43352651596069336
-0.39053866267204285,2.3870532512664795,-0.4318080544471741
-0.3759588599205017,2.404522657394409,-0.43698322772979736
-0.3534592092037201,2.368685245513916,-0.43217557668685913
-0.33202487230300903,2.336491346359253,-0.4278661906719208
-0.31570303440093994,2.3383986949920654,-0.4297977089881897
-0.2964628338813782,2.3173201084136963,-0.4275079667568207
-0.2756785750389099,2.280857563018799,-0.42224881052970886
-0.25860533118247986,2.274844169616699,-0.42234259843826294
-0.23904204368591309,2.24194598197937,-0.41742396354675293
-0.22418878972530365,2.2509279251098633,-0.42030519247055054
-0.2099473625421524,2.2674551010131836,-0.4246266484260559
-0.18957802653312683,2.215092897415161,-0.41568613052368164
-0.17568640410900116,2.239147186279297,-0.42106175422668457
-0.1595522165298462,2.232459545135498,-0.42066797614097595
-0.143485426902771,2.225658655166626,-0.42026928067207336
-0.12973611056804657,2.2571024894714355,-0.4269082546234131
-0.11321020126342773,2.2424986362457275,-0.4246434271335602
-0.09763564169406891,2.2507920265197754,-0.42674222588539124
-0.0814235657453537,2.235954999923706,-0.4244643449783325
-0.06609971076250076,2.2440266609191895,-0.4265129566192627
-0.050314102321863174,2.2367193698883057,-0.42526352405548096
-0.034871816635131836,2.244649887084961,-0.42693185806274414
-0.018996957689523697,2.2447996139526367,-0.42714473605155945
-0.003357439301908016,2.2294883728027344,-0.4244321286678314
0.012233822606503963,2.2448227405548096,-0.42727142572402954
0.028132889419794083,2.267746686935425,-0.43143779039382935
0.04329417273402214,2.2368431091308594,-0.4253849387168884
0.05967693775892258,2.2672178745269775,-0.43100598454475403
0.07663747668266296,2.293652296066284,-0.4357641339302063
0.09229280799627304,2.2855167388916016,-0.4336605668067932
0.10820167511701584,2.2849414348602295,-0.43301430344581604
0.12533865869045258,2.3072519302368164,-0.43672141432762146
0.14279113709926605,2.329435348510742,-0.44041556119918823
0.1581977903842926,2.313248634338379,-0.43646883964538574
0.1771559864282608,2.350581169128418,-0.44259047508239746
0.1950649619102478,2.36863374710083,-0.44508087635040283
0.21222639083862305,2.375077486038208,-0.445400208234787
0.2317074090242386,2.404369354248047,-0.44980278611183167
0.2502959966659546,2.4182472229003906,-0.45106616616249084
0.2709035873413086,2.4511020183563232,-0.4558875560760498
0.29065340757369995,2.4723446369171143,-0.4585394859313965
0.3097595274448395,2.48581600189209,-0.45971861481666565
0.33104661107063293,2.514458656311035,-0.4632872939109802
0.3535870313644409,2.546701669692993,-0.46746718883514404
0.37687811255455017,2.582597017288208,-0.47231772541999817
0.3983999490737915,2.603092908859253,-0.47433045506477356
0.4256449341773987,2.65765118598938,-0.4822056293487549
0.44542545080184937,2.662686586380005,-0.48092448711395264
0.47256651520729065,2.7092556953430176,-0.4871218204498291
0.4987146556377411,2.744171380996704,-0.49113044142723083
0.5285691022872925,2.7978527545928955,-0.4983449876308441
0.5525016188621521,2.817335605621338,-0.49912160634994507
0.5836108922958374,2.8705780506134033,-0.5058308839797974
0.6179563403129578,2.934826612472534,-0.5143743753433228
0.6527737975120544,2.9949240684509277,-0.5220422148704529
0.6820731163024902,3.028562307357788,-0.5246380567550659
0.7258256077766418,3.1219892501831055,-0.5374564528465271
0.7637947797775269,3.1849966049194336,-0.5448752045631409
0.7981030344963074,3.2289295196533203,-0.5489251017570496
0.8448059558868408,3.3173582553863525,-0.5600569248199463
0.8805782794952393,3.3607046604156494,-0.5633348822593689
0.9240671992301941,3.4297842979431152,-0.5707970261573792
0.983130931854248,3.550457000732422,-0.5866050720214844
1.04805588722229,3.6854124069213867,-0.6043402552604675
1.0979058742523193,3.760392665863037,-0.6115849614143372
1.1705836057662964,3.9089581966400146,-0.6305933594703674
1.2002861499786377,3.909041404724121,-0.6254202127456665
1.285707712173462,4.085733413696289,-0.6482545733451843
1.3413817882537842,4.162374496459961,-0.6544564962387085
1.391417145729065,4.216305255889893,-0.6568066477775574
1.4110454320907593,4.178301811218262,-0.6448831558227539
1.4404276609420776,4.169399261474609,-0.6374999284744263
1.4694247245788574,4.160441875457764,-0.6297945380210876
1.5035464763641357,4.165858268737793,-0.6242004632949829
1.5098826885223389,4.094704627990723,-0.6071962714195251
1.2880971431732178,3.4186172485351562,-0.5015180110931396
1.3062978982925415,3.3960955142974854,-0.49273496866226196
1.329763650894165,3.3879506587982178,-0.4859880208969116
1.3504652976989746,3.372380495071411,-0.4781707525253296
1.380089521408081,3.3780806064605713,-0.4733116626739502
1.395100474357605,3.3477299213409424,-0.46320840716362
1.4212744235992432,3.346099615097046,-0.45711222290992737
1.4383412599563599,3.3228750228881836,-0.44807669520378113
1.4617105722427368,3.313624620437622,-0.44089528918266296
1.4911201000213623,3.3184750080108643,-0.4354737401008606
1.5078667402267456,3.2948217391967773,-0.42612603306770325
1.530678629875183,3.2852399349212646,-0.4187071919441223
1.573815941810608,3.3173820972442627,-0.4164290130138397
1.6019046306610107,3.317812919616699,-0.4099988341331482
1.6280502080917358,3.3146743774414062,-0.4030509889125824
1.6149886846542358,3.231088638305664,-0.38627108931541443
1.6307796239852905,3.2066586017608643,-0.37675461173057556
1.6403987407684326,3.1720774173736572,-0.3660528063774109
1.6512097120285034,3.141040325164795,-0.35584643483161926
1.718895673751831,3.2160561084747314,-0.35739845037460327
1.7378369569778442,3.1979262828826904,-0.34836122393608093
1.7316954135894775,3.1356821060180664,-0.33445417881011963
1.7339212894439697,3.090785264968872,-0.3227280378341675
1.7787835597991943,3.1199216842651367,-0.31846773624420166
1.3322417736053467,2.300128936767578,-0.2293386608362198
1.302355408668518,2.2145328521728516,-0.2155064195394516
0.9604433178901672,1.6076700687408447,-0.15242846310138702
0.9616733193397522,1.5846376419067383,-0.146230086684227
0.9763871431350708,1.585191249847412,-0.14221911132335663
0.9891143441200256,1.5822890996932983,-0.1378614902496338
0.9940134882926941,1.5658067464828491,-0.1321423202753067
1.0111346244812012,1.5691428184509277,-0.12802159786224365
1.0151655673980713,1.5529762506484985,-0.12238823622465134
1.0260419845581055,1.5462068319320679,-0.11729316413402557
1.0473864078521729,1.5557690858840942,-0.11337068676948547
1.0422242879867554,1.526655912399292,-0.10664933919906616
2.566119909286499,3.7026867866516113,-0.24646037817001343
2.577448606491089,3.667095184326172,-0.23203441500663757
2.597010612487793,3.644505262374878,-0.21843767166137695
2.608926773071289,3.6079533100128174,-0.20322774350643158
2.6160192489624023,3.56976056098938,-0.18810592591762543
2.6749002933502197,3.599811553955078,-0.17588025331497192
2.6346535682678223,3.7075629234313965,0.4475865066051483
2.6168596744537354,3.737525701522827,0.46235448122024536
2.5923309326171875,3.7623791694641113,0.4763006567955017
1.0567760467529297,1.559403657913208,0.20182420313358307
1.0499286651611328,1.5727347135543823,0.20752587914466858
1.0422574281692505,1.5864832401275635,0.21323063969612122
1.0295640230178833,1.5940849781036377,0.2181464284658432
1.022081732749939,1.6074765920639038,0.22354471683502197
1.0144827365875244,1.6208268404006958,0.22886483371257782
0.9978163838386536,1.6214256286621094,0.2322624772787094
0.9934307932853699,1.6416524648666382,0.2384480983018875
0.9616894721984863,1.614911675453186,0.23761765658855438
0.9497320055961609,1.621401071548462,0.24148774147033691
1.3411785364151,2.329636573791504,0.35102105140686035
1.8290866613388062,3.2318952083587646,0.4924568831920624
1.762756109237671,3.1659457683563232,0.4874841272830963
1.7539573907852173,3.2051079273223877,0.49857190251350403
1.7717100381851196,3.2956783771514893,0.5175639986991882
1.7666393518447876,3.345521926879883,0.5303356647491455
2.379131555557251,4.582295894622803,0.7327302098274231
2.3429267406463623,4.590827941894531,0.7403841018676758
2.3146660327911377,4.621059417724609,0.7511783838272095
2.2730653285980225,4.623073577880859,0.7573237419128418
2.246180772781372,4.652032852172852,0.7677258253097534
2.2165956497192383,4.673446178436279,0.7767943143844604
2.1827380657196045,4.688067436218262,0.7845273017883301
2.1477997303009033,4.70291805267334,0.7920363545417786
2.1152760982513428,4.724806308746338,0.8008739948272705
2.0813941955566406,4.7386016845703125,0.8081097602844238
2.041779041290283,4.737785339355469,0.8128125667572021
1.7656885385513306,4.1791253089904785,0.7209696173667908
1.7199747562408447,4.15542459487915,0.7206325531005859
1.6915415525436401,4.174378871917725,0.7277743220329285
1.6673779487609863,4.199707984924316,0.7358880043029785
1.635027289390564,4.20316743850708,0.7401542663574219
1.6050060987472534,4.213776588439941,0.7455201148986816
1.5767937898635864,4.231739521026611,0.7518870830535889
1.5558140277862549,4.271391868591309,0.7622280120849609
1.5223759412765503,4.274345397949219,0.7659775614738464
1.492303490638733,4.284056186676025,0.770888090133667
1.4659335613250732,4.30447244644165,0.7777665853500366
1.4346786737442017,4.314181327819824,0.7822389006614685
1.4098316431045532,4.345831394195557,0.7907518148422241
1.3758808374404907,4.347815036773682,0.7938692569732666
1.3394513130187988,4.338255405426025,0.794826328754425
1.3067716360092163,4.339392185211182,0.7977468967437744
1.2792930603027344,4.358840465545654,0.8039168119430542
1.2562333345413208,4.396854400634766,0.8131536841392517
1.2259116172790527,4.412672519683838,0.8183899521827698
1.2000356912612915,4.44297456741333,0.8263283967971802
1.165047526359558,4.435694217681885,0.8272483348846436
1.1416258811950684,4.472834587097168,0.8365010619163513
1.1099953651428223,4.480138778686523,0.8399750590324402
1.079957365989685,4.498727321624756,0.8452984094619751
1.0528976917266846,4.528212547302246,0.8526946306228638
1.0204588174819946,4.535034656524658,0.8558733463287354
0.9903887510299683,4.548973083496094,0.8603951334953308
0.9570092558860779,4.547675132751465,0.8620770573616028
0.7792118787765503,3.838798761367798,0.7291761636734009
0.7532872557640076,3.851388692855835,0.732751190662384
0.7230033278465271,3.8411543369293213,0.7320166826248169
0.832253634929657,4.60136604309082,0.8783875107765198
0.8059912323951721,4.640629291534424,0.8874016404151917
0.774298369884491,4.65331506729126,0.891414999961853
0.7453150153160095,4.680908203125,0.8981615304946899
0.7121649384498596,4.685694217681885,0.9000990986824036
0.6800316572189331,4.697847843170166,0.9035002589225769
0.6488072276115417,4.717380523681641,0.90837162733078
0.6181734800338745,4.744331359863281,0.914731502532959
0.586053729057312,4.755765914916992,0.9181267619132996
0.5542472004890442,4.770791530609131,0.9222646355628967
0.5223027467727661,4.7895660400390625,0.9265773892402649
0.49009501934051514,4.808135032653809,0.9308586120605469
0.45692726969718933,4.818848133087158,0.9336685538291931
0.422529011964798,4.821724891662598,0.9350178241729736
0.3902132213115692,4.839582920074463,0.9393008947372437
0.35823261737823486,4.864871501922607,0.9450781941413879
0.3250265419483185,4.878541946411133,0.9482895135879517
0.29130810499191284,4.8882222175598145,0.9504609704017639
0.2581211030483246,4.920670509338379,0.9571146965026855
0.22469918429851532,4.945207118988037,0.9622752070426941
0.19082021713256836,4.9618449211120605,0.9659469723701477
0.15665583312511444,4.974415302276611,0.9688752889633179
0.12222526222467422,4.982925891876221,0.9710129499435425
0.08711177855730057,4.998991966247559,0.9740520119667053
0.05248205363750458,5.022471904754639,0.9785844683647156
0.01744523085653782,5.0380425453186035,0.9816232919692993
-0.01773223653435707,5.064871311187744,0.9869036078453064
-0.05296683683991432,5.072283744812012,0.9884486794471741
-0.08899647742509842,5.07943868637085,0.9899948835372925
-0.12482982128858566,5.10176420211792,0.9941303133964539
-0.16089192032814026,5.123891353607178,0.9979915022850037
-0.19614937901496887,5.115109443664551,0.9958781599998474
-0.23337489366531372,5.1520514488220215,1.0027128458023071
-0.2709810137748718,5.184890270233154,1.0087921619415283
-0.3062962591648102,5.160000801086426,1.0036832094192505
-0.2895964980125427,4.365833759307861,0.8489744067192078
-0.3155847489833832,4.306568622589111,0.8367339372634888
-0.3471595346927643,4.327432632446289,0.8401089310646057
-0.37637293338775635,4.317501068115234,0.8375428915023804
-0.3978627026081085,4.219485282897949,0.8179312944412231
-0.42564165592193604,4.201559066772461,0.8139094710350037
-0.44993236660957336,4.152936935424805,0.8039873242378235
-0.4746862053871155,4.115695953369141,0.7959719896316528
-0.495053768157959,4.047903060913086,0.7818966507911682
-0.5184899568557739,4.006588459014893,0.772979736328125
-0.5419234037399292,3.972804546356201,0.7655845284461975
-0.5657240152359009,3.942647933959961,0.7589290142059326
-0.5863178372383118,3.893369674682617,0.7486432194709778
-0.6067642569541931,3.847813606262207,0.7390217185020447
-0.6273127198219299,3.8060100078582764,0.729743480682373
-0.6455954909324646,3.756598472595215,0.7190877795219421
-0.6666106581687927,3.7260022163391113,0.7120896577835083
-0.6881817579269409,3.699022054672241,0.7058207392692566
-0.7044323086738586,3.6455063819885254,0.6945384740829468
-0.72227543592453,3.6032235622406006,0.6854534149169922
-0.7395382523536682,3.5609474182128906,0.6759862303733826
-0.7565354704856873,3.522465467453003,0.6672663688659668
-0.7689189314842224,3.465150833129883,0.6550420522689819
-0.7927123308181763,3.4602160453796387,0.6527624130249023
-0.8141558170318604,3.443826198577881,0.6483386754989624
-0.8312981724739075,3.4085352420806885,0.6403800845146179
-0.8490264415740967,3.380870819091797,0.6336370706558228
-0.863338828086853,3.3420250415802,0.6247109174728394
-0.8781486749649048,3.3068461418151855,0.6165300011634827
-0.8946809768676758,3.2789955139160156,0.6097593903541565
-0.9179210066795349,3.2730696201324463,0.6070486307144165
-0.9226534366607666,3.2042489051818848,0.5927587747573853
-0.9467804431915283,3.205749750137329,0.5912836194038391
-0.959552526473999,3.1703591346740723,0.5828737020492554
-0.9810031056404114,3.164332866668701,0.5799066424369812
-0.993642270565033,3.1286563873291016,0.5715034008026123
-1.0119740962982178,3.111189842224121,0.5664621591567993
-1.0240281820297241,3.075352430343628,0.5581275224685669
-1.0326379537582397,3.0324110984802246,0.5483073592185974
-1.0493453741073608,3.0150349140167236,0.5430507063865662
-1.0671542882919312,3.0011932849884033,0.5384683012962341
-1.0802059173583984,2.9725446701049805,0.5312088131904602
-1.1063767671585083,2.979949951171875,0.5304176807403564
-1.1163356304168701,2.9438862800598145,0.5219224095344543
-1.118050456047058,2.8902177810668945,0.5100294351577759
-1.1318175792694092,2.8689162731170654,0.5039179921150208
-1.1399126052856445,2.833123207092285,0.495280385017395
-1.1538493633270264,2.8114495277404785,0.48911890387535095
-1.1304341554641724,2.7007031440734863,0.467568576335907
-1.1323223114013672,2.6544671058654785,0.45716866850852966
-1.1378504037857056,2.61912202835083,0.4485631585121155
-1.161997675895691,2.626037836074829,0.4471858739852905
-1.1736966371536255,2.604551076889038,0.44097939133644104
-1.2048786878585815,2.6249608993530273,0.44181692600250244
-1.2361778020858765,2.6451847553253174,0.4425044357776642
-1.2438656091690063,2.61663818359375,0.43482375144958496
-1.261628270149231,2.6088242530822754,0.4305793344974518
-1.2691709995269775,2.580047369003296,0.4229073226451874
-1.2804275751113892,2.5579140186309814,0.4162856340408325
-1.2911529541015625,2.535888910293579,0.4096551835536957
-1.2991119623184204,2.5107975006103516,0.40237483382225037
-1.312191367149353,2.4959685802459717,0.3967878818511963
-1.3187131881713867,2.466984987258911,0.38883429765701294
-1.3324393033981323,2.451536178588867,0.3830396234989166
-1.3416551351547241,2.4295809268951416,0.3761294186115265
-1.3539633750915527,2.4146194458007812,0.3702307641506195
-1.3603618144989014,2.389503002166748,0.36283060908317566
-1.3697824478149414,2.3670201301574707,0.35558611154556274
-1.3863483667373657,2.358124256134033,0.35045260190963745
-1.389925479888916,2.32975697517395,0.3422674536705017
-1.4012141227722168,2.314688205718994,0.3360963761806488
-1.4173420667648315,2.3056445121765137,0.3305855989456177
-1.4381059408187866,2.302720785140991,0.3257841467857361
-1.4490454196929932,2.287485122680664,0.3190958797931671
-1.4640352725982666,2.278719425201416,0.3133370280265808
-1.4799782037734985,2.2692389488220215,0.3071850836277008
-1.4872121810913086,2.2467455863952637,0.2991921901702881
-1.4933557510375977,2.224827766418457,0.2910979092121124
-1.5058362483978271,2.212531089782715,0.2843080759048462
-1.5171035528182983,2.1962552070617676,0.2766501009464264
-1.4913946390151978,2.1297802925109863,0.2627083659172058
-1.509478211402893,2.127363681793213,0.2567712664604187
-1.5087974071502686,2.09529185295105,0.24662117660045624
-1.5227338075637817,2.0860531330108643,0.23917116224765778
-1.526684045791626,2.0646839141845703,0.23031669855117798
-1.5202516317367554,2.131077289581299,-0.1321990042924881
-1.508847713470459,2.1481332778930664,-0.14159895479679108
-1.4731825590133667,2.129626989364624,-0.14819282293319702
-1.463395118713379,2.1499204635620117,-0.15742893517017365
-1.4740484952926636,2.198580503463745,-0.1683816760778427
-1.46199631690979,2.2153265476226807,-0.17699235677719116
-1.4534554481506348,2.2388761043548584,-0.18629923462867737
-1.4690223932266235,2.2977166175842285,-0.19818638265132904
-1.4394652843475342,2.2880992889404297,-0.20426204800605774
-1.41820228099823,2.2914843559265137,-0.21139241755008698
-1.4059821367263794,2.3074424266815186,-0.21932828426361084
-1.3966879844665527,2.3305306434631348,-0.22810764610767365
-1.367404818534851,2.320038318634033,-0.23347553610801697
-1.3547747135162354,2.3357253074645996,-0.24115276336669922
-1.3243460655212402,2.3210878372192383,-0.24563027918338776
-1.3071120977401733,2.3300976753234863,-0.2525419592857361
-1.2636525630950928,2.2912347316741943,-0.2541135847568512
-1.254732370376587,2.3131089210510254,-0.26214462518692017
-1.2449617385864258,2.335268974304199,-0.270222544670105
-1.2385609149932861,2.36425518989563,-0.2791767120361328
-1.230679988861084,2.389479160308838,-0.2875779867172241
-1.223656177520752,2.4184389114379883,-0.29658621549606323
-1.2059305906295776,2.4265389442443848,-0.30295640230178833
-1.1883729696273804,2.4343953132629395,-0.30924347043037415
-1.1811679601669312,2.462954044342041,-0.31811803579330444
-1.1765050888061523,2.4987268447875977,-0.3279497027397156
-1.1826801300048828,2.5592141151428223,-0.34117910265922546
-1.1976726055145264,2.6410436630249023,-0.35752320289611816
-1.1553128957748413,2.5954787731170654,-0.3565424084663391
-1.1690654754638672,2.6775050163269043,-0.37298667430877686
-1.3097379207611084,3.058939218521118,-0.43202850222587585
-1.3134702444076538,3.1278762817382812,-0.44767728447914124
-1.308585524559021,3.1791880130767822,-0.46108004450798035
-1.288520336151123,3.1947062015533447,-0.46910014748573303
-1.2711373567581177,3.2172799110412598,-0.47821947932243347
-1.2483229637145996,3.225172519683838,-0.48510318994522095
-1.2433193922042847,3.279890775680542,-0.4991006553173065
-1.2139445543289185,3.273343563079834,-0.5037017464637756
-1.1732908487319946,3.2337028980255127,-0.5030323266983032
-1.1258118152618408,3.171725034713745,-0.4986482560634613
-1.074289321899414,3.0946481227874756,-0.491640567779541
-1.0372871160507202,3.05741548538208,-0.490461140871048
-0.9919896125793457,2.994286298751831,-0.4850570261478424
-0.9386740922927856,2.9011728763580322,-0.4744431674480438
-0.9031010866165161,2.8589963912963867,-0.4719337522983551
-0.8645576238632202,2.8055288791656494,-0.46715372800827026
-0.8190218210220337,2.7258479595184326,-0.4577820599079132
-0.796474814414978,2.719676971435547,-0.4606132507324219
-0.7558994889259338,2.6503522396087646,-0.45268601179122925
-0.7279009222984314,2.621462345123291,-0.45124930143356323
-0.7013010382652283,2.596073627471924,-0.4502459764480591
-0.6643710136413574,2.5294649600982666,-0.44197866320610046
-0.6427728533744812,2.518450975418091,-0.44332215189933777
-0.6071314811706543,2.4513099193573,-0.4346003234386444
-0.5861989855766296,2.4399473667144775,-0.435431569814682
-0.5602205991744995,2.4059293270111084,-0.43218013644218445
-0.5424934029579163,2.405432939529419,-0.43490222096443176
-0.5108315348625183,2.3409411907196045,-0.42593955993652344
-0.4924388825893402,2.336472272872925,-0.42757004499435425
-0.4690881073474884,2.305436611175537,-0.42427101731300354
-0.44846969842910767,2.285508155822754,-0.42297086119651794
-0.42533302307128906,2.2503037452697754,-0.41879668831825256
-0.4074808955192566,2.241427421569824,-0.41916656494140625
-0.38883617520332336,2.22868013381958,-0.41879114508628845
-0.369428813457489,2.2081682682037354,-0.41690516471862793
-0.3552180528640747,2.2178266048431396,-0.42071807384490967
-0.3362240195274353,2.1970741748809814,-0.418557733297348
-0.3169826865196228,2.1724064350128174,-0.4154561758041382
-0.2994065582752228,2.1590209007263184,-0.41453152894973755
-0.28234633803367615,2.1454663276672363,-0.41353878378868103
-0.26357364654541016,2.1165740489959717,-0.40949225425720215
-0.24969600141048431,2.1256868839263916,-0.4124870002269745
-0.23232068121433258,2.10421085357666,-0.40955850481987
-0.21919986605644226,2.1207451820373535,-0.4140438139438629
-0.20267845690250397,2.106679677963257,-0.41259610652923584
-0.1872776597738266,2.1001803874969482,-0.4122534692287445
-0.17166230082511902,2.089759588241577,-0.4111016094684601
-0.15537166595458984,2.0677568912506104,-0.4076745808124542
-0.13994833827018738,2.0532796382904053,-0.4057321548461914
-0.12540149688720703,2.0540459156036377,-0.40660977363586426
-0.11111319810152054,2.0547356605529785,-0.40728017687797546
-0.09718194603919983,2.0629806518554688,-0.409469872713089
-0.083740234375,2.0864434242248535,-0.41470903158187866
-0.06923039257526398,2.086853265762329,-0.41532206535339355
-0.05406482517719269,2.0719175338745117,-0.412543922662735
-0.03993471339344978,2.0875120162963867,-0.4158618748188019
-0.025232966989278793,2.0723633766174316,-0.41307511925697327
-0.010943878442049026,2.0954203605651855,-0.4179247319698334
0.003627240192145109,2.087798595428467,-0.41632500290870667
0.01839638501405716,2.0877513885498047,-0.4161711633205414
0.03303200751543045,2.095263957977295,-0.41754671931266785
0.04784400016069412,2.106503963470459,-0.4196843206882477
0.062490109354257584,2.1061882972717285,-0.41934365034103394
0.07768069207668304,2.12113094329834,-0.42182457447052
0.09276442229747772,2.1283085346221924,-0.42277586460113525
0.10743571072816849,2.120060443878174,-0.4206755757331848
0.12261940538883209,2.1270344257354736,-0.42158064246177673
0.13938091695308685,2.156921148300171,-0.4266427457332611
0.15437407791614532,2.1560981273651123,-0.425638884305954
0.17179808020591736,2.1857383251190186,-0.4306558668613434
0.1876198649406433,2.1884889602661133,-0.430368572473526
0.20428098738193512,2.2026612758636475,-0.43202435970306396
0.22268690168857574,2.2319910526275635,-0.4365382194519043
0.23986560106277466,2.2459254264831543,-0.4380384087562561
0.2546292841434479,2.2368686199188232,-0.43507274985313416
0.27414849400520325,2.265798568725586,-0.4393082857131958
0.29233667254447937,2.2832348346710205,-0.44106853008270264
0.31232136487960815,2.311939239501953,-0.44499197602272034
0.331692099571228,2.3328771591186523,-0.44739973545074463
0.35308676958084106,2.3650527000427246,-0.45192328095436096
0.37461739778518677,2.3933002948760986,-0.4552253782749176
0.3962540328502655,2.4214117527008057,-0.4585096538066864
0.4176722764968872,2.4455575942993164,-0.4610147178173065
0.4441569745540619,2.4960014820098877,-0.4684329628944397
0.467837929725647,2.5273830890655518,-0.47191303968429565
0.49267083406448364,2.5623669624328613,-0.4758976399898529
0.5183663964271545,2.5970795154571533,-0.47973012924194336
0.545117974281311,2.6353750228881836,-0.4842027425765991
0.5756012201309204,2.6885156631469727,-0.49116402864456177
0.6026707887649536,2.722654104232788,-0.49431145191192627
0.6362249851226807,2.7828145027160645,-0.5020962357521057
0.6666972041130066,2.8238422870635986,-0.5062558054924011
0.7137963771820068,2.9319937229156494,-0.5223159790039062
0.7436280250549316,2.9650697708129883,-0.5244698524475098
0.7825955152511597,3.031447410583496,-0.5324076414108276
0.8285487294197083,3.1197690963745117,-0.544003427028656
0.8700941205024719,3.185237407684326,-0.5513631701469421
0.9204179644584656,3.280174493789673,-0.5633453130722046
0.9614043831825256,3.3375871181488037,-0.5686067938804626
1.0207955837249756,3.4537575244903564,-0.5836364030838013
1.0707989931106567,3.5323686599731445,-0.5920364856719971
1.1199839115142822,3.6030707359313965,-0.5985863208770752
1.1918699741363525,3.743349313735962,-0.6163041591644287
1.2730227708816528,3.9048666954040527,-0.6370584964752197
1.3457238674163818,4.032480239868164,-0.6518065333366394
1.4101753234863281,4.130147457122803,-0.6612375974655151
1.4452893733978271,4.139734745025635,-0.6561188101768494
1.4823542833328247,4.152525424957275,-0.6513705849647522
1.5142457485198975,4.150512218475342,-0.6443129181861877
1.5406675338745117,4.1338019371032715,-0.634945273399353
1.5665974617004395,4.117074966430664,-0.6253129839897156
1.5685546398162842,4.038863182067871,-0.6065024733543396
1.3464235067367554,3.395714282989502,-0.5039104223251343
1.3674185276031494,3.3800270557403564,-0.49566471576690674
1.387854814529419,3.3643906116485596,-0.48723936080932617
1.4111363887786865,3.3557546138763428,-0.47986435890197754
1.4286091327667236,3.332566261291504,-0.4703642427921295
1.4525209665298462,3.3232853412628174,-0.46273162961006165
1.475451111793518,3.3142316341400146,-0.4550591707229614
1.5015428066253662,3.31205677986145,-0.4483329653739929
1.5215551853179932,3.295423984527588,-0.4395621120929718
1.5381919145584106,3.2715976238250732,-0.42984384298324585
1.5711398124694824,3.282790184020996,-0.4244568645954132
1.6005357503890991,3.286865472793579,-0.4182097911834717
1.616775631904602,3.2626278400421143,-0.40822839736938477
1.6099519729614258,3.1932668685913086,-0.3927232325077057
1.635337233543396,3.1900699138641357,-0.3853977918624878
1.639282464981079,3.145282745361328,-0.37309977412223816
1.6819403171539307,3.1721482276916504,-0.3689739406108856
1.7408987283706665,3.2297534942626953,-0.36826568841934204
1.7479912042617798,3.191488742828369,-0.35649871826171875
1.7303465604782104,3.1089210510253906,-0.3399292826652527
1.7695035934448242,3.128033399581909,-0.3344421982765198
1.8105565309524536,3.1503586769104004,-0.3289700448513031
1.3317062854766846,2.2819623947143555,-0.23266509175300598
0.9626644849777222,1.6237261295318604,-0.16136647760868073
0.9558746814727783,1.587445616722107,-0.15360671281814575
0.9706276655197144,1.588058590888977,-0.14946860074996948
0.9838011264801025,1.5849801301956177,-0.14479465782642365
0.9887317419052124,1.5685642957687378,-0.13889168202877045
0.995005190372467,1.5557845830917358,-0.1333528757095337
1.0097556114196777,1.5559754371643066,-0.12887781858444214
1.0271892547607422,1.558975338935852,-0.12437951564788818
1.031285285949707,1.5426409244537354,-0.11826035380363464
1.041603684425354,1.5360914468765259,-0.11295948177576065
1.0634865760803223,1.5451581478118896,-0.10849584639072418
2.555802583694458,3.66231369972229,-0.2449171245098114
2.5982749462127686,3.6714985370635986,-0.2328902930021286
2.619750738143921,3.6475119590759277,-0.21776147186756134
2.5996651649475098,3.571373462677002,-0.20003093779087067
2.6448631286621094,3.5825998783111572,-0.1865633726119995
2.634315013885498,3.732309341430664,0.4824826121330261
2.604279041290283,3.751495122909546,0.49654290080070496
2.562197685241699,3.7503905296325684,0.5074125528335571
1.0550529956817627,1.5680896043777466,0.21649400889873505
1.0426349639892578,1.5756590366363525,0.22163696587085724
1.0346176624298096,1.5894825458526611,0.2276144176721573
1.0316009521484375,1.6092207431793213,0.23418283462524414
1.00697660446167,1.5966356992721558,0.23593208193778992
1.010622501373291,1.6302244663238525,0.24453122913837433
0.9945940375328064,1.6303260326385498,0.24789801239967346
0.9749636650085449,1.6234534978866577,0.25008293986320496
0.9742705821990967,1.6502659320831299,0.25730136036872864
1.3519941568374634,2.329930067062378,0.36761265993118286
1.3712384700775146,2.40278959274292,0.38338151574134827
1.8124362230300903,3.2278244495391846,0.5205492377281189
1.7635064125061035,3.196361780166626,0.5205517411231995
1.785144329071045,3.2935307025909424,0.5415939092636108
1.7665473222732544,3.315541982650757,0.5502275228500366
2.3969063758850098,4.5764312744140625,0.7663288116455078
2.355945587158203,4.578764915466309,0.7730503082275391
2.3283567428588867,4.608664512634277,0.7842875123023987
2.293855905532837,4.624424934387207,0.7931324243545532
2.2643959522247314,4.646068572998047,0.8027223348617554
2.2273428440093994,4.6539154052734375,0.8100317716598511
2.1924495697021484,4.669066429138184,0.8179993033409119
2.16717267036438,4.704946517944336,0.829662024974823
2.129451274871826,4.71229362487793,0.8362516164779663
2.0992953777313232,4.732903003692627,0.8450371026992798
2.06248140335083,4.739320755004883,0.851235032081604
2.002540111541748,4.696718692779541,0.8481619954109192
1.740511178970337,4.166262149810791,0.7563779950141907
1.7130255699157715,4.18486213684082,0.7637386918067932
1.677780270576477,4.181453227996826,0.7669817805290222
1.6567529439926147,4.21358585357666,0.7767890095710754
1.6224602460861206,4.217644691467285,0.7809728980064392
1.5941476821899414,4.235650062561035,0.7877195477485657
1.5629974603652954,4.246235370635986,0.7931347489356995
1.5356749296188354,4.263401031494141,0.7996826171875
1.5081857442855835,4.280383110046387,0.8062471151351929
1.478093147277832,4.293990135192871,0.8119440078735352
1.4491437673568726,4.311063289642334,0.8180590867996216
1.4176253080368042,4.3206305503845215,0.8227981925010681
1.3913029432296753,4.344436168670654,0.8302486538887024
1.3584970235824585,4.345881462097168,0.8334103226661682
1.3319295644760132,4.369274139404297,0.8408780694007874
1.2959303855895996,4.363279819488525,0.8420947194099426
1.274972915649414,4.408666133880615,0.8532524108886719
1.2388622760772705,4.402211666107178,0.854433536529541
1.2097316980361938,4.417501449584961,0.8598179817199707
1.1847234964370728,4.447351455688477,0.8680700659751892
1.1567912101745605,4.469786643981934,0.874927282333374
1.1273967027664185,4.48849630355835,0.8805173635482788
1.095116138458252,4.495813369750977,0.8839200735092163
1.064550518989563,4.510363578796387,0.8887937664985657
1.0344645977020264,4.524569988250732,0.8936119675636292
1.005594253540039,4.546119689941406,0.8999539613723755
0.9737663865089417,4.552389144897461,0.9032561779022217
0.9396800994873047,4.551172733306885,0.9045066833496094
0.7649463415145874,3.842806816101074,0.7650200128555298
0.7418192625045776,3.870299816131592,0.771833598613739
0.8487931489944458,4.606339931488037,0.9202638268470764
0.8199909329414368,4.630477428436279,0.9267364740371704
0.7889670729637146,4.643096923828125,0.9309583306312561
0.7585510015487671,4.66325044631958,0.9361942410469055
0.7277504205703735,4.683241844177246,0.9413568377494812
0.6950564980506897,4.695517539978027,0.9450411200523376
0.6651488542556763,4.722634315490723,0.9517396092414856
0.63328617811203,4.73431921005249,0.955366849899292
0.6022027134895325,4.753391742706299,0.9605395793914795
0.5702663064002991,4.7685418128967285,0.9646209478378296
0.5366614460945129,4.772143840789795,0.9660902619361877
0.5056456327438354,4.806031227111816,0.9737582206726074
0.47327783703804016,4.824416637420654,0.9783279895782471
0.4403100609779358,4.8349289894104,0.9813446402549744
0.4072733223438263,4.84520959854126,0.9843634963035583
0.37468039989471436,4.862910747528076,0.9888834953308105
0.3394007682800293,4.857656955718994,0.9881574511528015
0.3074636459350586,4.894138813018799,0.9959666728973389
0.27439144253730774,4.918941497802734,1.001452922821045
0.24072594940662384,4.935866832733154,1.0053867101669312
0.20674292743206024,4.944903373718262,1.0077612400054932
0.17242379486560822,4.965198040008545,1.0124931335449219
0.13801129162311554,4.97384786605835,1.0144667625427246
0.10397624224424362,5.005273818969727,1.020851492881775
0.06940418481826782,5.028810501098633,1.025676965713501
0.034294724464416504,5.029143333435059,1.0258198976516724
-0.0012815379304811358,5.052194595336914,1.0306493043899536
-0.036519475281238556,5.063516139984131,1.033134937286377
-0.07201701402664185,5.086081504821777,1.0379258394241333
-0.10784465819597244,5.108528137207031,1.0420674085617065
-0.14349986612796783,5.115419864654541,1.0430843830108643
-0.17877867817878723,5.106760025024414,1.0409797430038452
-0.2158132940530777,5.1284284591674805,1.045102596282959
-0.25388777256011963,5.17661714553833,1.0546820163726807
-0.2920001745223999,5.213058948516846,1.061915397644043
-0.27591672539711,4.382057189941406,0.8922127485275269
-0.3045857846736908,4.357347011566162,0.8864985704421997
-0.33141064643859863,4.305691242218018,0.875344455242157
-0.36403688788414,4.337845325469971,0.8812853097915649
-0.38900062441825867,4.278225898742676,0.868622362613678
-0.41576528549194336,4.24514102935791,0.8613999485969543
-0.44088950753211975,4.200465202331543,0.8518751859664917
-0.46221426129341125,4.1252899169921875,0.8356273770332336
-0.4851668179035187,4.0766921043396,0.8248329758644104
-0.5103903412818909,4.050763130187988,0.8186784386634827
-0.5307794809341431,3.9905004501342773,0.8056396842002869
-0.5532386898994446,3.9490814208984375,0.7964574694633484
-0.5761879682540894,3.911262273788452,0.7880411744117737
-0.5950166583061218,3.8545339107513428,0.7756119966506958
-0.6147262454032898,3.809150218963623,0.7652742862701416
-0.6344778537750244,3.767449140548706,0.7557371258735657
-0.6543484330177307,3.729423761367798,0.7469947934150696
-0.6761196255683899,3.7025535106658936,0.74052494764328
-0.6966066956520081,3.667938709259033,0.7325376272201538
-0.715430736541748,3.629549741744995,0.7238045334815979
-0.7340419888496399,3.5950043201446533,0.7154535055160522
-0.7498756051063538,3.549103260040283,0.7049025297164917
-0.7626233100891113,3.491910934448242,0.6921808123588562
-0.7820901274681091,3.464481830596924,0.6853808164596558
-0.8019304275512695,3.4407126903533936,0.6793628334999084
-0.8223361968994141,3.4205684661865234,0.6741084456443787
-0.838312029838562,3.3855996131896973,0.6655793786048889
-0.8537589311599731,3.350597858428955,0.6570308208465576
-0.8701271414756775,3.319153070449829,0.6492102146148682
-0.8869253993034363,3.2913827896118164,0.642175555229187
-0.9057775139808655,3.2708425521850586,0.6365758776664734
-0.9223190546035767,3.242797613143921,0.6295621395111084
-0.9412401914596558,3.2259299755096436,0.6244627833366394
-0.9546740651130676,3.1905195713043213,0.6156681776046753
-0.962769627571106,3.140481472015381,0.6041580438613892
-0.9888720512390137,3.149055004119873,0.6039494276046753
-1.003822684288025,3.120701313018799,0.596653163433075
-1.0172219276428223,3.0886318683624268,0.5887038111686707
-1.0238969326019287,3.0384228229522705,0.5770309567451477
-1.0419024229049683,3.024799108505249,0.5723028779029846
-1.0584924221038818,3.007436752319336,0.5669063925743103
-1.0661386251449585,2.9645261764526367,0.5567165613174438
-1.0949139595031738,2.979268789291382,0.5573453307151794
-1.1023075580596924,2.9361166954040527,0.5471810102462769
-1.1114476919174194,2.900421142578125,0.5380644202232361
-1.124003529548645,2.8756048679351807,0.5310619473457336
-1.1348477602005005,2.847162961959839,0.5234469175338745
-1.1459771394729614,2.818462371826172,0.5157684683799744
-1.1465901136398315,2.7647626399993896,0.5035786628723145
-1.1254217624664307,2.6615514755249023,0.4823257625102997
-1.1280105113983154,2.6192407608032227,0.4721046984195709
-1.15796959400177,2.640526533126831,0.47337138652801514
-1.1728570461273193,2.626203775405884,0.4682103991508484
-1.1817611455917358,2.5975236892700195,0.4604611396789551
-1.2294453382492065,2.652750253677368,0.4674730598926544
-1.2405953407287598,2.6312615871429443,0.4607076942920685
-1.2765402793884277,2.66192364692688,0.46306660771369934
-1.2624140977859497,2.5880558490753174,0.4472556412220001
-1.273790955543518,2.5660181045532227,0.4403941333293915
-1.292117953300476,2.5576210021972656,0.4358276426792145
-1.3020910024642944,2.535996913909912,0.4288201928138733
-1.3135960102081299,2.5177743434906006,0.42244258522987366
-1.3234703540802002,2.495905637741089,0.4154312312602997
-1.3301233053207397,2.466859817504883,0.4071556031703949
-1.3360873460769653,2.438020944595337,0.3989027440547943
-1.3450230360031128,2.416242837905884,0.39160943031311035
-1.3572343587875366,2.4013259410858154,0.3855445981025696
-1.368180513381958,2.382563352584839,0.37872114777565
-1.3811848163604736,2.366928815841675,0.3723694086074829
-1.3890868425369263,2.3451638221740723,0.36488908529281616
-1.3968346118927002,2.323350667953491,0.35735344886779785
-1.4045926332473755,2.3013837337493896,0.34979236125946045
-1.4127917289733887,2.2790138721466064,0.3420526087284088
-1.45290207862854,2.309669256210327,0.3420587480068207
-1.4596821069717407,2.2878928184509277,0.3341865539550781
-1.45864737033844,2.2525863647460938,0.3241705596446991
-1.470408320426941,2.2365593910217285,0.31687772274017334
-1.4937496185302734,2.240623950958252,0.3122463822364807
-1.488735318183899,2.202815055847168,0.30179116129875183
-1.4865150451660156,2.1676864624023438,0.29146808385849
-1.4928362369537354,2.1453819274902344,0.2827098071575165
-1.4931710958480835,2.1175968647003174,0.27329644560813904
-1.500655174255371,2.098910093307495,0.2648581266403198
-1.510917067527771,2.0828964710235596,0.25640684366226196
-1.5287543535232544,2.0804362297058105,0.24946652352809906
-1.5287836790084839,2.052351474761963,0.23912301659584045
-1.4871350526809692,2.101430892944336,-0.13836923241615295
-1.4810878038406372,2.1241471767425537,-0.14804179966449738
-1.4669486284255981,2.1380298137664795,-0.1571851372718811
-1.4639511108398438,2.1677091121673584,-0.16738294064998627
-1.4697999954223633,2.2100510597229004,-0.17830561101436615
-1.4615250825881958,2.2334847450256348,-0.18787148594856262
-1.4558677673339844,2.259686231613159,-0.197424054145813
-1.437292218208313,2.2662222385406494,-0.2051721066236496
-1.421930193901062,2.2797281742095947,-0.2136920988559723
-1.4217809438705444,2.315711498260498,-0.22397014498710632
-1.4131324291229248,2.3384556770324707,-0.23296847939491272
-1.371821403503418,2.3079938888549805,-0.23659861087799072
-1.3491276502609253,2.3070545196533203,-0.24295949935913086
-1.332344651222229,2.316004753112793,-0.2503109276294708
-1.2959681749343872,2.291200876235962,-0.2537907063961029
-1.2752808332443237,2.2930989265441895,-0.2600819170475006
-1.2589282989501953,2.3013386726379395,-0.2668830156326294
-1.2568153142929077,2.337048053741455,-0.2769104540348053
-1.2355798482894897,2.3387291431427,-0.2830541431903839
-1.2330961227416992,2.3742876052856445,-0.2930870056152344
-1.217949628829956,2.385629177093506,-0.3001371920108795
-1.2074189186096191,2.4075191020965576,-0.3085026144981384
-1.2001030445098877,2.4362967014312744,-0.3178323805332184
-1.1892590522766113,2.4579896926879883,-0.32626762986183167
-1.1782406568527222,2.479607582092285,-0.33462968468666077
-1.1847175359725952,2.539947032928467,-0.34831759333610535
-1.1760114431381226,2.568680763244629,-0.35780295729637146
-1.1577725410461426,2.5760464668273926,-0.36427056789398193
-1.1782914400100708,2.6719892024993896,-0.38336437940597534
-1.1816045045852661,2.73295259475708,-0.39778685569763184
-1.3221468925476074,3.118126392364502,-0.4601353406906128
-1.3015053272247314,3.129887819290161,-0.46809619665145874
-1.28773832321167,3.1595587730407715,-0.4786411225795746
-1.2763571739196777,3.1963999271392822,-0.49033302068710327
-1.261549949645996,3.2260518074035645,-0.5010803937911987
-1.21110200881958,3.161564588546753,-0.496961385011673
-1.1681586503982544,3.114776849746704,-0.49520716071128845
-1.1125521659851074,3.031344175338745,-0.4873258173465729
-1.066133737564087,2.9691014289855957,-0.4825659990310669
-1.0255382061004639,2.9210290908813477,-0.4799734950065613
-0.9708335399627686,2.8287432193756104,-0.4695793688297272
-0.9297094941139221,2.772494077682495,-0.46483084559440613
-0.8883371949195862,2.7121431827545166,-0.45918330550193787
-0.8610038161277771,2.6917176246643066,-0.4601171910762787
-0.8186325430870056,2.6233701705932617,-0.4526194930076599
-0.7853880524635315,2.5803604125976562,-0.44912484288215637
-0.7528126835823059,2.5370309352874756,-0.44544723629951477
-0.72422856092453,2.5044612884521484,-0.44352373480796814
-0.6960887908935547,2.4716684818267822,-0.4413418173789978
-0.6571821570396423,2.3978443145751953,-0.4314989447593689
-0.6349099278450012,2.3831899166107178,-0.4322510063648224
-0.6046266555786133,2.3347408771514893,-0.42671236395835876
