X,Y,Z
-0.40568146109580994,3.0709264278411865,-0.5634640455245972
-0.38421496748924255,3.0732929706573486,-0.5656048655509949
-0.3645351231098175,3.090770721435547,-0.570563018321991
-0.34806543588638306,3.138659715652466,-0.5811938047409058
-0.3282167613506317,3.1597044467926025,-0.5869150161743164
-0.30801790952682495,3.1845550537109375,-0.59299236536026
-0.2885587215423584,3.216921806335449,-0.6003338694572449
-0.26676440238952637,3.226201295852661,-0.6034117937088013
-0.24690836668014526,3.2621304988861084,-0.6115197539329529
-0.2231128215789795,3.248169183731079,-0.6101434230804443
-0.2014898806810379,3.272456645965576,-0.6155556440353394
-0.1778513789176941,3.2582457065582275,-0.6137433648109436
-0.15590637922286987,3.2745399475097656,-0.6177061796188354
-0.13345691561698914,3.2830121517181396,-0.6202287077903748
-0.11034524440765381,3.2760841846466064,-0.6193342208862305
-0.08817773312330246,3.315065860748291,-0.6270475387573242
-0.06527823209762573,3.3231875896453857,-0.6289530992507935
-0.04251355677843094,3.350339412689209,-0.6344947814941406
-0.019307175651192665,3.3658645153045654,-0.6376218199729919
0.004106345120817423,3.3736276626586914,-0.63889479637146
0.028047671541571617,3.3812248706817627,-0.6401636600494385
0.05179208144545555,3.3963332176208496,-0.6428878307342529
0.07521035522222519,3.388251304626465,-0.6412532329559326
0.09999678283929825,3.429995059967041,-0.6484665870666504
0.12340115755796432,3.4178662300109863,-0.6454657912254333
0.1483200192451477,3.443927049636841,-0.64970463514328
0.1713467389345169,3.4161124229431152,-0.6437996625900269
0.19747500121593475,3.45721173286438,-0.6506179571151733
0.2200292944908142,3.43304443359375,-0.6448211669921875
0.24715669453144073,3.477667808532715,-0.6519683599472046
0.2719539701938629,3.4837992191314697,-0.651910662651062
0.3008407652378082,3.531815528869629,-0.6596807241439819
0.32609641551971436,3.537688970565796,-0.6589522361755371
0.35448116064071655,3.5739617347717285,-0.6638945937156677
0.381357342004776,3.5909152030944824,-0.6652513146400452
0.4124332368373871,3.6420235633850098,-0.672927975654602
0.4391355812549591,3.647125005722046,-0.6717112064361572
0.4737183749675751,3.7169442176818848,-0.6821318864822388
0.49955782294273376,3.7140963077545166,-0.6792022585868835
0.5367549657821655,3.7909903526306152,-0.6908313632011414
0.5687921047210693,3.825746536254883,-0.6946812272071838
0.604719340801239,3.8792965412139893,-0.7012576460838318
0.6378505825996399,3.913630247116089,-0.7043736577033997
0.669674277305603,3.936304807662964,-0.7053607106208801
0.7152771949768066,4.034494400024414,-0.7198135852813721
0.765006422996521,4.147492408752441,-0.7363247275352478
0.8047181963920593,4.199593544006348,-0.7416763305664062
0.8517581820487976,4.281466960906982,-0.7521148324012756
0.896449863910675,4.347904205322266,-0.7597881555557251
0.936446487903595,4.3876166343688965,-0.7625578045845032
0.9910376071929932,4.491044044494629,-0.7757880091667175
1.0368373394012451,4.54888391494751,-0.7809985280036926
1.0841970443725586,4.606176853179932,-0.7859131693840027
1.1164286136627197,4.599484443664551,-0.7799610495567322
1.148435115814209,4.592690944671631,-0.7734964489936829
1.1746011972427368,4.563282489776611,-0.7631986141204834
1.2084486484527588,4.5635085105896,-0.7578883767127991
1.2338920831680298,4.529821395874023,-0.7468950748443604
1.2634268999099731,4.514780044555664,-0.738861083984375
1.2884079217910767,4.484781265258789,-0.7281639575958252
1.3130974769592285,4.454615592956543,-0.7175197601318359
1.0895460844039917,3.6037113666534424,-0.5757944583892822
1.1106592416763306,3.5820295810699463,-0.5675495862960815
1.1378742456436157,3.582547426223755,-0.5626133680343628
1.1579499244689941,3.5608136653900146,-0.5542253851890564
1.185366153717041,3.560882329940796,-0.5492144823074341
1.2078773975372314,3.5460891723632812,-0.5419330596923828
1.2299400568008423,3.5312881469726562,-0.5343941450119019
1.2496297359466553,3.5089399814605713,-0.5256370306015015
1.2728500366210938,3.497436761856079,-0.5185978412628174
1.297444224357605,3.489352226257324,-0.5120685696601868
1.3231233358383179,3.48481822013855,-0.5058805346488953
1.3472306728363037,3.4765541553497314,-0.49906930327415466
1.3676154613494873,3.45709228515625,-0.49055126309394836
1.391936182975769,3.448348045349121,-0.48364347219467163
1.4100843667984009,3.42519211769104,-0.47463473677635193
1.4366987943649292,3.4235010147094727,-0.4685135781764984
1.4604735374450684,3.414402484893799,-0.4613461494445801
1.8089579343795776,4.147611141204834,-0.5529653429985046
1.8221701383590698,4.100604057312012,-0.5393553972244263
1.8535923957824707,4.096189975738525,-0.5312862992286682
1.878737211227417,4.0773444175720215,-0.521317720413208
1.9074519872665405,4.065159797668457,-0.5121182203292847
1.92958402633667,4.038679599761963,-0.5009437799453735
1.9538604021072388,4.01950740814209,-0.49076393246650696
1.9799214601516724,4.003541946411133,-0.4809498190879822
2.0081331729888916,3.9906082153320312,-0.471375972032547
2.032231092453003,3.9707911014556885,-0.4609467387199402
2.052143096923828,3.9441347122192383,-0.4497075080871582
2.0799472332000732,3.9306700229644775,-0.43974852561950684
2.1076784133911133,3.9169774055480957,-0.429778128862381
2.1308021545410156,3.8966732025146484,-0.419027179479599
2.113790273666382,3.8049604892730713,-0.4007858335971832
2.1480376720428467,3.8046696186065674,-0.3920780420303345
2.1674399375915527,3.77677583694458,-0.3803032636642456
2.1890082359313965,3.7563252449035645,-0.3694412112236023
2.214599370956421,3.742295980453491,-0.3591570258140564
2.2369513511657715,3.7209038734436035,-0.347892701625824
2.2623181343078613,3.7065160274505615,-0.3372867703437805
2.2998368740081787,3.7118477821350098,-0.32826486229896545
2.3050649166107178,3.6636250019073486,-0.31427890062332153
2.3346288204193115,3.6550509929656982,-0.3036864101886749
2.3631629943847656,3.6468706130981445,-0.29309460520744324
2.3797237873077393,3.6183505058288574,-0.28053125739097595
2.392340660095215,3.582836866378784,-0.2671108841896057
2.43776798248291,3.6001298427581787,-0.2577969431877136
2.4491519927978516,3.5648961067199707,-0.24426013231277466
2.469301700592041,3.54229998588562,-0.2313612848520279
2.5148212909698486,3.5588021278381348,-0.2209654003381729
2.5170626640319824,3.510127305984497,-0.20559965074062347
2.5589466094970703,3.5191490650177,-0.19362510740756989
2.176577091217041,2.953327178955078,-0.15177643299102783
2.768810987472534,3.9201557636260986,0.4488612711429596
2.7638745307922363,3.9742660522460938,0.4665970504283905
2.734670400619507,3.992863178253174,0.4797165095806122
2.695854425430298,4.003520488739014,0.49178552627563477
2.661794424057007,4.015423774719238,0.5031248331069946
2.641469955444336,4.045921325683594,0.516413152217865
2.6203081607818604,4.081270217895508,0.5300413966178894
2.5891335010528564,4.099645137786865,0.5413185954093933
2.5409443378448486,4.087193965911865,0.5480509996414185
2.518552303314209,4.117842197418213,0.5601733922958374
2.500717878341675,4.15900993347168,0.573641836643219
2.466113567352295,4.16925048828125,0.5825458765029907
2.4598073959350586,4.2255635261535645,0.5977289080619812
2.419863700866699,4.2293548583984375,0.6053501963615417
2.3912835121154785,4.253140926361084,0.6156083941459656
2.3338558673858643,4.221756935119629,0.6175649762153625
2.257681369781494,4.151827812194824,0.6134981513023376
2.221647262573242,4.15684175491333,0.6201398968696594
2.2130239009857178,4.2171454429626465,0.6350048184394836
2.188754081726074,4.246018886566162,0.6450536847114563
2.1622109413146973,4.267118453979492,0.6537063717842102
2.1283884048461914,4.274283409118652,0.6602063179016113
2.0963869094848633,4.288950443267822,0.6674445867538452
2.0770621299743652,4.331532001495361,0.6791906356811523
2.0424773693084717,4.338296890258789,0.685114324092865
2.0150656700134277,4.358530521392822,0.6930946111679077
1.9804949760437012,4.3647871017456055,0.6987038850784302
2.017143487930298,4.533699989318848,0.7302008271217346
1.9895544052124023,4.561657905578613,0.7392076253890991
1.9730850458145142,4.61398983001709,0.7521505951881409
1.9405872821807861,4.62670373916626,0.7585710287094116
1.9133747816085815,4.653698921203613,0.7671970725059509
1.8675435781478882,4.638011455535889,0.768439531326294
1.8390334844589233,4.665003776550293,0.7767831683158875
1.8132719993591309,4.698919296264648,0.7863211035728455
1.7924669981002808,4.743078708648682,0.7975146770477295
1.3694579601287842,3.7016570568084717,0.625368058681488
1.3265933990478516,3.6673552989959717,0.622078537940979
1.3100519180297852,3.705353260040283,0.6310728788375854
3.246199607849121,9.400405883789062,1.607620358467102
1.6252764463424683,4.814724922180176,0.8266260027885437
1.5987554788589478,4.8470892906188965,0.8354616761207581
1.5711748600006104,4.879571914672852,0.8440715074539185
1.5507735013961792,4.937839984893799,0.856935441493988
1.5063904523849487,4.922544479370117,0.8571422696113586
1.473537802696228,4.939734935760498,0.8629357814788818
1.4399492740631104,4.952865123748779,0.8680288791656494
1.4041998386383057,4.958337783813477,0.8718180656433105
1.3737590312957764,4.9861321449279785,0.8790756464004517
1.3168716430664062,4.917110443115234,0.8691478371620178
1.2787916660308838,4.9185075759887695,0.8717172741889954
1.259129285812378,4.986465930938721,0.8860617876052856
1.2132848501205444,4.949610710144043,0.881807804107666
1.189382553100586,5.002230644226074,0.8935377597808838
1.1562877893447876,5.02125358581543,0.8987831473350525
1.1188594102859497,5.025209903717041,0.9013213515281677
1.0853242874145508,5.043799877166748,0.9065011739730835
1.051344871520996,5.058291435241699,0.9109686613082886
1.0251091718673706,5.110203266143799,0.922222375869751
0.9879767298698425,5.109115123748779,0.9239702820777893
0.40209242701530457,2.1627018451690674,0.391757607460022
1.6380597352981567,9.172311782836914,1.6639477014541626
1.571480393409729,9.175342559814453,1.667027235031128
1.5024359226226807,9.15882682800293,1.6666057109832764
1.4339122772216797,9.137884140014648,1.665411114692688
1.3713750839233398,9.162222862243652,1.6725977659225464
1.3069992065429688,9.170945167541504,1.6763331890106201
1.23396897315979,9.118420600891113,1.6683716773986816
1.167994737625122,9.114899635314941,1.6694495677947998
1.1018743515014648,9.107067108154297,1.6698096990585327
1.0393468141555786,9.121578216552734,1.6743241548538208
0.9672850966453552,9.059362411499023,1.6648603677749634
0.9108828902244568,9.134181022644043,1.6804245710372925
0.4054352939128876,4.376791477203369,0.8056339025497437
0.36774009466171265,4.298972129821777,0.7917726635932922
0.33867353200912476,4.316604137420654,0.7955237627029419
0.3104986846446991,4.353214263916016,0.8028223514556885
0.2816764712333679,4.378100872039795,0.8079952001571655
0.3242322504520416,5.653064250946045,1.0440975427627563
0.2855001986026764,5.670412063598633,1.047614336013794
0.24698108434677124,5.699044227600098,1.0530683994293213
0.20749856531620026,5.731276512145996,1.0592455863952637
0.16846710443496704,5.7670512199401855,1.0661283731460571
0.1292291134595871,5.806393146514893,1.073724627494812
0.08915098011493683,5.830103874206543,1.0784865617752075
0.04880572855472565,5.853568077087402,1.08307683467865
0.007399435620754957,5.846128940582275,1.0814170837402344
-0.05093856900930405,8.93044662475586,1.6516087055206299
-0.11225060373544693,8.864648818969727,1.6391767263412476
-0.17179624736309052,8.760028839111328,1.619649887084961
-0.22927796840667725,8.628130912780762,1.5951615571975708
-0.2874101996421814,8.572647094726562,1.5848792791366577
-0.3333131670951843,8.209829330444336,1.5170552730560303
-0.16980160772800446,3.57235050201416,0.6596981883049011
-0.1949804127216339,3.5788702964782715,0.6605128049850464
-0.22072887420654297,3.592881679534912,0.6627393364906311
-0.5367940664291382,7.845824241638184,1.4465150833129883
-0.5911739468574524,7.826751708984375,1.4423409700393677
-0.5529245734214783,6.700832366943359,1.2341644763946533
-0.5963946580886841,6.666605472564697,1.2265605926513672
-0.6283562183380127,6.517354488372803,1.1978850364685059
-0.660263180732727,6.387081146240234,1.1728041172027588
-0.7095372080802917,6.420812129974365,1.1778857707977295
-0.7541807889938354,6.416071891784668,1.1759766340255737
-0.7930904030799866,6.365254878997803,1.1656861305236816
-0.8283327221870422,6.295319080352783,1.1513664722442627
-0.8657471537590027,6.248082160949707,1.1410752534866333
-0.9082962870597839,6.234756946563721,1.1370162963867188
-0.9576249122619629,6.270633697509766,1.1419991254806519
-1.0097309350967407,6.3174567222595215,1.1489923000335693
-1.058102011680603,6.337315559387207,1.1511176824569702
-1.1144465208053589,6.40236234664917,1.1612048149108887
-1.1664247512817383,6.440637588500977,1.1659165620803833
-1.2204667329788208,6.482151031494141,1.1711987257003784
-1.2706722021102905,6.5044965744018555,1.1730841398239136
-1.325077772140503,6.5413947105407715,1.177587866783142
-1.3840793371200562,6.596667289733887,1.185417890548706
-1.4332692623138428,6.602575302124023,1.1843808889389038
-1.4740519523620605,6.570748805999756,1.1757831573486328
-1.5084162950515747,6.516350269317627,1.1632839441299438
-1.5412135124206543,6.458032608032227,1.1501786708831787
-0.6886110305786133,2.7997384071350098,0.4974684417247772
-0.7062524557113647,2.787745952606201,0.49418771266937256
-0.7221418619155884,2.768110513687134,0.4895665943622589
-0.744960606098175,2.778398275375366,0.48997777700424194
-0.7638261914253235,2.7736709117889404,0.4877106249332428
-1.7433741092681885,6.16776180267334,1.0813697576522827
-1.7752957344055176,6.119449138641357,1.0697578191757202
-1.8121657371520996,6.085433483123779,1.0606440305709839
-1.854701280593872,6.0735015869140625,1.0554941892623901
-1.1884530782699585,3.7996129989624023,0.6580317616462708
-1.2094310522079468,3.7774293422698975,0.6518703699111938
-1.2410022020339966,3.78808856010437,0.6514009237289429
-1.9591333866119385,5.841658115386963,1.0008635520935059
-1.9937182664871216,5.810558319091797,0.991943895816803
-2.026663303375244,5.775618553161621,0.9824323654174805
-2.0525057315826416,5.726600170135498,0.969943642616272
-2.0818111896514893,5.688328742980957,0.9593579173088074
-2.1147425174713135,5.660752296447754,0.9506482481956482
-2.135711193084717,5.596185684204102,0.9355995059013367
-2.1861047744750977,5.610927104949951,0.9339361786842346
-2.2390873432159424,5.632676601409912,0.9331841468811035
-2.3102269172668457,5.700989723205566,0.9396879076957703
-2.351421356201172,5.693661212921143,0.9336903095245361
-2.379108190536499,5.649852752685547,0.9215875267982483
-2.409656047821045,5.61289119720459,0.9106512665748596
-2.467681407928467,5.639486312866211,0.9100531339645386
-3.9445831775665283,8.854496955871582,1.4201836585998535
-4.054919719696045,8.942544937133789,1.4255242347717285
-4.160101890563965,9.011306762695312,1.4274178743362427
-2.586383581161499,5.5016584396362305,0.8658234477043152
-2.625006914138794,5.484639644622803,0.8575223088264465
-2.6482996940612793,5.440374851226807,0.8445656299591064
-2.6913790702819824,5.437814235687256,0.8380225300788879
-2.691945791244507,5.348063945770264,0.8179942965507507
-2.708390474319458,5.289000034332275,0.8026427030563354
-2.7688472270965576,5.315789222717285,0.8003557324409485
-2.8223061561584473,5.332874298095703,0.7960382103919983
-2.8374080657958984,5.277942180633545,0.7809652090072632
-1.1793830394744873,2.1590640544891357,0.3165816366672516
-1.1666804552078247,2.1003143787384033,0.3049834966659546
-2.5034027099609375,4.435320854187012,0.6377041339874268
-2.5326483249664307,4.419955253601074,0.6288521885871887
-6.022432804107666,10.353944778442383,1.4574918746948242
-6.075533866882324,10.280961990356445,1.4306327104568481
-1.2422642707824707,2.068636655807495,0.2844347655773163
-2.939635753631592,4.8246355056762695,0.6550490260124207
-2.928361654281616,4.737380027770996,0.634988009929657
-3.0026051998138428,4.784106731414795,0.6323913335800171
-2.986396312713623,4.685624599456787,0.6105012893676758
-3.042664051055908,4.7064127922058105,0.6037130355834961
-3.0561957359313965,4.662013053894043,0.588710367679596
-3.0568249225616455,4.593335151672363,0.570010781288147
-3.0928046703338623,4.580128192901611,0.5581524968147278
-3.1046881675720215,4.535983562469482,0.5423336029052734
-3.115780830383301,4.487430572509766,0.5254597067832947
-3.194727897644043,4.533493995666504,0.5191584825515747
-2.8845958709716797,4.039671897888184,0.45183104276657104
-2.890554428100586,3.9937069416046143,0.43561890721321106
-2.9395830631256104,4.00282621383667,0.42452847957611084
-2.9438869953155518,3.9575603008270264,0.4074406623840332
-2.454679250717163,3.4633471965789795,-0.20561562478542328
-2.4324254989624023,3.4877068996429443,-0.21948589384555817
-2.8598954677581787,4.163447856903076,-0.2758027911186218
-2.8791003227233887,4.257888317108154,-0.29593583941459656
-2.855349540710449,4.291532516479492,-0.31187477707862854
-2.8206496238708496,4.3040642738342285,-0.3253934681415558
-1.2866584062576294,1.9947888851165771,-0.156596377491951
-1.2862857580184937,2.0268969535827637,-0.16491471230983734
-1.2675402164459229,2.0289742946624756,-0.17061182856559753
-1.2730023860931396,2.0708940029144287,-0.17963433265686035
-2.138092041015625,3.536355495452881,-0.31605836749076843
-2.083176374435425,3.500274181365967,-0.3214704990386963
-2.034284830093384,3.4739654064178467,-0.3275298476219177
-1.2040506601333618,2.0916025638580322,-0.20233529806137085
-1.2004671096801758,2.119981527328491,-0.21002435684204102
-2.5827834606170654,4.636519908905029,-0.4699256718158722
-2.5483853816986084,4.654261112213135,-0.48218268156051636
-2.5326149463653564,4.705806732177734,-0.497944176197052
-2.5023956298828125,4.729468822479248,-0.5106534361839294
-2.4844603538513184,4.777111530303955,-0.5257844924926758
-2.4529471397399902,4.800796985626221,-0.5383122563362122
-2.428922414779663,4.837799072265625,-0.5522105097770691
-2.3981246948242188,4.860495567321777,-0.5644148588180542
-2.3791184425354004,4.911681175231934,-0.5800144076347351
-1.5844056606292725,3.3317935466766357,-0.3998337984085083
-1.5541490316390991,3.3279829025268555,-0.40556833148002625
-1.533833622932434,3.3450326919555664,-0.4138197898864746
-1.5127137899398804,3.362247943878174,-0.4219511151313782
-1.4945759773254395,3.3864057064056396,-0.4310078024864197
-1.5025768280029297,3.4708878993988037,-0.44786879420280457
-1.475021481513977,3.473327159881592,-0.45414578914642334
-1.4469478130340576,3.4757957458496094,-0.4602159261703491
-1.427721381187439,3.499558448791504,-0.469135582447052
-1.408782720565796,3.5230014324188232,-0.47795569896698
-0.952478289604187,2.4316697120666504,-0.33386874198913574
-0.9613680839538574,2.5065317153930664,-0.3479762077331543
-0.9038873910903931,2.407559394836426,-0.3379126787185669
-0.894877016544342,2.4350647926330566,-0.3454340696334839
-0.8750766515731812,2.433389186859131,-0.34884727001190186
-0.8599143624305725,2.4463717937469482,-0.3542351722717285
-0.8499208688735962,2.4738056659698486,-0.3616919219493866
-0.8398194313049316,2.501129627227783,-0.3691650331020355
-0.8222513198852539,2.5063328742980957,-0.37339985370635986
-0.8103622198104858,2.529902935028076,-0.3802356719970703
-0.7966431975364685,2.549844741821289,-0.38656625151634216
-0.7808508276939392,2.5621960163116455,-0.39171773195266724
-0.7694417834281921,2.5892274379730225,-0.39914968609809875
-0.7586778402328491,2.6199634075164795,-0.4071001708507538
-0.746353030204773,2.646998167037964,-0.4143776297569275
-0.7398326992988586,2.6963143348693848,-0.42523857951164246
-0.712617039680481,2.6710619926452637,-0.4243980646133423
-0.7103109955787659,2.738924980163574,-0.4383225739002228
-0.6805674433708191,2.7021398544311523,-0.43523603677749634
-0.6678482890129089,2.7325611114501953,-0.44298413395881653
-0.6539908051490784,2.759136199951172,-0.45015957951545715
-0.6377866268157959,2.7781734466552734,-0.45620813965797424
-0.6232390403747559,2.8046438694000244,-0.46320050954818726
-0.6050742268562317,2.815978527069092,-0.4676443040370941
-0.5852785110473633,2.8196287155151367,-0.4708334803581238
-0.5655921101570129,2.8231136798858643,-0.4740009009838104
-0.5484200119972229,2.8416810035705566,-0.47964170575141907
-0.8669272661209106,4.667149066925049,-0.791398823261261
-0.8382124304771423,4.695099353790283,-0.7998310327529907
-0.7930304408073425,4.627930164337158,-0.7920426726341248
-0.7469555735588074,4.548980236053467,-0.7821535468101501
-0.7007579207420349,4.466036319732666,-0.7708942294120789
-0.6574567556381226,4.390252113342285,-0.7606627941131592
-0.6229299902915955,4.36745023727417,-0.7595726251602173
-0.5831354856491089,4.3024210929870605,-0.7511064410209656
-0.5457180142402649,4.2485785484313965,-0.7442370057106018
-0.5122837424278259,4.221253395080566,-0.7415852546691895
-0.4730914533138275,4.144025802612305,-0.7301823496818542
-0.44133415818214417,4.119978904724121,-0.7280870079994202
-0.412649005651474,4.122488021850586,-0.730703592300415
-0.3824341595172882,4.109600067138672,-0.7299432158470154
-0.2808781564235687,3.26493763923645,-0.5811253190040588
-0.25653648376464844,3.2512335777282715,-0.5799364447593689
-0.23504218459129333,3.2680106163024902,-0.5841894149780273
-0.21431277692317963,3.300039529800415,-0.5909391045570374
-0.19224585592746735,3.3166348934173584,-0.5946425795555115
-0.17015421390533447,3.3369202613830566,-0.5990442037582397
-0.14753620326519012,3.3609118461608887,-0.6041647791862488
-0.1315118372440338,3.5614633560180664,-0.641094982624054
-0.11535570025444031,3.850421905517578,-0.693419337272644
-0.08834699541330338,3.8433680534362793,-0.6924630999565125
-0.060578130185604095,3.7784676551818848,-0.6811107993125916
-0.033794645220041275,3.771036386489868,-0.6801508069038391
-0.0075919958762824535,3.763471841812134,-0.6788748502731323
0.018713735044002533,3.7980780601501465,-0.6848554611206055
0.045271556824445724,3.813279867172241,-0.6873668432235718
0.07210162281990051,3.828294038772583,-0.6898754239082336
0.09815145283937454,3.8046882152557373,-0.6854581236839294
0.12447111308574677,3.784848690032959,-0.6810916662216187
0.1533784419298172,3.8493688106536865,-0.6918956637382507
0.1816011667251587,3.8791050910949707,-0.6964601874351501
0.20959490537643433,3.897118330001831,-0.6989448070526123
0.23897145688533783,3.934175491333008,-0.7045702934265137
0.26912742853164673,3.9672203063964844,-0.7090564370155334
0.2958166003227234,3.954047679901123,-0.7053338289260864
0.32142600417137146,3.929192066192627,-0.6995713710784912
0.3538489043712616,3.9846270084381104,-0.7081268429756165
0.38374650478363037,4.00545597076416,-0.7098912596702576
0.41796642541885376,4.060475826263428,-0.7176198959350586
0.4470316767692566,4.065546035766602,-0.7165571451187134
0.4721633493900299,4.0360107421875,-0.7094387412071228
0.5125418305397034,4.132399559020996,-0.724158763885498
0.5442396402359009,4.152186393737793,-0.7250179648399353
0.5909606218338013,4.274633407592773,-0.7437008023262024
0.6118580102920532,4.210021495819092,-0.7298721671104431
0.6382995843887329,4.187176704406738,-0.7233662605285645
0.7547355890274048,4.730930805206299,-0.8137542605400085
0.7736510038375854,4.642736911773682,-0.7950841784477234
0.8040159940719604,4.626579761505127,-0.7888488173484802
0.8443799614906311,4.663203716278076,-0.7915668487548828
0.8868573307991028,4.711008071899414,-0.795871376991272
0.9203120470046997,4.709370136260986,-0.7914324998855591
0.9560821056365967,4.71882438659668,-0.7888795733451843
0.989116907119751,4.712867736816406,-0.7837429046630859
1.0185661315917969,4.687730312347412,-0.7753928303718567
1.0519962310791016,4.685241222381592,-0.770275354385376
1.081954836845398,4.667476177215576,-0.7626911997795105
1.1037473678588867,4.615714073181152,-0.7496293783187866
1.1341753005981445,4.6013078689575195,-0.7427132725715637
1.1591352224349976,4.5642170906066895,-0.7317813038825989
1.1927589178085327,4.5645246505737305,-0.7267398238182068
0.9879942536354065,3.6770150661468506,-0.5813450217247009
1.012713074684143,3.6670784950256348,-0.5756782293319702
1.0277771949768066,3.623552083969116,-0.5647379755973816
1.0598030090332031,3.6393256187438965,-0.5626626014709473
1.0850183963775635,3.6327290534973145,-0.5572065114974976
1.1059391498565674,3.6110899448394775,-0.5494399070739746
1.1312388181686401,3.6040782928466797,-0.5439441204071045
1.1491588354110718,3.5749123096466064,-0.5348336696624756
1.1719133853912354,3.5602574348449707,-0.5278196930885315
1.199242115020752,3.5601775646209717,-0.5230337977409363
1.21921968460083,3.5378830432891846,-0.5149890780448914
1.2413097620010376,3.5228638648986816,-0.5078839063644409
1.268296718597412,3.522355318069458,-0.502753734588623
1.290115475654602,3.5070555210113525,-0.49550947546958923
1.312451720237732,3.491380453109741,-0.48811814188957214
1.3299111127853394,3.464909315109253,-0.4792763888835907
1.3594765663146973,3.470961570739746,-0.4747651219367981
1.3691015243530273,3.426361083984375,-0.4633701741695404
1.4092961549758911,3.4570069313049316,-0.4620784521102905
1.7317665815353394,4.163799285888672,-0.549841046333313
1.757385015487671,4.1457133293151855,-0.5406490564346313
1.7828600406646729,4.127442836761475,-0.5314751863479614
1.8118726015090942,4.115868091583252,-0.5230604410171509
1.8439662456512451,4.1111650466918945,-0.515512228012085
1.8694415092468262,4.09220552444458,-0.5058489441871643
1.900774359703064,4.087371826171875,-0.49808675050735474
1.919506549835205,4.053913116455078,-0.4867118299007416
1.9445884227752686,4.034372806549072,-0.4770536720752716
1.9687058925628662,4.01505708694458,-0.4673045575618744
1.9948608875274658,3.9988341331481934,-0.4578247368335724
2.024770975112915,3.9891786575317383,-0.44901612401008606
2.0437519550323486,3.9586563110351562,-0.43787094950675964
2.063446044921875,3.9318859577178955,-0.42711544036865234
2.1013176441192627,3.93924617767334,-0.42002883553504944
2.1290700435638428,3.925333261489868,-0.4104130268096924
2.1454076766967773,3.8908064365386963,-0.3985140919685364
2.131787061691284,3.8058598041534424,-0.38175341486930847
2.154216766357422,3.785212278366089,-0.3714553713798523
2.188662052154541,3.7843542098999023,-0.3629385232925415
2.1945266723632812,3.7368032932281494,-0.3499542772769928
2.224046230316162,3.729301691055298,-0.34063974022865295
2.2543728351593018,3.7210867404937744,-0.33096739649772644
2.267786741256714,3.6864140033721924,-0.318966269493103
2.284135341644287,3.6588168144226074,-0.3076589107513428
2.338592767715454,3.6898860931396484,-0.3009054660797119
2.3352432250976562,3.6281638145446777,-0.2862420380115509
2.3677468299865723,3.626502752304077,-0.27657997608184814
2.4053313732147217,3.630608081817627,-0.2670001685619354
2.4046592712402344,3.5756218433380127,-0.2527981698513031
2.432438611984253,3.5670087337493896,-0.24199047684669495
2.4659230709075928,3.563725471496582,-0.23093003034591675
2.481693744659424,3.5344808101654053,-0.217971533536911
2.509119987487793,3.5253727436065674,-0.20629990100860596
2.5515658855438232,3.534083127975464,-0.1949160248041153
2.5752310752868652,3.5175793170928955,-0.18178731203079224
2.1792962551116943,2.9372479915618896,-0.1413726806640625
2.7960214614868164,3.9236693382263184,0.416384756565094
2.755955219268799,3.9314520359039307,0.42872750759124756
2.7502622604370117,3.986091375350952,0.44568923115730286
2.7348272800445557,4.0235490798950195,0.4602088928222656
2.683553695678711,4.014495372772217,0.4690694212913513
2.640174388885498,4.013894557952881,0.47845733165740967
2.619553565979004,4.044582366943359,0.49112552404403687
2.603224754333496,4.086071491241455,0.50477135181427
2.5755488872528076,4.11139440536499,0.5164393782615662
2.53810453414917,4.115121841430664,0.5246925950050354
2.5163238048553467,4.145392894744873,0.5362452864646912
2.4659292697906494,4.133659839630127,0.5421818494796753
2.4603028297424316,4.194361209869385,0.5573856234550476
2.438357353210449,4.2238922119140625,0.5681389570236206
2.4114670753479004,4.247026443481445,0.5779370069503784
2.3791801929473877,4.264004707336426,0.5866702795028687
2.277703046798706,4.154969215393066,0.5779295563697815
2.2482409477233887,4.169881820678711,0.585834801197052
2.2146799564361572,4.177926063537598,0.5927116274833679
2.1974334716796875,4.220922470092773,0.6042446494102478
2.169077157974243,4.243170261383057,0.6128860116004944
2.145275831222534,4.271534442901611,0.6222506165504456
2.1150920391082764,4.2855119705200195,0.629436731338501
2.083555221557617,4.299910545349121,0.6363786458969116
2.058096408843994,4.328293323516846,0.645298421382904
2.0294299125671387,4.349339485168457,0.6531278491020203
1.995553731918335,4.355498790740967,0.658545732498169
1.9674670696258545,4.375746250152588,0.6662101745605469
1.9787763357162476,4.48834228515625,0.6875144839286804
1.9485454559326172,4.509019374847412,0.6948481798171997
1.9307591915130615,4.557742118835449,0.7065081596374512
1.9149805307388306,4.609553813934326,0.7186094522476196
1.8819770812988281,4.622169494628906,0.7247397303581238
1.8595398664474487,4.663660049438477,0.7349019050598145
1.8280363082885742,4.683507919311523,0.7416761517524719
1.782819390296936,4.666944980621338,0.7426788806915283
1.7499628067016602,4.67850923538208,0.7480450868606567
1.3421306610107422,3.66713809967041,0.58916175365448
1.318308711051941,3.683337450027466,0.5942924618721008
1.2748206853866577,3.6448583602905273,0.5904471278190613
1.64761221408844,4.822554588317871,0.7843808531761169
1.6256588697433472,4.869924068450928,0.7952008843421936
1.5861257314682007,4.865905284881592,0.7977055907249451
1.5448803901672363,4.8540849685668945,0.7988213896751404
1.5119627714157104,4.8718156814575195,0.8043169975280762
1.4856202602386475,4.911459922790527,0.8134890198707581
1.452341079711914,4.928735733032227,0.8190106153488159
1.4316596984863281,4.9862775802612305,0.831214427947998
1.4023579359054565,5.017913341522217,0.8392253518104553
1.3415307998657227,4.9340128898620605,0.8276330828666687
1.2932277917861938,4.894463539123535,0.8230833411216736
1.2589243650436401,4.906778812408447,0.8272821307182312
1.2461907863616943,5.004822254180908,0.8460023999214172
1.2051897048950195,4.990458965301514,0.8457810878753662
1.1756269931793213,5.020662784576416,0.8531150817871094
1.1401902437210083,5.028275489807129,0.8563694357872009
1.1066850423812866,5.047086238861084,0.8612549901008606
1.07541823387146,5.076966762542725,0.8680824637413025
1.0356295108795166,5.068991184234619,0.8685052394866943
1.0032232999801636,5.090712070465088,0.8739981055259705
1.8066837787628174,9.516850471496582,1.6372864246368408
1.743812084197998,9.5512056350708,1.646190881729126
1.664597988128662,9.498126983642578,1.6393733024597168
1.5983670949935913,9.524362564086914,1.646361231803894
1.513062834739685,9.424470901489258,1.631557583808899
1.4485832452774048,9.441667556762695,1.63703191280365
1.3805934190750122,9.435564994812012,1.6385432481765747
1.3104583024978638,9.413783073425293,1.6371806859970093
1.2416895627975464,9.414800643920898,1.638929009437561
1.1699424982070923,9.380792617797852,1.6346250772476196
1.1036810874938965,9.38829517364502,1.6376287937164307
1.0398985147476196,9.41054630279541,1.6432664394378662
0.9712109565734863,9.386412620544434,1.640878438949585
0.9066040515899658,9.4000883102417,1.6451749801635742
0.3872360289096832,4.338858604431152,0.7598258852958679
0.3526967167854309,4.291464328765869,0.7519290447235107
0.3236939013004303,4.309039115905762,0.7554501891136169
0.2985282838344574,4.3839898109436035,0.7690749764442444
0.3444683849811554,5.6378092765808105,0.9896988868713379
0.3049573600292206,5.647597789764404,0.9921466708183289
0.2682160437107086,5.70710563659668,1.003029704093933
0.22763614356517792,5.69339656829834,1.000723958015442
0.1898619532585144,5.756302833557129,1.0119349956512451
0.14975512027740479,5.76511287689209,1.0136878490447998
0.11037980020046234,5.839040279388428,1.0269464254379272
0.06973399966955185,5.831901550292969,1.0259956121444702
0.029376449063420296,5.874495983123779,1.0338226556777954
-0.017508095130324364,8.936952590942383,1.5722633600234985
-0.07888596504926682,8.855910301208496,1.5575810670852661
-0.14057227969169617,8.78981876373291,1.5456041097640991
-0.1989099383354187,8.669477462768555,1.5241761207580566
-0.18579427897930145,6.214478969573975,1.0924252271652222
-0.22727210819721222,6.166958808898926,1.083986520767212
-0.2632911205291748,6.0116143226623535,1.0562340021133423
-0.18149437010288239,3.577462911605835,0.6281262040138245
-0.20576660335063934,3.560842990875244,0.6248034834861755
-0.23467612266540527,3.624713897705078,0.6356351971626282
-0.5624392628669739,7.841103553771973,1.3742785453796387
-0.6130437254905701,7.787369728088379,1.3641823530197144
-0.5711880326271057,6.663623809814453,1.1667187213897705
-0.6133085489273071,6.609987258911133,1.1560083627700806
-0.6374775171279907,6.391488552093506,1.1165944337844849
-0.6778557300567627,6.352827548980713,1.108697772026062
-0.7293199300765991,6.4133124351501465,1.1181448698043823
-0.7702623009681702,6.377841949462891,1.1109068393707275
-0.8110347986221313,6.338198184967041,1.1029890775680542
-0.8475363254547119,6.27946138381958,1.0912959575653076
-0.885802686214447,6.23963737487793,1.0827336311340332
-0.9308679103851318,6.249094009399414,1.0827815532684326
-0.9792783856391907,6.277218341827393,1.0860952138900757
-1.032331943511963,6.323806285858154,1.0925958156585693
-1.0807945728302002,6.343512058258057,1.0945124626159668
-1.136710286140442,6.4046549797058105,1.1033368110656738
-1.189510703086853,6.446574687957764,1.10835862159729
-1.2414162158966064,6.480523109436035,1.1120344400405884
-1.2931594848632812,6.5102763175964355,1.115012526512146
-1.3509495258331299,6.558168888092041,1.1210403442382812
-1.4078935384750366,6.601963043212891,1.1264234781265259
-1.455456256866455,6.600167274475098,1.1239876747131348
-1.4867374897003174,6.53071403503418,1.1093932390213013
-1.5179520845413208,6.464894771575928,1.0955209732055664
-0.6757422685623169,2.791020393371582,0.47179123759269714
-0.6951158046722412,2.786578893661499,0.46989506483078003
-0.7106825113296509,2.7670505046844482,0.4654802083969116
-0.7358909249305725,2.7847084999084473,0.4673389196395874
-0.748738169670105,2.7576820850372314,0.4614017903804779
-0.771909773349762,2.7676780223846436,0.46165308356285095
-1.7490803003311157,6.1113972663879395,1.0163406133651733
-1.7936793565750122,6.107326984405518,1.012583613395691
-1.140711784362793,3.7865912914276123,0.6259148716926575
-1.1625945568084717,3.7642946243286133,0.6203611493110657
-1.1884994506835938,3.7567806243896484,0.6168103814125061
-1.2186622619628906,3.763909101486206,0.6157236099243164
-1.2416547536849976,3.748826503753662,0.6110304594039917
-1.2888257503509521,3.802827835083008,0.6175241470336914
-2.0123417377471924,5.804559707641602,0.9390688538551331
-2.039646863937378,5.7549920082092285,0.9274601340293884
-2.061985969543457,5.694656848907471,0.9136324524879456
-2.100355386734009,5.681594371795654,0.9075343012809753
-2.127999782562256,5.639252185821533,0.8967928290367126
-2.1619045734405518,5.610780715942383,0.8882071375846863
-2.2124884128570557,5.625260353088379,0.8864542841911316
-2.2759461402893066,5.671822547912598,0.8892523050308228
-2.3315978050231934,5.700413227081299,0.8890417814254761
-2.3668527603149414,5.67857027053833,0.8809827566146851
-2.3880434036254883,5.620410442352295,0.8672195076942444
-2.439746141433716,5.633010387420654,0.8643720149993896
-2.53251576423645,5.737158298492432,0.8752128481864929
-3.988661289215088,8.876654624938965,1.3456830978393555
-2.5671796798706055,5.613658905029297,0.8456742167472839
-2.5991153717041016,5.583066463470459,0.8356175422668457
-2.62835693359375,5.544878005981445,0.8243668079376221
-2.6255409717559814,5.440151214599609,0.8031670451164246
-2.661710739135742,5.423778533935547,0.7948015332221985
-2.6943600177764893,5.40020227432251,0.7854157090187073
-2.7173171043395996,5.355201244354248,0.7728186249732971
-4.9233174324035645,9.53812313079834,1.365404486656189
-2.775517702102661,5.288444519042969,0.7507429718971252
-2.8110620975494385,5.270944595336914,0.7415030598640442
-2.831099510192871,5.226232051849365,0.728620171546936
-1.1821949481964111,2.146918773651123,0.2964472770690918
-1.2068175077438354,2.155977725982666,0.29478004574775696
-2.553766965866089,4.49236536026001,0.6078106760978699
-2.548967123031616,4.415806293487549,0.5909202098846436
-6.076367378234863,10.366060256958008,1.371612548828125
-1.2275121212005615,2.0611367225646973,0.2694953680038452
-1.2535779476165771,2.0732269287109375,0.2677280902862549
-2.918020248413086,4.756725311279297,0.6063385009765625
-2.9380714893341064,4.718282699584961,0.5932084321975708
-3.0046379566192627,4.751269817352295,0.5887075662612915
-3.0157549381256104,4.699493408203125,0.5735049843788147
-3.0546927452087402,4.69420051574707,0.5638432502746582
-3.0542874336242676,4.626143932342529,0.5463522672653198
-3.057257652282715,4.560234546661377,0.528730571269989
-3.0956432819366455,4.5544843673706055,0.5180625915527344
-3.1116302013397217,4.516637802124023,0.5037259459495544
-3.148047685623169,4.5023112297058105,0.49102482199668884
-2.8945629596710205,4.082552909851074,0.43496134877204895
-2.873183012008667,3.998701333999634,0.41557565331459045
-2.921750545501709,4.008170127868652,0.4051186144351959
-2.9391653537750244,3.9774250984191895,0.39025434851646423
-2.4627459049224854,3.4487905502319336,-0.19204466044902802
-2.450605869293213,3.485349178314209,-0.20598389208316803
-2.442042827606201,3.528604745864868,-0.2202455699443817
-2.3444788455963135,3.438697338104248,-0.2252613604068756
-2.263866901397705,3.374729633331299,-0.23140694200992584
-2.219759941101074,3.3611648082733154,-0.24025870859622955
-2.165489912033081,3.3306941986083984,-0.24751079082489014
-2.15293550491333,3.3658359050750732,-0.25938940048217773
-2.1990976333618164,3.4926979541778564,-0.2783413529396057
-1.2851568460464478,2.0733678340911865,-0.17050260305404663
-1.2270171642303467,2.0125696659088135,-0.1705572009086609
-2.133714437484741,3.557793140411377,-0.3102732002735138
-2.0788681507110596,3.521602153778076,-0.3153429627418518
-2.5218801498413086,4.3443121910095215,-0.39902639389038086
-1.196715235710144,2.0962889194488525,-0.19729219377040863
-2.5830979347229004,4.598598957061768,-0.4427293539047241
-2.5698859691619873,4.6538166999816895,-0.45815321803092957
-2.543030023574829,4.685110569000244,-0.4711267650127411
-2.516869068145752,4.715717792510986,-0.48381999135017395
-2.4978840351104736,4.759810447692871,-0.49790093302726746
-2.4718148708343506,4.794108867645264,-0.5109204649925232
-2.439645767211914,4.818056583404541,-0.5230320692062378
-2.4194118976593018,4.861826419830322,-0.5369184017181396
-2.3948328495025635,4.898747444152832,-0.5500771403312683
-1.6007144451141357,3.3349666595458984,-0.38054049015045166
-1.566684603691101,3.3245112895965576,-0.3853006362915039
-1.5464812517166138,3.3417038917541504,-0.39312314987182617
-1.5220853090286255,3.3520517349243164,-0.40017634630203247
-1.497759461402893,3.362168550491333,-0.40703198313713074
-1.4736716747283936,3.37197208404541,-0.4137992262840271
-1.4789817333221436,3.4492032527923584,-0.4288780689239502
-1.4573208093643188,3.465996503829956,-0.43645337224006653
-1.4377784729003906,3.490086078643799,-0.4450041949748993
-1.4244775772094727,3.528179407119751,-0.45527803897857666
-1.4053306579589844,3.551689624786377,-0.46368730068206787
-1.3366295099258423,3.4486796855926514,-0.455299973487854
-1.3091003894805908,3.4501242637634277,-0.46043410897254944
-0.9266263842582703,2.4959304332733154,-0.33670517802238464
-1.9928019046783447,5.484288215637207,-0.7475343942642212
-0.928950309753418,2.6134464740753174,-0.3598026931285858
-0.8886361122131348,2.5572359561920166,-0.35542920231819153
-0.8467189073562622,2.493263006210327,-0.34981462359428406
-0.8325574994087219,2.5096967220306396,-0.35542580485343933
-0.8148995637893677,2.5149242877960205,-0.3593771457672119
-0.804003119468689,2.5422537326812744,-0.36632493138313293
-0.7836126089096069,2.5399670600891113,-0.36904457211494446
-0.7768816947937012,2.581912040710449,-0.37820854783058167
-0.7652634978294373,2.6090149879455566,-0.3852841854095459
-0.7538549304008484,2.6399571895599365,-0.3927901089191437
-0.7454665303230286,2.6819546222686768,-0.4019390344619751
-0.7346264123916626,2.7164511680603027,-0.41003739833831787
-0.7116461992263794,2.706033945083618,-0.4113764464855194
-0.6964245438575745,2.7254250049591064,-0.41709187626838684
-0.6749340891838074,2.7223520278930664,-0.41929012537002563
-0.6584405303001404,2.737802267074585,-0.42431119084358215
-0.6410557627677917,2.7493505477905273,-0.42874306440353394
-0.6286274790763855,2.7833917140960693,-0.43669649958610535
-0.612324595451355,2.8023688793182373,-0.44202497601509094
-0.5970259308815002,2.8288657665252686,-0.44863587617874146
-0.5795131921768188,2.8438496589660645,-0.4534192383289337
-0.5685163736343384,2.8927974700927734,-0.4636881649494171
-0.5496283173561096,2.9038569927215576,-0.4676637351512909
-0.5333372354507446,2.9299986362457275,-0.4739762842655182
-0.5157157182693481,2.9522953033447266,-0.4797540307044983
-0.4976564347743988,2.97060489654541,-0.4848824441432953
-0.47810229659080505,2.9812049865722656,-0.4887031316757202
-0.4606837034225464,3.006985664367676,-0.49469637870788574
-0.4468507170677185,3.0593597888946533,-0.505129873752594
-0.7049998044967651,5.078001022338867,-0.8415201902389526
-0.653971254825592,4.963711261749268,-0.8255853652954102
-0.6202690005302429,4.975280284881592,-0.829995334148407
-0.5449641346931458,4.634573936462402,-0.7752896547317505
-0.4978053867816925,4.503768444061279,-0.7555093765258789
-0.4937805235385895,4.771110534667969,-0.8026152849197388
-0.46142545342445374,4.789376258850098,-0.807890772819519
-0.4221775531768799,4.7269110679626465,-0.7988928556442261
-0.3844555914402008,4.671821594238281,-0.7911397814750671
-0.34962037205696106,4.643325328826904,-0.7878953218460083
-0.3118247985839844,4.564623832702637,-0.7761295437812805
-0.277635782957077,4.5357160568237305,-0.7723594307899475
-0.24731020629405975,4.560413360595703,-0.7774448394775391
-0.21338260173797607,4.515669345855713,-0.7707250714302063
-0.1834995001554489,4.555323600769043,-0.7784461379051208
-0.15047313272953033,4.517821311950684,-0.7729620933532715
-0.11836755275726318,4.514856815338135,-0.7727012634277344
-0.0860343724489212,4.469310283660889,-0.7651830911636353
-0.055228348821401596,4.492834091186523,-0.769525945186615
-0.024093972519040108,4.508443355560303,-0.7725527286529541
0.0070274630561470985,4.358346939086914,-0.7468205690383911
0.036230750381946564,4.173447132110596,-0.7148132920265198
0.06433061510324478,4.115405082702637,-0.7045924663543701
0.09127781540155411,4.041778087615967,-0.6917456388473511
0.12129732966423035,4.1065287590026855,-0.7026163935661316
0.15417326986789703,4.225044250488281,-0.7220034599304199
0.18214912712574005,4.193276405334473,-0.7156992554664612
0.2162778228521347,4.280520439147949,-0.7297146320343018
0.24386762082576752,4.2406463623046875,-0.7220985889434814
0.2691256105899811,4.173741817474365,-0.7096514701843262
0.2975562512874603,4.16438102722168,-0.7066286206245422
0.32319197058677673,4.12026309967041,-0.697757363319397
0.3579079210758209,4.183413028717041,-0.7070549726486206
0.3973218500614166,4.292352676391602,-0.7240907549858093
0.427880197763443,4.297557353973389,-0.7230097651481628
0.4687294363975525,4.398344039916992,-0.7378894090652466
0.48319879174232483,4.2537407875061035,-0.7116514444351196
0.5220405459403992,4.323329448699951,-0.7212810516357422
0.5618619918823242,4.3965067863464355,-0.731291651725769
0.6464062929153442,4.794144153594971,-0.7945529222488403
0.6920821070671082,4.877915859222412,-0.8055408596992493
0.729448676109314,4.896450042724609,-0.8057155609130859
0.7594347596168518,4.861273288726807,-0.7970412969589233
0.7944955825805664,4.864160060882568,-0.7941398024559021
0.8230835199356079,4.8288068771362305,-0.7848948836326599
0.8465340733528137,4.76668643951416,-0.7713958024978638
0.8755804896354675,4.738584041595459,-0.7634844779968262
0.9158664345741272,4.770965576171875,-0.765174150466919
0.9434928297996521,4.734899997711182,-0.7553569078445435
0.971663236618042,4.706329822540283,-0.7468839883804321
1.0036991834640503,4.696427345275879,-0.7414097785949707
0.8365126848220825,3.785233497619629,-0.5944380164146423
0.8593799471855164,3.764940023422241,-0.587776780128479
0.8806561827659607,3.736912488937378,-0.5797948241233826
0.9029980301856995,3.716355562210083,-0.573091983795166
0.9270870089530945,3.703129529953003,-0.5675530433654785
0.9548177719116211,3.704749584197998,-0.5641734004020691
0.976485013961792,3.683837413787842,-0.5570945739746094
1.0044876337051392,3.6850526332855225,-0.5533233880996704
1.0250555276870728,3.6600396633148193,-0.5456832051277161
1.0442521572113037,3.631190299987793,-0.5375412702560425
1.0672492980957031,3.617194652557373,-0.531288206577301
1.094527006149292,3.6178789138793945,-0.5271819829940796
1.1133261919021606,3.5886099338531494,-0.5186482071876526
1.138471245765686,3.581465721130371,-0.5134194493293762
1.1633756160736084,3.5742251873016357,-0.5080184936523438
1.1880919933319092,3.5668725967407227,-0.5024622678756714
1.2078170776367188,3.5446624755859375,-0.4948458671569824
1.230156660079956,3.529550552368164,-0.4882141947746277
1.257875919342041,3.528789758682251,-0.48344361782073975
1.2756271362304688,3.5026047229766846,-0.4750686585903168
1.3092612028121948,3.519926071166992,-0.4726126492023468
1.3338966369628906,3.5114665031433105,-0.46661609411239624
1.6388612985610962,4.225802898406982,-0.5556892156600952
1.6655386686325073,4.208019733428955,-0.5471106767654419
1.6973131895065308,4.2046427726745605,-0.5405319333076477
1.723756194114685,4.186461448669434,-0.5319592356681824
1.7532397508621216,4.175174713134766,-0.5242541432380676
1.7729288339614868,4.142518520355225,-0.513715386390686
1.8112314939498901,4.15233039855957,-0.5083023309707642
1.830682635307312,4.119288444519043,-0.49770161509513855
1.8532202243804932,4.09312105178833,-0.48795247077941895
1.8814029693603516,4.081212520599365,-0.4797819256782532
1.9125975370407104,4.07623291015625,-0.4723767340183258
1.938060998916626,4.056557655334473,-0.46305760741233826
1.9597679376602173,4.029794692993164,-0.45303016901016235
1.9839797019958496,4.0102105140686035,-0.4437319040298462
2.0112721920013428,3.9975297451019287,-0.43519920110702515
2.0337748527526855,3.973971366882324,-0.42536064982414246
2.0617434978485107,3.9604687690734863,-0.4165545701980591
2.081871509552002,3.9332704544067383,-0.4061075448989868
2.108510971069336,3.9199604988098145,-0.3972627818584442
2.1323046684265137,3.8991222381591797,-0.38741034269332886
2.116039991378784,3.8067691326141357,-0.37060263752937317
2.1532142162323,3.8135857582092285,-0.36350345611572266
2.1641733646392822,3.7723896503448486,-0.35164007544517517
2.1828672885894775,3.7444519996643066,-0.3410026729106903
2.224259376525879,3.7571167945861816,-0.3340161442756653
2.237372636795044,3.7229087352752686,-0.32283225655555725
2.251047134399414,3.688131093978882,-0.3113963305950165
2.2894082069396973,3.692814588546753,-0.30304890871047974
