X,Y,Z
-1.2375248670578003,2.105090618133545,0.4129009544849396
-1.2524036169052124,2.097358226776123,0.4073508381843567
-2.9361515045166016,4.846073150634766,0.9312924146652222
-2.9521613121032715,4.802684307098389,0.9131094217300415
-3.011181116104126,4.82326078414917,0.9062830805778503
-3.0374598503112793,4.791159152984619,0.8895799517631531
-3.0442683696746826,4.73452615737915,0.8679137825965881
-3.0754051208496094,4.716993808746338,0.8534857630729675
-3.0679633617401123,4.636817932128906,0.8271740674972534
-3.073949098587036,4.575248718261719,0.8039409518241882
-3.119297504425049,4.579989433288574,0.7921106219291687
-3.1118991374969482,4.508035659790039,0.7670884132385254
-2.957819938659668,4.22211217880249,0.7053942680358887
-2.8887200355529785,4.065080642700195,0.6662505865097046
-2.9065613746643066,4.035897254943848,0.6480175256729126
-2.9389760494232178,4.024644374847412,0.6321272850036621
-2.9630513191223145,4.000063419342041,0.6134442090988159
-2.464566469192505,3.454149007797241,-0.23930664360523224
-2.4466753005981445,3.4846649169921875,-0.25776946544647217
-2.8892247676849365,4.177542209625244,-0.32715898752212524
-2.8670830726623535,4.210091590881348,-0.3475249707698822
-2.8500356674194336,4.252878665924072,-0.3688931167125702
-2.795987606048584,4.235753059387207,-0.3838757872581482
-2.7723944187164307,4.268110752105713,-0.40357470512390137
-2.767244815826416,4.32987642288208,-0.425961971282959
-2.744567394256592,4.360959529876709,-0.44460147619247437
-1.282464623451233,2.0705368518829346,-0.21843500435352325
-2.1552600860595703,3.5373764038085938,-0.3856453597545624
-2.141369581222534,3.5715255737304688,-0.4014941155910492
-2.656686544418335,4.502678394317627,-0.5209925174713135
-2.6269168853759766,4.527126789093018,-0.5386244058609009
-1.209320306777954,2.118583917617798,-0.25878390669822693
-2.5879499912261963,4.607994079589844,-0.5771299600601196
-2.566373825073242,4.64901065826416,-0.5967304706573486
-2.5392942428588867,4.679408550262451,-0.6148333549499512
-2.513104200363159,4.709027290344238,-0.6324504017829895
-2.4933927059173584,4.752408504486084,-0.6520290374755859
-2.4511780738830566,4.7546916007995605,-0.6659368872642517
-2.398411989212036,4.735898017883301,-0.6768404245376587
-1.0735459327697754,2.1568899154663086,-0.3141753673553467
-1.0510530471801758,2.1497113704681396,-0.31894394755363464
-1.0419718027114868,2.1703011989593506,-0.32782402634620667
-1.0362380743026733,2.197718620300293,-0.3377359211444855
-1.0302931070327759,2.2250735759735107,-0.3477155864238739
-1.0106210708618164,2.224520683288574,-0.35338202118873596
-0.9991104006767273,2.241351842880249,-0.3617245852947235
-0.9892501831054688,2.261533737182617,-0.3705846667289734
-0.9731336832046509,2.2674362659454346,-0.3771311640739441
-0.9626906514167786,2.287576913833618,-0.38593998551368713
-0.9546250104904175,2.314899444580078,-0.3961672782897949
-0.9380816221237183,2.320549726486206,-0.4025784730911255
-0.9243674874305725,2.3332266807556152,-0.41023004055023193
-0.9102964997291565,2.3459203243255615,-0.4177360236644745
-0.8823869228363037,2.3225085735321045,-0.41879111528396606
-1.199659824371338,3.2263309955596924,-0.5890504717826843
-1.1121931076049805,3.0560219287872314,-0.5647232532501221
-1.0476466417312622,2.942906379699707,-0.5500277280807495
-1.0138531923294067,2.9126524925231934,-0.5505191683769226
-0.9819705486297607,2.885672092437744,-0.551456093788147
-0.9562431573867798,2.8767216205596924,-0.5558667182922363
-0.9427825212478638,2.904087543487549,-0.566897988319397
-0.9243251085281372,2.9167420864105225,-0.5751166343688965
-0.9070144891738892,2.932888984680176,-0.5840474963188171
-0.8119945526123047,2.6918418407440186,-0.5413239598274231
-0.7852736711502075,2.6706037521362305,-0.5419980883598328
-0.7596181035041809,2.65290904045105,-0.5433321595191956
-0.7469915747642517,2.679192543029785,-0.5535998940467834
-0.7180221080780029,2.6462552547454834,-0.5516212582588196
-0.7012693881988525,2.6575393676757812,-0.5585501790046692
-0.6586942672729492,2.56866192817688,-0.5441649556159973
-0.6328405737876892,2.5425398349761963,-0.5429638624191284
-0.6050164699554443,2.5049889087677,-0.539154589176178
-0.575149655342102,2.456077814102173,-0.5325531959533691
-0.5502022504806519,2.4255881309509277,-0.5296130180358887
-0.5216353535652161,2.376234292984009,-0.5224465131759644
-0.49592629075050354,2.337876319885254,-0.5176340341567993
-0.46876928210258484,2.2880725860595703,-0.5099679231643677
-0.4460284411907196,2.256819009780884,-0.5060231685638428
-0.4201981723308563,2.2066447734832764,-0.4977421164512634
-0.40468019247055054,2.2087576389312744,-0.5012156367301941
-0.3789916932582855,2.1545000076293945,-0.49183231592178345
-0.3600733280181885,2.133892774581909,-0.48959222435951233
-0.3432847261428833,2.124417304992676,-0.4898912012577057
-0.323770672082901,2.095996856689453,-0.4857918918132782
-0.3057650327682495,2.0749568939208984,-0.4833676218986511
-0.28891482949256897,2.0614380836486816,-0.4822527766227722
-0.27252820134162903,2.0477726459503174,-0.4810338318347931
-0.2572670876979828,2.0415351390838623,-0.4815654158592224
-0.24165697395801544,2.0314102172851562,-0.4811849594116211
-0.22581776976585388,2.0174760818481445,-0.4795132279396057
-0.2085907906293869,1.9883313179016113,-0.47409823536872864
-0.19449587166309357,1.9893298149108887,-0.4758980870246887
-0.17924122512340546,1.97507905960083,-0.4740372896194458
-0.1654912829399109,1.9759265184402466,-0.475502073764801
-0.15058466792106628,1.9615771770477295,-0.47311604022979736
-0.13667869567871094,1.9584848880767822,-0.4734576940536499
-0.12090427428483963,1.9287796020507812,-0.46739012002944946
-0.10664428025484085,1.9141632318496704,-0.46473440527915955
-0.09298621863126755,1.9070948362350464,-0.46363139152526855
-0.07940380275249481,1.8999309539794922,-0.4625239372253418
-0.06670431792736053,1.9154300689697266,-0.4669593572616577
-0.052085235714912415,1.877768635749817,-0.4583198130130768
-0.03934260830283165,1.8932031393051147,-0.46226418018341064
-0.026374002918601036,1.908549427986145,-0.466212660074234
-0.012947112321853638,1.8858606815338135,-0.4608912765979767
0.00016502206563018262,1.8858587741851807,-0.4610801637172699
0.013564370572566986,1.8934624195098877,-0.4626767039299011
0.026636432856321335,1.8857957124710083,-0.4605686068534851
0.0376434326171875,1.7869826555252075,-0.43623483180999756
0.05250018090009689,1.8739869594573975,-0.4572855234146118
0.06618048250675201,1.8927150964736938,-0.46119773387908936
0.07997919619083405,1.9075593948364258,-0.464146226644516
0.09458253532648087,1.929880142211914,-0.46891263127326965
0.1080055832862854,1.9293595552444458,-0.46815502643585205
0.12287270277738571,1.951574683189392,-0.47251570224761963
0.13646887242794037,1.9509764909744263,-0.4712525010108948
0.1509367823600769,1.961643934249878,-0.4727269113063812
0.16388018429279327,1.9494799375534058,-0.46870437264442444
0.17920929193496704,1.9675841331481934,-0.47167107462882996
0.19443969428539276,1.981834888458252,-0.4735203981399536
0.21065817773342133,2.0035343170166016,-0.47714462876319885
0.22546419501304626,2.010000705718994,-0.4771439731121063
0.2397204041481018,2.008836269378662,-0.4750934839248657
0.25566306710243225,2.0227434635162354,-0.4763759672641754
0.275334894657135,2.062930107116699,-0.48381513357162476
0.2939915060997009,2.091651678085327,-0.48851901292800903
0.3108478784561157,2.1051900386810303,-0.48951971530914307
0.3322625458240509,2.1449902057647705,-0.4961851239204407
0.35095635056495667,2.1658413410186768,-0.49845802783966064
0.3686549961566925,2.179035186767578,-0.49895426630973816
0.38920536637306213,2.2071163654327393,-0.5027837753295898
0.40952280163764954,2.231365442276001,-0.5052642226219177
0.4308970272541046,2.2591991424560547,-0.508508026599884
0.4470199942588806,2.2568750381469727,-0.5048975348472595
0.4728434383869171,2.3030753135681152,-0.5121538043022156
0.49854007363319397,2.3454067707061768,-0.5180224180221558
0.5289724469184875,2.4061732292175293,-0.5277833938598633
0.5509727001190186,2.425679922103882,-0.5283898115158081
0.5796899199485779,2.470999240875244,-0.5344723463058472
0.6114603281021118,2.527338981628418,-0.5425292253494263
0.6357393264770508,2.5500059127807617,-0.543120801448822
0.6670070290565491,2.5984184741973877,-0.5490971207618713
0.7038931250572205,2.665050983428955,-0.5587427616119385
0.7360468506813049,2.7091431617736816,-0.5631676912307739
0.7767450213432312,2.7825820446014404,-0.5733852386474609
0.8111379742622375,2.82983660697937,-0.5779961347579956
0.8560140132904053,2.9098737239837646,-0.5890741348266602
0.8953759074211121,2.9674787521362305,-0.5952183604240417
0.9279711842536926,2.9990217685699463,-0.59561687707901
1.000174880027771,3.1547865867614746,-0.6204220652580261
1.0450592041015625,3.2184484004974365,-0.6266710162162781
1.0908305644989014,3.2817113399505615,-0.6325187683105469
1.1522947549819946,3.3882954120635986,-0.64606112241745
1.2317299842834473,3.5414772033691406,-0.6679569482803345
1.3024424314498901,3.661008834838867,-0.6827510595321655
1.3888798952102661,3.819749593734741,-0.7043778300285339
1.4867591857910156,4.002992630004883,-0.7294482588768005
1.5517566204071045,4.091548919677734,-0.7366711497306824
1.6266841888427734,4.200924873352051,-0.7471231818199158
1.666961431503296,4.2161173820495605,-0.7403588891029358
1.6921676397323608,4.1955742835998535,-0.7271429896354675
1.7156884670257568,4.171280384063721,-0.7133702635765076
1.7392969131469727,4.146698951721191,-0.6995324492454529
1.7656967639923096,4.129043102264404,-0.6869382262229919
1.460145115852356,3.349890947341919,-0.5491260290145874
1.4897985458374023,3.355273485183716,-0.5419395565986633
1.5104297399520874,3.3391051292419434,-0.5311440825462341
1.5341788530349731,3.3297901153564453,-0.521466851234436
1.5573822259902954,3.3205299377441406,-0.5116403698921204
1.574232578277588,3.2969565391540527,-0.4995275139808655
1.5976519584655762,3.2871742248535156,-0.4895407557487488
1.6210063695907593,3.277203321456909,-0.4795132875442505
1.636779546737671,3.2534806728363037,-0.4674215614795685
1.6593496799468994,3.243462324142456,-0.45735809206962585
1.680641770362854,3.229555368423462,-0.44655317068099976
2.0884649753570557,3.945566415786743,-0.5344909429550171
2.095446825027466,3.895169258117676,-0.5167980790138245
2.115098714828491,3.868518590927124,-0.5023218989372253
2.106794595718384,3.790529251098633,-0.481175035238266
2.1408073902130127,3.7908775806427,-0.4701167643070221
2.1556406021118164,3.757207155227661,-0.4546612799167633
2.1820626258850098,3.7434871196746826,-0.44160225987434387
2.212625741958618,3.736086368560791,-0.4291466772556305
2.2340664863586426,3.715733766555786,-0.4151846766471863
2.2554872035980225,3.6951253414154053,-0.401173859834671
2.2862703800201416,3.6868174076080322,-0.3878841996192932
2.2908763885498047,3.6394710540771484,-0.3708072900772095
2.315399408340454,3.6252832412719727,-0.3572250306606293
2.370635747909546,3.6559412479400635,-0.3473350703716278
2.370454788208008,3.6015851497650146,-0.32923656702041626
2.3950138092041016,3.586606979370117,-0.31468477845191956
2.4331178665161133,3.5904312133789062,-0.3014255464076996
2.436004638671875,3.5425140857696533,-0.2836451530456543
2.4861767292022705,3.565849781036377,-0.2715665400028229
2.5108981132507324,3.549668788909912,-0.25563913583755493
2.526581048965454,3.5204918384552,-0.2382654845714569
2.558680534362793,3.517603874206543,-0.22299042344093323
2.171018123626709,2.941699504852295,-0.17270812392234802
2.7899651527404785,3.9532275199890137,0.6259486675262451
2.7668604850769043,3.985633373260498,0.6447094678878784
2.726789951324463,3.9917895793914795,0.6587532758712769
2.7233083248138428,4.047728538513184,0.6803003549575806
2.670452117919922,4.034004211425781,0.6895766854286194
2.6593544483184814,4.085012435913086,0.7098109722137451
2.6128270626068115,4.075910568237305,0.718698263168335
2.5993311405181885,4.118764877319336,0.7365943789482117
2.5662457942962646,4.137073040008545,0.7498874068260193
2.548185348510742,4.177554130554199,0.766968309879303
2.5220370292663574,4.200182914733887,0.7801877856254578
2.481248378753662,4.199808597564697,0.7889937162399292
2.458244562149048,4.233423233032227,0.8037787675857544
2.4211809635162354,4.243619441986084,0.8142639398574829
2.3888916969299316,4.255400657653809,0.824333131313324
2.3638932704925537,4.280457019805908,0.8370171189308167
2.2722978591918945,4.188162326812744,0.8259862661361694
2.2220916748046875,4.169486045837402,0.8292778134346008
2.2195324897766113,4.238497734069824,0.8499025702476501
2.1751792430877686,4.224979400634766,0.8537772297859192
2.163210153579712,4.2766947746276855,0.8706080913543701
2.1341397762298584,4.2980241775512695,0.8810001015663147
2.108227491378784,4.326042652130127,0.8928430080413818
2.0766358375549316,4.339502811431885,0.9015171527862549
2.0489659309387207,4.3593573570251465,0.9114363193511963
2.026639461517334,4.393431186676025,0.9240213632583618
2.0046603679656982,4.431303024291992,0.9371964931488037
2.0226426124572754,4.56019401550293,0.9698398113250732
2.0128724575042725,4.625610828399658,0.988985002040863
3.512139320373535,8.229813575744629,1.7690098285675049
1.9356359243392944,4.626042366027832,0.9993449449539185
1.9200732707977295,4.684800624847412,1.0166146755218506
1.8795429468154907,4.683117866516113,1.020849347114563
1.8384875059127808,4.677270889282227,1.0241007804870605
1.8061394691467285,4.692409038543701,1.0319494009017944
1.7999117374420166,4.775122165679932,1.054701328277588
1.7463237047195435,4.736519813537598,1.0500695705413818
1.3366984128952026,3.7083580493927,0.8251147270202637
1.3017338514328003,3.695368528366089,0.8252295255661011
1.6544302701950073,4.805634021759033,1.0770374536514282
1.6315302848815918,4.848381042480469,1.0904642343521118
1.5972968339920044,4.858402729034424,1.0965245962142944
1.5711643695831299,4.897773742675781,1.1085736751556396
1.546819806098938,4.9442877769470215,1.1223410367965698
1.517895221710205,4.9799017906188965,1.1337937116622925
1.4730206727981567,4.956318378448486,1.1316514015197754
2.2702724933624268,7.838257312774658,1.7948355674743652
1.4103713035583496,4.9998369216918945,1.1481319665908813
1.3781750202178955,5.023561954498291,1.1561514139175415
1.310346245765686,4.9144487380981445,1.1336050033569336
1.2741477489471436,4.922893047332764,1.1382181644439697
1.2478415966033936,4.9639811515808105,1.1503379344940186
1.2238953113555908,5.015994548797607,1.1650745868682861
1.1852985620498657,5.0085625648498535,1.1660726070404053
1.1494042873382568,5.016043186187744,1.1698453426361084
1.1267508268356323,5.086635112762451,1.188378095626831
1.0918161869049072,5.101160526275635,1.193867564201355
1.0603939294815063,5.130248546600342,1.202804446220398
1.0215202569961548,5.121744155883789,1.2029690742492676
0.783138632774353,4.073906898498535,0.9586149454116821
0.762826144695282,4.127457618713379,0.9727148413658142
0.7347652316093445,4.1397271156311035,0.976801335811615
0.7039670944213867,4.1368088722229,0.9773552417755127
0.6715086102485657,4.122385501861572,0.9752284288406372
0.6456187963485718,4.145230770111084,0.9819454550743103
0.6184017062187195,4.164209842681885,0.9878283143043518
0.5914309620857239,4.182945728302002,0.993689775466919
0.5637968182563782,4.201714038848877,0.9989206790924072
0.5369284749031067,4.227835655212402,1.0059475898742676
0.5087641477584839,4.246239185333252,1.0111972093582153
0.4780617952346802,4.241762638092041,1.0110427141189575
0.45238497853279114,4.286224842071533,1.0226192474365234
0.4184627830982208,4.2472734451293945,1.0143262147903442
0.3860017657279968,4.219482421875,1.0085033178329468
0.35444915294647217,4.199141025543213,1.0040301084518433
0.33023375272750854,4.269488334655762,1.0212956666946411
0.2991642355918884,4.2639241218566895,1.0204685926437378
0.2665524184703827,4.2201762199401855,1.0105341672897339
0.23397541046142578,4.1648054122924805,0.9978512525558472
0.20386244356632233,4.143342971801758,0.9933294653892517
0.17430178821086884,4.129349231719971,0.9902505874633789
0.14319951832294464,4.081062316894531,0.9787057042121887
0.11492098867893219,4.089488506317139,0.9808088541030884
0.12383347004652023,5.867448806762695,1.407415747642517
0.0829053595662117,5.860475063323975,1.4059969186782837
0.042341332882642746,5.879804611206055,1.4109567403793335
0.000816073443274945,5.933035850524902,1.4241317510604858
-0.04078613966703415,5.9823527336120605,1.4356616735458374
-0.08284436911344528,6.02003288269043,1.4442481994628906
-0.12495595961809158,6.034630298614502,1.4473628997802734
-0.16748423874378204,6.056527614593506,1.4522958993911743
-0.20960640907287598,6.055344104766846,1.4517629146575928
-0.255447119474411,6.125954627990723,1.468508005142212
-0.1761719137430191,3.6198558807373047,0.867684006690979
-0.19995662569999695,3.595994710922241,0.8613801598548889
-0.22384600341320038,3.5795676708221436,0.8568803071975708
-0.43296685814857483,6.231422424316406,1.4907692670822144
-0.485307514667511,6.338454246520996,1.5155011415481567
-0.5597696304321289,6.698825359344482,1.6008306741714478
-0.5998494029045105,6.623249053955078,1.5820214748382568
-0.6296095848083496,6.452915668487549,1.5405186414718628
-0.6700962781906128,6.411238193511963,1.528929591178894
-0.7217459678649902,6.46744966506958,1.5407260656356812
-0.7627091407775879,6.432737827301025,1.5309548377990723
-0.8006107211112976,6.375104904174805,1.5158127546310425
-0.8384727239608765,6.320989608764648,1.5015954971313477
-0.8793036937713623,6.293010234832764,1.4936747550964355
-0.9257798194885254,6.302424907684326,1.4942600727081299
-0.9759395718574524,6.3418660163879395,1.5014370679855347
-1.0236620903015137,6.362145900726318,1.5041238069534302
-1.0748584270477295,6.400831699371338,1.5112098455429077
-1.1291970014572144,6.450274467468262,1.520848035812378
-1.1836674213409424,6.495524883270264,1.5295344591140747
-1.240438461303711,6.543923377990723,1.538966417312622
-1.2919408082962036,6.569912910461426,1.542420744895935
-1.3474984169006348,6.614253997802734,1.549946904182434
-1.4029366970062256,6.654428958892822,1.5565259456634521
-1.4502917528152466,6.653189659118652,1.5534534454345703
-1.4816144704818726,6.573277950286865,1.5320236682891846
-1.5189099311828613,6.526780128479004,1.518546223640442
-0.6723134517669678,2.8010337352752686,0.6505016088485718
-0.6914288401603699,2.79695200920105,0.648022472858429
-0.7067291736602783,2.777968168258667,0.6421313285827637
-0.7336918711662292,2.803086996078491,0.6464329361915588
-0.7452421188354492,2.769043445587158,0.6371169686317444
-0.7706789970397949,2.7864036560058594,0.6396563649177551
-1.7585982084274292,6.190542221069336,1.4179431200027466
-1.787979245185852,6.135898113250732,1.4015449285507202
-1.8259199857711792,6.110286235809326,1.3916311264038086
-1.8528790473937988,6.051756381988525,1.3743886947631836
-1.887639045715332,6.018474102020264,1.3629403114318848
-1.9169570207595825,5.966584205627441,1.3473114967346191
-1.9516061544418335,5.932697772979736,1.335854172706604
-1.975974678993225,5.869816780090332,1.3173424005508423
-2.0119335651397705,5.847092151641846,1.3076653480529785
-2.041332483291626,5.8061041831970215,1.293994665145874
-2.0656332969665527,5.7503981590271,1.2770984172821045
-2.0969161987304688,5.712207317352295,1.264086127281189
-2.123729944229126,5.663093090057373,1.248767614364624
-2.1605892181396484,5.642689228057861,1.2392548322677612
-2.209873914718628,5.658229351043701,1.2374218702316284
-2.2749886512756348,5.7125139236450195,1.2440376281738281
-2.3331475257873535,5.7446064949035645,1.2456574440002441
-2.3604612350463867,5.6980061531066895,1.2301455736160278
-2.3894522190093994,5.654530048370361,1.2153294086456299
-2.427671432495117,5.640181064605713,1.2062275409698486
-3.644547939300537,8.315590858459473,1.7693848609924316
-3.7176828384399414,8.33226490020752,1.763933539390564
-3.7952444553375244,8.35084056854248,1.7584867477416992
-3.86346435546875,8.343744277954102,1.7474160194396973
-3.9622466564178467,8.406614303588867,1.7506769895553589
-4.028574466705322,8.403824806213379,1.7394262552261353
-4.116910934448242,8.445401191711426,1.7373270988464355
-4.2042436599731445,8.478569030761719,1.733103632926941
-4.303638935089111,8.526870727539062,1.7313628196716309
-4.405716896057129,8.581899642944336,1.730886697769165
-4.487987518310547,8.60355281829834,1.7225321531295776
-4.583266258239746,8.648327827453613,1.7187237739562988
-1.1497611999511719,2.1347200870513916,0.42098966240882874
-1.185352087020874,2.164527654647827,0.42344576120376587
-4.840718746185303,8.695178985595703,1.6867417097091675
-2.5498595237731934,4.511044979095459,0.8673057556152344
-2.5665111541748047,4.472553730010986,0.8521946668624878
-5.195710182189941,8.913077354431152,1.6821048259735107
-1.2421236038208008,2.0972049236297607,0.391902357339859
-1.2486611604690552,2.0763649940490723,0.3838964104652405
-2.950927972793579,4.836591720581055,0.884570300579071
-2.9674510955810547,4.792572498321533,0.8666713237762451
-3.0059757232666016,4.780129909515381,0.853977620601654
-3.04333758354187,4.768092632293701,0.8411247730255127
-3.047987699508667,4.7079010009765625,0.8193336725234985
-3.0754189491271973,4.6832685470581055,0.8038392066955566
-3.068293571472168,4.602472305297852,0.7781522274017334
-3.073883056640625,4.545348644256592,0.7564823627471924
-3.1079158782958984,4.534060955047607,0.7422758340835571
-3.144007921218872,4.521209716796875,0.7269325256347656
-2.854888439178467,4.045287609100342,0.6381208300590515
-2.8992362022399902,4.054203987121582,0.6267238855361938
-2.912144899368286,4.018641948699951,0.6082192659378052
-2.91817045211792,3.9687907695770264,0.5864158868789673
-2.9328553676605225,3.936279058456421,0.5670631527900696
-2.44728422164917,3.4566338062286377,-0.2421523481607437
-2.8958892822265625,4.155208110809326,-0.30945777893066406
-2.8838369846343994,4.200037479400635,-0.33011409640312195
-2.87510085105896,4.256300926208496,-0.35228651762008667
-2.8349483013153076,4.262896537780762,-0.36951932311058044
-2.7979609966278076,4.271747589111328,-0.3862481415271759
-2.769831418991089,4.297683238983154,-0.40451154112815857
-2.748619794845581,4.332704544067383,-0.4232860505580902
-1.261603593826294,2.0203070640563965,-0.2044588029384613
-2.7045388221740723,4.402666091918945,-0.46060484647750854
-2.150864601135254,3.5585625171661377,-0.3841381072998047
-2.6662869453430176,4.481345176696777,-0.4980461299419403
-2.6330838203430176,4.499110698699951,-0.5142596364021301
-2.6183342933654785,4.550692558288574,-0.5346783399581909
-1.182881474494934,2.089289426803589,-0.2517111301422119
-2.581085205078125,4.634963512420654,-0.5721372365951538
-2.5578832626342773,4.672415256500244,-0.5904814600944519
-2.527588129043579,4.695711135864258,-0.6068727374076843
-2.507925510406494,4.739358425140381,-0.6260358691215515
-2.4784488677978516,4.765921592712402,-0.6427041292190552
-2.4644343852996826,4.8234076499938965,-0.6636992692947388
-2.41597580909729,4.811117172241211,-0.674772322177887
-1.0921350717544556,2.21331787109375,-0.3162405788898468
-1.0637991428375244,2.1960055828094482,-0.3195376992225647
-1.041122555732727,2.1887404918670654,-0.3240867853164673
-1.0288047790527344,2.202146530151367,-0.33156320452690125
-1.016201138496399,2.215536594390869,-0.33903777599334717
-1.020700454711914,2.2677371501922607,-0.35252049565315247
-0.9918006658554077,2.2457494735717773,-0.3544948101043701
-0.9816533923149109,2.2660465240478516,-0.36314448714256287
-0.9683725237846375,2.2791454792022705,-0.3705345392227173
-0.9577734470367432,2.2993505001068115,-0.37907180190086365
-0.9441236257553101,2.312305450439453,-0.3864460289478302
-0.9362823367118835,2.339419364929199,-0.39620286226272583
-0.9192152619361877,2.345125913619995,-0.40238329768180847
-0.9091954827308655,2.3686578273773193,-0.41149821877479553
-0.8976268172264099,2.388495683670044,-0.4200313687324524
-0.8753299117088318,2.3792874813079834,-0.4234316349029541
-1.0265882015228271,2.8519012928009033,-0.5134155750274658
-1.0159573554992676,2.8871188163757324,-0.5256527662277222
-1.0003243684768677,2.9076013565063477,-0.5351927876472473
-0.972333550453186,2.8914761543273926,-0.5379654765129089
-0.9445522427558899,2.875153064727783,-0.5404970049858093
-0.933368980884552,2.9099040031433105,-0.5524641275405884
-0.916860044002533,2.930006265640259,-0.5618337988853455
-0.882659912109375,2.8910951614379883,-0.5597323775291443
-0.8008421659469604,2.6899831295013428,-0.5256854891777039
-0.7678124308586121,2.6466004848480225,-0.5217679738998413
-0.7531905770301819,2.6656763553619385,-0.5301284790039062
-0.7363986372947693,2.6772377490997314,-0.5370352864265442
-0.7052657604217529,2.6369099617004395,-0.5335335731506348
-0.7020229697227478,2.7001736164093018,-0.5505819320678711
-0.7044839859008789,2.789466619491577,-0.5731934905052185
-0.6720595359802246,2.741215467453003,-0.5676043629646301
-0.6324159502983093,2.659153938293457,-0.5548157691955566
-0.6064673066139221,2.6328208446502686,-0.5531569123268127
-0.5704458951950073,2.55767822265625,-0.5409983992576599
-0.5500273704528809,2.5495009422302246,-0.5429040193557739
-0.5211683511734009,2.4999966621398926,-0.5359451174736023
-0.4952939450740814,2.461555004119873,-0.5309169292449951
-0.47042417526245117,2.4267196655273438,-0.5264960527420044
-0.45056480169296265,2.414163827896118,-0.5268169641494751
-0.4282066822052002,2.386420965194702,-0.5237928032875061
-0.4081902503967285,2.3698365688323975,-0.522942841053009
-0.38285529613494873,2.3192617893218994,-0.514281153678894
-0.36095401644706726,2.2873501777648926,-0.5097317099571228
-0.3404124975204468,2.258998155593872,-0.5058805346488953
-0.32029134035110474,2.2305142879486084,-0.5018213391304016
-0.30367913842201233,2.224611759185791,-0.5024687647819519
-0.28277790546417236,2.184570550918579,-0.49538370966911316
-0.26473209261894226,2.163278102874756,-0.49252066016197205
-0.246729776263237,2.1418778896331787,-0.4896203279495239
-0.2289198637008667,2.1166369915008545,-0.48530933260917664
-0.21414007246494293,2.1177825927734375,-0.487055242061615
-0.19867311418056488,2.1112406253814697,-0.48704832792282104
-0.18068058788776398,2.0742504596710205,-0.4800065755844116
-0.1660112738609314,2.0751702785491943,-0.48132649064064026
-0.14964616298675537,2.049424886703491,-0.47636741399765015
-0.13237841427326202,2.004578113555908,-0.46695637702941895
-0.12021296471357346,2.0355587005615234,-0.4752252399921417
-0.1068376824259758,2.051333427429199,-0.47966626286506653
-0.09198370575904846,2.0442707538604736,-0.478602796792984
-0.07819707691669464,2.056098699569702,-0.4819766879081726
-0.06355670839548111,2.0450234413146973,-0.4800044000148773
-0.04918352887034416,2.037696599960327,-0.4787095785140991
-0.034773074090480804,2.022735834121704,-0.4753250181674957
-0.019437000155448914,1.920220971107483,-0.4513830244541168
-0.006449781358242035,2.0381453037261963,-0.47928139567375183
0.00764429522678256,2.015305280685425,-0.4740041494369507
0.019951194524765015,1.855574607849121,-0.43615806102752686
0.03286382555961609,1.8554574251174927,-0.4358745813369751
0.04988827556371689,2.0225272178649902,-0.47486600279808044
0.06492462009191513,2.04500412940979,-0.47990381717681885
0.07957689464092255,2.0560965538024902,-0.48175960779190063
0.09457520395517349,2.070884943008423,-0.484493225812912
0.10858330875635147,2.062772512435913,-0.48188987374305725
0.12474709004163742,2.092541456222534,-0.4881519079208374
0.13754233717918396,2.0615243911743164,-0.47983065247535706
0.1552647352218628,2.1063668727874756,-0.4890805184841156
0.17237818241119385,2.1358988285064697,-0.49475789070129395
0.18791478872299194,2.1425483226776123,-0.4951379597187042
0.2028312385082245,2.1415700912475586,-0.49348118901252747
0.2184075266122818,2.1443049907684326,-0.49244269728660583
0.23335109651088715,2.143160820007324,-0.49056413769721985
0.24611146748065948,2.12298846244812,-0.4843662679195404
0.26417484879493713,2.1481552124023438,-0.4883570671081543
0.2831081449985504,2.177030324935913,-0.49283716082572937
0.2985875606536865,2.175513505935669,-0.4903952181339264
0.3181277811527252,2.204108238220215,-0.49477618932724
0.3443666398525238,2.2740440368652344,-0.508299708366394
0.3668583929538727,2.313694953918457,-0.5145213007926941
0.3880326449871063,2.3418679237365723,-0.5181369781494141
0.3959643244743347,2.2908742427825928,-0.5042831897735596
0.4264829456806183,2.3675925731658936,-0.5184895396232605
0.45783382654190063,2.4441659450531006,-0.5321003198623657
0.48298269510269165,2.4829609394073486,-0.5373135209083557
0.5034241080284119,2.4953129291534424,-0.5367543697357178
0.531883180141449,2.544929265975952,-0.5441504716873169
0.5573435425758362,2.5756173133850098,-0.5470207929611206
0.5871333479881287,2.62484073638916,-0.5536394119262695
0.6133337616920471,2.6551547050476074,-0.5561716556549072
0.6426302194595337,2.6964218616485596,-0.5609162449836731
0.6770896315574646,2.7560739517211914,-0.5691376328468323
0.7108747959136963,2.8079662322998047,-0.5752661824226379
0.7489801049232483,2.874448537826538,-0.5842801928520203
0.7890892028808594,2.9442694187164307,-0.5937603712081909
0.8210071921348572,2.9804630279541016,-0.5961929559707642
0.8523913025856018,3.0127549171447754,-0.5974045395851135
0.8985728025436401,3.0925989151000977,-0.6077671051025391
0.9533100128173828,3.197821855545044,-0.6228790283203125
1.0039494037628174,3.284137487411499,-0.6339566111564636
1.0534521341323853,3.362727642059326,-0.6428451538085938
1.1087772846221924,3.455484628677368,-0.6541382670402527
1.1732064485549927,3.569465160369873,-0.6689265370368958
1.2683554887771606,3.7704055309295654,-0.6995311379432678
1.3361114263534546,3.8831300735473633,-0.7127906084060669
1.4144550561904907,4.020598411560059,-0.7300499677658081
1.485844612121582,4.131829738616943,-0.7420043349266052
1.5510172843933105,4.220590591430664,-0.7494916915893555
1.596071481704712,4.250946521759033,-0.7459136247634888
1.6341450214385986,4.263090133666992,-0.7390925288200378
1.6613987684249878,4.246103763580322,-0.7271719574928284
1.6801122426986694,4.207340717315674,-0.7115704417228699
1.7023929357528687,4.179368019104004,-0.6977156400680542
1.4076462984085083,3.3879592418670654,-0.5579617619514465
1.434538722038269,3.386521100997925,-0.5501605868339539
1.4616165161132812,3.384803533554077,-0.5422638654708862
1.4853391647338867,3.3759219646453857,-0.5330918431282043
1.49934720993042,3.3457610607147217,-0.5205539464950562
1.52971613407135,3.3504674434661865,-0.5132635235786438
1.5469757318496704,3.3269004821777344,-0.5017305016517639
1.563607096672058,3.303407907485962,-0.4901885390281677
1.59324049949646,3.30781888961792,-0.48275473713874817
1.6096975803375244,3.2839901447296143,-0.47110381722450256
1.6334772109985352,3.273636817932129,-0.46120646595954895
1.6439846754074097,3.239335298538208,-0.448067843914032
2.0309510231018066,3.935706615447998,-0.5342413187026978
2.0587246417999268,3.9228811264038086,-0.5221304893493652
2.0866103172302246,3.909731388092041,-0.509924590587616
2.0745975971221924,3.825204610824585,-0.4885416030883789
2.129493474960327,3.8631198406219482,-0.48266929388046265
2.1132543087005615,3.7714929580688477,-0.4605565667152405
2.1512348651885986,3.7783052921295166,-0.45062050223350525
2.18481183052063,3.778425693511963,-0.43977028131484985
2.195289373397827,3.7377796173095703,-0.42404940724372864
2.222327709197998,3.7232396602630615,-0.41092145442962646
2.2558562755584717,3.7226295471191406,-0.3995039165019989
2.268871307373047,3.688694953918457,-0.3845365345478058
2.282626152038574,3.6540701389312744,-0.3691295087337494
2.324646472930908,3.6657462120056152,-0.35837388038635254
2.324406623840332,3.6117584705352783,-0.34104979038238525
2.3580920696258545,3.6097593307495117,-0.3284923732280731
2.404844284057617,3.626878499984741,-0.3173290491104126
2.4028561115264893,3.573183059692383,-0.3000168204307556
2.427457809448242,3.55770206451416,-0.2855986952781677
2.4883079528808594,3.5927488803863525,-0.2744103670120239
2.485079050064087,3.539067029953003,-0.25667643547058105
2.495858669281006,3.5038726329803467,-0.23988895118236542
2.5655617713928223,3.5509328842163086,-0.22818920016288757
2.224351406097412,3.03782320022583,-0.1823669672012329
2.175818920135498,2.9290080070495605,-0.16228896379470825
2.796534776687622,3.9353058338165283,0.586740255355835
2.7723958492279053,3.9594247341156006,0.603599488735199
2.7545249462127686,3.997709274291992,0.6223742961883545
2.7093870639801025,3.997939109802246,0.6350252628326416
2.6804938316345215,4.015120983123779,0.64908766746521
2.6798863410949707,4.078229904174805,0.6705018281936646
2.6343400478363037,4.077844619750977,0.6814755201339722
2.595521926879883,4.082143783569336,0.6923770904541016
2.590674877166748,4.137894630432129,0.7117424011230469
2.550414800643921,4.142537593841553,0.7219290733337402
2.513913869857788,4.153596878051758,0.7331493496894836
2.49497389793396,4.18991231918335,0.7483874559402466
2.478543519973755,4.228957176208496,0.7639678716659546
2.428635358810425,4.215778827667236,0.769582986831665
2.4130773544311523,4.262616157531738,0.7861682176589966
2.393160104751587,4.2983880043029785,0.8004012107849121
2.265618085861206,4.137911796569824,0.7778255343437195
2.252958297729492,4.186807155609131,0.7938753366470337
2.210134506225586,4.1816325187683105,0.7995400428771973
2.200054168701172,4.237279415130615,0.8167849183082581
2.176795244216919,4.264832973480225,0.8284258246421814
2.1457083225250244,4.278778076171875,0.8375691175460815
2.118394613265991,4.303554534912109,0.8481605648994446
2.0924947261810303,4.331603050231934,0.8594774603843689
2.0640153884887695,4.3521013259887695,0.8691909313201904
2.0298407077789307,4.3580522537231445,0.8758696913719177
1.99549400806427,4.363826751708984,0.8824657201766968
1.9779434204101562,4.412373065948486,0.8972834348678589
2.003613233566284,4.559055805206299,0.932209849357605
1.9732695817947388,4.579061031341553,0.9413307905197144
1.9527512788772583,4.619662761688232,0.9546146392822266
1.9259201288223267,4.645981788635254,0.9650335907936096
3.4127254486083984,8.407919883728027,1.754483699798584
1.8535789251327515,4.66413688659668,0.9776077270507812
1.831568717956543,4.708408355712891,0.9912879467010498
1.809200406074524,4.74846887588501,1.0039921998977661
1.7890797853469849,4.795584201812744,1.0182905197143555
1.3430602550506592,3.6809074878692627,0.7847772240638733
1.323704481124878,3.7113149166107178,0.794090986251831
1.2838521003723145,3.683764934539795,0.7910313606262207
1.6520404815673828,4.851346969604492,1.0454649925231934
1.6275602579116821,4.890622615814209,1.0576125383377075
1.5901200771331787,4.893578052520752,1.0620462894439697
1.5860806703567505,5.00214958190918,1.0889204740524292
1.5214039087295532,4.9210638999938965,1.0743120908737183
2.448366165161133,8.126583099365234,1.7792048454284668
1.4632140398025513,4.9842329025268555,1.094346523284912
1.4334681034088135,5.011627674102783,1.103481650352478
1.4038387537002563,5.042664051055908,1.113552212715149
1.3447563648223877,4.966748237609863,1.0994207859039307
1.298174262046814,4.9347357749938965,1.094752311706543
1.2672438621520996,4.961521148681641,1.1031743288040161
1.2391895055770874,4.9991254806518555,1.1140522956848145
1.205309271812439,5.014297008514404,1.1200063228607178
1.1701525449752808,5.02167272567749,1.124234676361084
1.1454352140426636,5.077367782592773,1.1389594078063965
1.1106069087982178,5.092113494873047,1.144184947013855
1.0771980285644531,5.114081859588623,1.1511008739471436
1.0369932651519775,5.1060051918029785,1.1513392925262451
1.0027995109558105,5.119823455810547,1.1564887762069702
1.4958157539367676,7.928679466247559,1.7941949367523193
1.4470252990722656,7.9753031730651855,1.8078957796096802
1.3889694213867188,7.976929187774658,1.8103865385055542
1.3299535512924194,7.978283882141113,1.812943458557129
0.6714000105857849,4.211588382720947,0.9582322239875793
0.6349501013755798,4.170490741729736,0.9501118063926697
0.6091997623443604,4.196946144104004,0.9574108123779297
0.5872316360473633,4.253436088562012,0.9716333150863647
0.5518311858177185,4.219343185424805,0.9648059606552124
0.5220057368278503,4.2227864265441895,0.9663378596305847
0.4921592175960541,4.22601842880249,0.9678695797920227
0.46689534187316895,4.270680904388428,0.9789451956748962
0.4367774426937103,4.269688606262207,0.9795995950698853
0.40628498792648315,4.264697551727295,0.9793831706047058
0.3790588080883026,4.301253795623779,0.9887658953666687
0.3494625687599182,4.311197757720947,0.9913907051086426
0.316604346036911,4.279173374176025,0.9844117760658264
0.28655222058296204,4.281089782714844,0.9852856397628784
0.25385746359825134,4.23718786239624,0.9756562113761902
0.22089289128780365,4.181653022766113,0.9633893370628357
0.1921265870332718,4.190499305725098,0.9659881591796875
0.22477924823760986,5.781496524810791,1.3332949876785278
0.1849198192358017,5.798074722290039,1.337097406387329
0.1446765810251236,5.810573577880859,1.3400241136550903
0.10412317514419556,5.849442481994629,1.3491008281707764
0.06346023082733154,5.857569217681885,1.3511524200439453
0.02282162941992283,5.899670124053955,1.3611078262329102
-0.018295003101229668,5.93006706237793,1.3684321641921997
-0.06004899740219116,5.983126163482666,1.3805314302444458
-0.10272812098264694,6.001722812652588,1.3843038082122803
-0.14571648836135864,6.05427885055542,1.3959803581237793
-0.1880238801240921,6.060870170593262,1.3971216678619385
-0.2308633178472519,6.078577995300293,1.4008913040161133
-0.2751542627811432,6.122602462768555,1.410791039466858
-0.18746288120746613,3.6115846633911133,0.8320884704589844
-0.2124238759279251,3.602760076522827,0.8295356631278992
-0.4120512008666992,6.253089427947998,1.4387389421463013
-0.4580247700214386,6.288427352905273,1.4458969831466675
-0.5003404021263123,6.270288467407227,1.4408228397369385
-0.550220251083374,6.339097499847412,1.455786108970642
-0.5979911088943481,6.365745544433594,1.4611098766326904
-0.64799964427948,6.418647766113281,1.4724911451339722
-0.6946498155593872,6.437344074249268,1.4751144647598267
-0.7389801740646362,6.433000087738037,1.4725221395492554
-0.7782150506973267,6.386754035949707,1.4604183435440063
-0.8163434267044067,6.32882022857666,1.445702314376831
-0.8562666177749634,6.29337215423584,1.4362289905548096
-0.8984354734420776,6.276529788970947,1.4310803413391113
-0.9469698667526245,6.304732322692871,1.4359207153320312
-0.9972700476646423,6.3440704345703125,1.442690372467041
-1.049501895904541,6.386678218841553,1.4502040147781372
-1.1022835969924927,6.432744026184082,1.458573579788208
-1.15566885471344,6.474545955657959,1.465985894203186
-1.2077487707138062,6.504653453826904,1.4707872867584229
-1.2625454664230347,6.5455756187438965,1.4780762195587158
-1.3157072067260742,6.578885555267334,1.4829384088516235
-1.3769214153289795,6.645357131958008,1.4949769973754883
-1.427900791168213,6.6629719734191895,1.4961031675338745
-1.4613310098648071,6.598180294036865,1.4787899255752563
-1.5021833181381226,6.566588878631592,1.4689853191375732
-1.533091425895691,6.4938578605651855,1.4500796794891357
-0.6846723556518555,2.8117146492004395,0.6266061067581177
-0.700090229511261,2.792717456817627,0.620861291885376
-0.7162343859672546,2.777331590652466,0.6159621477127075
-0.7292643189430237,2.7507729530334473,0.6086310148239136
-0.7594608664512634,2.7867181301116943,0.6151163578033447
-1.7285877466201782,6.1707634925842285,1.3588221073150635
-1.7759788036346436,6.174428939819336,1.3564735651016235
-1.8049043416976929,6.1196160316467285,1.3404887914657593
-1.8342515230178833,6.068350791931152,1.3253298997879028
-1.8685754537582397,6.035231590270996,1.3142410516738892
-1.8995004892349243,5.986873149871826,1.299784541130066
-1.933255910873413,5.949310779571533,1.2877881526947021
-1.960472822189331,5.893414497375488,1.2719370126724243
-1.9957886934280396,5.866886615753174,1.261829137802124
-2.0241715908050537,5.822216033935547,1.2477306127548218
-2.0508158206939697,5.773780345916748,1.2329282760620117
-2.0848989486694336,5.742751121520996,1.2217775583267212
-2.1119227409362793,5.693570613861084,1.2068742513656616
-2.1356394290924072,5.637101173400879,1.1905468702316284
-2.176637887954712,5.6312575340271,1.1842797994613647
-2.239898681640625,5.682305335998535,1.189836859703064
-2.3031325340270996,5.728999614715576,1.1943398714065552
-2.3548054695129395,5.742880821228027,1.1918715238571167
-2.374608039855957,5.6782941818237305,1.173143982887268
-2.408393621444702,5.6491169929504395,1.1617313623428345
-2.4708878993988037,5.690951347351074,1.164236307144165
-3.77882719039917,8.545234680175781,1.7388666868209839
-3.8479716777801514,8.546640396118164,1.7299689054489136
-3.948303699493408,8.60947322845459,1.7331233024597168
-4.035065650939941,8.640007972717285,1.7297030687332153
-4.115219593048096,8.660550117492676,1.7233881950378418
-4.209343910217285,8.708157539367676,1.7218270301818848
-4.2947187423706055,8.738125801086426,1.716897964477539
-4.3787126541137695,8.755599975585938,1.708875298500061
-4.484489917755127,8.81331729888916,1.7085490226745605
-4.562732696533203,8.819841384887695,1.6975719928741455
-4.6521711349487305,8.850502967834473,1.6906163692474365
-4.7395453453063965,8.873117446899414,1.6818315982818604
-1.1752488613128662,2.1641900539398193,0.40688538551330566
-1.1906284093856812,2.156658411026001,0.40213456749916077
-5.070044994354248,9.0416841506958,1.6711053848266602
-2.5459513664245605,4.4722676277160645,0.8190386891365051
-5.309552192687988,9.183899879455566,1.6659317016601562
-5.423786640167236,9.233133316040039,1.6581140756607056
-1.256479024887085,2.1056833267211914,0.3742773234844208
-2.9368844032287598,4.850832462310791,0.8527535200119019
-2.960787296295166,4.820337295532227,0.8379684686660767
-2.978931427001953,4.7750749588012695,0.8199280500411987
-3.0172557830810547,4.762413501739502,0.8075699210166931
-3.0445713996887207,4.738119125366211,0.79276043176651
-3.0735416412353516,4.71704626083374,0.7784948945045471
-3.0682711601257324,4.639571189880371,0.7543318867683411
-3.106407880783081,4.625904083251953,0.7402246594429016
-3.0690183639526367,4.508624076843262,0.7095328569412231
-3.103044033050537,4.497018337249756,0.6956596374511719
-3.1619739532470703,4.515196323394775,0.6851872801780701
-2.8738882541656494,4.047029495239258,0.6019284725189209
-2.870878219604492,3.9894211292266846,0.5808119177818298
-2.9239931106567383,4.005963325500488,0.5696133971214294
-2.9611170291900635,4.000307083129883,0.5545445680618286
-2.465494155883789,3.454193115234375,-0.22888711094856262
-2.4566733837127686,3.4975409507751465,-0.2471153736114502
-2.8946621417999268,4.184394836425781,-0.312837690114975
-2.872612237930298,4.217048168182373,-0.332040399312973
-2.8510847091674805,4.25363302230835,-0.35169240832328796
-2.8098998069763184,4.256185054779053,-0.36741775274276733
-2.7863030433654785,4.288732051849365,-0.3859674632549286
-2.764220952987671,4.324552059173584,-0.4046526253223419
-2.750001907348633,4.368916034698486,-0.4233476221561432
-1.2790195941925049,2.064633846282959,-0.20688895881175995
-2.7051808834075928,4.439178943634033,-0.4593885838985443
-2.154578685760498,3.5930559635162354,-0.38320910930633545
-2.6661221981048584,4.518185615539551,-0.4957345724105835
-2.636272668838501,4.542908668518066,-0.5122555494308472
-1.1985011100769043,2.099514961242676,-0.24292677640914917
-2.5858469009399414,4.603968620300293,-0.5459250211715698
-2.5568485260009766,4.631607532501221,-0.5625499486923218
-2.5374114513397217,4.6758036613464355,-0.5810527801513672
-2.507751941680908,4.698744773864746,-0.5965585708618164
-2.495436429977417,4.756071090698242,-0.6165419220924377
-2.4657318592071533,4.782713890075684,-0.6326121091842651
-2.440943956375122,4.819540977478027,-0.6501682996749878
-2.420447587966919,4.8625922203063965,-0.668275773525238
-1.0878602266311646,2.224889039993286,-0.3113091289997101
-1.0598307847976685,2.2074174880981445,-0.3143138289451599
-1.0555344820022583,2.2385828495025635,-0.3241572678089142
-1.0184402465820312,2.1994376182556152,-0.32373949885368347
-1.016554594039917,2.2377068996429443,-0.3346793055534363
-1.0002294778823853,2.2441232204437256,-0.3408467471599579
-0.9904061555862427,2.2644498348236084,-0.3490664064884186
-0.9712285995483398,2.2633910179138184,-0.3540036082267761
-0.9698000550270081,2.305065631866455,-0.36554980278015137
-0.9498386979103088,2.304035186767578,-0.37049418687820435
-0.9392324686050415,2.324104070663452,-0.3786822557449341
-0.9226991534233093,2.3297557830810547,-0.3845542073249817
-0.9114775061607361,2.349790573120117,-0.39265477657318115
-0.9000271558761597,2.3697547912597656,-0.40081775188446045
-0.8922938108444214,2.4005184173583984,-0.4109286963939667
-0.8805187940597534,2.4202938079833984,-0.4191689193248749
-0.8657315373420715,2.432842493057251,-0.4259774684906006
-0.9141092896461487,2.627227306365967,-0.4650208353996277
-0.9599663615226746,2.8221912384033203,-0.5048514008522034
-0.9457091093063354,2.8461360931396484,-0.514589250087738
-0.9396601915359497,2.8956284523010254,-0.5286845564842224
-0.9259607791900635,2.9231369495391846,-0.5388767719268799
-0.9074786901473999,2.9358413219451904,-0.5463921427726746
-0.8223384618759155,2.7275431156158447,-0.5124250054359436
-0.7899554967880249,2.688039779663086,-0.5094699263572693
-0.7652057409286499,2.674199342727661,-0.5112808346748352
-0.7441828846931458,2.671157121658325,-0.5150483250617981
-0.7273368239402771,2.6827518939971924,-0.521645724773407
-0.7122754454612732,2.7017030715942383,-0.529507577419281
-0.7073972821235657,2.7614872455596924,-0.5453227162361145
-0.7301177978515625,2.9367268085479736,-0.5843623876571655
-0.7094565033912659,2.940755605697632,-0.5895290970802307
-0.6721919178962708,2.8737521171569824,-0.5802097916603088
-0.648572564125061,2.8625378608703613,-0.5817350745201111
-0.6144775152206421,2.8024959564208984,-0.5732617378234863
-0.5785901546478271,2.7309629917144775,-0.5623360872268677
-0.5624868273735046,2.749077081680298,-0.5697045922279358
-0.5320570468902588,2.695840358734131,-0.5618118047714233
-0.4995432496070862,2.627307653427124,-0.550609827041626
-0.4701203405857086,2.5697736740112305,-0.5415788292884827
-0.448503315448761,2.5534579753875732,-0.5412198305130005
-0.42680275440216064,2.5332536697387695,-0.5395272374153137
-0.4054241478443146,2.5128936767578125,-0.5377029180526733
-0.38142040371894836,2.4734880924224854,-0.5317678451538086
-0.3596736788749695,2.445225715637207,-0.5281791090965271
-0.33804047107696533,2.41688871383667,-0.5242726802825928
-0.3191460072994232,2.4035346508026123,-0.5233473777770996
-0.3009304702281952,2.393827199935913,-0.5232197642326355
-0.2823983132839203,2.380197048187256,-0.5222402811050415
-0.2640748918056488,2.3664662837982178,-0.5210638642311096
-0.2416004240512848,2.3109347820281982,-0.5102986097335815
-0.22297322750091553,2.2894153594970703,-0.5070435404777527
-0.20702755451202393,2.290526866912842,-0.5087823271751404
-0.18981032073497772,2.2763330936431885,-0.5070986747741699
-0.1739884912967682,2.2773263454437256,-0.508313000202179
-0.157088965177536,2.262996196746826,-0.5061259269714355
-0.14106117188930511,2.2637767791748047,-0.5073550939559937
-0.1248784139752388,2.2568211555480957,-0.5068540573120117
-0.10880759358406067,2.2498464584350586,-0.5059220790863037
