X,Y,Z
-1.1264681816101074,2.300635814666748,-0.21130616962909698
-1.0917450189590454,2.269530773162842,-0.2116365134716034
-1.0470935106277466,2.2171616554260254,-0.2097681760787964
-1.0047987699508667,2.1678571701049805,-0.20803162455558777
-0.9779810309410095,2.149857997894287,-0.20916162431240082
-0.9533546566963196,2.135016918182373,-0.21049310266971588
-0.9285502433776855,2.1201376914978027,-0.21166804432868958
-0.8932458162307739,2.0800065994262695,-0.210243821144104
-0.8756160140037537,2.078737258911133,-0.21261519193649292
-0.8429811000823975,2.0414676666259766,-0.2112922966480255
-0.815199613571167,2.0147175788879395,-0.21081750094890594
-0.7777917981147766,1.9623953104019165,-0.20756639540195465
-0.7639554738998413,1.9675331115722656,-0.2102947235107422
-0.7446311116218567,1.9580134153366089,-0.21143928170204163
-0.7276865839958191,1.9557961225509644,-0.21329690515995026
-0.6937153935432434,1.9059127569198608,-0.20983591675758362
-0.6750413179397583,1.8958476781845093,-0.21066643297672272
-0.6553792953491211,1.8819100856781006,-0.21102692186832428
-0.6195393800735474,1.820048213005066,-0.20586392283439636
-0.6259072422981262,1.8832119703292847,-0.2148091197013855
-0.598182737827301,1.8430166244506836,-0.21194474399089813
-0.5782482028007507,1.8246972560882568,-0.2115241438150406
-0.562015175819397,1.8173315525054932,-0.2123216688632965
-0.544607937335968,1.8061825037002563,-0.21253646910190582
-0.5274012684822083,1.7948766946792603,-0.21271686255931854
-0.51034015417099,1.7834315299987793,-0.21287131309509277
-0.48952385783195496,1.7568275928497314,-0.21116285026073456
-0.47201991081237793,1.741310715675354,-0.21063144505023956
-0.45373138785362244,1.7219016551971436,-0.20957022905349731
-0.441608726978302,1.724850058555603,-0.21121370792388916
-0.43121424317359924,1.735268473625183,-0.21380120515823364
-0.40996843576431274,1.7003462314605713,-0.21071751415729523
-0.3997274935245514,1.7105705738067627,-0.2130892425775528
-0.3876371383666992,1.713171362876892,-0.21452799439430237
-0.3740222156047821,1.7080800533294678,-0.21499526500701904
-0.35146573185920715,1.6612035036087036,-0.21019521355628967
-0.341341495513916,1.6710683107376099,-0.2124103307723999
-0.331064373254776,1.6808823347091675,-0.2145908921957016
-0.3192756772041321,1.6830066442489624,-0.21580027043819427
-0.3047717213630676,1.6697845458984375,-0.21503736078739166
-0.2889306843280792,1.6488465070724487,-0.21326088905334473
-0.2773614525794983,1.65070378780365,-0.21425248682498932
-0.26579368114471436,1.6524770259857178,-0.21524281799793243
-0.2530645430088043,1.6465067863464355,-0.21522973477840424
-0.2438158392906189,1.6634353399276733,-0.2182231843471527
-0.22769084572792053,1.6343178749084473,-0.21509471535682678
-0.21723134815692902,1.6434528827667236,-0.21688492596149445
-0.2037845253944397,1.6294598579406738,-0.21563009917736053
-0.18926234543323517,1.6038146018981934,-0.21282416582107544
-0.1793779879808426,1.616539478302002,-0.21511466801166534
-0.1680959314107895,1.6176708936691284,-0.21571950614452362
-0.15621061623096466,1.6148946285247803,-0.21578213572502136
-0.14356087148189545,1.6004433631896973,-0.21428166329860687
-0.13307420909404755,1.6090446710586548,-0.21587450802326202
-0.12013307958841324,1.5866948366165161,-0.21330074965953827
-0.11013257503509521,1.602895736694336,-0.21573352813720703
-0.09780789166688919,1.5881315469741821,-0.21401387453079224
-0.0875944271683693,1.604188323020935,-0.21645313501358032
-0.07680709660053253,1.6124441623687744,-0.21785399317741394
-0.06463009119033813,1.589694857597351,-0.21499614417552948
-0.05407744646072388,1.6055611371994019,-0.2172417789697647
-0.041652701795101166,1.5671874284744263,-0.2121594101190567
-0.031066160649061203,1.582899570465088,-0.21440543234348297
-0.020151996985077858,1.590798020362854,-0.21560539305210114
-0.009183637797832489,1.6063798666000366,-0.21772517263889313
0.0019867459777742624,1.5986700057983398,-0.21662646532058716
0.013426654040813446,1.6141058206558228,-0.21867379546165466
0.024528423324227333,1.6062391996383667,-0.21757540106773376
0.0353626124560833,1.5905565023422241,-0.21542911231517792
0.046413350850343704,1.5903043746948242,-0.21519240736961365
0.05690257251262665,1.5745036602020264,-0.21284601092338562
0.06817460805177689,1.5818394422531128,-0.21363863348960876
0.07898513227701187,1.5736192464828491,-0.21233709156513214
0.09036847203969955,1.5808005332946777,-0.21309293806552887
0.10132820159196854,1.5801959037780762,-0.21264788508415222
0.11394429206848145,1.6026856899261475,-0.21531528234481812
0.12449279427528381,1.5941944122314453,-0.21382656693458557
0.1344672292470932,1.5779023170471191,-0.21130098402500153
0.14828702807426453,1.6078461408615112,-0.21488913893699646
0.1579064577817917,1.5914525985717773,-0.21218128502368927
0.1714095175266266,1.6135088205337524,-0.21460700035095215
0.1808944195508957,1.5969715118408203,-0.21190614998340607
0.1922048032283783,1.5957378149032593,-0.2112424522638321
0.2052166610956192,1.6098406314849854,-0.2124786376953125
0.21894843876361847,1.6276867389678955,-0.2141524851322174
0.23023563623428345,1.6262420415878296,-0.21328970789909363
0.24383193254470825,1.6400405168533325,-0.21442784368991852
0.25425025820732117,1.6307331323623657,-0.21253269910812378
0.26802054047584534,1.6443686485290527,-0.21346446871757507
0.2780929207801819,1.6349724531173706,-0.21141260862350464
0.2962164580821991,1.6712943315505981,-0.2152632474899292
0.3064514100551605,1.6617072820663452,-0.21319371461868286
0.31799212098121643,1.6596845388412476,-0.21204470098018646
0.33419615030288696,1.6803808212280273,-0.21366213262081146
0.34582021832466125,1.6781895160675049,-0.21238230168819427
0.35912853479385376,1.6834840774536133,-0.21204856038093567
0.3591761291027069,1.6280916929244995,-0.204106867313385
0.3738936185836792,1.6408594846725464,-0.20461663603782654
0.3907473087310791,1.661022663116455,-0.2059662789106369
0.40408435463905334,1.6659921407699585,-0.20543670654296875
0.4100647270679474,1.6407326459884644,-0.2011919617652893
0.4340594708919525,1.6868549585342407,-0.20566943287849426
0.44568493962287903,1.6840213537216187,-0.20401974022388458
0.4676797688007355,1.7184953689575195,-0.20684805512428284
0.4859164357185364,1.7378220558166504,-0.20782552659511566
0.5055432915687561,1.7607033252716064,-0.20919747650623322
0.5243052840232849,1.7797188758850098,-0.20998504757881165
0.5365488529205322,1.7762932777404785,-0.2080547958612442
0.5605316758155823,1.8097869157791138,-0.21039199829101562
0.5755152106285095,1.813459038734436,-0.20924599468708038
0.5989606976509094,1.8428699970245361,-0.21102216839790344
0.6116155385971069,1.8389579057693481,-0.20883962512016296
0.6342376470565796,1.8643794059753418,-0.20997242629528046
0.652361273765564,1.8748294115066528,-0.2093561589717865
0.6696175932884216,1.881370186805725,-0.20825372636318207
0.6905502080917358,1.8988784551620483,-0.20827355980873108
0.7170995473861694,1.9307900667190552,-0.2097899168729782
0.7401154041290283,1.951482892036438,-0.21001383662223816
0.7593733072280884,1.9610289335250854,-0.2089870572090149
0.7931817770004272,2.006528854370117,-0.21164408326148987
0.8170387744903564,2.026599645614624,-0.21151651442050934
0.8487026691436768,2.0643820762634277,-0.21315442025661469
0.8751693367958069,2.087381601333618,-0.21315346658229828
0.8896986842155457,2.0815348625183105,-0.21015796065330505
0.9211995601654053,2.1148593425750732,-0.2109479159116745
0.9419442415237427,2.1230499744415283,-0.20921292901039124
0.9808350801467896,2.1698997020721436,-0.21115094423294067
1.0122220516204834,2.1986751556396484,-0.2112232744693756
1.055174708366394,2.2520053386688232,-0.21345509588718414
1.090833306312561,2.2871530055999756,-0.2137821614742279
1.118748426437378,2.3043079376220703,-0.2123074233531952
1.1347967386245728,2.29679274559021,-0.20852933824062347
1.1852693557739258,2.3589987754821777,-0.21091105043888092
1.2313803434371948,2.410203695297241,-0.2121271789073944
1.25182044506073,2.4088003635406494,-0.20852522552013397
1.2815029621124268,2.4243967533111572,-0.2062801718711853
1.3309414386749268,2.4778714179992676,-0.2071468085050583
1.3683581352233887,2.5067191123962402,-0.2057553082704544
1.3064870834350586,2.354344606399536,-0.18956217169761658
1.3148987293243408,2.3321306705474854,-0.1840730756521225
1.3423656225204468,2.34376859664917,-0.18116585910320282
1.399725317955017,2.4055230617523193,-0.18192458152770996
1.4363734722137451,2.4295802116394043,-0.17961552739143372
1.444450855255127,2.4069721698760986,-0.1737910658121109
1.460621953010559,2.3975436687469482,-0.1688913106918335
1.4879381656646729,2.4040112495422363,-0.16483835875988007
1.5372978448867798,2.4471170902252197,-0.1632324457168579
1.545009732246399,2.424119234085083,-0.15713928639888763
1.6022272109985352,2.4758095741271973,-0.15550485253334045
1.394164800643921,2.122816562652588,-0.12901544570922852
1.408262848854065,2.1137874126434326,-0.12405533343553543
1.4273489713668823,2.1106746196746826,-0.11921882629394531
1.4437669515609741,2.1045024394989014,-0.11417025327682495
1.4507174491882324,2.0857489109039307,-0.10844261944293976
1.456297516822815,2.063060760498047,-0.10219172388315201
1.43368399143219,2.0027828216552734,-0.09416067600250244
1.4515098333358765,1.9998139142990112,-0.08884367346763611
1.465192198753357,1.9900665283203125,-0.08292461931705475
2.201808452606201,3.1084423065185547,0.23363442718982697
2.1838419437408447,3.129979133605957,0.24230562150478363
2.1547493934631348,3.1399879455566406,0.2499740868806839
2.136059522628784,3.161531925201416,0.25810137391090393
2.128166675567627,3.1990609169006348,0.2673003077507019
2.0180044174194336,3.0844085216522217,0.26347267627716064
1.9303234815597534,2.996779680252075,0.26115351915359497
1.6377280950546265,2.582265853881836,0.2293388843536377
1.6257596015930176,2.6077184677124023,0.2358514666557312
1.569794774055481,2.5594482421875,0.2354128658771515
3.0149970054626465,4.993289470672607,0.46651601791381836
2.9820868968963623,5.0212249755859375,0.4761667549610138
2.9635753631591797,5.076444625854492,0.48836299777030945
2.938204050064087,5.117280960083008,0.49899545311927795
2.9155900478363037,5.160689830780029,0.509730875492096
2.895974636077881,5.215457439422607,0.5213889479637146
2.8641438484191895,5.249910831451416,0.5310384631156921
2.83782696723938,5.289892196655273,0.5409719347953796
2.8017706871032715,5.312664031982422,0.5492364168167114
2.7250301837921143,5.259824752807617,0.5492359399795532
2.6962718963623047,5.3000407218933105,0.5588477849960327
2.7381579875946045,5.478494167327881,0.5830322504043579
2.732226848602295,5.563108444213867,0.5973612666130066
1.2225031852722168,2.5354204177856445,0.27462852001190186
1.2053550481796265,2.547574996948242,0.2781766355037689
1.185010313987732,2.552474021911621,0.2809250056743622
1.1687109470367432,2.5639195442199707,0.2843102812767029
1.1570911407470703,2.585890531539917,0.28888875246047974
1.1476103067398071,2.615269899368286,0.29416656494140625
2.5491931438446045,5.928630828857422,0.6713728308677673
2.524526834487915,5.989077568054199,0.6826260685920715
2.4943976402282715,6.034616947174072,0.6921437382698059
2.4681811332702637,6.090793132781982,0.7029588222503662
2.4322750568389893,6.129617691040039,0.7113536596298218
2.4077062606811523,6.201142311096191,0.7236746549606323
2.376965284347534,6.253866672515869,0.7337552309036255
2.3331398963928223,6.269676685333252,0.7394691705703735
2.291865348815918,6.292471885681152,0.7460476160049438
2.290574550628662,6.432587623596191,0.7661697864532471
2.258291721343994,6.492677688598633,0.7768822908401489
2.2252962589263916,6.54852819442749,0.7870784401893616
2.196531057357788,6.614876747131348,0.7985321283340454
2.1610209941864014,6.662651538848877,0.807822585105896
2.109928607940674,6.666193962097168,0.8114538192749023
2.040315628051758,6.614191055297852,0.8081274628639221
1.9846351146697998,6.6021833419799805,0.809640645980835
1.925260305404663,6.570690155029297,0.8086806535720825
1.8654868602752686,6.534931182861328,0.8071858882904053
1.8031270503997803,6.487479209899902,0.8041761517524719
1.751495599746704,6.481042385101318,0.8057286739349365
1.6883745193481445,6.433150768280029,0.8021835684776306
0.8274874091148376,3.2466928958892822,0.40604931116104126
1.579870343208313,6.383842468261719,0.8007433414459229
0.8047875165939331,3.3516950607299805,0.4216599464416504
1.4718351364135742,6.3251519203186035,0.7978672385215759
1.4114292860031128,6.270969867706299,0.7928850054740906
1.3650184869766235,6.272913932800293,0.7949873805046082
1.306470274925232,6.213702201843262,0.7893322706222534
1.2607697248458862,6.2108941078186035,0.7908409833908081
1.2114490270614624,6.188733100891113,0.789911150932312
1.1476484537124634,6.09409236907959,0.7793841361999512
1.1139580011367798,6.155189514160156,0.788559079170227
1.0661952495574951,6.13974142074585,0.787973940372467
1.0168042182922363,6.108535289764404,0.7853710055351257
0.9675476551055908,6.073078155517578,0.7822325229644775
0.9221535921096802,6.064162254333496,0.7825636863708496
0.8728123307228088,6.024240016937256,0.7784925103187561
0.8233689665794373,5.980136394500732,0.7737370133399963
0.7760963439941406,5.9471659660339355,0.7704464793205261
0.6429382562637329,5.210123538970947,0.6758407354354858
0.5825012922286987,5.006480693817139,0.6502939462661743
0.560897946357727,5.13738489151001,0.6682369112968445
0.5276596546173096,5.168020725250244,0.6728507280349731
0.39240384101867676,4.1302409172058105,0.5381307005882263
0.362013041973114,4.117362976074219,0.5368714332580566
0.3385576009750366,4.185330867767334,0.5461829304695129
0.30777502059936523,4.1720709800720215,0.5449328422546387
0.27820414304733276,4.166285037994385,0.5446749329566956
0.2509916424751282,4.198984622955322,0.5492588877677917
0.4094926118850708,7.762972354888916,1.0157368183135986
0.3548470437526703,7.7578206062316895,1.0153926610946655
0.297961950302124,7.713611125946045,1.0099899768829346
0.24373941123485565,7.696052074432373,1.0081145763397217
0.18987102806568146,7.681986331939697,1.006743311882019
0.1353464126586914,7.621109485626221,0.9990115761756897
0.08207469433546066,7.610257625579834,0.9974274039268494
0.028096327558159828,7.5874176025390625,0.9943199157714844
-0.02465488575398922,7.5641984939575195,0.9912136197090149
-0.07691838592290878,7.540615558624268,0.9881079792976379
-0.1287376880645752,7.5050530433654785,0.9834802150726318
-0.1800576001405716,7.473026752471924,0.9792385697364807
-0.23115812242031097,7.448472023010254,0.9754241108894348
-0.2839870750904083,7.454499244689941,0.975653886795044
-0.3366439640522003,7.475671768188477,0.9779210686683655
-0.28061968088150024,5.396057605743408,0.7055473923683167
-0.3190654516220093,5.409515380859375,0.7070086598396301
-0.35612398386001587,5.399511814117432,0.7054377794265747
-0.39295694231987,5.381559371948242,0.7023601531982422
-0.4289165139198303,5.363405704498291,0.6992934942245483
-0.46223852038383484,5.318002700805664,0.6927155256271362
-0.4350486993789673,4.632129669189453,0.6028262376785278
-0.4657060503959656,4.613692283630371,0.5999080538749695
-0.4975024461746216,4.602699279785156,0.5979814529418945
-0.5269639492034912,4.58008337020874,0.594239354133606
-0.5565946102142334,4.5611348152160645,0.5909317135810852
-0.5859413743019104,4.542001724243164,0.5876347422599792
-0.6163837909698486,4.530320167541504,0.5853266716003418
-0.6473634839057922,4.5183424949646,0.5829949378967285
-0.6753258109092712,4.490907669067383,0.5787165760993958
-0.7062259316444397,4.486358165740967,0.5771165490150452
-0.735072910785675,4.4701619148254395,0.5739232301712036
-0.7631226181983948,4.449951648712158,0.5702463984489441
-0.7911145687103271,4.429534912109375,0.5665709972381592
-0.8167644143104553,4.3935675621032715,0.5609199404716492
-0.8363000154495239,4.3309102058410645,0.5519261956214905
-0.7328174114227295,3.6601779460906982,0.4654083549976349
-0.7593196034431458,3.662911891937256,0.46462470293045044
-0.9297429919242859,4.336380481719971,0.5487338900566101
-0.96272873878479,4.341361045837402,0.5480265617370605
-0.9920555949211121,4.331044673919678,0.5454261302947998
-1.0203933715820312,4.316755294799805,0.5423551797866821
-1.0461857318878174,4.2949137687683105,0.538083553314209
-1.073472023010254,4.280489444732666,0.534668505191803
-1.1011226177215576,4.265763759613037,0.5312183499336243
-1.1306113004684448,4.258356094360352,0.52870774269104
-1.1561346054077148,4.235730171203613,0.5243296027183533
-1.181355357170105,4.2129645347595215,0.5199727416038513
-1.2045321464538574,4.186563968658447,0.5148683190345764
-1.238813042640686,4.1971306800842285,0.5142748951911926
-1.2671867609024048,4.188998222351074,0.5114378333091736
-1.2940635681152344,4.173006057739258,0.5076132416725159
-1.3195624351501465,4.153154373168945,0.5033546090126038
-1.3458399772644043,4.1369147300720215,0.49946969747543335
-1.374237298965454,4.127963542938232,0.49619561433792114
-1.404531717300415,4.126340866088867,0.49386364221572876
-1.4276775121688843,4.102344512939453,0.48884469270706177
-1.4510594606399536,4.0780487060546875,0.48379072546958923
-1.4795173406600952,4.068203449249268,0.4804794192314148
-1.4989184141159058,4.036670207977295,0.47437411546707153
-1.5292221307754517,4.034022808074951,0.4715784788131714
-1.5591559410095215,4.031296730041504,0.46882277727127075
-1.5844401121139526,4.013510704040527,0.46424609422683716
-1.6066843271255493,3.988344669342041,0.45884865522384644
-1.6309798955917358,3.9705142974853516,0.4541819393634796
-1.658015489578247,3.959761619567871,0.45015209913253784
-1.6753512620925903,3.927574872970581,0.4437710642814636
-1.7087699174880981,3.93056583404541,0.44129109382629395
-1.73929762840271,3.9261162281036377,0.4379676580429077
-1.7628660202026367,3.907534599304199,0.43296340107917786
-1.7811543941497803,3.878345251083374,0.4265950620174408
-1.8035848140716553,3.8598601818084717,0.42150071263313293
-1.8171314001083374,3.8195817470550537,0.41391846537590027
-1.8506011962890625,3.8212547302246094,0.4109068512916565
-1.8730685710906982,3.802123785018921,0.4055066704750061
-1.884764552116394,3.7620856761932373,0.3977503776550293
-1.9241007566452026,3.777573823928833,0.3959033191204071
-1.9434140920639038,3.7506818771362305,0.3894619643688202
-1.9805792570114136,3.7581117153167725,0.38659706711769104
-1.9943598508834839,3.724888801574707,0.37932270765304565
-2.011469602584839,3.6984918117523193,0.3727988004684448
-1.7135196924209595,3.099065065383911,0.3089493215084076
-1.7351504564285278,3.0874598026275635,0.3043805658817291
-0.8335157036781311,1.4603633880615234,0.1422894299030304
-0.8469412922859192,1.4618395566940308,0.1407136768102646
-0.8647527098655701,1.4696950912475586,0.13966460525989532
-0.8712485432624817,1.457020878791809,0.13656793534755707
-0.876984715461731,1.4446996450424194,0.13351112604141235
-0.8945448994636536,1.4524462223052979,0.13227419555187225
-0.8961794972419739,1.433329701423645,0.12850321829319
-0.9020318388938904,1.4206677675247192,0.1252901256084442
-0.9072640538215637,1.4083077907562256,0.12202911078929901
-0.9035267233848572,1.3830924034118652,0.1177244558930397
-0.8981527090072632,1.3542125225067139,0.11298555135726929
-0.972665548324585,1.4452736377716064,0.11810696125030518
-2.407522439956665,3.5289247035980225,0.28218647837638855
-1.298041820526123,1.874995470046997,0.14634938538074493
-1.3625048398971558,1.9396955966949463,0.1476026475429535
-1.4711085557937622,2.0720627307891846,-0.09531650692224503
-1.2539724111557007,1.7950509786605835,-0.08721395581960678
-1.2410937547683716,1.8037446737289429,-0.09193883091211319
-1.2888389825820923,1.9032038450241089,-0.10150790959596634
-1.3956917524337769,2.09440279006958,-0.11644468456506729
-1.2511217594146729,1.9367254972457886,-0.11573132872581482
-1.7716461420059204,2.9254636764526367,-0.19725070893764496
-0.8461965918540955,1.49191153049469,-0.11069200932979584
-1.519242525100708,2.7230417728424072,-0.20633119344711304
-1.4635745286941528,2.668825626373291,-0.2063622921705246
-1.4259285926818848,2.644564390182495,-0.20846131443977356
-1.372361660003662,2.588879108428955,-0.20792751014232635
-1.3086092472076416,2.511988401412964,-0.2053511142730713
-1.2973166704177856,2.5349996089935303,-0.21082861721515656
-1.2426950931549072,2.4706380367279053,-0.20883674919605255
-1.1959919929504395,2.4195964336395264,-0.20778638124465942
-1.1712669134140015,2.4140191078186035,-0.21050678193569183
-1.1286495923995972,2.3693645000457764,-0.2096756547689438
-1.095484972000122,2.341642141342163,-0.21015118062496185
-1.0659316778182983,2.320692539215088,-0.21114329993724823
-1.0250781774520874,2.2748162746429443,-0.209694504737854
-0.999235212802887,2.260467052459717,-0.21105258166790009
-0.9536998867988586,2.19937801361084,-0.20792366564273834
-0.924490213394165,2.173513174057007,-0.20795030891895294
-0.899855375289917,2.158271312713623,-0.2088402360677719
-0.8784765601158142,2.149975299835205,-0.21036683022975922
-0.8489298820495605,2.1196868419647217,-0.20964598655700684
-0.8181375861167908,2.085587739944458,-0.20850679278373718
-0.8003629446029663,2.083878993988037,-0.2104099541902542
-0.7716924548149109,2.052908420562744,-0.20932810008525848
-0.7506011128425598,2.0397534370422363,-0.20996598899364471
-0.7337131500244141,2.037369728088379,-0.2116938680410385
-0.7034638524055481,1.9983729124069214,-0.2094915211200714
-0.6790693402290344,1.9736968278884888,-0.20868077874183655
-0.6614351868629456,1.9671422243118286,-0.2097373753786087
-0.6403781771659851,1.9493345022201538,-0.20956361293792725
-0.6218484044075012,1.9387816190719604,-0.21006619930267334
-0.5984846353530884,1.9133551120758057,-0.20888423919677734
-0.5792622566223145,1.8987473249435425,-0.20881584286689758
-0.5593451857566833,1.8801939487457275,-0.20827090740203857
-0.5483607053756714,1.8913061618804932,-0.21099239587783813
-0.5243804454803467,1.8575751781463623,-0.20856137573719025
-0.5111917853355408,1.8610529899597168,-0.210291787981987
-0.4919387400150299,1.8419350385665894,-0.20946620404720306
-0.4810347855091095,1.852644681930542,-0.21200679242610931
-0.4575594365596771,1.8143906593322754,-0.20882730185985565
-0.44474557042121887,1.8174028396606445,-0.21031291782855988
-0.4283563494682312,1.8052102327346802,-0.21003736555576324
-0.4103069007396698,1.785339593887329,-0.20886540412902832
-0.39613884687423706,1.7804183959960938,-0.20940569043159485
-0.38356080651283264,1.7830214500427246,-0.2106715589761734
-0.3654405176639557,1.7589415311813354,-0.20878081023693085
-0.3500801622867584,1.7460906505584717,-0.20820176601409912
-0.3376913368701935,1.7483805418014526,-0.20944339036941528
-0.32263100147247314,1.7353049516677856,-0.20875076949596405
-0.3104233741760254,1.7374054193496704,-0.20978547632694244
-0.29426974058151245,1.7164822816848755,-0.20804010331630707
-0.28356680274009705,1.726021409034729,-0.20998269319534302
-0.26771894097328186,1.7048745155334473,-0.20820915699005127
-0.2592262327671051,1.729611873626709,-0.21188952028751373
-0.2438056319952011,1.7082525491714478,-0.20988920331001282
-0.231851264834404,1.7098156213760376,-0.21070583164691925
-0.2184605747461319,1.6997512578964233,-0.21009260416030884
-0.20663496851921082,1.7011305093765259,-0.21089044213294983
-0.19451427459716797,1.7024813890457153,-0.21151670813560486
-0.18259665369987488,1.7037242650985718,-0.21213200688362122
-0.16995517909526825,1.6971638202667236,-0.21178171038627625
-0.15816086530685425,1.6982276439666748,-0.21238982677459717
-0.1463305652141571,1.6992191076278687,-0.21293964982032776
-0.13182003796100616,1.669250249862671,-0.2094835638999939
-0.12017270177602768,1.670077919960022,-0.20989178121089935
-0.11057235300540924,1.7017627954483032,-0.2141929566860199
-0.09784429520368576,1.68696129322052,-0.21265624463558197
-0.08649708330631256,1.695304036140442,-0.21393823623657227
-0.0744720920920372,1.6958469152450562,-0.21415935456752777
-0.0623699314892292,1.6885515451431274,-0.21339766681194305
-0.05037304759025574,1.6811704635620117,-0.21263402700424194
-0.03831778094172478,1.665955662727356,-0.21088725328445435
-0.026828158646821976,1.673924446105957,-0.21192869544029236
-0.015030397102236748,1.6818209886550903,-0.2129245400428772
-0.0033030607737600803,1.6741323471069336,-0.2119576632976532
0.0083411680534482,1.6741130352020264,-0.21197204291820526
0.020063448697328568,1.681762933731079,-0.21296776831150055
0.03161279112100601,1.6738560199737549,-0.21180807054042816
0.0438399463891983,1.6968636512756348,-0.2145669162273407
0.055328771471977234,1.6810412406921387,-0.21242286264896393
0.06669626384973526,1.6728943586349487,-0.2112635374069214
0.07722316682338715,1.6491905450820923,-0.208112895488739
0.09116487950086594,1.6951029300689697,-0.21359343826770782
0.10150366276502609,1.6712661981582642,-0.21029135584831238
0.11438702791929245,1.6860218048095703,-0.21185065805912018
0.1249578595161438,1.6697722673416138,-0.2095295637845993
0.13783685863018036,1.6843727827072144,-0.21100755035877228
0.1509050875902176,1.6988909244537354,-0.21236515045166016
0.16048377752304077,1.6747210025787354,-0.2088988572359085
0.17389631271362305,1.6890431642532349,-0.21023888885974884
0.1864873766899109,1.695571780204773,-0.21061985194683075
0.20047669112682343,1.7135804891586304,-0.21230247616767883
0.21088674664497375,1.7007067203521729,-0.21009913086891174
0.22266758978366852,1.699299931526184,-0.2093251496553421
0.23259571194648743,1.6824101209640503,-0.20664548873901367
0.2476668357849121,1.7038675546646118,-0.20869402587413788
0.2594722509384155,1.7022247314453125,-0.2077534794807434
0.27431443333625793,1.719652533531189,-0.20912550389766693
0.28497618436813354,1.7101719379425049,-0.2072284072637558
0.28824177384376526,1.6585825681686401,-0.20026184618473053
0.3054980933666229,1.6871579885482788,-0.20294594764709473
0.3221637010574341,1.7118316888809204,-0.20501108467578888
0.33100226521492004,1.694472312927246,-0.20204588770866394
0.344320148229599,1.6998714208602905,-0.2018018513917923
0.35458341240882874,1.689968466758728,-0.19974784553050995
0.379680871963501,1.7482478618621826,-0.20563307404518127
0.39173775911331177,1.745745062828064,-0.20427538454532623
0.4073098301887512,1.758277177810669,-0.2046750783920288
0.4276851713657379,1.7895325422286987,-0.20722565054893494
0.44201549887657166,1.7942073345184326,-0.20668303966522217
0.4603338837623596,1.8138188123703003,-0.20769374072551727
0.4747827649116516,1.8182992935180664,-0.20695948600769043
0.49445173144340515,1.841391921043396,-0.20832028985023499
0.511423647403717,1.8530555963516235,-0.20836399495601654
0.5285444855690002,1.8645883798599243,-0.208337664604187
0.5415754318237305,1.861051321029663,-0.20648901164531708
0.5565997958183289,1.8649240732192993,-0.20548957586288452
0.5809893012046814,1.8983420133590698,-0.20769980549812317
0.5965688228607178,1.9018561840057373,-0.20661376416683197
0.6132348775863647,1.9090125560760498,-0.2058095932006836
0.6338492035865784,1.9270535707473755,-0.20609624683856964
0.6546244621276855,1.9449399709701538,-0.206353098154068
0.6846722960472107,1.9883151054382324,-0.20924773812294006
0.6984662413597107,1.983744740486145,-0.20702488720417023
0.7199469804763794,2.0010998249053955,-0.20698517560958862
0.7497599124908447,2.0401480197906494,-0.20913611352443695
0.7765588760375977,2.067779779434204,-0.20998628437519073
0.7937695384025574,2.069817543029785,-0.20824526250362396
0.819220244884491,2.0935866832733154,-0.20854361355304718
0.8464582562446594,2.1207268238067627,-0.209120512008667
0.8729214668273926,2.1438822746276855,-0.20921078324317932
0.903099536895752,2.1738150119781494,-0.20985184609889984
0.922538161277771,2.178598165512085,-0.20798659324645996
0.952764093875885,2.208279848098755,-0.20841926336288452
0.9883588552474976,2.2482492923736572,-0.20970702171325684
1.0199724435806274,2.2770962715148926,-0.20984525978565216
1.0391329526901245,2.2772793769836426,-0.2071990966796875
1.0791462659835815,2.323446750640869,-0.20867539942264557
1.1117560863494873,2.3514702320098877,-0.20838557183742523
1.1535096168518066,2.3965799808502197,-0.20946826040744781
1.154548168182373,2.357426881790161,-0.203122079372406
1.1863421201705933,2.3811349868774414,-0.2021046131849289
1.257285237312317,2.480947494506836,-0.20737063884735107
1.3014190196990967,2.5243475437164307,-0.20766350626945496
1.3530304431915283,2.581285238265991,-0.20887312293052673
1.3850153684616089,2.599979877471924,-0.2068442553281784
1.3639817237854004,2.5187275409698486,-0.19683849811553955
1.353689193725586,2.4580769538879395,-0.18851935863494873
1.3340305089950562,2.3846089839935303,-0.1794057935476303
1.386536717414856,2.4403419494628906,-0.1800096482038498
1.417232871055603,2.4545352458953857,-0.17725735902786255
1.4301986694335938,2.438288927078247,-0.17227762937545776
1.4506233930587769,2.4355955123901367,-0.16816411912441254
1.4530794620513916,2.402600049972534,-0.16195282340049744
1.4800755977630615,2.4092962741851807,-0.1583305150270462
1.5249519348144531,2.4460489749908447,-0.15656006336212158
1.5245296955108643,2.40977144241333,-0.15003931522369385
1.526877760887146,2.376203775405884,-0.1434955894947052
1.382932424545288,2.1211090087890625,-0.12414652109146118
1.407572865486145,2.1285276412963867,-0.1205698698759079
1.4267915487289429,2.1253697872161865,-0.11608215421438217
1.4365512132644653,2.1096084117889404,-0.11091198027133942
1.4439244270324707,2.090609073638916,-0.10547590255737305
1.449578046798706,2.067910671234131,-0.0996764674782753
1.4539763927459717,2.0459353923797607,-0.09397917985916138
1.4401869773864746,1.9984344244003296,-0.08704255521297455
1.4515008926391602,1.9856280088424683,-0.08148860931396484
1.4709478616714478,1.9860749244689941,-0.07646839320659637
2.2231547832489014,3.114027500152588,0.21184435486793518
2.191746711730957,3.1166186332702637,0.21884073317050934
2.171685218811035,3.1395599842071533,0.22714775800704956
2.149120807647705,3.1545231342315674,0.23433323204517365
2.1302490234375,3.1761608123779297,0.24187801778316498
2.195614814758301,3.3287627696990967,0.25957202911376953
1.9996232986450195,3.079195499420166,0.24527771770954132
1.6478091478347778,2.5775375366210938,0.20945902168750763
1.628052830696106,2.5896506309509277,0.21447661519050598
1.5887455940246582,2.567849636077881,0.21643809974193573
3.0339086055755615,4.980789661407471,0.4268660545349121
2.9956281185150146,5.003145217895508,0.43569934368133545
2.9638004302978516,5.034876346588135,0.445175439119339
2.9440560340881348,5.08177375793457,0.455599844455719
2.923281192779541,5.1289191246032715,0.46606868505477905
2.894195795059204,5.166994094848633,0.4755111634731293
2.877800703048706,5.22880220413208,0.48723724484443665
2.7947838306427,5.1625447273254395,0.48659804463386536
2.650155782699585,4.978841781616211,0.4745311737060547
2.5985262393951416,4.970223426818848,0.47867390513420105
2.5616977214813232,4.988656997680664,0.4853799343109131
2.552225112915039,5.058340072631836,0.4969886243343353
2.547739267349243,5.1382575035095215,0.5096476674079895
1.2445553541183472,2.5572097301483154,0.2558564245700836
1.2154579162597656,2.5450146198272705,0.2568340599536896
1.1956926584243774,2.549767017364502,0.2594181299209595
1.1826978921890259,2.5683767795562744,0.26339930295944214
1.159123182296753,2.5660080909729004,0.26519206166267395
1.1543951034545898,2.606178045272827,0.2712714970111847
2.5680010318756104,5.913290977478027,0.6198565363883972
2.5296287536621094,5.9376325607299805,0.6265971660614014
2.510575532913208,6.008329391479492,0.6382983922958374
2.4811573028564453,6.061935901641846,0.6480230093002319
2.452709913253784,6.118977069854736,0.657988965511322
2.4226365089416504,6.172106742858887,0.6675739288330078
2.3947625160217285,6.228199005126953,0.6774352788925171
2.359373092651367,6.266005516052246,0.6853783130645752
1.9831562042236328,5.385534286499023,0.5921156406402588
2.300635814666748,6.38999080657959,0.7059661149978638
2.273714542388916,6.4608564376831055,0.717250645160675
2.2437336444854736,6.520087718963623,0.7272117137908936
2.2117350101470947,6.575540065765381,0.7368353605270386
2.1811368465423584,6.642455577850342,0.7475997805595398
2.139002799987793,6.6760101318359375,0.7543666362762451
2.0780279636383057,6.649967670440674,0.7544245719909668
2.0176806449890137,6.619311332702637,0.7538787126541138
1.9548008441925049,6.576902389526367,0.7519708871841431
1.9000234603881836,6.5601019859313965,0.752927839756012
1.8382779359817505,6.5247931480407715,0.751318633556366
1.773880958557129,6.473740100860596,0.7478510737419128
1.7198156118392944,6.455739498138428,0.7481783628463745
1.663094162940979,6.422046661376953,0.7466492056846619
0.8228747844696045,3.271108627319336,0.38153451681137085
1.5582220554351807,6.387554168701172,0.7471761107444763
0.7902055978775024,3.342602014541626,0.39198535680770874
1.4357008934020996,6.272226333618164,0.7374250292778015
1.3899472951889038,6.274220943450928,0.7395453453063965
1.3413023948669434,6.260638236999512,0.73984295129776
1.2921549081802368,6.246836185455322,0.7401705384254456
1.2425987720489502,6.228889465332031,0.7395346164703369
1.1894887685775757,6.19155740737915,0.7365266680717468
1.1306920051574707,6.119442939758301,0.7293868064880371
1.0892670154571533,6.134553909301758,0.732639491558075
1.0307090282440186,6.053889274597168,0.724494218826294
0.9847701191902161,6.037674427032471,0.7240419983863831
0.9468256235122681,6.074934482574463,0.7295226454734802
0.891786515712738,6.000702381134033,0.7216305732727051
0.84171062707901,5.952880382537842,0.7169259786605835
0.7995157837867737,5.958481788635254,0.7186835408210754
0.7618843913078308,5.994481086730957,0.7241306304931641
0.6147617101669312,5.121463775634766,0.6196361780166626
0.5716859698295593,5.063882827758789,0.6132112145423889
0.5470473170280457,5.171786308288574,0.6268603801727295
0.4032108783721924,4.087049961090088,0.49586692452430725
0.37430793046951294,4.089697360992432,0.49669894576072693
0.3540305197238922,4.188704967498779,0.509262204170227
0.32430151104927063,4.183230400085449,0.5091586112976074
0.2933744192123413,4.162130832672119,0.5068132877349854
0.2647152841091156,4.17176628112793,0.5082201361656189
0.23801468312740326,4.227691173553467,0.5152999758720398
0.3837491273880005,7.780621528625488,0.9488808512687683
0.32803723216056824,7.7442545890808105,0.945013165473938
0.27339813113212585,7.722991943359375,0.9430295825004578
0.21914160251617432,7.709171295166016,0.9414229393005371
0.1629999876022339,7.644607067108154,0.9335651993751526
0.10931797325611115,7.618395805358887,0.9304359555244446
0.05625823512673378,7.603439807891846,0.9287256002426147
0.003408152377232909,7.580359935760498,0.9260671138763428
-0.049168847501277924,7.564669609069824,0.9243550896644592
-0.10217436403036118,7.53315544128418,0.9202475547790527
-0.1536012440919876,7.489684104919434,0.914527177810669
-0.2053070068359375,7.480749607086182,0.9130712151527405
-0.25625649094581604,7.4482011795043945,0.9087777137756348
-0.3086864650249481,7.461798191070557,0.9101592898368835
-0.25797730684280396,5.337090969085693,0.6508291959762573
-0.3005377948284149,5.424265384674072,0.6610487103462219
-0.33757200837135315,5.414418697357178,0.659268319606781
-0.37287595868110657,5.381107330322266,0.6546664834022522
-0.4089716970920563,5.363029479980469,0.6519531607627869
-0.44494885206222534,5.344700336456299,0.6492419838905334
-0.4244734048843384,4.696520805358887,0.5701006650924683
-0.44983550906181335,4.620243072509766,0.560295045375824
-0.48003673553466797,4.601742744445801,0.5573002099990845
-0.5104334354400635,4.586899757385254,0.5547791719436646
-0.541200578212738,4.5756964683532715,0.5527255535125732
-0.5706295371055603,4.548805236816406,0.5487927198410034
-0.6001990437507629,4.529483318328857,0.5458168983459473
-0.6314789056777954,4.525378704071045,0.5445699691772461
-0.6602542400360107,4.505768775939941,0.5412324070930481
-0.688154935836792,4.482149124145508,0.5374473333358765
-0.7195377349853516,4.477399826049805,0.5359335541725159
-0.7493703961372375,4.464816093444824,0.5335165858268738
-0.7777252793312073,4.444389820098877,0.5301929712295532
-0.8042680621147156,4.416197299957275,0.5258514881134033
-0.8315850496292114,4.395562171936035,0.5221827030181885
-0.7226095199584961,3.681809186935425,0.4363950788974762
-0.7436744570732117,3.6540443897247314,0.43211227655410767
-0.7674763798713684,3.641373634338379,0.4296480119228363
-0.9407680630683899,4.314824104309082,0.5079858303070068
-0.9755826592445374,4.331192493438721,0.5086650252342224
-1.0032905340194702,4.317148208618164,0.5055722594261169
-1.0277509689331055,4.2877092361450195,0.5006852149963379
-1.0478732585906982,4.2431230545043945,0.4940856397151947
-1.0754648447036743,4.228462219238281,0.4909909963607788
-1.1038861274719238,4.217376232147217,0.4883389174938202
-1.1418428421020508,4.243729591369629,0.4898293614387512
-1.166981816291809,4.221076011657715,0.4855014979839325
-1.1955684423446655,4.2133612632751465,0.4829520881175995
-1.2246378660202026,4.205301284790039,0.48035478591918945
-1.2539395093917847,4.196957111358643,0.4777315557003021
-1.278592824935913,4.173566818237305,0.47342702746391296
-1.3015251159667969,4.14645528793335,0.4684027135372162
-1.3295444250106812,4.137882709503174,0.46550872921943665
-1.3551585674285889,4.121714115142822,0.4617795944213867
-1.3887861967086792,4.127236843109131,0.46044835448265076
-1.4124398231506348,4.103103160858154,0.45583096146583557
-1.4405333995819092,4.0936665534973145,0.452744722366333
-1.4632357358932495,4.069460868835449,0.4478204846382141
-1.49055016040802,4.059892654418945,0.4445746839046478
-1.5157757997512817,4.042606830596924,0.4404517710208893
-1.541164517402649,4.025040149688721,0.43630099296569824
-1.569118618965149,4.014590740203857,0.43292301893234253
-1.58785080909729,3.982515811920166,0.42693930864334106
-1.6042675971984863,3.946955680847168,0.4206763207912445
-1.622247576713562,3.9147467613220215,0.41477417945861816
-1.6661683320999146,3.943117380142212,0.4152446389198303
-1.699793815612793,3.946070909500122,0.41302409768104553
-1.720279335975647,3.9206223487854004,0.4075278341770172
-1.7495405673980713,3.9165823459625244,0.4043150842189789
-1.7584795951843262,3.8660404682159424,0.3962801992893219
-1.7888028621673584,3.861100196838379,0.39288201928138733
-1.8024286031723022,3.820795774459839,0.38590750098228455
-1.8316348791122437,3.8159544467926025,0.38223835825920105
-1.8706415891647339,3.832082986831665,0.38071438670158386
-1.8726921081542969,3.770794630050659,0.371433287858963
-1.9200634956359863,3.799733877182007,0.3710075318813324
-1.9459573030471802,3.7869865894317627,0.36640429496765137
-1.9565024375915527,3.7469093799591064,0.3590562641620636
-1.9817582368850708,3.734069585800171,0.3542806804180145
-2.007795572280884,3.7206013202667236,0.34933963418006897
-2.056210517883301,3.7479074001312256,0.34820353984832764
-1.71311616897583,3.0749270915985107,0.28245964646339417
-1.7447282075881958,3.0843605995178223,0.280082106590271
-0.8502195477485657,1.4788000583648682,0.13260522484779358
-0.856656551361084,1.466261386871338,0.12981483340263367
-0.8742901682853699,1.4741570949554443,0.12876062095165253
-0.8758794069290161,1.4552513360977173,0.12535469233989716
-0.8777949213981628,1.436064600944519,0.12186282128095627
-0.8921357989311218,1.436585783958435,0.11999809741973877
-0.9014472365379333,1.4309613704681396,0.11758702993392944
-0.9023520350456238,1.4121233224868774,0.114099882543087
-0.8952464461326599,1.3798198699951172,0.10944025963544846
-0.9045956134796143,1.3739093542099,0.10689335316419601
-0.9178465008735657,1.3746788501739502,0.10478478670120239
-2.4119627475738525,3.5603280067443848,0.2654779553413391
-2.427936553955078,3.5310847759246826,0.2571863532066345
-1.2797995805740356,1.836434006690979,0.1304895579814911
-1.379861831665039,1.9597965478897095,-0.08764346688985825
-1.1879045963287354,1.7127569913864136,-0.08050655573606491
-1.3353564739227295,1.9569400548934937,-0.09640774130821228
-1.2822949886322021,1.9078055620193481,-0.09793746471405029
-1.2575888633728027,1.9006009101867676,-0.10142741352319717
-1.4708337783813477,2.2598142623901367,-0.12517623603343964
-1.349656343460083,2.1055750846862793,-0.12053417414426804
-1.215536117553711,1.927073359489441,-0.1138484850525856
-1.832039475440979,3.0490407943725586,-0.1959289163351059
-0.7957704067230225,1.391070008277893,-0.09593425691127777
-1.6684166193008423,2.9667909145355225,-0.20905259251594543
-1.5958608388900757,2.8863611221313477,-0.20762516558170319
-1.5365086793899536,2.8251943588256836,-0.20719829201698303
-1.4810327291488647,2.770622968673706,-0.2069978415966034
-1.4335527420043945,2.7292773723602295,-0.20761935412883759
-1.389386534690857,2.690437078475952,-0.2081502228975296
-1.333010196685791,2.6270358562469482,-0.20667508244514465
-1.2842830419540405,2.577080011367798,-0.20596367120742798
-1.2554349899291992,2.56494402885437,-0.20814412832260132
-1.2087595462799072,2.513676643371582,-0.2069765031337738
-1.184244990348816,2.507798671722412,-0.20942792296409607
-1.1381781101226807,2.4559526443481445,-0.2079036682844162
-1.1041921377182007,2.4284064769744873,-0.20834138989448547
-1.0633728504180908,2.3824472427368164,-0.20700910687446594
-1.0495761632919312,2.3967831134796143,-0.21082302927970886
-1.016902208328247,2.368238687515259,-0.21078026294708252
-0.9803832173347473,2.3285014629364014,-0.20963479578495026
-0.9489192962646484,2.299175262451172,-0.209354966878891
-0.9107422232627869,2.251446008682251,-0.2072320282459259
-0.8830670714378357,2.228738307952881,-0.20726114511489868
-0.8558635711669922,2.2057173252105713,-0.2072037011384964
-0.8307745456695557,2.1859335899353027,-0.20736190676689148
-0.8124498724937439,2.1842658519744873,-0.20923073589801788
-0.7861725687980652,2.160540819168091,-0.20880888402462006
-0.7615798115730286,2.1402220726013184,-0.2086799442768097
-0.7338061332702637,2.1085383892059326,-0.20736128091812134
-0.7140289545059204,2.0986697673797607,-0.20815493166446686
-0.6914403438568115,2.081432580947876,-0.2081064134836197
-0.6741640567779541,2.078709363937378,-0.20944415032863617
-0.6466262936592102,2.042416572570801,-0.20734848082065582
-0.6277910470962524,2.031811475753784,-0.20781460404396057
-0.611270546913147,2.0285284519195557,-0.20895510911941528
-0.5902918577194214,2.010248899459839,-0.2084551453590393
-0.5704818367958069,1.9955661296844482,-0.2083289921283722
-0.5461265444755554,1.9618730545043945,-0.20614838600158691
-0.5283501148223877,1.9504536390304565,-0.2062840759754181
-0.516517162322998,1.9614930152893066,-0.20864148437976837
-0.5006747841835022,1.9574105739593506,-0.2093927264213562
-0.4801575541496277,1.9343676567077637,-0.20811234414577484
-0.4521300494670868,1.8770713806152344,-0.20307637751102448
-0.44427981972694397,1.9027352333068848,-0.20694184303283691
-0.4291469156742096,1.8980988264083862,-0.20742495357990265
-0.4107818603515625,1.8781671524047852,-0.2062310427427292
-0.40064188838005066,1.896093726158142,-0.2092086523771286
-0.3843063712120056,1.8834788799285889,-0.20880821347236633
-0.3643052279949188,1.8517162799835205,-0.20613880455493927
-0.3548700213432312,1.8731907606124878,-0.20935148000717163
-0.33962926268577576,1.8640536069869995,-0.2091536968946457
-0.3183620274066925,1.8204022645950317,-0.2050776332616806
-0.3056657612323761,1.8224599361419678,-0.2061149775981903
-0.2940841615200043,1.8321295976638794,-0.2078578621149063
-0.27885186672210693,1.8187031745910645,-0.20698794722557068
-0.26614364981651306,1.8205077648162842,-0.20785225927829742
-0.2500665485858917,1.7991766929626465,-0.20608466863632202
-0.23854556679725647,1.8084796667099,-0.2077588140964508
-0.22252601385116577,1.783069372177124,-0.20532259345054626
-0.21004942059516907,1.7845063209533691,-0.20598061382770538
-0.19931553304195404,1.8012795448303223,-0.20842142403125763
-0.18597351014614105,1.7948271036148071,-0.20818649232387543
-0.17023895680904388,1.7651374340057373,-0.2051616609096527
-0.15720006823539734,1.758501410484314,-0.20472420752048492
-0.14491400122642517,1.7595027685165405,-0.20518407225608826
-0.1326807141304016,1.7604141235351562,-0.2056417018175125
-0.11989763379096985,1.7534996271133423,-0.20519393682479858
-0.1074710339307785,1.7542674541473389,-0.2055155634880066
-0.09481527656316757,1.747194766998291,-0.20487403869628906
-0.08336270600557327,1.7632837295532227,-0.20695927739143372
-0.07111012935638428,1.7637888193130493,-0.2072264701128006
-0.058581072837114334,1.756454586982727,-0.20658192038536072
-0.046135496348142624,1.7568141222000122,-0.20667897164821625
-0.033743809908628464,1.7493261098861694,-0.20584575831890106
-0.02166471816599369,1.7572675943374634,-0.20683814585208893
-0.009435062296688557,1.757366418838501,-0.20691770315170288
0.002792489482089877,1.7651408910751343,-0.2078946977853775
0.015301156789064407,1.765090823173523,-0.20777733623981476
0.02732863277196884,1.7494392395019531,-0.20583659410476685
0.039153873920440674,1.7337058782577515,-0.20389772951602936
0.0516781359910965,1.7489162683486938,-0.2056080549955368
0.06384505331516266,1.7485331296920776,-0.20544658601284027
0.07631770521402359,1.7558354139328003,-0.20605528354644775
0.08834883570671082,1.7475378513336182,-0.2048386037349701
0.10138354450464249,1.7624106407165527,-0.20635126531124115
0.11364509165287018,1.7616980075836182,-0.20604677498340607
0.12533089518547058,1.753170371055603,-0.20475992560386658
0.1380942314863205,1.7600524425506592,-0.2051740139722824
0.15248985588550568,1.7822893857955933,-0.20737479627132416
0.16416287422180176,1.773516297340393,-0.20597964525222778
0.17649030685424805,1.772389531135559,-0.20548418164253235
0.18959911167621613,1.7789108753204346,-0.20577062666416168
0.20190870761871338,1.777634620666504,-0.2050883173942566
0.2135169357061386,1.7685396671295166,-0.20350609719753265
0.2277672439813614,1.7824914455413818,-0.2045917510986328
0.2422216236591339,1.7963308095932007,-0.20566552877426147
0.25463515520095825,1.7947086095809937,-0.20483249425888062
0.25787362456321716,1.7315757274627686,-0.19697630405426025
0.2700839042663574,1.7298105955123901,-0.1961197406053543
0.28088727593421936,1.7203184366226196,-0.19440725445747375
0.3046143352985382,1.7873036861419678,-0.20131978392601013
0.3244161903858185,1.8273264169692993,-0.20499108731746674
0.3314032256603241,1.794613003730774,-0.20050615072250366
0.3526441156864166,1.8381482362747192,-0.2045391947031021
0.36112844944000244,1.8128710985183716,-0.20089736580848694
0.3737247884273529,1.8104408979415894,-0.1997724026441574
0.39270636439323425,1.8383398056030273,-0.20186828076839447
0.40874019265174866,1.8508942127227783,-0.2022644728422165
0.4216163456439972,1.8481438159942627,-0.20098170638084412
0.43293318152427673,1.8376860618591309,-0.1988564282655716
0.4474666714668274,1.8423463106155396,-0.19830040633678436
0.4601333439350128,1.8393774032592773,-0.19686730206012726
0.47766897082328796,1.8551244735717773,-0.19743140041828156
0.5085160136222839,1.9195168018341064,-0.20311787724494934
0.5272561311721802,1.9347652196884155,-0.20353995263576508
0.5489510297775269,1.961206316947937,-0.20498673617839813
0.5710130333900452,1.9874494075775146,-0.20637893676757812
0.5847795605659485,1.9836241006851196,-0.2046274095773697
0.5985984802246094,1.9796791076660156,-0.20286568999290466
