X,Y,Z
1.5631850957870483,2.530973434448242,0.3221983313560486
3.0197701454162598,4.966365337371826,0.6413190960884094
2.98862886428833,4.997217178344727,0.6543661952018738
2.969923973083496,5.0519232749938965,0.6702142357826233
2.9481399059295654,5.099079132080078,0.6848721504211426
2.911956787109375,5.1183905601501465,0.6955401301383972
2.898953676223755,5.1821794509887695,0.7121042013168335
2.8868257999420166,5.253942012786865,0.7298003435134888
2.8554306030273438,5.2872772216796875,0.7419257760047913
2.81799054145813,5.305943965911865,0.7517505884170532
2.8120813369750977,5.386504650115967,0.7703187465667725
2.780305862426758,5.423381328582764,0.78236985206604
2.7597742080688477,5.484537124633789,0.7981316447257996
2.743340015411377,5.547675132751465,0.8138114809989929
1.2370033264160156,2.5459394454956055,0.37645289301872253
1.2115951776504517,2.5403876304626465,0.3783924877643585
1.1877094507217407,2.5382394790649414,0.38075947761535645
1.1740084886550903,2.5568082332611084,0.3861979842185974
1.1652030944824219,2.5857434272766113,0.39320746064186096
1.150123953819275,2.6003763675689697,0.39804214239120483
2.5619001388549805,5.908452987670898,0.9097503423690796
2.530313730239868,5.954440593719482,0.9221801161766052
2.506495952606201,6.017765998840332,0.9373044967651367
2.480929374694824,6.077259063720703,0.9518981575965881
2.453930377960205,6.132805824279785,0.9659045934677124
2.420363187789917,6.178189277648926,0.9777978658676147
2.3915438652038574,6.23792839050293,0.9919787049293518
2.363872528076172,6.300978183746338,1.0067516565322876
2.3348073959350586,6.360053062438965,1.020933985710144
2.3071188926696777,6.422377586364746,1.0356733798980713
2.2713515758514404,6.466767311096191,1.0471912622451782
2.235478162765503,6.514941215515137,1.059083342552185
2.2076058387756348,6.588539123535156,1.0752220153808594
2.1782376766204834,6.65817928314209,1.0907857418060303
2.1221704483032227,6.642803192138672,1.0923877954483032
2.0629467964172363,6.615933895111084,1.092093825340271
2.006061315536499,6.600217342376709,1.0928608179092407
1.944034457206726,6.565535545349121,1.0905050039291382
1.8839493989944458,6.533946990966797,1.088652491569519
1.8217582702636719,6.490583896636963,1.0848077535629272
1.7661525011062622,6.465079307556152,1.0838946104049683
1.711631178855896,6.442975044250488,1.083348274230957
1.6537044048309326,6.409554481506348,1.0803450345993042
1.6000914573669434,6.39060115814209,1.0798053741455078
0.806435227394104,3.322359800338745,0.5627865195274353
1.4878138303756714,6.321181297302246,1.0734106302261353
1.4350429773330688,6.293120384216309,1.07132089138031
1.3890248537063599,6.294858932495117,1.0740693807601929
1.331892490386963,6.2475056648254395,1.067988395690918
1.2771698236465454,6.211117267608643,1.0638347864151
1.2263561487197876,6.1854119300842285,1.0614898204803467
1.1802475452423096,6.178103923797607,1.0623064041137695
1.1168928146362305,6.07575798034668,1.0467908382415771
1.079660177230835,6.113230228424072,1.055172324180603
1.0290223360061646,6.082442283630371,1.05129873752594
0.9765381813049316,6.032133102416992,1.044057846069336
0.9361981749534607,6.053660869598389,1.0492863655090332
0.8895242214202881,6.029120922088623,1.0465540885925293
0.8400906920433044,5.981348037719727,1.0398156642913818
0.7930811643600464,5.952378749847412,1.0363417863845825
0.7529923319816589,5.972788333892822,1.0408002138137817
0.5954496264457703,5.006838798522949,0.8732762336730957
0.5725139379501343,5.121574878692627,0.8941501975059509
0.5400339365005493,5.155793190002441,0.901023805141449
0.4008640646934509,4.102046966552734,0.7176198959350586
0.37317293882369995,4.119897365570068,0.7215436100959778
0.3491198718547821,4.179782390594482,0.7324628233909607
0.31743523478507996,4.151306629180908,0.727815568447113
0.288785457611084,4.160984516143799,0.7298918962478638
0.26116040349006653,4.1858134269714355,0.7346623539924622
0.428688108921051,7.752500534057617,1.3615058660507202
0.3744351267814636,7.747369766235352,1.361500859260559
0.3190794289112091,7.715017795562744,1.356407880783081
0.2639250159263611,7.678534984588623,1.350048303604126
0.21013790369033813,7.672428131103516,1.3490946292877197
0.1551894098520279,7.650576114654541,1.3454413414001465
0.1013340875506401,7.609086513519287,1.3383949995040894
0.04808870330452919,7.571067810058594,1.332020878791809
-0.004549097269773483,7.551914215087891,1.3290276527404785
-0.05685139074921608,7.513311386108398,1.3217912912368774
-0.10990623384714127,7.5051188468933105,1.319915771484375
-0.1616733968257904,7.481184005737305,1.3153445720672607
-0.21269917488098145,7.445356845855713,1.3087491989135742
-0.2635610103607178,7.42072057723999,1.3041867017745972
-0.31751933693885803,7.476459980010986,1.3138126134872437
-0.2637234032154083,5.337652683258057,0.9375550746917725
-0.30450305342674255,5.393470287322998,0.9466383457183838
-0.34224599599838257,5.399097919464111,0.9469619393348694
-0.37771183252334595,5.369911193847656,0.9412260055541992
-0.41326582431793213,5.344315052032471,0.9361673593521118
-0.4497756063938141,5.333821773529053,0.9338026642799377
-0.42160019278526306,4.610230445861816,0.8066502213478088
-0.45185378193855286,4.5921454429626465,0.8025439977645874
-0.4818781614303589,4.573861598968506,0.7984470725059509
-0.5125312209129333,4.563029766082764,0.7956936359405518
-0.5450841188430786,4.567256927490234,0.7955988645553589
-0.5730134844779968,4.529172897338867,0.7881616950035095
-0.6034519672393799,4.517697811126709,0.7854145765304565
-0.6335037350654602,4.506117343902588,0.7823030948638916
-0.6643678545951843,4.502007484436035,0.7803621292114258
-0.6916762590408325,4.474853992462158,0.7744697332382202
-0.721881091594696,4.462622165679932,0.7711753249168396
-0.7497321367263794,4.438840389251709,0.7659403085708618
-0.7792419195175171,4.426270484924316,0.7626854181289673
-0.8084490299224854,4.413566589355469,0.7592422962188721
-0.8314204812049866,4.370513916015625,0.7503032088279724
-0.7180820107460022,3.6395134925842285,0.6235610246658325
-0.7465986013412476,3.649855136871338,0.6240783333778381
-0.7735799551010132,3.6524620056152344,0.6233014464378357
-0.9474024176597595,4.324865818023682,0.7366330027580261
-0.9824678897857666,4.341177463531494,0.7379310131072998
-1.008463740348816,4.319883346557617,0.7324406504631042
-1.036515474319458,4.30581521987915,0.7281883358955383
-1.0593317747116089,4.272958755493164,0.7208351492881775
-1.0910438299179077,4.273434162139893,0.7191031575202942
-1.1110564470291138,4.228923797607422,0.7098488211631775
-1.146514892578125,4.24392557144165,0.7105770111083984
-1.1758315563201904,4.236481666564941,0.7070832848548889
-1.2003545761108398,4.214130878448486,0.7011821269989014
-1.2225492000579834,4.184207439422607,0.6940657496452332
-1.2516740560531616,4.17616605758667,0.6905757784843445
-1.2762541770935059,4.153153896331787,0.6846480965614319
-1.310131549835205,4.1593756675720215,0.6834465265274048
-1.3334541320800781,4.136382102966309,0.6771233677864075
-1.358902096748352,4.120600700378418,0.6720290184020996
-1.3893760442733765,4.119215488433838,0.6692913174629211
-1.4118907451629639,4.09179162979126,0.6622889041900635
-1.435333490371704,4.067901134490967,0.6559147834777832
-1.4690394401550293,4.072964191436768,0.6539931297302246
-1.4911035299301147,4.0491814613342285,0.6472717523574829
-1.5129121541976929,4.025278091430664,0.6405810713768005
-1.5434188842773438,4.022671222686768,0.6372455954551697
-1.5687048435211182,4.005297660827637,0.6315614581108093
-1.5943158864974976,3.9875755310058594,0.6258125901222229
-1.615293264389038,3.9631927013397217,0.6187068819999695
-1.638845443725586,3.945899248123169,0.6127214431762695
-1.6684799194335938,3.942621946334839,0.6089133620262146
-1.6961573362350464,3.9315834045410156,0.6037959456443787
-1.721109390258789,3.913071393966675,0.5975099802017212
-1.741462230682373,3.887910842895508,0.590067446231842
-1.7594444751739502,3.859367609024048,0.5820122361183167
-1.7721996307373047,3.8202261924743652,0.5724338293075562
-1.815553903579712,3.843512773513794,0.5720421075820923
-1.8480404615402222,3.841747760772705,0.5678372979164124
-1.8809860944747925,3.8438382148742676,0.5640586018562317
-1.8909943103790283,3.8008997440338135,0.5535359978675842
-1.9128435850143433,3.782134771347046,0.546585202217102
-1.9483891725540161,3.786655902862549,0.5427684187889099
-1.96611750125885,3.7565252780914307,0.534011721611023
-1.9991481304168701,3.757558822631836,0.5293543934822083
-2.020376443862915,3.7382965087890625,0.5218430161476135
-2.062598466873169,3.7559709548950195,0.5193567872047424
-1.7203614711761475,3.0819034576416016,0.42193788290023804
-1.7474368810653687,3.08081316947937,0.41750195622444153
-0.8481800556182861,1.472731351852417,0.19738365709781647
-0.8500420451164246,1.4540854692459106,0.19273996353149414
-0.8642496466636658,1.4551249742507935,0.1905733048915863
-0.8704838752746582,1.4427409172058105,0.18665724992752075
-0.8758295774459839,1.4308024644851685,0.18270938098430634
-0.8935208320617676,1.4385452270507812,0.18122674524784088
-0.8953685164451599,1.4194777011871338,0.17622198164463043
-0.9095195531845093,1.4201050996780396,0.17366574704647064
-0.9017784595489502,1.388514518737793,0.16711319983005524
-0.9066506624221802,1.3764452934265137,0.1629324108362198
-0.9208984971046448,1.3767575025558472,0.15996477007865906
-2.4172446727752686,3.562426805496216,0.40609264373779297
-2.4621777534484863,3.5799272060394287,0.40003472566604614
-1.247941493988037,1.7627531290054321,0.18823440372943878
-1.3654173612594604,1.9398894309997559,-0.11440642923116684
-1.5311541557312012,2.466491937637329,-0.20246993005275726
-1.4720759391784668,2.410766839981079,-0.20395082235336304
-1.389622449874878,2.3501057624816895,-0.21008668839931488
-0.8272500038146973,1.4464951753616333,-0.13592304289340973
-1.2464892864227295,2.2152621746063232,-0.21298453211784363
-1.22257399559021,2.210225820541382,-0.2173307090997696
-1.1523168087005615,2.1195075511932373,-0.21291345357894897
-1.1225523948669434,2.099679946899414,-0.21519215404987335
-1.0805350542068481,2.055402994155884,-0.2147824466228485
-1.0422348976135254,2.0178449153900146,-0.21482622623443604
-0.9921216368675232,1.9556291103363037,-0.2120603322982788
-0.9627280831336975,1.9307727813720703,-0.2129785120487213
-0.9215855002403259,1.8812651634216309,-0.2109968364238739
-0.9028251767158508,1.8769482374191284,-0.21391791105270386
-0.8794004917144775,1.8618279695510864,-0.21551111340522766
-0.8433753252029419,1.818191647529602,-0.21363694965839386
-0.8268924355506897,1.8167632818222046,-0.21663594245910645
-0.7994536757469177,1.7903554439544678,-0.21650393307209015
-0.744622528553009,1.6995657682418823,-0.20833264291286469
-0.7448936700820923,1.7328789234161377,-0.2152421474456787
-0.7204431295394897,1.7091299295425415,-0.2150021195411682
-0.6960402727127075,1.6852625608444214,-0.21467243134975433
-0.6738514304161072,1.6645972728729248,-0.21459636092185974
-0.653526782989502,1.6472758054733276,-0.21486742794513702
-0.6305460929870605,1.622586727142334,-0.21403397619724274
-0.6188702583312988,1.6266942024230957,-0.21691691875457764
-0.5949370265007019,1.5980459451675415,-0.21540796756744385
-0.5863646864891052,1.6090881824493408,-0.2191571295261383
-0.5697548985481262,1.5982322692871094,-0.2198636531829834
-0.5532318353652954,1.5872682332992554,-0.22045111656188965
-0.5419589877128601,1.5907930135726929,-0.22302959859371185
-0.5183655619621277,1.5575215816497803,-0.22042518854141235
-0.4990202486515045,1.5350136756896973,-0.21919776499271393
-0.4787330627441406,1.5086822509765625,-0.21725055575370789
-0.4702988862991333,1.5191096067428589,-0.2205791175365448
-0.4618440866470337,1.529457926750183,-0.22390736639499664
-0.4401595890522003,1.495233178138733,-0.22068572044372559
-0.4250771403312683,1.4831985235214233,-0.22055873274803162
-0.41244426369667053,1.478433609008789,-0.22146445512771606
-0.4020497500896454,1.480995535850525,-0.22345148026943207
-0.3788584768772125,1.434894323348999,-0.21804770827293396
-0.3381935656070709,1.443936824798584,-0.2251032292842865
0.3786502778530121,1.474719524383545,-0.22481019794940948
0.38493016362190247,1.4573969841003418,-0.22064529359340668
0.3972902297973633,1.462380290031433,-0.21984224021434784
0.40961527824401855,1.4672932624816895,-0.21904227137565613
0.4273240268230438,1.4907082319259644,-0.22093375027179718
0.4398386478424072,1.4954413175582886,-0.21991325914859772
0.4479813873767853,1.485253930091858,-0.21670730412006378
0.46314552426338196,1.497120976448059,-0.21667426824569702
0.47831669449806213,1.5089027881622314,-0.2166353315114975
0.498308390378952,1.535341501235962,-0.21851953864097595
0.5199090838432312,1.565259575843811,-0.22081835567951202
0.5333433747291565,1.5692594051361084,-0.2193993479013443
0.5596116781234741,1.609720230102539,-0.22301757335662842
0.5554081797599792,1.5622873306274414,-0.21434971690177917
0.5794172883033752,1.595186710357666,-0.21670687198638916
0.5932043194770813,1.598743200302124,-0.215012788772583
0.6222726106643677,1.6420233249664307,-0.2185784876346588
0.6365022659301758,1.6452525854110718,-0.21670207381248474
0.6594151258468628,1.66999351978302,-0.2174963653087616
0.6767593026161194,1.6801650524139404,-0.21637068688869476
0.7047790288925171,1.7152265310287476,-0.21834272146224976
0.7287635803222656,1.739280343055725,-0.2187977135181427
0.7574674487113953,1.7739014625549316,-0.22039644420146942
0.7760918140411377,1.7832034826278687,-0.2187192738056183
0.8012285828590393,1.8065075874328613,-0.21869079768657684
0.828275740146637,1.8331156969070435,-0.21896257996559143
0.8473159074783325,1.8419437408447266,-0.2169666588306427
0.8797307014465332,1.8787258863449097,-0.21817073225975037
0.908225417137146,1.9043928384780884,-0.2178371399641037
0.9571746587753296,1.9718576669692993,-0.22215598821640015
0.9809308648109436,1.986659288406372,-0.22031855583190918
1.018981695175171,2.0289804935455322,-0.22139552235603333
1.042078971862793,2.039555549621582,-0.21881219744682312
1.0849303007125854,2.087956428527832,-0.22014069557189941
1.1192984580993652,2.11875057220459,-0.2193318009376526
1.1688352823257446,2.1766130924224854,-0.22114543616771698
1.2232911586761475,2.240565538406372,-0.22322764992713928
1.2613035440444946,2.2734732627868652,-0.2219708412885666
1.2881008386611938,2.285766363143921,-0.21856224536895752
1.3042864799499512,2.2771072387695312,-0.21288679540157318
1.320272445678711,2.2683980464935303,-0.20725001394748688
1.3275519609451294,2.246577501296997,-0.20041212439537048
1.3427919149398804,2.2380032539367676,-0.1947343647480011
1.3706876039505005,2.248957633972168,-0.19054020941257477
1.408800721168518,2.276355743408203,-0.18750958144664764
1.5027130842208862,2.3928170204162598,-0.19152332842350006
1.5676589012145996,2.4583396911621094,-0.1906987428665161
1.6904383897781372,2.6116719245910645,-0.1960759162902832
1.746163010597229,2.6596670150756836,-0.19298425316810608
1.760596752166748,2.6413402557373047,-0.18448029458522797
1.8028134107589722,2.665217399597168,-0.17886489629745483
1.4054454565048218,2.0491154193878174,-0.1318819373846054
1.4463905096054077,2.078143358230591,-0.12763990461826324
1.4469259977340698,2.0495851039886475,-0.11973775923252106
1.4650152921676636,2.046691656112671,-0.11322679370641708
1.440385103225708,1.9830479621887207,-0.10312075912952423
1.4694132804870605,1.9960253238677979,-0.0971231684088707
2.0855636596679688,2.945324420928955,0.29632487893104553
2.2911458015441895,3.289825677871704,0.34021443128585815
2.293874979019165,3.343672037124634,0.3541724979877472
2.3229851722717285,3.440439224243164,0.37293541431427
2.291579484939575,3.4510061740875244,0.3822566866874695
2.2901806831359863,3.502135992050171,0.395443320274353
3.098257064819336,4.8121747970581055,0.5534266829490662
1.6281681060791016,2.5716731548309326,0.3009325861930847
1.61290442943573,2.5896873474121094,0.3080665171146393
3.0428123474121094,4.962146282196045,0.599315881729126
3.003479480743408,4.9801483154296875,0.6101776361465454
2.9909989833831787,5.045063018798828,0.6267598271369934
2.950932264328003,5.058299541473389,0.6364482641220093
2.933760404586792,5.111752510070801,0.6513281464576721
2.9008524417877197,5.142566204071045,0.6628562808036804
2.8730309009552,5.183478355407715,0.6757245659828186
2.854628562927246,5.2366132736206055,0.6898298859596252
2.8377203941345215,5.292995452880859,0.7044418454170227
2.8084771633148193,5.333606719970703,0.7167928814888
2.794964551925659,5.405008792877197,0.7331712245941162
2.7699122428894043,5.451472282409668,0.7460282444953918
2.7644004821777344,5.5355048179626465,0.7640063762664795
2.7348344326019287,5.574863910675049,0.7757507562637329
1.2218928337097168,2.5386905670166016,0.3560078740119934
1.1997144222259521,2.540132999420166,0.35890281200408936
1.181794285774231,2.5479989051818848,0.362580269575119
1.1622157096862793,2.5522091388702393,0.36575204133987427
1.154670238494873,2.5848429203033447,0.3728601634502411
2.5785722732543945,5.887923717498779,0.8546587824821472
2.5514509677886963,5.944935321807861,0.8683668375015259
2.5185859203338623,5.983028411865234,0.879109799861908
2.4926908016204834,6.038823127746582,0.8925497531890869
2.466226816177368,6.098715782165527,0.9062536358833313
2.439837694168091,6.162378787994385,0.9204328060150146
2.4051294326782227,6.208111763000488,0.9320967793464661
2.376685380935669,6.2635416984558105,0.9450358748435974
2.348926544189453,6.32248067855835,0.9586122035980225
2.3182742595672607,6.3780364990234375,0.9714446663856506
2.28983736038208,6.444783687591553,0.9857339262962341
2.258518934249878,6.508026123046875,0.9996706247329712
2.227385997772217,6.566762447357178,1.0128289461135864
2.194704055786133,6.6215739250183105,1.0254508256912231
2.155339002609253,6.657876491546631,1.0352617502212524
2.0965747833251953,6.639261245727539,1.0358495712280273
2.0317108631134033,6.601920127868652,1.0335843563079834
1.9742486476898193,6.582160949707031,1.0339926481246948
1.9151785373687744,6.5504584312438965,1.0324419736862183
1.8555898666381836,6.514546871185303,1.0302296876907349
1.797028660774231,6.482062816619873,1.0282621383666992
1.7402994632720947,6.456803798675537,1.0269972085952759
1.6763837337493896,6.405125141143799,1.0215882062911987
0.8245008587837219,3.2436046600341797,0.518740713596344
1.572203278541565,6.370439052581787,1.0215582847595215
0.8015778064727783,3.3479151725769043,0.5383362770080566
1.4676330089569092,6.326657295227051,1.0197111368179321
1.398800015449524,6.2348952293396,1.0070576667785645
1.358263611793518,6.263003826141357,1.0137550830841064
1.3140411376953125,6.271846771240234,1.0173625946044922
1.252704381942749,6.1933112144470215,1.0067896842956543
1.2027987241744995,6.1672587394714355,1.0047581195831299
1.1449257135391235,6.103206634521484,0.9961523413658142
1.1029067039489746,6.118325233459473,1.0001634359359741
1.0554068088531494,6.1027631759643555,0.9992079734802246
1.0004494190216064,6.037312030792236,0.9900920391082764
0.9559764862060547,6.028458595275879,0.9902657270431519
0.916728675365448,6.057503700256348,0.9967440962791443
0.8709421753883362,6.040497303009033,0.9953311681747437
0.8162116408348083,5.958324432373047,0.9828312993049622
0.76615971326828,5.9024529457092285,0.9746924042701721
0.6260812282562256,5.10391092300415,0.843793511390686
0.5786203742027283,5.004485130310059,0.8283329010009766
0.5589393973350525,5.1537957191467285,0.8541122674942017
0.4117492437362671,4.060669422149658,0.6736983060836792
0.38683393597602844,4.101691722869873,0.6809064745903015
0.3579680025577545,4.104171276092529,0.6817542910575867
0.33375003933906555,4.164064407348633,0.6921787858009338
0.3042639195919037,4.166178226470947,0.6930438280105591
0.2757803797721863,4.175743103027344,0.6951742768287659
0.24808716773986816,4.200498580932617,0.699871301651001
0.4040871560573578,7.76535177230835,1.2941253185272217
0.34906089305877686,7.752475738525391,1.292251706123352
0.2919730842113495,7.704591751098633,1.2846095561981201
0.23761236667633057,7.683216094970703,1.2814394235610962
0.18364882469177246,7.661457538604736,1.2782641649246216
0.1297176331281662,7.627765655517578,1.2731566429138184
0.07619676738977432,7.582218170166016,1.2656304836273193
0.02247469685971737,7.574898719787598,1.2641229629516602
-0.03016536869108677,7.555643081665039,1.2606910467147827
-0.08232536166906357,7.516758918762207,1.2540463209152222
-0.1344139128923416,7.508336067199707,1.2525454759597778
-0.1849534511566162,7.441775321960449,1.2414069175720215
-0.2366330772638321,7.440367221832275,1.2410715818405151
-0.2890709936618805,7.438694000244141,1.2399957180023193
-0.3416453003883362,7.459785461425781,1.242786169052124
-0.28473225235939026,5.398738384246826,0.898937463760376
-0.3222411274909973,5.396758079528809,0.8981671929359436
-0.3576849699020386,5.3637566566467285,0.8922799229621887
-0.3944720923900604,5.345849990844727,0.8889442086219788
-0.4314529299736023,5.343198299407959,0.8877049684524536
-0.4618949592113495,5.267380237579346,0.8742198944091797
-0.4375690519809723,4.6235246658325195,0.7666154503822327
-0.4672616720199585,4.5975728034973145,0.7616041898727417
-0.49893879890441895,4.586690902709961,0.7591168880462646
-0.5285995602607727,4.564164161682129,0.7547549605369568
-0.5601633787155151,4.560629367828369,0.7533546090126038
-0.5885031819343567,4.534015655517578,0.7478747367858887
-0.6185936331748962,4.522504806518555,0.7449284195899963
-0.6480947136878967,4.503074645996094,0.7406977415084839
-0.6770603060722351,4.483492374420166,0.7364944219589233
-0.7058337330818176,4.46371603012085,0.7322998046875
-0.7368178367614746,4.458993434906006,0.7305511832237244
-0.760071873664856,4.412405014038086,0.7215384244918823
-0.7902576923370361,4.407451629638672,0.7193788290023804
-0.8195167183876038,4.394616603851318,0.7159463763237
-0.8441873788833618,4.358872413635254,0.7088297009468079
-0.7332032322883606,3.649763345718384,0.5924574136734009
-0.7601792812347412,3.652418375015259,0.5918550491333008
-0.932871401309967,4.333995342254639,0.7006452679634094
-0.9662511348724365,4.342924118041992,0.7003885507583618
-0.9923865795135498,4.3216166496276855,0.6953166723251343
-1.0223321914672852,4.315062999725342,0.6926296353340149
-1.0459587574005127,4.282021999359131,0.6857269406318665
-1.0776972770690918,4.282536029815674,0.6842357516288757
-1.1015467643737793,4.2530364990234375,0.6775518655776978
-1.1304000616073608,4.245954990386963,0.6744362115859985
-1.1592073440551758,4.238676071166992,0.6713200807571411
-1.1802183389663696,4.201294898986816,0.6634409427642822
-1.213738203048706,4.208316326141357,0.6626039743423462
-1.232578158378601,4.1630778312683105,0.653547465801239
-1.2607614994049072,4.155181884765625,0.6500271558761597
-1.2911115884780884,4.1545000076293945,0.6476224064826965
-1.3215088844299316,4.1535964012146,0.645204484462738
-1.3444386720657349,4.126483917236328,0.638681948184967
-1.3749642372131348,4.121066093444824,0.6355112195014954
-1.3998475074768066,4.101003646850586,0.6300925612449646
-1.4274258613586426,4.092108249664307,0.6260423064231873
-1.4549853801727295,4.083009719848633,0.6219857931137085
-1.4721777439117432,4.044558048248291,0.6134787201881409
-1.4977704286575317,4.027532577514648,0.6082004308700562
-1.5236958265304565,4.010162353515625,0.6028624176979065
-1.553910255432129,4.007506847381592,0.5995794534683228
-1.5836836099624634,4.004832744598389,0.5961356163024902
-1.6048434972763062,3.9803874492645264,0.589479386806488
-1.6323976516723633,3.9698538780212402,0.5848352313041687
-1.6516265869140625,3.937418222427368,0.5769286155700684
-1.6788378953933716,3.926584482192993,0.5722031593322754
-1.717391014099121,3.94441294670105,0.5713311433792114
-1.7279691696166992,3.898188829421997,0.5612174272537231
-1.7547224760055542,3.886955976486206,0.5560946464538574
-1.7792878150939941,3.8680078983306885,0.5497540235519409
-1.8129298686981201,3.8702242374420166,0.5464712977409363
-1.8237481117248535,3.8273167610168457,0.5365242958068848
-1.8425230979919434,3.8018596172332764,0.5290937423706055
-1.882333755493164,3.8176984786987305,0.5273087024688721
-1.9095569849014282,3.804966688156128,0.5214189291000366
-1.9288177490234375,3.778630256652832,0.5136971473693848
-1.9573562145233154,3.7734827995300293,0.5086117386817932
-1.9822895526885986,3.7612545490264893,0.5025861859321594
-2.004776954650879,3.7413601875305176,0.4953383803367615
-2.0273430347442627,3.72118878364563,0.4880482852458954
-1.7164009809494019,3.1001951694488525,0.40250682830810547
-1.7310872077941895,3.0793776512145996,0.3956920802593231
-0.8355045914649963,1.4633558988571167,0.1860273778438568
-0.8536036610603333,1.4712157249450684,0.18491093814373016
-0.8676941394805908,1.472330927848816,0.18289238214492798
-0.8775002956390381,1.4668738842010498,0.17993228137493134
-0.8751410245895386,1.4414364099502563,0.17456738650798798
-0.8893911242485046,1.442201018333435,0.17226265370845795
-0.8828378319740295,1.4100333452224731,0.16603983938694
-0.9045054912567139,1.4243080615997314,0.165228933095932
-0.9099865555763245,1.4119478464126587,0.16119416058063507
-0.8880250453948975,1.3570364713668823,0.15231384336948395
-0.901447594165802,1.3578749895095825,0.14971959590911865
-0.9666730761528015,1.4363133907318115,0.1554633527994156
-2.4251554012298584,3.5508031845092773,0.37653806805610657
-1.4857369661331177,2.14309024810791,0.22230792045593262
-1.5330171585083008,2.1819074153900146,0.22123149037361145
-1.3006258010864258,1.8614798784255981,-0.10854997485876083
-1.5606871843338013,2.5356662273406982,-0.20284590125083923
-1.5185109376907349,2.506089925765991,-0.20626281201839447
-1.4144349098205566,2.4128353595733643,-0.20945577323436737
-0.7973252534866333,1.4056416749954224,-0.12802033126354218
-1.2780252695083618,2.2918918132781982,-0.21350698173046112
-1.2355754375457764,2.2525880336761475,-0.21430814266204834
-1.1919009685516357,2.2093868255615234,-0.21452178061008453
-1.133494257926941,2.1386218070983887,-0.21182288229465485
-1.092827320098877,2.097978353500366,-0.21175377070903778
-1.0691379308700562,2.0878562927246094,-0.21455389261245728
-1.0261449813842773,2.0394253730773926,-0.21325062215328217
-0.9957078099250793,2.01503586769104,-0.21427322924137115
-0.9539053440093994,1.9657855033874512,-0.2124834954738617
-0.9216588735580444,1.9334100484848022,-0.21225965023040771
-0.8978368043899536,1.9184435606002808,-0.21378770470619202
-0.8693186640739441,1.8926893472671509,-0.21401190757751465
-0.8431149125099182,1.8700485229492188,-0.21443375945091248
-0.8142198324203491,1.839998483657837,-0.2138950079679489
-0.7867966294288635,1.8134435415267944,-0.2136252522468567
-0.7645553350448608,1.7972432374954224,-0.21443568170070648
-0.7428807616233826,1.7807083129882812,-0.21509113907814026
-0.72005695104599,1.7603508234024048,-0.21521635353565216
-0.6901029944419861,1.721861481666565,-0.21293309330940247
-0.6689776182174683,1.7048192024230957,-0.21324731409549713
-0.6513654589653015,1.6946508884429932,-0.2142946571111679
-0.6298791766166687,1.673414707183838,-0.21388907730579376
-0.6125773787498474,1.662957787513733,-0.21471554040908813
-0.5927697420120239,1.6450718641281128,-0.21451188623905182
-0.5757885575294495,1.634318232536316,-0.21520912647247314
-0.5605564117431641,1.6269776821136475,-0.21627959609031677
-0.539153516292572,1.6011921167373657,-0.21478335559368134
-0.5301619172096252,1.6120355129241943,-0.21812112629413605
-0.518759548664093,1.6154240369796753,-0.22045567631721497
-0.49565589427948,1.5817989110946655,-0.21772289276123047
-0.482260525226593,1.5775312185287476,-0.218915656208992
-0.46884897351264954,1.573198914527893,-0.21997734904289246
-0.4522840678691864,1.5576038360595703,-0.21944773197174072
-0.4350167512893677,1.5381070375442505,-0.21831998229026794
-0.4201110899448395,1.5259101390838623,-0.21819818019866943
-0.4050899147987366,1.5136830806732178,-0.21791844069957733
-0.39628541469573975,1.523746371269226,-0.22081178426742554
-0.3817809522151947,1.5112318992614746,-0.22042295336723328
-0.3656643033027649,1.4910733699798584,-0.21888992190361023
-0.3542737662792206,1.48960280418396,-0.21999095380306244
-0.344438761472702,1.4956387281417847,-0.22214673459529877
-0.32633572816848755,1.4638370275497437,-0.21864372491836548
-0.31774917244911194,1.4734057188034058,-0.22129778563976288
-0.30587300658226013,1.467795729637146,-0.2216678112745285
-0.2940305173397064,1.462131142616272,-0.221849724650383
0.29835328459739685,1.4771442413330078,-0.22336554527282715
0.3141712248325348,1.4505754709243774,-0.21708831191062927
0.3276054859161377,1.4636765718460083,-0.21781843900680542
0.34302371740341187,1.4841877222061157,-0.2196245938539505
0.3578699231147766,1.5007928609848022,-0.2208259254693985
0.3683280348777771,1.4985020160675049,-0.21918189525604248
0.3845790922641754,1.5186272859573364,-0.22066503763198853
0.39704978466033936,1.5236701965332031,-0.21996280550956726
0.407699853181839,1.5211155414581299,-0.21815451979637146
0.4204006493091583,1.525943398475647,-0.21740703284740448
0.43517735600471497,1.5381698608398438,-0.21755577623844147
0.4481717646121979,1.5427852869033813,-0.216565802693367
0.46445056796073914,1.558457851409912,-0.21712908148765564
0.4866761863231659,1.5924856662750244,-0.22019459307193756
0.5023793578147888,1.6041444540023804,-0.2200464904308319
0.5134559869766235,1.6009440422058105,-0.2177736908197403
0.5295904278755188,1.6123158931732178,-0.2174362987279892
0.5408840179443359,1.6088752746582031,-0.2151089906692505
0.5659934282302856,1.6456817388534546,-0.21810691058635712
0.5850581526756287,1.6640093326568604,-0.21847297251224518
0.5912784337997437,1.6456714868545532,-0.2140284925699234
0.6161795854568481,1.6782180070877075,-0.2161492258310318
0.6308808326721191,1.6813780069351196,-0.2144024819135666
0.6549681425094604,1.7099332809448242,-0.21577532589435577
0.6808472275733948,1.7418761253356934,-0.2174798846244812
0.6987500786781311,1.751857876777649,-0.21635039150714874
0.718338131904602,1.7652511596679688,-0.21559876203536987
0.7396644949913025,1.7820460796356201,-0.21509523689746857
0.7700334787368774,1.8202149868011475,-0.21709123253822327
0.78267902135849,1.8151980638504028,-0.21384987235069275
0.8188602328300476,1.8633763790130615,-0.21678011119365692
0.8412683606147766,1.879332184791565,-0.21580523252487183
0.863998293876648,1.8950514793395996,-0.21465258300304413
0.9049588441848755,1.949334740638733,-0.21775761246681213
0.9319554567337036,1.9714434146881104,-0.21709784865379333
0.9708481431007385,2.0179224014282227,-0.21895886957645416
0.9999671578407288,2.0431177616119385,-0.21834543347358704
1.03864324092865,2.0851857662200928,-0.2192915827035904
1.0638196468353271,2.0990989208221436,-0.21718598902225494
1.1120543479919434,2.1579036712646484,-0.21953076124191284
1.1392923593521118,2.174898624420166,-0.2174476683139801
1.2001521587371826,2.253244161605835,-0.22120453417301178
1.2308073043823242,2.2726023197174072,-0.21893319487571716
1.2689608335494995,2.3054792881011963,-0.2177252471446991
1.2807151079177856,2.290529489517212,-0.2120036780834198
1.3045036792755127,2.295485019683838,-0.20794126391410828
1.3204107284545898,2.2868497371673584,-0.2026180475950241
1.3239190578460693,2.258235454559326,-0.1955392062664032
1.3237205743789673,2.222620725631714,-0.1877748966217041
1.3736004829406738,2.270395278930664,-0.18697264790534973
1.4357014894485474,2.3379695415496826,-0.18750759959220886
1.4925713539123535,2.394913673400879,-0.18684226274490356
1.536480188369751,2.4276633262634277,-0.18379420042037964
1.5806403160095215,2.4601006507873535,-0.18041649460792542
1.7246025800704956,2.646082639694214,-0.18784315884113312
1.7344996929168701,2.6214394569396973,-0.17951300740242004
1.7740206718444824,2.6424691677093506,-0.17425128817558289
1.4158892631530762,2.0798838138580322,-0.1318320482969284
1.4395583868026733,2.0829713344573975,-0.12616883218288422
1.4624656438827515,2.0864198207855225,-0.12054155021905899
1.4580587148666382,2.0516841411590576,-0.11266754567623138
1.4381896257400513,1.994276762008667,-0.10336408764123917
1.4464120864868164,1.9789934158325195,-0.09643171727657318
1.4667528867721558,1.9788929224014282,-0.08985405415296555
2.093024730682373,2.9327707290649414,0.2718536853790283
2.1030962467193604,2.9962968826293945,0.2861050069332123
2.307605743408203,3.336998224258423,0.32686933875083923
2.3373095989227295,3.4336860179901123,0.3446003496646881
2.912283420562744,4.350004196166992,0.4467621147632599
2.260169506072998,3.4272475242614746,0.35919609665870667
3.075298547744751,4.7387871742248535,0.506561279296875
1.6427057981491089,2.5740623474121094,0.28029829263687134
1.624083161354065,2.5851962566375732,0.2862894535064697
1.5853345394134521,2.5628762245178223,0.2884264588356018
3.016195774078369,4.959246635437012,0.5665909051895142
2.98203182220459,4.987663269042969,0.5783429145812988
2.9723124504089355,5.050987720489502,0.5935850739479065
2.9435601234436035,5.084567070007324,0.605327844619751
2.9163105487823486,5.125884532928467,0.6177636384963989
2.891443967819214,5.169942855834961,0.6304458379745483
2.876781940460205,5.230203151702881,0.6449707746505737
2.852141857147217,5.2734479904174805,0.6572736501693726
2.8197274208068848,5.307301998138428,0.6681168079376221
2.8052544593811035,5.3751935958862305,0.6833032369613647
2.786834955215454,5.431690216064453,0.6968154907226562
2.7653133869171143,5.485029697418213,0.7101563215255737
2.7502474784851074,5.556514263153076,0.7253912687301636
1.2492752075195312,2.5715479850769043,0.3384591042995453
1.2090901136398315,2.534437656402588,0.3361808955669403
1.191223382949829,2.542402744293213,0.33980342745780945
1.1697484254837036,2.5433452129364014,0.3424125611782074
1.1616854667663574,2.5763661861419678,0.3492429256439209
1.1456961631774902,2.5915260314941406,0.3536592125892639
2.5618135929107666,5.905683994293213,0.8110507130622864
2.5385382175445557,5.96527099609375,0.8244001269340515
2.5046727657318115,6.003759860992432,0.8346468210220337
2.475821018218994,6.0607733726501465,0.8473277688026428
2.4514129161834717,6.128138542175293,0.8614844679832458
2.4153623580932617,6.162278652191162,0.8708648085594177
2.385890007019043,6.214276313781738,0.8828520774841309
2.0310094356536865,5.403815746307373,0.7715532183647156
2.000113010406494,5.4434075355529785,0.780799925327301
2.2966270446777344,6.393301486968994,0.9212251901626587
2.271821975708008,6.466923713684082,0.9359549880027771
2.237848997116089,6.514688968658447,0.9469963312149048
2.2094345092773438,6.580636024475098,0.960763156414032
2.176459550857544,6.643709659576416,0.9735956788063049
2.130645990371704,6.665822505950928,0.9804390072822571
2.0655152797698975,6.62470006942749,0.9779719710350037
2.005633592605591,6.593763828277588,0.976914644241333
1.9496488571166992,6.573427677154541,0.9774290323257446
1.8836536407470703,6.519458770751953,0.9726056456565857
1.830600380897522,6.513751983642578,0.9746686816215515
1.7673166990280151,6.46639347076416,0.9704668521881104
1.710691213607788,6.436923503875732,0.9688966870307922
1.6559945344924927,6.41061544418335,0.9677864909172058
1.6046351194381714,6.395094871520996,0.968319296836853
0.8102176785469055,3.33062744140625,0.5055785179138184
1.4848886728286743,6.299746990203857,0.9585049152374268
1.4294549226760864,6.264434814453125,0.9553816318511963
1.3854467868804932,6.273753643035889,0.9590539932250977
1.3376067876815796,6.263819217681885,0.9598095417022705
1.2806086540222168,6.212061405181885,0.9542157053947449
1.2334680557250977,6.205376148223877,0.9549182653427124
1.1841113567352295,6.187006950378418,0.9537582397460938
1.1267575025558472,6.122664928436279,0.9455299973487854
1.0697461366653442,6.050108432769775,0.9360100030899048
1.0313677787780762,6.083747863769531,0.9429723620414734
0.9851740598678589,6.067495346069336,0.9422222971916199
0.9369926452636719,6.039609432220459,0.9391447305679321
0.8919520974159241,6.030483722686768,0.9388954639434814
0.8421822786331177,5.986627578735352,0.933275043964386
0.7903977036476135,5.92326021194458,0.9246391654014587
0.7550297379493713,5.974245548248291,0.9338663220405579
0.6027633547782898,5.051516056060791,0.790739893913269
0.5716359615325928,5.093758583068848,0.79813152551651
0.5410681366920471,5.14736270904541,0.8071529269218445
0.3971581757068634,4.05231237411499,0.635960578918457
0.37040975689888,4.077945232391357,0.6405454277992249
0.3494262993335724,4.168727397918701,0.6553985476493835
0.3209894597530365,4.1786017417907715,0.6575770378112793
0.2891702950000763,4.14211893081665,0.6522969603538513
0.262544184923172,4.182477951049805,0.6588664054870605
0.43015027046203613,7.732605457305908,1.218580961227417
0.3771452009677887,7.758403301239014,1.2231625318527222
0.3212539255619049,7.714428424835205,1.216797947883606
0.26679500937461853,7.693192005157471,1.214073657989502
0.2126341611146927,7.671586513519287,1.2112654447555542
0.15765120089054108,7.645884990692139,1.2070882320404053
0.1038132756948471,7.608203411102295,1.2010819911956787
0.05066293478012085,7.593296051025391,1.1987295150756836
-0.002097094664350152,7.543291091918945,1.1908940076828003
-0.05446639657020569,7.535364151000977,1.189758539199829
-0.10742124170064926,7.511629581451416,1.186187505722046
-0.15939639508724213,7.503075122833252,1.1844114065170288
-0.21004337072372437,7.451766014099121,1.1757502555847168
-0.26093432307243347,7.4271087646484375,1.171356439590454
-0.31441351771354675,7.471499919891357,1.1779075860977173
-0.2625596821308136,5.353349685668945,0.8436914682388306
-0.30344030261039734,5.4053826332092285,0.8516440391540527
-0.3411491811275482,5.407124996185303,0.8514599204063416
-0.377086341381073,5.385573863983154,0.8473002910614014
-0.41132068634033203,5.344540119171143,0.8401226997375488
-0.4482918977737427,5.341742992401123,0.8389997482299805
-0.42027655243873596,4.6160407066345215,0.7244492173194885
-0.4523608386516571,4.613160610198975,0.7234735488891602
-0.4836359918117523,4.602385997772217,0.7212434411048889
-0.5127133131027222,4.576164722442627,0.7161678075790405
-0.5441896915435791,4.572757720947266,0.7147013545036316
-0.571892261505127,4.534594535827637,0.7078264951705933
-0.604349672794342,4.538400650024414,0.7075526118278503
-0.6326965093612671,4.51137638092041,0.7025063037872314
-0.66289883852005,4.4994611740112305,0.6998535990715027
-0.6926279664039612,4.48745584487915,0.696811854839325
-0.7195459008216858,4.456145763397217,0.6907116174697876
-0.7500312924385071,4.451414108276367,0.6887920498847961
-0.7755228281021118,4.415980339050293,0.6821478605270386
-0.8075969815254211,4.4183783531188965,0.6813830137252808
-0.8268141150474548,4.352235317230225,0.6700925827026367
-0.7207536697387695,3.6570658683776855,0.5619146823883057
-0.7476893067359924,3.659850835800171,0.5610511302947998
-0.7710402011871338,3.6474111080169678,0.5579034686088562
-0.9389523863792419,4.2952799797058105,0.6555485725402832
-0.9798893928527832,4.338001728057861,0.6606189608573914
-1.0056697130203247,4.312629222869873,0.6553412079811096
-1.033987045288086,4.29838752746582,0.6515060067176819
-1.0631684064865112,4.291691780090332,0.648676872253418
-1.0846675634384155,4.2548322677612305,0.6413310170173645
-1.1178715229034424,4.262645721435547,0.640731155872345
-1.1455447673797607,4.2477192878723145,0.6367195844650269
-1.1715192794799805,4.225022315979004,0.6315531730651855
-1.1962323188781738,4.202479839324951,0.6262072324752808
-1.2225053310394287,4.187341690063477,0.6218430995941162
-1.2464097738265991,4.164626121520996,0.6163933873176575
-1.275137186050415,4.156409740447998,0.6130862832069397
-1.306917428970337,4.1551384925842285,0.6107728481292725
-1.3299407958984375,4.127999782562256,0.6047284603118896
-1.3578757047653198,4.119427680969238,0.6010911464691162
-1.388110637664795,4.118046283721924,0.5984528660774231
-1.4006972312927246,4.0652289390563965,0.5883918404579163
-1.4341437816619873,4.0705180168151855,0.586703896522522
-1.4630329608917236,4.0607829093933105,0.5828233957290649
-1.4884732961654663,4.043835639953613,0.5778912305831909
-1.510166049003601,4.019834518432617,0.5716847777366638
-1.5426907539367676,4.024645805358887,0.5696017742156982
-1.5730494260787964,4.021793365478516,0.5663920044898987
-1.5959044694900513,3.996718645095825,0.5599754452705383
-1.6150771379470825,3.964524269104004,0.5526636838912964
-1.6447834968566895,3.9613170623779297,0.5491105318069458
-1.6622225046157837,3.9294350147247314,0.541548490524292
-1.691750407218933,3.9258906841278076,0.5379068851470947
-1.7197555303573608,3.9143741130828857,0.5330061912536621
-1.744025707244873,3.895782232284546,0.5272326469421387
-1.7560436725616455,3.8527355194091797,0.5179732441902161
-1.793168544769287,3.866218328475952,0.5162212252616882
-1.8223716020584106,3.8617970943450928,0.5120589733123779
-1.8313840627670288,3.8109610080718994,0.5015727281570435
-1.8733766078948975,3.8300974369049072,0.5003951191902161
-1.8905177116394043,3.800724983215332,0.4926455318927765
-1.9121501445770264,3.7819085121154785,0.48621809482574463
-1.9411321878433228,3.77656626701355,0.48147711157798767
-1.9712125062942505,3.770463705062866,0.4764731228351593
-1.994442105293274,3.7501907348632812,0.4696160852909088
-2.019188165664673,3.7376842498779297,0.46353209018707275
-2.0606658458709717,3.7556519508361816,0.4612104892730713
-1.7214949131011963,3.087308883666992,0.37521040439605713
-1.746971607208252,3.0825510025024414,0.37064293026924133
-0.849149227142334,1.4749627113342285,0.17532221972942352
-0.8548752665519714,1.462970495223999,0.1718733012676239
-0.8568682670593262,1.4440749883651733,0.16757352650165558
-0.8670403361320496,1.438317060470581,0.16474604606628418
-0.8971012830734253,1.4658756256103516,0.1656370908021927
-0.8945107460021973,1.4403984546661377,0.16042965650558472
-0.891839325428009,1.4148762226104736,0.1552346795797348
-0.9018132090568542,1.4088788032531738,0.15212997794151306
-0.8984684944152832,1.3835936784744263,0.14692437648773193
-0.9031324982643127,1.371570348739624,0.14315281808376312
-0.9171529412269592,1.3719580173492432,0.14044763147830963
-2.4106006622314453,3.5532851219177246,0.35658296942710876
-1.3456873893737793,1.957022786140442,0.1923096477985382
-1.2518960237503052,1.7951102256774902,0.17243166267871857
-1.3163766860961914,1.8597640991210938,0.17426691949367523
-1.4312955141067505,2.0324032306671143,-0.11078458279371262
-1.2334051132202148,1.7799746990203857,-0.10242503136396408
-1.3505058288574219,1.9784826040267944,-0.11934410035610199
-1.590812087059021,2.6045055389404297,-0.202145516872406
-1.5752042531967163,2.622541666030884,-0.2094118893146515
-1.50711190700531,2.549208641052246,-0.20886650681495667
-1.472909927368164,2.532625913619995,-0.21271809935569763
-1.3559045791625977,2.410092353820801,-0.21197408437728882
-1.2989026308059692,2.3477611541748047,-0.21103815734386444
-1.2537299394607544,2.305452346801758,-0.21154744923114777
-1.218712329864502,2.2796406745910645,-0.2133481800556183
-1.1827077865600586,2.249811887741089,-0.2145540714263916
-1.1218076944351196,2.1713831424713135,-0.2108660638332367
-1.0915287733078003,2.1514639854431152,-0.21271200478076935
-1.0501930713653564,2.1064999103546143,-0.21178165078163147
-1.0182148218154907,2.0784895420074463,-0.2123955488204956
-0.9862382411956787,2.050363302230835,-0.21279902756214142
-0.9530239105224609,2.0183937549591064,-0.21268996596336365
-0.9224674701690674,1.9893676042556763,-0.21267442405223846
-0.8969164490699768,1.9707566499710083,-0.21373561024665833
-0.8572872281074524,1.9200190305709839,-0.21105368435382843
-0.8356264233589172,1.9079711437225342,-0.21251821517944336
-0.8129978179931641,1.8920032978057861,-0.21342916786670685
-0.7815460562705994,1.8543530702590942,-0.2118012011051178
-0.7605125904083252,1.8417211771011353,-0.21289511024951935
-0.7385144829750061,1.8251832723617554,-0.21344469487667084
-0.7171077132225037,1.808313250541687,-0.21384890377521515
-0.6959519982337952,1.7912458181381226,-0.21418215334415436
-0.6706785559654236,1.7632015943527222,-0.21301403641700745
-0.652377188205719,1.7531641721725464,-0.21401454508304596
-0.6347492337226868,1.7427897453308105,-0.21486322581768036
-0.6094967722892761,1.7103255987167358,-0.21293485164642334
-0.5883744359016418,1.6886720657348633,-0.2121683806180954
-0.568808913230896,1.6704965829849243,-0.2117747664451599
-0.5568246841430664,1.674226999282837,-0.21415221691131592
-0.5331143140792847,1.6409103870391846,-0.21171636879444122
-0.5203256607055664,1.6406607627868652,-0.21342504024505615
-0.509781002998352,1.6477479934692383,-0.2160360962152481
-0.4981306493282318,1.651029348373413,-0.2181500345468521
-0.47891902923583984,1.628174066543579,-0.21677842736244202
-0.4630185663700104,1.6163787841796875,-0.21683676540851593
-0.45156049728393555,1.6193636655807495,-0.21872080862522125
-0.43805480003356934,1.614789605140686,-0.21958795189857483
-0.42476126551628113,1.610075831413269,-0.22041697800159454
-0.40386223793029785,1.5752512216567993,-0.21709342300891876
-0.3878527283668518,1.5590964555740356,-0.2161795198917389
-0.3786134123802185,1.5691064596176147,-0.21884368360042572
-0.3587845265865326,1.5338128805160522,-0.21516302227973938
-0.34635812044143677,1.5285125970840454,-0.21565820276737213
-0.33731555938720703,1.5382468700408936,-0.21821580827236176
-0.3246908187866211,1.5328528881072998,-0.21854272484779358
-0.317004531621933,1.5500612258911133,-0.22208906710147858
-0.2986982762813568,1.5140900611877441,-0.2180021107196808
-0.2859523296356201,1.504546880722046,-0.21769733726978302
-0.27537646889686584,1.5063483715057373,-0.218871608376503
-0.26326218247413635,1.5004920959472656,-0.2189287543296814
-0.2514841556549072,1.4945045709609985,-0.2189481556415558
-0.24106816947460175,1.496054768562317,-0.22007490694522858
-0.2259175330400467,1.4669816493988037,-0.2166249006986618
-0.21788525581359863,1.4836891889572144,-0.21979951858520508
-0.2105058878660202,1.5080313682556152,-0.22414778172969818
-0.1866057813167572,1.4875364303588867,-0.2225596010684967
0.14594420790672302,1.4761850833892822,-0.22266139090061188
0.19835200905799866,1.478439450263977,-0.2199360430240631
0.20862166583538055,1.4771658182144165,-0.21898964047431946
0.21772567927837372,1.4681849479675293,-0.21686133742332458
0.23047807812690735,1.4820367097854614,-0.2180965095758438
0.2536901533603668,1.4942290782928467,-0.21828165650367737
0.2653944492340088,1.5002254247665405,-0.21817997097969055
0.27718186378479004,1.506133794784546,-0.21806715428829193
0.28768303990364075,1.5043410062789917,-0.2168383002281189
0.2991296648979187,1.5062310695648193,-0.21612980961799622
0.3096012771129608,1.5043048858642578,-0.2147941142320633
0.3216511905193329,1.509889006614685,-0.21445342898368835
0.3387874960899353,1.5380526781082153,-0.21730177104473114
0.35468679666519165,1.5584938526153564,-0.21902211010456085
0.36043238639831543,1.5335403680801392,-0.2143496572971344
0.3728567361831665,1.538761019706726,-0.21377068758010864
0.3853701651096344,1.5438834428787231,-0.21317553520202637
0.4067436158657074,1.5826363563537598,-0.21718108654022217
0.42373862862586975,1.6024515628814697,-0.2185426950454712
0.4289766848087311,1.577236533164978,-0.21365901827812195
0.4482192099094391,1.6043299436569214,-0.21581226587295532
0.46788161993026733,1.6312319040298462,-0.21789029240608215
