X,Y,Z
-0.8697037100791931,1.4350340366363525,0.07511849701404572
-0.883760392665863,1.435675024986267,0.07389829307794571
-0.9014739394187927,1.4431395530700684,0.07299019396305084
-0.9107458591461182,1.437386393547058,0.07139372825622559
-0.8954847455024719,1.3916476964950562,0.06773323565721512
-0.8857977390289307,1.356144666671753,0.06464532762765884
-0.8987648487091064,1.3570377826690674,0.06329408288002014
-0.9622830152511597,1.4320521354675293,0.06523867696523666
-1.6187552213668823,2.340627908706665,0.10118791460990906
-1.5199216604232788,2.166973829269409,0.0910201221704483
-1.2507737874984741,1.789013385772705,-0.055480074137449265
-1.293968677520752,1.9107773303985596,-0.06465703248977661
-1.2153784036636353,1.82236647605896,-0.06400732696056366
-1.1759330034255981,1.792189359664917,-0.06521404534578323
-1.180181622505188,1.826605200767517,-0.06862083822488785
-1.1983705759048462,1.8844135999679565,-0.07297439128160477
-1.3743090629577637,2.1979823112487793,-0.08767516165971756
-1.3834450244903564,2.2473347187042236,-0.09201562404632568
-0.8346078991889954,1.4471930265426636,-0.06502261757850647
-2.138652801513672,3.7723324298858643,-0.1729660928249359
-1.7179170846939087,3.081838846206665,-0.144071564078331
-2.0529894828796387,3.743759870529175,-0.17822721600532532
-2.053917646408081,3.8097050189971924,-0.1845700442790985
-2.0181937217712402,3.8109021186828613,-0.18783694505691528
-1.980444312095642,3.8040926456451416,-0.19052357971668243
-1.937882900238037,3.7863552570343018,-0.19259467720985413
-1.8840806484222412,3.7478322982788086,-0.1934673935174942
-1.8100554943084717,3.666825532913208,-0.19203878939151764
-1.8299286365509033,3.7742066383361816,-0.20041196048259735
-1.493161678314209,3.135042905807495,-0.1687036156654358
-1.518293857574463,3.248143196105957,-0.17699944972991943
-1.4573084115982056,3.1773452758789062,-0.17529553174972534
-1.4991601705551147,3.329585075378418,-0.18586426973342896
-1.4380385875701904,3.254179000854492,-0.18377111852169037
-1.4109631776809692,3.2573602199554443,-0.18598711490631104
-1.3843034505844116,3.260157346725464,-0.18814894556999207
-1.367473840713501,3.2840158939361572,-0.19147205352783203
-1.3356839418411255,3.2716636657714844,-0.1926848292350769
-1.3035497665405273,3.2592685222625732,-0.1937667578458786
-1.2640066146850586,3.2286360263824463,-0.1937490701675415
-1.22170090675354,3.1863362789154053,-0.1929217278957367
-1.185778021812439,3.1581215858459473,-0.19289129972457886
-1.1593855619430542,3.1553146839141846,-0.1943352371454239
-1.1209218502044678,3.119375705718994,-0.19366037845611572
-1.0983697175979614,3.127260684967041,-0.19570644199848175
-1.0664689540863037,3.105194330215454,-0.1958160102367401
-1.0336562395095825,3.079152822494507,-0.19564510881900787
-1.006858229637146,3.0714969635009766,-0.19648948311805725
-0.9647511839866638,3.0153486728668213,-0.19420930743217468
-0.9339507818222046,2.9922590255737305,-0.19402781128883362
-0.9039837121963501,2.96875,-0.19377489387989044
-0.8830463290214539,2.9749398231506348,-0.19538408517837524
-0.8456025719642639,2.924874782562256,-0.19321323931217194
-0.8248298168182373,2.9307007789611816,-0.19471897184848785
-0.7982721924781799,2.9137039184570312,-0.1946859210729599
-0.7776530981063843,2.919174909591675,-0.1961747705936432
-0.7482589483261108,2.890533208847046,-0.1952248364686966
-0.7182956337928772,2.8578622341156006,-0.19396314024925232
-0.6944917440414429,2.8476078510284424,-0.19420936703681946
-0.6745988130569458,2.852299690246582,-0.19547270238399506
-0.6482274532318115,2.830339193344116,-0.1949141025543213
-0.6265057921409607,2.8271682262420654,-0.19547133147716522
-0.6015962362289429,2.808589220046997,-0.19496458768844604
-0.5819083452224731,2.8126602172851562,-0.19602596759796143
-0.5531569719314575,2.77070951461792,-0.19387198984622955
-0.5334414839744568,2.7745015621185303,-0.1948927938938141
-0.5089036822319031,2.751307964324951,-0.19388870894908905
-0.48540136218070984,2.731745719909668,-0.1931387484073639
-0.4663642346858978,2.734999179840088,-0.19399836659431458
-0.4448626935482025,2.7227258682250977,-0.19376008212566376
-0.42316529154777527,2.710350275039673,-0.193472757935524
-0.4030122458934784,2.7054929733276367,-0.19360166788101196
-0.37911856174468994,2.6734817028045654,-0.191789448261261
-0.3583862781524658,2.6605663299560547,-0.19134509563446045
-0.33590269088745117,2.632030725479126,-0.18977750837802887
-0.3175382614135742,2.634265899658203,-0.1903766691684723
-0.29564574360847473,2.609330415725708,-0.1889180690050125
-0.2773233950138092,2.6113059520721436,-0.18940778076648712
-0.25681865215301514,2.589876413345337,-0.1882033497095108
-0.2402462661266327,2.6070821285247803,-0.18981367349624634
-0.22140789031982422,2.600898504257202,-0.1896769255399704
-0.20684677362442017,2.65287709236145,-0.1936885416507721
-0.1869056075811386,2.6348044872283936,-0.19259421527385712
-0.16881148517131805,2.6399059295654297,-0.1932007223367691
-0.14888300001621246,2.613766670227051,-0.1915280669927597
-0.1295042783021927,2.5913751125335693,-0.1900850236415863
-0.11108703166246414,2.5922183990478516,-0.19023574888706207
-0.0935671404004097,2.608492374420166,-0.1915270984172821
-0.07539872825145721,2.609070062637329,-0.19167569279670715
-0.056737225502729416,2.586151599884033,-0.19010628759860992
-0.0385330468416214,2.570894241333008,-0.18906913697719574
-0.020434731617569923,2.586686372756958,-0.1901950240135193
-0.002452951157465577,2.5945589542388916,-0.1907482147216797
0.015450065024197102,2.571140766143799,-0.18901027739048004
0.03333025425672531,2.570972442626953,-0.1889907866716385
0.051493264734745026,2.5862624645233154,-0.19009098410606384
0.06924863159656525,2.5780673027038574,-0.18933038413524628
0.0874524787068367,2.577528238296509,-0.1891392469406128
0.10440082848072052,2.5535168647766113,-0.1872386634349823
0.12290441989898682,2.568308115005493,-0.18819265067577362
0.1416143923997879,2.582965850830078,-0.18913228809833527
0.15807732939720154,2.558617115020752,-0.1870763897895813
0.17771176993846893,2.5807852745056152,-0.1884264498949051
0.19444483518600464,2.5639758110046387,-0.18694300949573517
0.2135484367609024,2.578118324279785,-0.18772506713867188
0.2300909161567688,2.5610740184783936,-0.18624329566955566
0.25154685974121094,2.598238945007324,-0.18854640424251556
0.2681904435157776,2.5809438228607178,-0.18689654767513275
0.28695589303970337,2.5868027210235596,-0.1869385987520218
0.3040124177932739,2.577044725418091,-0.1858605593442917
0.32387006282806396,2.590369462966919,-0.18645475804805756
0.34275171160697937,2.5958478450775146,-0.18633690476417542
0.3620593845844269,2.6011431217193604,-0.18619677424430847
0.380058228969574,2.598623275756836,-0.18551236391067505
0.3969484865665436,2.588261842727661,-0.1842760592699051
0.41865286231040955,2.6085705757141113,-0.18522943556308746
0.4372888207435608,2.6095221042633057,-0.18466496467590332
0.4592798054218292,2.6295394897460938,-0.18544608354568481
0.4847683906555176,2.664639949798584,-0.18727077543735504
0.5047478079795837,2.66892147064209,-0.1869354099035263
0.523308515548706,2.665405511856079,-0.18606112897396088
0.5486316084861755,2.696183443069458,-0.18742424249649048
0.567147970199585,2.6924216747283936,-0.1863851696252823
0.591077446937561,2.7112817764282227,-0.18689526617527008
0.6099510788917542,2.707171678543091,-0.18583303689956665
0.6340693235397339,2.7257134914398193,-0.18631576001644135
0.6563946604728699,2.736541509628296,-0.18614041805267334
0.6817035675048828,2.7585432529449463,-0.18672002851963043
0.7011256217956543,2.753756046295166,-0.18546193838119507
0.7281877994537354,2.779057264328003,-0.18624037504196167
0.7646744847297668,2.8380162715911865,-0.18921607732772827
0.7778006792068481,2.810279607772827,-0.18630081415176392
0.8076549172401428,2.8424882888793945,-0.18736128509044647
0.8342804312705994,2.859260082244873,-0.1873541921377182
0.8564026951789856,2.860948324203491,-0.18637315928936005
0.8932560086250305,2.9109864234924316,-0.1884615570306778
0.913110613822937,2.9049248695373535,-0.18683558702468872
0.9401146173477173,2.9209885597229004,-0.1866305023431778
0.9583250284194946,2.9069631099700928,-0.18446193635463715
0.9885224103927612,2.929880380630493,-0.1846575140953064
1.0059343576431274,2.9158108234405518,-0.1824217140674591
1.0153346061706543,2.8796041011810303,-0.1788051575422287
1.0404224395751953,2.8873326778411865,-0.177913099527359
1.0780659914016724,2.9276888370513916,-0.1789913922548294
1.1549772024154663,3.0697929859161377,-0.18614551424980164
1.1883498430252075,3.0947835445404053,-0.18604783713817596
1.233519434928894,3.148505449295044,-0.18763478100299835
1.2611875534057617,3.154463529586792,-0.18630331754684448
1.291943907737732,3.1674113273620605,-0.18537431955337524
1.3512324094772339,3.2485904693603516,-0.18826279044151306
1.3822410106658936,3.2610912322998047,-0.18712590634822845
1.1339366436004639,2.6249454021453857,-0.14909175038337708
1.142763376235962,2.595673084259033,-0.1458950787782669
1.1573344469070435,2.580772876739502,-0.1434907168149948
1.1749663352966309,2.5729079246520996,-0.1414213329553604
1.18424654006958,2.5472655296325684,-0.1383994221687317
1.2270172834396362,2.5919580459594727,-0.1391451209783554
1.2516082525253296,2.5976240634918213,-0.1377348154783249
1.775542974472046,3.622915506362915,-0.1896292269229889
1.8073829412460327,3.624751091003418,-0.18718017637729645
1.9102758169174194,3.7653565406799316,-0.1917538046836853
1.950401782989502,3.780064344406128,-0.18977472186088562
1.3774094581604004,2.6266591548919678,-0.1299280822277069
1.3767468929290771,2.5829837322235107,-0.12582294642925262
1.3482309579849243,2.4876608848571777,-0.11923633515834808
1.3221462965011597,2.399736166000366,-0.1130838468670845
1.309444546699524,2.339932918548584,-0.1083730161190033
1.3214718103408813,2.324294090270996,-0.10571139305830002
1.320037603378296,2.284733295440674,-0.1019539013504982
1.3154617547988892,2.2423341274261475,-0.09810624271631241
1.3384095430374146,2.2470109462738037,-0.09629707783460617
1.3459209203720093,2.2243943214416504,-0.0932411476969719
1.3611137866973877,2.21523380279541,-0.09075433015823364
1.3549035787582397,2.1732656955718994,-0.08694355934858322
1.3779630661010742,2.17732310295105,-0.08491676300764084
1.3743404150009155,2.138059139251709,-0.08112156391143799
1.3838995695114136,2.1226656436920166,-0.07829505205154419
1.3980358839035034,2.113478660583496,-0.07563988864421844
1.4235669374465942,2.1200218200683594,-0.07343760132789612
1.4305487871170044,2.10125470161438,-0.07034768164157867
1.449210286140442,2.098022699356079,-0.06763339042663574
1.454683780670166,2.075279951095581,-0.06422467529773712
1.4587894678115845,2.053354501724243,-0.06087714806199074
1.4544596672058105,2.0181283950805664,-0.05699927359819412
1.4538346529006958,1.9897174835205078,-0.053323205560445786
1.4712525606155396,1.9866856336593628,-0.05025094747543335
2.124763011932373,2.9736452102661133,0.10479576140642166
2.1013777256011963,2.985281467437744,0.10918877273797989
2.089212656021118,3.0174150466918945,0.11429266631603241
2.595756769180298,3.8060860633850098,0.148637056350708
3.1402595043182373,4.677182197570801,0.1879737228155136
3.123772144317627,4.73012113571167,0.19536514580249786
3.083631753921509,4.742181301116943,0.2007404863834381
3.0887818336486816,4.826878547668457,0.20910710096359253
1.640291452407837,2.6067276000976562,0.115459144115448
1.6137889623641968,2.6047427654266357,0.1176784411072731
3.037980794906616,4.982149600982666,0.2294124960899353
2.97568678855896,4.9648308753967285,0.23286983370780945
2.96761417388916,5.032961368560791,0.24010059237480164
2.9343831539154053,5.056687355041504,0.24514058232307434
2.815868616104126,4.935535430908203,0.24295678734779358
2.735011577606201,4.87791633605957,0.2437233179807663
2.668121814727783,4.838981628417969,0.2451740801334381
2.6119067668914795,4.816134452819824,0.24730859696865082
2.5632529258728027,4.811065196990967,0.2501482665538788
2.516765832901001,4.808925628662109,0.2531130909919739
2.456437826156616,4.774090766906738,0.254148006439209
2.385564088821411,4.718057632446289,0.25404131412506104
2.3403899669647217,4.714312553405762,0.256490558385849
1.2528324127197266,2.570762872695923,0.14130809903144836
1.224672555923462,2.5582666397094727,0.14198726415634155
1.1951868534088135,2.5419280529022217,0.14242832362651825
1.183321237564087,2.564570665359497,0.14497876167297363
1.1657843589782715,2.5767717361450195,0.14694885909557343
1.1536900997161865,2.5991933345794678,0.14946430921554565
1.1277580261230469,2.5891940593719482,0.15009208023548126
2.061136245727539,4.824499607086182,0.2818613052368164
2.0349607467651367,4.860809803009033,0.28603875637054443
2.009268045425415,4.900832176208496,0.29050329327583313
1.986538290977478,4.943565368652344,0.29505133628845215
1.982010006904602,5.0333428382873535,0.30245712399482727
2.0133848190307617,5.221861839294434,0.3157869875431061
1.9974894523620605,5.294539451599121,0.32210829854011536
1.9733799695968628,5.349147796630859,0.327409029006958
1.9493250846862793,5.399273872375488,0.3323764204978943
1.9116798639297485,5.412548542022705,0.3351042866706848
1.897261381149292,5.495901584625244,0.3420386016368866
1.8688324689865112,5.542524337768555,0.3466472923755646
1.8380553722381592,5.585494518280029,0.35108891129493713
1.9112298488616943,5.94696044921875,0.375602126121521
1.8837451934814453,6.004612922668457,0.38106364011764526
1.8559520244598389,6.066129684448242,0.38665252923965454
1.8246126174926758,6.120242595672607,0.39169424772262573
1.79579496383667,6.18546199798584,0.39749351143836975
1.7720164060592651,6.269173622131348,0.4045126736164093
1.7303833961486816,6.28872537612915,0.40740227699279785
1.705319881439209,6.372128486633301,0.4143647849559784
1.6715508699417114,6.42927885055542,0.4194655120372772
0.8204338550567627,3.2506933212280273,0.21279317140579224
1.5563406944274902,6.357561111450195,0.41757458448410034
0.7987769842147827,3.364215612411499,0.22169902920722961
1.4536683559417725,6.317562580108643,0.41771063208580017
1.3926130533218384,6.25532865524292,0.4146982431411743
1.3431293964385986,6.242102146148682,0.4149235785007477
1.2997599840164185,6.259122371673584,0.41719019412994385
1.2385931015014648,6.179991722106934,0.4130159914493561
1.19337797164917,6.176860332489014,0.4139231741428375
1.1444438695907593,6.154296875,0.413400262594223
1.0864874124526978,6.081571578979492,0.4093284010887146
1.040087103843689,6.073770523071289,0.4096480906009674
1.001306414604187,6.103893756866455,0.412524938583374
0.9515231251716614,6.064425468444824,0.41071051359176636
0.908111572265625,6.063107490539551,0.41149210929870605
0.23216918110847473,1.6282488107681274,0.11067701131105423
0.2256985455751419,1.6684774160385132,0.11357685923576355
0.21787752211093903,1.7009364366531372,0.11595769971609116
0.20697377622127533,1.7101306915283203,0.11675965040922165
0.1915392130613327,1.6805330514907837,0.11491622775793076
0.18233586847782135,1.705057144165039,0.1167709082365036
0.16958020627498627,1.6985273361206055,0.11642493307590485
0.1491711139678955,1.610430121421814,0.11048941314220428
0.1365428864955902,1.5958929061889648,0.10959760844707489
0.13124212622642517,1.670609474182129,0.11484374105930328
0.12017935514450073,1.679243803024292,0.11555830389261246
0.10948397219181061,1.6955852508544922,0.11678362637758255
0.09741338342428207,1.696315050125122,0.11687778681516647
0.08592060953378677,1.7047337293624878,0.11750702559947968
0.33651092648506165,7.751649379730225,0.5345686078071594
0.2819671034812927,7.7342987060546875,0.5336445569992065
0.22702737152576447,7.697090148925781,0.5313745141029358
0.17240121960639954,7.690695762634277,0.5310640335083008
0.11831632256507874,7.6605377197265625,0.5289233922958374
0.06477122753858566,7.633897304534912,0.5270516872406006
0.01158482301980257,7.5951924324035645,0.5243726968765259
-0.041144438087940216,7.571706771850586,0.5227698683738708
-0.09434597939252853,7.543949127197266,0.5208980441093445
-0.14588187634944916,7.496371746063232,0.5174417495727539
-0.19788911938667297,7.495204925537109,0.5170734524726868
-0.24944399297237396,7.478095054626465,0.515630304813385
-0.3006137013435364,7.456737041473389,0.5139204263687134
-0.3520507514476776,7.446708679199219,0.513016939163208
-0.2934209108352661,5.3972344398498535,0.37168681621551514
-0.33177658915519714,5.41066312789917,0.3722724914550781
-0.3686407804489136,5.400502681732178,0.3711875379085541
-0.4053803086280823,5.390089988708496,0.3701041638851166
-0.4408804476261139,5.363879203796387,0.36795416474342346
-0.4735662639141083,5.302443027496338,0.3634050786495209
-0.44652917981147766,4.635706901550293,0.3174372613430023
-0.47643741965293884,4.613187313079834,0.31540998816490173
-0.5065105557441711,4.594347953796387,0.3136354386806488
-0.5363006591796875,4.575318813323975,0.3118666708469391
-0.568648099899292,4.571461200714111,0.31113600730895996
-0.5973686575889587,4.5442609786987305,0.3088420629501343
-0.6251070499420166,4.51303768157959,0.3062649965286255
-0.6588819026947021,4.527987480163574,0.3066347539424896
-0.6870143413543701,4.504156112670898,0.30439266562461853
-0.716088593006134,4.483902454376221,0.302399218082428
-0.7472123503684998,4.478884696960449,0.30145543813705444
-0.7756285667419434,4.4582905769348145,0.2994798421859741
-0.8022074103355408,4.4298882484436035,0.2969132959842682
-0.8296107649803162,4.409051418304443,0.29473957419395447
-0.8485076427459717,4.345972537994385,0.28976958990097046
-0.7451241612434387,3.6790571212768555,0.24465793371200562
-0.7706716060638428,3.6738550662994385,0.24368447065353394
-0.9392144680023193,4.327505588531494,0.2863132953643799
-0.972226619720459,4.336276054382324,0.2860202491283417
-0.9999693036079407,4.322050094604492,0.28416645526885986
-1.03171968460083,4.32268762588501,0.2832867205142975
-1.0542138814926147,4.285236358642578,0.2799292504787445
-1.078194499015808,4.2552289962768555,0.27708134055137634
-1.1115578413009644,4.262844562530518,0.2766619920730591
-1.1363894939422607,4.2402496337890625,0.27414190769195557
-1.1676898002624512,4.239926815032959,0.27305763959884644
-1.191414713859558,4.2131667137146,0.27029359340667725
-1.2260887622833252,4.223611354827881,0.2699151337146759
-1.2498356103897095,4.196408748626709,0.26714375615119934
-1.2669579982757568,4.15062952041626,0.2630738317966461
-1.3000966310501099,4.156825065612793,0.26224860548973083
-1.330547571182251,4.155477523803711,0.2609724700450897
-1.3521884679794312,4.123984336853027,0.25778305530548096
-1.3808618783950806,4.114583969116211,0.2559953033924103
-1.4039762020111084,4.0903825759887695,0.2532162666320801
-1.4211750030517578,4.051512241363525,0.24945621192455292
-1.4568325281143188,4.063814163208008,0.24883612990379333
-1.4849275350570679,4.053755283355713,0.2468387633562088
-1.507591962814331,4.028850555419922,0.2439490705728531
-1.5324149131774902,4.01124906539917,0.24146412312984467
-1.562061071395874,4.008298397064209,0.23976348340511322
-1.5864474773406982,3.990446090698242,0.23715542256832123
-1.6110330820083618,3.9722979068756104,0.23452554643154144
-1.6416083574295044,3.968334197998047,0.23273296654224396
-1.6611547470092773,3.93916654586792,0.22941932082176208
-1.6874016523361206,3.9281303882598877,0.227089062333107
-1.718743920326233,3.9274322986602783,0.22533127665519714
-1.7411961555480957,3.9048588275909424,0.22229212522506714
-1.771515965461731,3.8999061584472656,0.22026637196540833
-1.7879914045333862,3.8667476177215576,0.21657811105251312
-1.8102657794952393,3.8478891849517822,0.21366780996322632
-1.8365988731384277,3.83553409576416,0.21106883883476257
-1.8530353307724,3.8017401695251465,0.20727838575839996
-1.8637949228286743,3.7574620246887207,0.2029387205839157
-1.897422194480896,3.7626020908355713,0.20116181671619415
-1.9222711324691772,3.750112771987915,0.1984439343214035
-1.948164463043213,3.7368764877319336,0.19560201466083527
-1.9746233224868774,3.7231149673461914,0.19268745183944702
-1.9919759035110474,3.6962878704071045,0.18907193839550018
-2.0349605083465576,3.7174978256225586,0.18788562715053558
-1.7150378227233887,3.0829696655273438,0.1538497507572174
-1.7365174293518066,3.071051597595215,0.15124672651290894
-0.8436869978904724,1.4687374830245972,0.07132252305746078
-0.8493272662162781,1.4565156698226929,0.06972628086805344
-0.8632407784461975,1.4574559926986694,0.06871604919433594
-0.8774049878120422,1.4581551551818848,0.06766676157712936
-0.8869585394859314,1.4524273872375488,0.06628621369600296
-0.9006268382072449,1.4532482624053955,0.06517744809389114
-0.9023773074150085,1.433812141418457,0.06310788542032242
-0.90793377161026,1.4211084842681885,0.06134391948580742
-0.8894339799880981,1.372728705406189,0.05806412175297737
-0.930761456489563,1.4157450199127197,0.05859450623393059
-0.953768789768219,1.4286680221557617,0.05774209648370743
-2.4356415271759033,3.5985593795776367,0.14190708100795746
-1.2594038248062134,1.8348066806793213,0.07048030197620392
-1.4172399044036865,2.034304141998291,0.07591365277767181
-1.3873718976974487,1.9647338390350342,0.07113071531057358
-1.299867033958435,1.845417857170105,-0.04996400326490402
-1.3416281938552856,1.9352649450302124,-0.05492185801267624
-1.2217496633529663,1.8183664083480835,-0.055968672037124634
-1.2775758504867554,1.9312543869018555,-0.061599001288414
-1.2273471355438232,1.8847424983978271,-0.0621669739484787
-1.2784115076065063,1.9957793951034546,-0.06792733073234558
-1.2558956146240234,1.9915059804916382,-0.0697387158870697
-0.833034098148346,1.4573760032653809,-0.05881836637854576
-2.110738754272461,3.752987861633301,-0.15441609919071198
-1.7035067081451416,3.0815553665161133,-0.12920166552066803
-2.0516116619110107,3.776456117630005,-0.16120436787605286
-2.0435221195220947,3.825009346008301,-0.1660272628068924
-2.009552478790283,3.8251914978027344,-0.1687517762184143
-1.9708555936813354,3.8187925815582275,-0.17108754813671112
-1.939131259918213,3.826101779937744,-0.17405444383621216
-1.896735668182373,3.807950735092163,-0.17570587992668152
-1.8801332712173462,3.84212064743042,-0.1797463446855545
-1.8419926166534424,3.8344485759735107,-0.18175843358039856
-1.8460026979446411,3.914517641067505,-0.18793930113315582
-1.6021791696548462,3.459726572036743,-0.16814501583576202
-1.5547380447387695,3.4212565422058105,-0.16829301416873932
-1.5696262121200562,3.521414279937744,-0.17518657445907593
-1.4396042823791504,3.2929065227508545,-0.16563589870929718
-1.4105045795440674,3.2883856296539307,-0.16716668009757996
-1.3965604305267334,3.3196310997009277,-0.17051196098327637
-1.3573652505874634,3.2935733795166016,-0.1708454191684723
-1.3628458976745605,3.3755011558532715,-0.1767793446779251
-1.3608545064926147,3.4392104148864746,-0.18177500367164612
-1.3481427431106567,3.4775943756103516,-0.18548300862312317
-1.332949161529541,3.5125601291656494,-0.18893812596797943
-1.3126963376998901,3.5367143154144287,-0.19184894859790802
-1.275797963142395,3.512749433517456,-0.1920926421880722
-1.2356297969818115,3.4773287773132324,-0.19167014956474304
-1.1918779611587524,3.4305756092071533,-0.19052906334400177
-1.1447633504867554,3.372415542602539,-0.18863239884376526
-1.1068111658096313,3.339787483215332,-0.18814904987812042
-1.0787323713302612,3.3324697017669678,-0.18902675807476044
-1.0531328916549683,3.3323702812194824,-0.19031594693660736
-1.0121989250183105,3.283766984939575,-0.1886916309595108
-0.9910311102867126,3.298274040222168,-0.19067053496837616
-0.9480867981910706,3.2376980781555176,-0.1882832944393158
-0.9197908639907837,3.2254886627197266,-0.18869632482528687
-0.8909682631492615,3.2092061042785645,-0.18881261348724365
-0.8560073971748352,3.170180082321167,-0.18746380507946014
-0.8334973454475403,3.1760950088500977,-0.1887696087360382
-0.8131937384605408,3.1893272399902344,-0.19050830602645874
-0.7821462154388428,3.1608612537384033,-0.1897701621055603
-0.7581102252006531,3.1586196422576904,-0.19051560759544373
-0.7251157760620117,3.1182658672332764,-0.18887680768966675
-0.7047197222709656,3.1308658123016357,-0.19044531881809235
-0.6771155595779419,3.1089560985565186,-0.1899046003818512
-0.6454674601554871,3.0678136348724365,-0.18819333612918854
-0.6239268779754639,3.072207450866699,-0.1891627460718155
-0.5962513089179993,3.045863628387451,-0.18818417191505432
-0.5740857720375061,3.046095609664917,-0.18884803354740143
-0.5529054999351501,3.0499560832977295,-0.1897372156381607
-0.5232831835746765,3.0076427459716797,-0.18776535987854004
-0.5047423243522644,3.026573657989502,-0.18949441611766815
-0.47977107763290405,3.0069010257720947,-0.18876489996910095
-0.4586511254310608,3.0101499557495117,-0.18947915732860565
-0.43435749411582947,2.9900712966918945,-0.18872517347335815
-0.4121338725090027,2.985299587249756,-0.18895035982131958
-0.3886929154396057,2.9687466621398926,-0.1883094310760498
-0.36595702171325684,2.9558887481689453,-0.18785907328128815
-0.34254276752471924,2.9351115226745605,-0.18690933287143707
-0.32041606307029724,2.921889543533325,-0.1864425092935562
-0.29649999737739563,2.889112710952759,-0.1847303807735443
-0.2722655236721039,2.852311849594116,-0.18266580998897552
-0.2502202093601227,2.830827236175537,-0.18152904510498047
-0.23041066527366638,2.8324856758117676,-0.18188297748565674
-0.21013802289962769,2.826221227645874,-0.18173469603061676
-0.1915610134601593,2.843147039413452,-0.1830868124961853
-0.17188666760921478,2.8521978855133057,-0.18385343253612518
-0.15283122658729553,2.868884563446045,-0.18505175411701202
-0.13172374665737152,2.8465049266815186,-0.18373888731002808
-0.11221125721931458,2.855130910873413,-0.18443529307842255
-0.09359277039766312,2.8947908878326416,-0.1871478110551834
-0.07168003171682358,2.840818166732788,-0.18374143540859222
-0.05197738856077194,2.8490421772003174,-0.18428072333335876
-0.03201323002576828,2.8415372371673584,-0.18381161987781525
-0.01229966152459383,2.849485158920288,-0.18435092270374298
0.007522826548665762,2.857295513153076,-0.18489043414592743
0.027732903137803078,2.857172727584839,-0.18486663699150085
0.047577984631061554,2.856919288635254,-0.18473826348781586
0.06686900556087494,2.833146095275879,-0.18309873342514038
0.08633352816104889,2.8248279094696045,-0.18246787786483765
0.1062956228852272,2.8319571018218994,-0.18284356594085693
0.1263495236635208,2.8389480113983154,-0.18318352103233337
0.14559002220630646,2.822431802749634,-0.18188956379890442
0.16607588529586792,2.8369386196136475,-0.1826077401638031
0.18631106615066528,2.843513011932373,-0.18282189965248108
0.2035195529460907,2.807176351547241,-0.18028807640075684
0.2217913269996643,2.7901690006256104,-0.1789918690919876
0.2420860230922699,2.796335458755493,-0.17905163764953613
0.26140421628952026,2.7946231365203857,-0.17862056195735931
0.28000473976135254,2.7850124835968018,-0.17769286036491394
0.3022862374782562,2.8101580142974854,-0.17898838222026825
0.32626187801361084,2.8467466831207275,-0.18101346492767334
0.34623757004737854,2.8444252014160156,-0.18040181696414948
0.3688580095767975,2.865204334259033,-0.1812678724527359
0.3897344470024109,2.870347023010254,-0.18114736676216125
0.4124552607536316,2.886901617050171,-0.1817493736743927
0.4336649477481842,2.8917155265808105,-0.18161742389202118
0.45271021127700806,2.8809502124786377,-0.1803705096244812
0.26911261677742004,1.6389687061309814,-0.10229259729385376
0.26135188341140747,1.5256496667861938,-0.09492457658052444
0.522009015083313,2.9248108863830566,-0.1814166158437729
0.5409321188926697,2.913487672805786,-0.18016131222248077
0.566884458065033,2.9403796195983887,-0.18113666772842407
0.5874499082565308,2.9363982677459717,-0.18018649518489838
0.6164134740829468,2.974329710006714,-0.18181657791137695
0.6338420510292053,2.9547722339630127,-0.17992886900901794
0.6645128130912781,2.99603271484375,-0.18174715340137482
0.6798180937767029,2.968665599822998,-0.17927175760269165
0.7130510807037354,3.01705265045166,-0.18134918808937073
0.7338849902153015,3.012120246887207,-0.18022270500659943
0.7577119469642639,3.0183467864990234,-0.1797623187303543
0.7943284511566162,3.073476791381836,-0.18219667673110962
0.809349775314331,3.045426368713379,-0.17956916987895966
0.8346557021141052,3.054840087890625,-0.1791451871395111
0.8631399273872375,3.0753560066223145,-0.17937476933002472
0.8952906131744385,3.106837272644043,-0.18022766709327698
0.918995201587677,3.1081230640411377,-0.17929065227508545
0.9446819424629211,3.116802930831909,-0.17867620289325714
0.9789871573448181,3.1512413024902344,-0.17950792610645294
0.998461127281189,3.137026071548462,-0.17756322026252747
0.9900823831558228,3.037360429763794,-0.1708213835954666
0.9690076112747192,2.904745101928711,-0.16225765645503998
1.0152015686035156,2.9756996631622314,-0.165034681558609
1.030335545539856,2.95405912399292,-0.16265611350536346
1.202001690864563,3.3693079948425293,-0.18412546813488007
1.2134110927581787,3.327967882156372,-0.18051542341709137
1.2482562065124512,3.3526504039764404,-0.1803860366344452
1.2681735754013062,3.3369250297546387,-0.17806550860404968
1.3052284717559814,3.3645927906036377,-0.17803211510181427
1.3405077457427979,3.3843958377838135,-0.17751893401145935
1.382763147354126,3.4222285747528076,-0.17791208624839783
1.4518872499465942,3.5247726440429688,-0.18153837323188782
1.4666506052017212,3.493391275405884,-0.1782258301973343
1.0963283777236938,2.5612871646881104,-0.12939107418060303
1.153483510017395,2.642943859100342,-0.13216841220855713
1.1474571228027344,2.5817275047302246,-0.12773510813713074
1.1696192026138306,2.584704637527466,-0.126506507396698
1.1841943264007568,2.569556713104248,-0.12435615807771683
1.2020426988601685,2.56134295463562,-0.12254241108894348
1.2296987771987915,2.5742456912994385,-0.12166156619787216
1.2212733030319214,2.513410806655884,-0.11733316630125046
1.9512102603912354,3.946484327316284,-0.1818753182888031
1.2016017436981201,2.388338565826416,-0.10861588269472122
1.2284023761749268,2.401085615158081,-0.10768930613994598
1.2623873949050903,2.427558660507202,-0.10733051598072052
1.2811392545700073,2.42221999168396,-0.10547133535146713
1.277625560760498,2.3755173683166504,-0.1018453985452652
1.2859814167022705,2.3533101081848145,-0.09928686916828156
1.2901513576507568,2.324357032775879,-0.09646359831094742
1.2927603721618652,2.2916674613952637,-0.09344873577356339
1.312803030014038,2.2893340587615967,-0.09164358675479889
1.3199938535690308,2.267225503921509,-0.08905257284641266
1.3231512308120728,2.238295555114746,-0.0862029418349266
1.334657073020935,2.2224323749542236,-0.08380724489688873
1.345499873161316,2.20682430267334,-0.08142543584108353
1.3642133474349976,2.204572916030884,-0.0794961228966713
1.3668566942214966,2.17539644241333,-0.076545350253582
1.3859561681747437,2.172625780105591,-0.0745093896985054
1.387272834777832,2.144009828567505,-0.07158390432596207
1.4016891717910767,2.1346898078918457,-0.06924492120742798
1.4209734201431274,2.131373405456543,-0.06699713319540024
1.4345895051956177,2.122307062149048,-0.0645957812666893
1.4377868175506592,2.0965840816497803,-0.06160001456737518
1.4565761089324951,2.0931718349456787,-0.05918962135910988
1.4383457899093628,2.0392589569091797,-0.055388618260622025
1.4343318939208984,2.0038580894470215,-0.05195619538426399
1.4520485401153564,2.000786066055298,-0.04938959330320358
1.4649574756622314,1.9914213418960571,-0.046581607311964035
2.108567953109741,2.971219539642334,0.09166955202817917
2.0965237617492676,3.0034449100494385,0.09623012691736221
2.586212158203125,3.7613909244537354,0.12454455345869064
3.1706669330596924,4.686000823974609,0.16010139882564545
3.1306309700012207,4.703272342681885,0.16541820764541626
3.117056369781494,4.754175186157227,0.17155416309833527
3.0904319286346436,4.789936542510986,0.17712587118148804
1.6380058526992798,2.581159830093384,0.09770236164331436
1.6279264688491821,2.605863332748413,0.10076639801263809
1.5967302322387695,2.5975403785705566,0.10248356312513351
2.944209575653076,4.871326923370361,0.19592756032943726
2.817901134490967,4.737504005432129,0.19393137097358704
2.7886781692504883,4.763643741607666,0.19833144545555115
2.777689218521118,4.82852029800415,0.20433379709720612
2.467400550842285,4.3627142906188965,0.187485471367836
2.461555242538452,4.424027442932129,0.1928716003894806
2.4617342948913574,4.499562740325928,0.19890469312667847
2.443068027496338,4.545053482055664,0.20358912646770477
2.451493263244629,4.642127513885498,0.2106344997882843
2.4712276458740234,4.759408473968506,0.21856829524040222
2.4229671955108643,4.748977184295654,0.22062133252620697
2.365177869796753,4.721189975738525,0.22175565361976624
2.3103573322296143,4.6959710121154785,0.2229287177324295
1.2293590307235718,2.544027805328369,0.12202169001102448
1.20468008518219,2.5384607315063477,0.12295740842819214
1.1976162195205688,2.571890354156494,0.125730499625206
1.1820811033248901,2.5875730514526367,0.12765322625637054
1.1528313159942627,2.570754289627075,0.12792153656482697
1.1459001302719116,2.6036484241485596,0.13066858053207397
2.0756468772888184,4.811854362487793,0.24341771006584167
2.0466227531433105,4.8410868644714355,0.24677246809005737
2.024141550064087,4.884204864501953,0.25081750750541687
2.000290870666504,4.923384189605713,0.2546607255935669
1.980041265487671,4.973452091217041,0.25905799865722656
2.029658079147339,5.209571361541748,0.2731402516365051
2.0029687881469727,5.253176689147949,0.2771958112716675
1.983801007270813,5.314486026763916,0.282168447971344
1.9627623558044434,5.372032165527344,0.2869742512702942
1.9273194074630737,5.393007755279541,0.28976699709892273
1.887619137763977,5.406905174255371,0.29210373759269714
1.8825393915176392,5.519957542419434,0.29981279373168945
1.8527042865753174,5.558711528778076,0.303480327129364
1.8937262296676636,5.816145896911621,0.3191757798194885
1.8928254842758179,5.955633640289307,0.3284158706665039
1.8643319606781006,6.0176005363464355,0.33332887291908264
1.8369404077529907,6.082963943481445,0.3384460210800171
1.8087308406829834,6.144168853759766,0.3433349132537842
1.7831518650054932,6.216470718383789,0.3488810062408447
1.7489434480667114,6.26251745223999,0.3529212772846222
1.7164454460144043,6.319906234741211,0.35742878913879395
1.6833723783493042,6.381135940551758,0.36221495270729065
1.6481668949127197,6.430480480194092,0.36631810665130615
0.8138940334320068,3.2700538635253906,0.18694519996643066
1.5455901622772217,6.399522304534912,0.3671635091304779
0.7882041335105896,3.3684287071228027,0.19381600618362427
1.424187421798706,6.291548728942871,0.3630712628364563
1.3746118545532227,6.278519630432129,0.36336883902549744
1.3219764232635498,6.245877265930176,0.3625211715698242
1.2613312005996704,6.170767307281494,0.3592035174369812
1.2111355066299438,6.144961833953857,0.35861942172050476
1.1639002561569214,6.138130187988281,0.35904058814048767
1.1189451217651367,6.138481140136719,0.3598836362361908
1.0773335695266724,6.153763771057129,0.3616085350513458
1.0248264074325562,6.103344917297363,0.35947877168655396
0.9761678576469421,6.07174825668335,0.35846173763275146
0.9189985990524292,5.989880561828613,0.3542104661464691
0.8862422108650208,6.061763763427734,0.35904762148857117
0.2255246639251709,1.6221978664398193,0.09624598175287247
0.21370811760425568,1.6198484897613525,0.0962698683142662
0.20243443548679352,1.6212809085845947,0.09652253985404968
0.19795562326908112,1.6807303428649902,0.10021639615297318
0.18334709107875824,1.6588383913040161,0.09901982545852661
0.1764959841966629,1.7066192626953125,0.10198676586151123
0.15931151807308197,1.653462290763855,0.09892555326223373
0.1432911604642868,1.604029893875122,0.0960838794708252
0.12892645597457886,1.566116213798523,0.09393028914928436
0.12334135919809341,1.640863299369812,0.09849464893341064
0.11342792958021164,1.665022611618042,0.09999942034482956
0.10413281619548798,1.7046903371810913,0.1024426817893982
0.09183013439178467,1.697581171989441,0.10208062827587128
0.08115163445472717,1.7215403318405151,0.10359211266040802
0.3096274733543396,7.729809761047363,0.4654807150363922
0.25525137782096863,7.716180324554443,0.4647260308265686
0.20085036754608154,7.694376468658447,0.4634474813938141
0.14676569402217865,7.672191143035889,0.4621681272983551
0.09310761839151382,7.645725727081299,0.4606527090072632
0.03876145929098129,7.607193946838379,0.4584338665008545
-0.014142726548016071,7.583878040313721,0.4571363031864166
-0.06660595536231995,7.548518657684326,0.45479896664619446
-0.11888545006513596,7.532290458679199,0.4536377191543579
-0.1706889569759369,7.507906913757324,0.45200833678245544
-0.22215940058231354,7.483168125152588,0.4503803253173828
-0.2734844982624054,7.43856143951416,0.447577565908432
-0.3261393904685974,7.459874629974365,0.4486842155456543
-0.2731578052043915,5.393527030944824,0.32409679889678955
-0.312722772359848,5.430459976196289,0.3260248303413391
-0.3488486707210541,5.404839992523193,0.3242117166519165
-0.3859516680240631,5.38670539855957,0.3228600025177002
-0.4221656918525696,5.3683671951293945,0.3215178847312927
-0.4583546221256256,5.353689193725586,0.32030439376831055
-0.48198026418685913,5.2067766189575195,0.3110663592815399
-0.45957475900650024,4.617453575134277,0.27547359466552734
-0.4912398159503937,4.606383323669434,0.2744342088699341
-0.5214769244194031,4.5873942375183105,0.27294304966926575
-0.5524085164070129,4.575950622558594,0.27191585302352905
-0.5819398164749146,4.556606292724609,0.27029719948768616
-0.6121988296508789,4.544816017150879,0.26907122135162354
-0.6406717896461487,4.517305850982666,0.2669220566749573
-0.6702463626861572,4.501229763031006,0.26546981930732727
-0.7002743482589722,4.4888081550598145,0.2642472982406616
-0.7289066910743713,4.468489170074463,0.26257503032684326
-0.7608293294906616,4.471131324768066,0.2620850205421448
-0.7886704802513123,4.45051908493042,0.26023557782173157
-0.8154557347297668,4.421954154968262,0.25792643427848816
-0.8446881175041199,4.4085774421691895,0.2565227448940277
-0.7429739236831665,3.737096071243286,0.21693173050880432
-0.7546116709709167,3.6631674766540527,0.21209463477134705
-0.778800368309021,3.654168128967285,0.21093180775642395
-0.9426221251487732,4.277169704437256,0.2461404949426651
-0.9885054230690002,4.342894554138184,0.24917294085025787
-1.0115489959716797,4.305605411529541,0.246292382478714
-1.0414280891418457,4.298541069030762,0.24515891075134277
-1.063234806060791,4.261119842529297,0.24216806888580322
-1.0839201211929321,4.2197465896606445,0.2389165163040161
-1.1185557842254639,4.234980583190918,0.2388983517885208
-1.1490135192871094,4.230935573577881,0.23777788877487183
-1.1804779767990112,4.23043966293335,0.23686718940734863
-1.2096325159072876,4.222273349761963,0.2354808896780014
-1.2354099750518799,4.202691555023193,0.23333880305290222
-1.2571027278900146,4.171898365020752,0.2306114137172699
-1.2880593538284302,4.170693874359131,0.22951900959014893
-1.314578890800476,4.154311656951904,0.22759413719177246
-1.340955376625061,4.137755393981934,0.22567032277584076
-1.3692626953125,4.128565788269043,0.22399944067001343
-1.397032618522644,4.119340419769287,0.22235658764839172
-1.4199554920196533,4.095071792602539,0.21990254521369934
-1.4379738569259644,4.055771350860596,0.216640442609787
-1.4741239547729492,4.067768573760986,0.21613113582134247
-1.4934101104736328,4.035872936248779,0.21316181123256683
-1.5264663696289062,4.040271759033203,0.21207618713378906
-1.5510571002960205,4.022629737854004,0.2098492681980133
-1.5733388662338257,3.9972984790802,0.20720398426055908
-1.601159691810608,3.986333131790161,0.20531828701496124
-1.6205698251724243,3.957509756088257,0.20241393148899078
-1.650546908378601,3.953662633895874,0.20075851678848267
-1.6682277917861938,3.9209060668945312,0.19765497744083405
-1.683009147644043,3.8806838989257812,0.19417183101177216
-1.7098021507263184,3.869055986404419,0.19213034212589264
-1.7450411319732666,3.879084825515747,0.19104397296905518
-1.7776960134506226,3.881511926651001,0.18954899907112122
-1.791128158569336,3.8410205841064453,0.1859448254108429
-1.831228256225586,3.8567636013031006,0.18504948914051056
-1.8506700992584229,3.8302528858184814,0.18207673728466034
-1.8760284185409546,3.818006992340088,0.17974312603473663
-1.8985545635223389,3.798243761062622,0.17701567709445953
-1.9142731428146362,3.7642059326171875,0.17361319065093994
-1.9295105934143066,3.7301838397979736,0.17022886872291565
-1.957595705986023,3.7244555950164795,0.16805996000766754
-1.9820369482040405,3.711618185043335,0.1655718982219696
-2.0152289867401123,3.711594820022583,0.1635466068983078
-1.7132591009140015,3.1027157306671143,0.13497906923294067
-1.726037621498108,3.077834129333496,0.13212457299232483
-1.7462002038955688,3.0665366649627686,0.1298614740371704
-0.8406515121459961,1.4529204368591309,0.06063830852508545
-0.8665538430213928,1.474014401435852,0.060605525970458984
-0.8642578125,1.4481991529464722,0.05859628692269325
-0.8817638754844666,1.455942153930664,0.05796331539750099
-0.8836950659751892,1.4365174770355225,0.056186988949775696
-0.9017077684402466,1.4437737464904785,0.0554504431784153
-0.9068242311477661,1.4313786029815674,0.053940024226903915
-0.8954684734344482,1.3923572301864624,0.05139680206775665
-0.881733238697052,1.3314809799194336,0.04701675847172737
-2.3925998210906982,3.5622975826263428,0.12280753254890442
-1.5170023441314697,2.193544626235962,0.07158040255308151
-1.3631013631820679,1.9439103603363037,0.061579253524541855
-1.3604350090026855,1.946176290512085,-0.04732278361916542
-1.2153403759002686,1.766337275505066,-0.04488455504179001
-1.3487318754196167,1.9920291900634766,-0.052736274898052216
-1.2481470108032227,1.871360421180725,-0.05136625096201897
-1.3325538635253906,2.030850410461426,-0.05768468976020813
-1.1589993238449097,1.7943027019500732,-0.0525888092815876
-1.320277452468872,2.07585072517395,-0.06264432519674301
-1.3540915250778198,2.1652586460113525,-0.06722112745046616
-0.8437909483909607,1.392582893371582,-0.04544517397880554
-0.7674713730812073,1.2880749702453613,-0.043020233511924744
-0.872351884841919,1.5385873317718506,-0.05470221862196922
-1.1669745445251465,2.0940189361572266,-0.07587715238332748
-1.6815240383148193,3.0675199031829834,-0.11312489211559296
-2.026669979095459,3.7596521377563477,-0.14104004204273224
-2.018573522567749,3.8125550746917725,-0.1454237699508667
-1.9783978462219238,3.802668571472168,-0.1473439484834671
-1.951877236366272,3.8162424564361572,-0.15008525550365448
-1.914193868637085,3.8089795112609863,-0.15196660161018372
-1.8933119773864746,3.83671498298645,-0.1552039384841919
-1.8654532432556152,3.850228786468506,-0.15787169337272644
-1.835223913192749,3.8559792041778564,-0.16014361381530762
-1.8143510818481445,3.8829801082611084,-0.1632542759180069
-1.776370644569397,3.8746471405029297,-0.16484017670154572
-1.5454199314117432,3.434995651245117,-0.1478128284215927
-1.53410005569458,3.4741370677948,-0.15115520358085632
-1.5416340827941895,3.5602080821990967,-0.15657511353492737
-1.6562331914901733,3.9016671180725098,-0.17332449555397034
-1.4034706354141235,3.3727643489837646,-0.15130792558193207
-1.3637685775756836,3.342606544494629,-0.15138402581214905
-1.3562648296356201,3.3918533325195312,-0.1550462692975998
-1.330003023147583,3.397962808609009,-0.15670132637023926
-1.5429481267929077,4.026858806610107,-0.18730519711971283
-1.5203608274459839,4.052022457122803,-0.19003908336162567
-1.432945966720581,3.9012224674224854,-0.1844712495803833
-1.391976237297058,3.8744988441467285,-0.18459613621234894
-1.3960857391357422,3.9764761924743652,-0.19087764620780945
-1.3540666103363037,3.9455368518829346,-0.19076506793498993
-1.2744303941726685,3.799406051635742,-0.18500766158103943
-1.1821449995040894,3.6079325675964355,-0.17689618468284607
-1.1242612600326538,3.5158605575561523,-0.1734805852174759
-1.1427934169769287,3.665419578552246,-0.1820308119058609
-1.119523525238037,3.680675983428955,-0.18391761183738708
-1.0817041397094727,3.6471469402313232,-0.1833638697862625
-1.0516492128372192,3.639613151550293,-0.18401435017585754
-1.0120419263839722,3.598095655441284,-0.182881698012352
-0.9917346239089966,3.6239073276519775,-0.18516777455806732
-0.9570070505142212,3.59684157371521,-0.1847594678401947
-0.9182484745979309,3.5504753589630127,-0.18332929909229279
-0.8883392214775085,3.5379083156585693,-0.18350467085838318
-0.8595166206359863,3.528902769088745,-0.1838463544845581
-0.8221420645713806,3.4816431999206543,-0.18218082189559937
-0.7931253910064697,3.4683032035827637,-0.1822885125875473
-0.7605600357055664,3.435588836669922,-0.1813567578792572
-0.733025074005127,3.4255640506744385,-0.18147990107536316
-0.7087971568107605,3.4306094646453857,-0.182408407330513
-0.674859881401062,3.3857033252716064,-0.18067382276058197
-0.6464442610740662,3.3673646450042725,-0.18035998940467834
-0.6215700507164001,3.3640644550323486,-0.18083061277866364
-0.5964656472206116,3.360642433166504,-0.18116635084152222
-0.5688517093658447,3.3416478633880615,-0.18066611886024475
-0.5398272275924683,3.31085467338562,-0.17952387034893036
-0.5176070332527161,3.322256565093994,-0.18068021535873413
-0.4956165552139282,3.33345627784729,-0.18181684613227844
-0.4700219929218292,3.321373701095581,-0.1815430223941803
-0.43939825892448425,3.2704427242279053,-0.17914706468582153
-0.41655027866363525,3.2734007835388184,-0.17970292270183563
-0.3965623080730438,3.299424171447754,-0.18153506517410278
-0.3696858286857605,3.2711122035980225,-0.18039220571517944
-0.3446972668170929,3.2542073726654053,-0.1797233670949936
-0.32264941930770874,3.264284133911133,-0.18055255711078644
-0.29913896322250366,3.2586669921875,-0.18052145838737488
-0.2724860906600952,3.214012861251831,-0.17833109200000763
-0.2521402835845947,3.246947765350342,-0.18045814335346222
-0.22779414057731628,3.2252726554870605,-0.17941783368587494
-0.20523588359355927,3.226773500442505,-0.17965824902057648
-0.18137456476688385,3.2047507762908936,-0.17859630286693573
-0.15871873497962952,3.198129415512085,-0.17839883267879486
-0.1360931396484375,3.1991586685180664,-0.17863966524600983
-0.11382410675287247,3.200021743774414,-0.1787591427564621
-0.09131324291229248,3.1929352283477783,-0.17840367555618286
-0.06899093836545944,3.1895899772644043,-0.1782657355070114
-0.04620499536395073,3.150991201400757,-0.176165372133255
-0.024127280339598656,3.1824352741241455,-0.1779906302690506
-0.001952759688720107,3.1747264862060547,-0.17754344642162323
0.020188279449939728,3.182467460632324,-0.17790427803993225
0.041738949716091156,3.135455846786499,-0.17521364986896515
0.06278883665800095,3.1000006198883057,-0.1731790453195572
0.08568151295185089,3.1501777172088623,-0.17593643069267273
0.10762914270162582,3.141706943511963,-0.17536556720733643
0.12939094007015228,3.1408982276916504,-0.17514468729496002
0.15189683437347412,3.1555213928222656,-0.175791934132576
0.1725510060787201,3.131035327911377,-0.17426858842372894
0.19577232003211975,3.153128147125244,-0.1753462553024292
0.2180721014738083,3.151679039001465,-0.17508339881896973
0.24166949093341827,3.1734485626220703,-0.17600210011005402
0.26170170307159424,3.1483981609344482,-0.17433254420757294
0.28498372435569763,3.162061929702759,-0.17481467127799988
0.30545151233673096,3.1444971561431885,-0.17357872426509857
0.32852426171302795,3.1500351428985596,-0.1736099123954773
