X,Y,Z
0.31411734223365784,1.8818377256393433,-0.19652195274829865
0.3297559320926666,1.8950401544570923,-0.19715234637260437
0.3444754183292389,1.9004219770431519,-0.19695435464382172
0.35628077387809753,1.890437364578247,-0.19518053531646729
0.3709491491317749,1.8956360816955566,-0.19498388469219208
0.38558050990104675,1.9007624387741089,-0.1946360021829605
0.4034843444824219,1.9209967851638794,-0.19581668078899384
0.4277702867984772,1.9676014184951782,-0.1996409296989441
0.444896936416626,1.9798623323440552,-0.19997085630893707
0.4691973328590393,2.0222902297973633,-0.20330139994621277
0.4813123941421509,2.011586904525757,-0.20114582777023315
0.49700871109962463,2.015915632247925,-0.20050416886806488
0.5112671852111816,2.0124895572662354,-0.19906654953956604
0.5341421961784363,2.042874813079834,-0.2009815126657486
0.5523081421852112,2.0542993545532227,-0.2009388506412506
0.5746880769729614,2.080604076385498,-0.20225651562213898
0.5932434797286987,2.091723918914795,-0.2020774632692337
0.6113463640213013,2.0988245010375977,-0.20146453380584717
0.6349123120307922,2.1244776248931885,-0.20263789594173431
0.6563352346420288,2.142554521560669,-0.20293962955474854
0.6814972162246704,2.171586751937866,-0.2042330950498581
0.6965277194976807,2.1669905185699463,-0.20233607292175293
0.7167521119117737,2.17695951461792,-0.2017637938261032
0.741759181022644,2.201625108718872,-0.20250993967056274
0.7593066096305847,2.2040600776672363,-0.20110002160072327
0.7911757230758667,2.2467281818389893,-0.20332583785057068
0.8121156692504883,2.255995988845825,-0.2024582475423813
0.8385982513427734,2.279694080352783,-0.20286235213279724
0.8667478561401367,2.3068172931671143,-0.20339816808700562
0.8880248665809631,2.315605401992798,-0.20230238139629364
0.9154005646705627,2.3386142253875732,-0.20239189267158508
0.9476122856140137,2.372149705886841,-0.20332865417003632
0.9727556109428406,2.3874199390411377,-0.20259615778923035
1.0071744918823242,2.424020767211914,-0.20352913439273834
1.029866099357605,2.4316234588623047,-0.20200154185295105
1.0638023614883423,2.4639410972595215,-0.20245124399662018
1.1106423139572144,2.5244975090026855,-0.2051045298576355
1.1404335498809814,2.5456125736236572,-0.2043929249048233
1.1677075624465942,2.559183359146118,-0.2029835432767868
1.2003307342529297,2.5830166339874268,-0.20231996476650238
1.2115998268127441,2.5607664585113525,-0.19802288711071014
1.2592527866363525,2.615999221801758,-0.19959986209869385
1.335180640220642,2.726689577102661,-0.2052205204963684
1.3823317289352417,2.773226499557495,-0.20569448173046112
1.413881778717041,2.7881758213043213,-0.20378275215625763
1.4360991716384888,2.78584623336792,-0.20050953328609467
1.4205102920532227,2.710740804672241,-0.1920461356639862
1.4321010112762451,2.6872472763061523,-0.18723134696483612
1.396712064743042,2.578162431716919,-0.17657743394374847
1.3972820043563843,2.538121223449707,-0.17071379721164703
1.4221514463424683,2.542410373687744,-0.16785506904125214
1.42060387134552,2.4987621307373047,-0.16178424656391144
1.4257301092147827,2.469099521636963,-0.15666534006595612
1.434180736541748,2.4463703632354736,-0.15201696753501892
1.4633805751800537,2.4565494060516357,-0.14920483529567719
1.4884265661239624,2.4599554538726807,-0.1459680199623108
1.4699052572250366,2.3938074111938477,-0.1386408507823944
1.4303407669067383,2.2946383953094482,-0.12952910363674164
1.39835524559021,2.2089715003967285,-0.12131820619106293
1.3878520727157593,2.1603448390960693,-0.11525388807058334
1.4106999635696411,2.1643576622009277,-0.11204486340284348
1.4171688556671143,2.141641855239868,-0.1072818785905838
1.4203870296478271,2.1162452697753906,-0.10242993384599686
1.4365019798278809,2.1102590560913086,-0.09847363084554672
1.4447827339172363,2.090580940246582,-0.09361308813095093
1.4448291063308716,2.062201976776123,-0.08848414570093155
1.458548903465271,2.052708148956299,-0.08403731882572174
1.454301357269287,2.017524242401123,-0.07840440422296524
1.4670205116271973,2.008467435836792,-0.07384037971496582
1.4762699604034424,1.9921458959579468,-0.06861114501953125
2.250654935836792,3.1493639945983887,0.1779954731464386
2.212230920791626,3.1474833488464355,0.18416601419448853
2.1807010173797607,3.1500587463378906,0.18997132778167725
2.146644115447998,3.1493988037109375,0.19535504281520844
2.133066415786743,3.1817209720611572,0.20272356271743774
2.1321487426757812,3.2288081645965576,0.21062839031219482
3.0983150005340576,4.7682013511657715,0.31825605034828186
1.6441876888275146,2.5731008052825928,0.17548321187496185
1.6342926025390625,2.597555160522461,0.18059688806533813
1.599316954612732,2.5823237895965576,0.18288816511631012
1.7236725091934204,2.8305134773254395,0.2040143609046936
1.8648937940597534,3.1138088703155518,0.2282293736934662
1.8569073677062988,3.1499626636505127,0.2344866394996643
1.8336435556411743,3.1632261276245117,0.23896466195583344
2.8092315196990967,4.930833339691162,0.3778279721736908
2.766596555709839,4.93651819229126,0.38326889276504517
2.688140392303467,4.877071380615234,0.3835985064506531
2.624107837677002,4.84496545791626,0.38565534353256226
2.560443639755249,4.812321662902832,0.38756421208381653
2.5011239051818848,4.7814860343933105,0.3893074095249176
2.4372665882110596,4.739542484283447,0.39004039764404297
2.3789632320404053,4.711962699890137,0.3917401134967804
2.3162424564361572,4.673211574554443,0.3923255205154419
1.2394750118255615,2.5459530353546143,0.21572592854499817
1.2132407426834106,2.5367631912231445,0.21688872575759888
1.198370099067688,2.5522072315216064,0.22008353471755981
1.1844412088394165,2.571350336074829,0.22353725135326385
1.1621514558792114,2.57273530960083,0.22547392547130585
1.1536122560501099,2.6019392013549805,0.22976656258106232
1.1260815858840942,2.5883023738861084,0.23028717935085297
2.5228679180145264,5.915835380554199,0.5299557447433472
2.5020341873168945,5.987546920776367,0.5399914979934692
2.484968900680542,6.069957733154297,0.5510709285736084
2.455540180206299,6.11922550201416,0.5590842366218567
2.426884889602661,6.172025203704834,0.5674518346786499
2.3972866535186768,6.2290358543396,0.5759000778198242
2.3656702041625977,6.282269477844238,0.5840649008750916
2.3322877883911133,6.331628799438477,0.5919198989868164
1.9396897554397583,5.380943298339844,0.5057342648506165
2.2733094692230225,6.447139739990234,0.6091601252555847
2.2392477989196777,6.499805927276611,0.6169644594192505
2.2132866382598877,6.578097820281982,0.6272733211517334
2.1801156997680664,6.637899875640869,0.6359063982963562
2.14093279838562,6.67474889755249,0.6422885060310364
2.082683801651001,6.651994228363037,0.6429635882377625
2.023646831512451,6.629160404205322,0.643225908279419
1.959254503250122,6.587266445159912,0.6415553092956543
1.8990048170089722,6.555949687957764,0.6409017443656921
1.838749647140503,6.520233154296875,0.6397906541824341
1.7850525379180908,6.502532005310059,0.6404082775115967
1.7241517305374146,6.458259582519531,0.6382108926773071
1.668159008026123,6.432479381561279,0.6375790238380432
0.8200424909591675,3.257798194885254,0.32389336824417114
1.5602525472640991,6.390872478485107,0.6373411417007446
0.7963418960571289,3.3633310794830322,0.33643046021461487
1.4474996328353882,6.309106349945068,0.6330241560935974
1.3934203386306763,6.277219295501709,0.6313586235046387
1.3404910564422607,6.248734474182129,0.6299871802330017
1.2904386520385742,6.235195159912109,0.6301659941673279
1.241645336151123,6.217109203338623,0.6298444271087646
1.1828806400299072,6.145211696624756,0.6240755915641785
1.1462916135787964,6.1874918937683105,0.6298421025276184
1.084013819694519,6.091950416564941,0.6212109327316284
1.0413575172424316,6.1070780754089355,0.6238988041877747
0.9913387894630432,6.071892738342285,0.6214472651481628
0.9478831887245178,6.070774555206299,0.6224867105484009
0.8970444202423096,6.019376277923584,0.6183880567550659
0.8505855202674866,5.99454927444458,0.6168646812438965
0.7987352013587952,5.9348859786987305,0.6114795207977295
0.7603051662445068,5.967217445373535,0.615585446357727
0.6181555390357971,5.138931751251221,0.5308277010917664
0.5706338286399841,5.038735866546631,0.5211709141731262
0.5503381490707397,5.181572437286377,0.5366833806037903
0.4052831530570984,4.08705472946167,0.42378705739974976
0.37676048278808594,4.0975236892700195,0.42519858479499817
0.35261207818984985,4.154205322265625,0.43142563104629517
0.32566434144973755,4.18362283706665,0.43484824895858765
0.2935126721858978,4.143093585968018,0.4310183525085449
0.2678831219673157,4.195380687713623,0.4368664026260376
0.2385103851556778,4.204887390136719,0.4381389617919922
0.3871033787727356,7.788093090057373,0.811729907989502
0.3306037187576294,7.743976593017578,0.8073993921279907
0.2757346034049988,7.722743511199951,0.8054908514022827
0.22130979597568512,7.697233200073242,0.8031716346740723
0.16561253368854523,7.644173622131348,0.7980204224586487
0.11211555451154709,7.625692367553711,0.7962357997894287
0.058868855237960815,7.610757350921631,0.7945264577865601
0.00590980751439929,7.587680816650391,0.7920064330101013
-0.046605370938777924,7.544812202453613,0.7874594926834106
-0.0996522456407547,7.520993709564209,0.7849393486976624
-0.15164951980113983,7.512362003326416,0.78404301404953
-0.20292896032333374,7.480091571807861,0.7804878950119019
-0.2539563477039337,7.455277442932129,0.7773973941802979
-0.3059230148792267,7.461171627044678,0.7775473594665527
-0.35835564136505127,7.4744648933410645,0.7785044312477112
-0.29828551411628723,5.419585704803467,0.5641886591911316
-0.33594346046447754,5.417431354522705,0.5637075901031494
-0.3729690909385681,5.407283782958984,0.5622813701629639
-0.40912389755249023,5.389173984527588,0.559783935546875
-0.444404661655426,5.363078594207764,0.5564880967140198
-0.42606091499328613,4.736848831176758,0.4910058379173279
-0.4473852515220642,4.61395788192749,0.47780534625053406
-0.47742220759391785,4.591492652893066,0.4750422239303589
-0.5100671052932739,4.595890045166016,0.47497308254241943
-0.5398430228233337,4.576950550079346,0.47227993607521057
-0.5689848065376282,4.550037384033203,0.46877992153167725
-0.6003603339195251,4.546116352081299,0.4676855802536011
-0.6298487782478333,4.526544094085693,0.46499964594841003
-0.6590472459793091,4.506788730621338,0.462322860956192
-0.6849014759063721,4.467672824859619,0.45757314562797546
-0.7184984087944031,4.478286266326904,0.4577009677886963
-0.7491588592529297,4.473404407501221,0.456280380487442
-0.7772949934005737,4.45296573638916,0.45329222083091736
-0.8041119575500488,4.424646377563477,0.44952207803726196
-0.8276411294937134,4.380899429321289,0.4442196488380432
-0.8511418104171753,4.340907096862793,0.4391902685165405
-0.7442317605018616,3.660801410675049,0.3694087862968445
-0.7668300271034241,3.6443634033203125,0.36681392788887024
-0.9357315301895142,4.300116539001465,0.4317217171192169
-0.9775126576423645,4.346790313720703,0.4353085160255432
-1.002443790435791,4.317339897155762,0.43128347396850586
-1.030669093132019,4.302889347076416,0.42856544256210327
-1.0617274045944214,4.3035430908203125,0.42728638648986816
-1.0814002752304077,4.258737087249756,0.4215208888053894
-1.1068649291992188,4.2363176345825195,0.41798660159111023
-1.1403098106384277,4.243749618530273,0.4174102544784546
-1.1703097820281982,4.235780715942383,0.41531118750572205
-1.1946961879730225,4.2130279541015625,0.4115193784236908
-1.2253259420394897,4.212550640106201,0.40991732478141785
-1.2461191415786743,4.17827033996582,0.40504515171051025
-1.272942066192627,4.162274360656738,0.4019361138343811
-1.3047324419021606,4.160807132720947,0.4002244770526886
-1.3309434652328491,4.144566059112549,0.3970187306404114
-1.3564893007278442,4.128337860107422,0.3936847150325775
-1.3893121480941772,4.134078502655029,0.39246055483818054
-1.407632827758789,4.095231533050537,0.386994332075119
-1.436069130897522,4.085600852966309,0.3843037784099579
-1.4701744318008423,4.090254783630371,0.3829205632209778
-1.476110577583313,4.022131443023682,0.37453192472457886
-1.5139634609222412,4.041569709777832,0.37432846426963806
-1.5442368984222412,4.0387091636657715,0.3720264434814453
-1.5695273876190186,4.020873546600342,0.36831480264663696
-1.5865328311920166,3.980975866317749,0.3625798225402832
-1.6279486417770386,4.006558418273926,0.36265403032302856
-1.639864444732666,3.9598875045776367,0.35616743564605713
-1.6726880073547363,3.9633350372314453,0.3541940152645111
-1.6971803903579712,3.944733142852783,0.35019651055336
-1.7219645977020264,3.925778388977051,0.34615328907966614
-1.7370922565460205,3.8895833492279053,0.3404695987701416
-1.7596999406814575,3.8711607456207275,0.33634576201438904
-1.7924543619155884,3.873584270477295,0.3339942395687103
-1.802840232849121,3.826068639755249,0.3272930681705475
-1.8264862298965454,3.8065171241760254,0.32296648621559143
-1.8585296869277954,3.8086419105529785,0.32033541798591614
-1.8837248086929321,3.7965638637542725,0.3165167570114136
-1.9027875661849976,3.769928455352783,0.3114011883735657
-1.9361563920974731,3.7707571983337402,0.3085298240184784
-1.9400473833084106,3.7164266109466553,0.3010803163051605
-1.9649080038070679,3.7036798000335693,0.29690271615982056
-1.9971070289611816,3.7044692039489746,0.2938084304332733
-2.041699171066284,3.7249298095703125,0.292111337184906
-1.7183698415756226,3.0846385955810547,0.2391105741262436
-1.7385528087615967,3.0735983848571777,0.23535321652889252
-0.8426915407180786,1.4668530225753784,0.11089572310447693
-0.8568811416625977,1.4677891731262207,0.10947335511445999
-0.8590566515922546,1.4485597610473633,0.10654883086681366
-0.8724931478500366,1.4497578144073486,0.10508336871862411
-0.8861193060874939,1.450758457183838,0.10357078164815903
-0.9046486616134644,1.4578192234039307,0.10234986990690231
-0.9144986867904663,1.4518100023269653,0.10020817816257477
-0.9028443098068237,1.4131667613983154,0.09582408517599106
-0.8954017162322998,1.3810001611709595,0.0918736457824707
-0.8943243026733398,1.3585565090179443,0.08856643736362457
-0.9183858036994934,1.3755112886428833,0.08775162696838379
-2.408017635345459,3.5565357208251953,0.22186560928821564
-1.6172081232070923,2.320797920227051,0.13760720193386078
-1.5172516107559204,2.1480906009674072,0.123916856944561
-1.2809675931930542,1.8197776079177856,-0.07149742543697357
-1.250396728515625,1.802882194519043,-0.07430056482553482
-1.3236896991729736,1.969934105873108,-0.08848961442708969
-1.1561698913574219,1.7762141227722168,-0.08586768060922623
-1.1118358373641968,1.7349992990493774,-0.08663193881511688
-1.322273850440979,2.095871925354004,-0.10787951201200485
-1.2551021575927734,2.0226285457611084,-0.10718000680208206
-2.006861925125122,3.3957440853118896,-0.1943046748638153
-0.8446071147918701,1.4763044118881226,-0.08831071108579636
-1.7441728115081787,3.100550651550293,-0.18934641778469086
-1.7172170877456665,3.1063623428344727,-0.19360020756721497
-1.7121970653533936,3.1488702297210693,-0.1999386101961136
-1.6475205421447754,3.0815553665161133,-0.19923119246959686
-1.6085669994354248,3.0622010231018066,-0.20144341886043549
-1.5418479442596436,2.986762046813965,-0.19977152347564697
-1.5064351558685303,2.969576835632324,-0.2018565535545349
-1.4624701738357544,2.93468976020813,-0.20255586504936218
-1.4136335849761963,2.8889787197113037,-0.20237286388874054
-1.3779680728912354,2.8670318126678467,-0.2036890685558319
-1.334616780281067,2.82698655128479,-0.20361380279064178
-1.2864351272583008,2.7761287689208984,-0.2025846391916275
-1.2627369165420532,2.778184652328491,-0.20538164675235748
-1.222486138343811,2.740510940551758,-0.20509059727191925
-1.1673752069473267,2.6666433811187744,-0.2019623965024948
-1.142110824584961,2.660386085510254,-0.2037818431854248
-1.1138272285461426,2.646784782409668,-0.20498619973659515
-1.075497031211853,2.6076650619506836,-0.20415566861629486
-1.0455787181854248,2.5860049724578857,-0.20458053052425385
-1.0157142877578735,2.564182758331299,-0.20487158000469208
-0.9761369228363037,2.5167362689971924,-0.20301282405853271
-0.9500203728675842,2.501530170440674,-0.20367629826068878
-0.9268435835838318,2.4933979511260986,-0.20490247011184692
-0.8973429203033447,2.466709852218628,-0.20449838042259216
-0.8745130896568298,2.4581844806671143,-0.20549054443836212
-0.8416739106178284,2.420018196105957,-0.20396922528743744
-0.8159658312797546,2.39985728263855,-0.2039003223180771
-0.7939664125442505,2.390638589859009,-0.20477254688739777
-0.7624789476394653,2.3516345024108887,-0.20289361476898193
-0.7456678152084351,2.356853485107422,-0.20480771362781525
-0.7210640907287598,2.3358306884765625,-0.2044113278388977
-0.6980247497558594,2.31827712059021,-0.2042893022298813
-0.6685532927513123,2.2781567573547363,-0.2020731121301651
-0.6488614678382874,2.2715542316436768,-0.20274578034877777
-0.6244351863861084,2.245946168899536,-0.2016831487417221
-0.6067166328430176,2.2425925731658936,-0.20259182155132294
-0.5871129035949707,2.2315704822540283,-0.20280396938323975
-0.573232889175415,2.2430784702301025,-0.2049293965101242
-0.5514254570007324,2.2243621349334717,-0.2042984515428543
-0.5294603705406189,2.2015631198883057,-0.2032485455274582
-0.5141509771347046,2.2050621509552,-0.2046152651309967
-0.49360889196395874,2.1857051849365234,-0.2038210928440094
-0.4699026644229889,2.151012420654297,-0.2014504373073578
-0.4576873183250427,2.1694371700286865,-0.2040710598230362
-0.43631547689437866,2.141979694366455,-0.20235687494277954
-0.4213831126689911,2.1448588371276855,-0.2035040557384491
-0.38970300555229187,2.0597665309906006,-0.19619515538215637
-0.37797611951828003,2.077674388885498,-0.1985974907875061
-0.36576980352401733,2.0955586433410645,-0.20102964341640472
-0.3473150432109833,2.0749523639678955,-0.19975723326206207
-0.33899158239364624,2.1156299114227295,-0.20440059900283813
-0.31944704055786133,2.087124824523926,-0.20224259793758392
-0.30363401770591736,2.0815510749816895,-0.20225873589515686
-0.2866540849208832,2.0681819915771484,-0.20152868330478668
-0.26872479915618896,2.043067693710327,-0.19963820278644562
-0.2545201778411865,2.044813871383667,-0.20037470757961273
-0.24112753570079803,2.054208755493164,-0.20171205699443817
-0.22845879197120667,2.07124662399292,-0.20379610359668732
-0.21000944077968597,2.0340640544891357,-0.20054937899112701
-0.1955871880054474,2.0354459285736084,-0.20111365616321564
-0.1814146637916565,2.036703586578369,-0.20166301727294922
-0.1671653687953949,2.037885904312134,-0.20203454792499542
-0.14912927150726318,1.9885755777359009,-0.19740363955497742
-0.1336868852376938,1.9662611484527588,-0.19545161724090576
-0.12143418937921524,1.9942806959152222,-0.19851718842983246
-0.10758152604103088,1.995042085647583,-0.19885572791099548
-0.09275989234447479,1.9763116836547852,-0.19710518419742584
-0.07837669551372528,1.9613556861877441,-0.19573841989040375
-0.06497522443532944,1.9696053266525269,-0.19669650495052338
-0.050838977098464966,1.9622260332107544,-0.19610567390918732
-0.03702539950609207,1.9547454118728638,-0.19547496736049652
-0.02350802533328533,1.9627282619476318,-0.19625933468341827
-0.009864319115877151,1.970617413520813,-0.19704380631446838
0.003808747511357069,1.9550902843475342,-0.1954963207244873
0.017639348283410072,1.955013632774353,-0.19550354778766632
0.03147917613387108,1.9703935384750366,-0.1970147341489792
0.04534834995865822,1.9779167175292969,-0.1976138800382614
0.059306513518095016,1.9853426218032837,-0.19821184873580933
0.07254566997289658,1.9693623781204224,-0.19648274779319763
0.08692623674869537,1.984360694885254,-0.1978539526462555
0.10056274384260178,1.9759565591812134,-0.19683822989463806
0.11336039751768112,1.9597245454788208,-0.1949416995048523
0.1279657781124115,1.974441409111023,-0.19613291323184967
0.1411277949810028,1.9657849073410034,-0.19501031935214996
0.15417569875717163,1.957040786743164,-0.1938904970884323
0.17365635931491852,2.0217883586883545,-0.1999761462211609
0.18692541122436523,2.0128493309020996,-0.1986774206161499
0.20239658653736115,2.027033567428589,-0.19966907799243927
0.2111191749572754,1.975375771522522,-0.19418951869010925
0.21781311929225922,1.9121057987213135,-0.1875997632741928
0.23691873252391815,1.9568960666656494,-0.19152981042861938
0.2578517198562622,2.013127565383911,-0.1964855045080185
0.27384641766548157,2.0267786979675293,-0.19727478921413422
0.2742701470851898,1.928652048110962,-0.18721124529838562
0.29860761761665344,1.9998323917388916,-0.19359761476516724
0.3036758303642273,1.940130591392517,-0.18720878660678864
0.32647398114204407,1.9956369400024414,-0.19189506769180298
0.33438199758529663,1.9589136838912964,-0.1877124160528183
0.3514297902584076,1.9757641553878784,-0.18867293000221252
0.3814676105976105,2.061310052871704,-0.1961674690246582
0.39715802669525146,2.0663647651672363,-0.19585508108139038
0.41013452410697937,2.0560004711151123,-0.19403798878192902
0.42592960596084595,2.0608325004577637,-0.19367648661136627
0.4435247480869293,2.073134422302246,-0.1940123587846756
0.46131160855293274,2.085291624069214,-0.194332093000412
0.4903917610645294,2.1466574668884277,-0.19905252754688263
0.5125519633293152,2.173588275909424,-0.20052462816238403
0.5257580280303955,2.162546396255493,-0.19850337505340576
0.5521609783172607,2.204244613647461,-0.20130933821201324
0.5674359798431396,2.200488805770874,-0.1999182105064392
0.583505392074585,2.2004446983337402,-0.19875572621822357
0.6090993881225586,2.233999252319336,-0.20059362053871155
0.6225370764732361,2.222348928451538,-0.1983702927827835
0.653074324131012,2.270460605621338,-0.20146602392196655
0.6687458157539368,2.2660417556762695,-0.19979795813560486
0.6842645406723022,2.2615561485290527,-0.19806820154190063
0.7150885462760925,2.3051953315734863,-0.20050422847270966
0.7334911227226257,2.3077330589294434,-0.19934941828250885
0.747161328792572,2.295311450958252,-0.19691047072410583
0.7812917232513428,2.345724582672119,-0.19971036911010742
0.8073254227638245,2.3699920177459717,-0.20023533701896667
0.8237388134002686,2.3645076751708984,-0.19821226596832275
0.848344087600708,2.380784749984741,-0.1979714184999466
0.8740891814231873,2.400662422180176,-0.1979750692844391
0.9121459722518921,2.4532411098480225,-0.20055526494979858
0.9289175271987915,2.4471237659454346,-0.19829663634300232
0.9614481329917908,2.480724334716797,-0.19920334219932556
0.9904912710189819,2.5030102729797363,-0.19911997020244598
1.0234925746917725,2.5361673831939697,-0.19977319240570068
1.05254065990448,2.55818510055542,-0.19950440526008606
1.0883841514587402,2.5941264629364014,-0.20022547245025635
1.1355817317962646,2.6547415256500244,-0.202762171626091
1.138387680053711,2.6112985610961914,-0.19721630215644836
1.156019926071167,2.603750467300415,-0.19443079829216003
1.1707435846328735,2.5888218879699707,-0.191064715385437
1.1822758913040161,2.5666310787200928,-0.18716230988502502
1.2031440734863281,2.5657389163970947,-0.1847701221704483
1.2375057935714722,2.592820882797241,-0.18428146839141846
1.3898143768310547,2.861520767211914,-0.20067960023880005
1.439115285873413,2.9114086627960205,-0.20137619972229004
1.481722354888916,2.9470458030700684,-0.2009471207857132
1.5262799263000488,2.9859042167663574,-0.20061352849006653
1.4298039674758911,2.750722885131836,-0.18199093639850616
1.4311015605926514,2.7062454223632812,-0.17615561187267303
1.427248239517212,2.6554903984069824,-0.17000842094421387
1.4524255990982056,2.65981388092041,-0.1674002856016159
1.457493782043457,2.6260807514190674,-0.16232025623321533
1.437445878982544,2.548121213912964,-0.1545863300561905
1.429443359375,2.4945502281188965,-0.1483636200428009
1.4578169584274292,2.5054028034210205,-0.14603932201862335
1.47127103805542,2.488678216934204,-0.14196379482746124
1.4420064687728882,2.4018609523773193,-0.13398785889148712
1.4029428958892822,2.3025588989257812,-0.1255195438861847
1.359395146369934,2.196697950363159,-0.1167692095041275
1.3829623460769653,2.2005808353424072,-0.11395972222089767
1.3847341537475586,2.1719253063201904,-0.10945244878530502
1.3992856740951538,2.16275691986084,-0.10587803274393082
1.4014785289764404,2.1335504055023193,-0.10123561322689056
1.4199422597885132,2.1308693885803223,-0.0978042334318161
1.427545189857483,2.1118335723876953,-0.09359269589185715
1.4289910793304443,2.08268141746521,-0.08882564306259155
1.4467962980270386,2.0800328254699707,-0.08520887047052383
1.4517393112182617,2.057666301727295,-0.0806252583861351
1.4523595571517944,2.028648853302002,-0.07562340050935745
1.4651974439620972,2.019547462463379,-0.07147356867790222
1.4745668172836304,2.0031838417053223,-0.06671600788831711
2.229556083679199,3.1459784507751465,0.16332004964351654
2.1979000568389893,3.1488301753997803,0.16887548565864563
2.1703426837921143,3.1580939292907715,0.1745634824037552
2.134570598602295,3.1585214138031006,0.17974062263965607
2.1231656074523926,3.1893491744995117,0.18611162900924683
3.1299808025360107,4.777633190155029,0.28555434942245483
3.0975170135498047,4.807543754577637,0.29398632049560547
1.6280909776687622,2.565802812576294,0.1601088047027588
1.6215685606002808,2.5973126888275146,0.1653154194355011
1.5977818965911865,2.6026158332824707,0.16875998675823212
1.8695164918899536,3.094440221786499,0.20412519574165344
1.8597217798233032,3.1273090839385986,0.20971490442752838
1.8420295715332031,3.1510376930236816,0.2145966738462448
1.821977138519287,3.171382427215576,0.21928770840168
2.789790391921997,4.935201644897461,0.34597548842430115
2.7224252223968506,4.896561145782471,0.3478766977787018
2.657778263092041,4.865002155303955,0.35003310441970825
2.5962603092193604,4.835843563079834,0.3522118031978607
2.534499168395996,4.802082538604736,0.35386478900909424
2.476987361907959,4.774599075317383,0.3557746112346649
2.4097068309783936,4.729927062988281,0.3561371862888336
2.3522651195526123,4.7017974853515625,0.35764676332473755
2.305610418319702,4.689779281616211,0.3601706624031067
1.2487691640853882,2.5862057209014893,0.20054160058498383
1.213039755821228,2.55991268157959,0.20023475587368011
1.1892421245574951,2.557980537414551,0.20181523263454437
1.172751545906067,2.569683074951172,0.204408660531044
1.1531771421432495,2.5740761756896973,0.20641165971755981
1.1488059759140015,2.6141929626464844,0.21123389899730682
2.06906795501709,4.804943084716797,0.3911224901676178
2.0462827682495117,4.848206520080566,0.3974646031856537
2.028811454772949,4.901628017425537,0.40458977222442627
2.0062992572784424,4.944205284118652,0.4108777642250061
1.9706523418426514,4.958212852478027,0.4145817160606384
2.408202648162842,6.191845893859863,0.5208955407142639
2.3582489490509033,6.194000720977783,0.5241495370864868
2.3013739585876465,6.173448085784912,0.5254037380218506
2.260915994644165,6.196300506591797,0.5303634405136108
1.9258031845092773,5.397975921630859,0.46436944603919983
2.1358931064605713,6.128594398498535,0.529876708984375
2.0518336296081543,6.025453567504883,0.5235121250152588
1.9875984191894531,5.972818374633789,0.5214221477508545
1.9398422241210938,5.967714786529541,0.5234717726707458
1.9077565670013428,6.014513969421387,0.5298208594322205
1.89007568359375,6.113563537597656,0.5407723784446716
1.8832119703292847,6.249652862548828,0.5550578236579895
1.8329756259918213,6.239938735961914,0.5563956499099731
1.7915334701538086,6.259763240814209,0.5603891015052795
1.7608873844146729,6.320703506469727,0.5679367184638977
1.7338943481445312,6.400496006011963,0.5769941806793213
1.6960557699203491,6.446572303771973,0.5831085443496704
0.8306638598442078,3.249765396118164,0.2949122488498688
1.589762806892395,6.404937267303467,0.5831438899040222
0.808083176612854,3.3553245067596436,0.30649757385253906
1.4879693984985352,6.376925945281982,0.5840511918067932
1.4262335300445557,6.319011211395264,0.5803021788597107
1.3689006567001343,6.271734714508057,0.5774949789047241
1.3187364339828491,6.25045108795166,0.5770601034164429
1.253403663635254,6.1525349617004395,0.5695446133613586
1.208798885345459,6.153322219848633,0.5710213780403137
1.1643201112747192,6.16171407699585,0.5729495286941528
1.1177518367767334,6.154341697692871,0.5734187364578247
1.0630955696105957,6.096729755401611,0.5692086815834045
1.0090911388397217,6.034753322601318,0.5645816326141357
0.9682974815368652,6.049141883850098,0.5671144723892212
0.9226587414741516,6.040382385253906,0.56727534532547
0.8682175278663635,5.965787887573242,0.5610774159431458
0.7733064889907837,5.590226173400879,0.5265373587608337
0.7796939015388489,5.942440986633301,0.5605613589286804
0.7373656630516052,5.939875602722168,0.5611889362335205
0.5910930037498474,5.048582077026367,0.477742075920105
0.566875159740448,5.160835266113281,0.488901287317276
0.5369222164154053,5.226515769958496,0.4955873489379883
0.3920067846775055,4.099677562713623,0.3891218602657318
0.36135995388031006,4.079007625579834,0.3875557482242584
0.34217309951782227,4.193761825561523,0.39888331294059753
0.3104745149612427,4.168868064880371,0.39696428179740906
0.27975890040397644,4.147619247436523,0.3951423168182373
0.25425174832344055,4.207665920257568,0.4010400176048279
0.41581013798713684,7.7856669425964355,0.7424291968345642
0.3612121641635895,7.780543804168701,0.7423381209373474
0.30467092990875244,7.743983745574951,0.7392880320549011
0.24992749094963074,7.718648433685303,0.7373346090316772
0.19512178003787994,7.681314468383789,0.7337816953659058
0.14047208428382874,7.624161243438721,0.7283031344413757
0.0873858630657196,7.632723808288574,0.7291375994682312
0.03328496962785721,7.617588043212891,0.7277448177337646
-0.019541509449481964,7.563187122344971,0.7226346731185913
-0.07197576016187668,7.555083751678467,0.721981942653656
-0.12399689108133316,7.527221202850342,0.7190058827400208
-0.1755351424217224,7.495120525360107,0.7155969142913818
-0.22679157555103302,7.470444202423096,0.7129341959953308
-0.2786588668823242,7.441492557525635,0.7098942399024963
-0.33153480291366577,7.46661376953125,0.7120526432991028
-0.2753213346004486,5.359288692474365,0.5109414458274841
-0.31622233986854553,5.423313617706299,0.5165853500366211
-0.35273805260658264,5.405539512634277,0.5144085884094238
-0.39020079374313354,5.39523458480835,0.5129618644714355
-0.4258017838001251,5.36920166015625,0.5100535750389099
-0.46172890067100525,5.35068416595459,0.5078867673873901
-0.43095242977142334,4.619454860687256,0.4381472170352936
-0.4627625346183777,4.616459369659424,0.437276691198349
-0.4930148422718048,4.593857288360596,0.43452516198158264
-0.5254985094070435,4.598169326782227,0.4343525171279907
-0.5537126660346985,4.563603401184082,0.4305249750614166
-0.5844435095787048,4.5520124435424805,0.4288904666900635
-0.614042341709137,4.532500267028809,0.4265322983264923
-0.643511950969696,4.512811183929443,0.42386114597320557
-0.67446368932724,4.508403301239014,0.42264267802238464
-0.7035795450210571,4.492254257202148,0.4203454256057739
-0.7322871088981628,4.4720139503479,0.41767969727516174
-0.7633227705955505,4.466935634613037,0.4164539575576782
-0.7888839840888977,4.431002616882324,0.4123583137989044
-0.8168713450431824,4.410247325897217,0.4094051420688629
-0.8389381766319275,4.362673282623291,0.4040123224258423
-0.7325890064239502,3.6740477085113525,0.3394325077533722
-0.7564973831176758,3.661372184753418,0.33745792508125305
-0.7818923592567444,3.6561503410339355,0.3361882269382477
-0.9579585790634155,4.330689430236816,0.397198885679245
-0.9856321811676025,4.316657066345215,0.3947213888168335
-1.0113334655761719,4.294882774353027,0.3915620446205139
-1.0444200038909912,4.30313777923584,0.39114701747894287
-1.0725096464157104,4.28836727142334,0.38863569498062134
-1.0970215797424316,4.258223533630371,0.3847406208515167
-1.124220371246338,4.243249416351318,0.3821055591106415
-1.155096411705017,4.243200778961182,0.38072124123573303
-1.1776012182235718,4.212953567504883,0.37665170431137085
-1.2109640836715698,4.219870090484619,0.3759019374847412
-1.235305905342102,4.192715167999268,0.37210285663604736
-1.262110710144043,4.176779270172119,0.36934155225753784
-1.2833671569824219,4.146061897277832,0.3650326430797577
-1.3159881830215454,4.152364730834961,0.3640049397945404
-1.3418149948120117,4.13611364364624,0.36099866032600403
-1.3686283826828003,4.11932897567749,0.35790443420410156
-1.3972822427749634,4.1099066734313965,0.35549819469451904
-1.4201527833938599,4.085794925689697,0.3516917824745178
-1.4476648569107056,4.076353073120117,0.34908077120780945
-1.4830433130264282,4.0886993408203125,0.3483442962169647
-1.5005202293395996,4.049342155456543,0.3431699872016907
-1.5318866968154907,4.046140193939209,0.34104880690574646
-1.5539262294769287,4.021264553070068,0.3370632529258728
-1.5836409330368042,4.018269062042236,0.3347967565059662
-1.6104798316955566,4.007826805114746,0.33192119002342224
-1.6352274417877197,3.9896223545074463,0.3283519744873047
-1.6605198383331299,3.9709692001342773,0.3247154951095581
-1.6846879720687866,3.9525580406188965,0.3210796117782593
-1.704849362373352,3.9271788597106934,0.3167572021484375
-1.7294392585754395,3.912407159805298,0.3133176267147064
-1.7581697702407837,3.904115915298462,0.3103195130825043
-1.7647615671157837,3.8457462787628174,0.30332672595977783
-1.7975022792816162,3.848024845123291,0.30109134316444397
-1.8096823692321777,3.8080923557281494,0.29548677802085876
-1.8419411182403564,3.810180187225342,0.2931475341320038
-1.8684159517288208,3.7975411415100098,0.28958261013031006
-1.8952795267105103,3.7844815254211426,0.28595295548439026
-1.9132075309753418,3.758241653442383,0.2812274098396301
-1.941506266593933,3.7527549266815186,0.2780575752258301
-1.95624577999115,3.718968629837036,0.2727079391479492
-1.9858721494674683,3.712362289428711,0.2693127989768982
-2.0183942317962646,3.7128260135650635,0.26634472608566284
-1.7114500999450684,3.0988714694976807,0.21967656910419464
-1.7246609926223755,3.07391095161438,0.21527472138404846
-0.8421388268470764,1.476824402809143,0.10211048275232315
-0.848247766494751,1.4644372463226318,0.09991931170225143
-0.8538187742233276,1.4522740840911865,0.09772322326898575
-0.8757036924362183,1.4666271209716797,0.09723760932683945
-0.873811662197113,1.4405782222747803,0.09404078125953674
-0.8916603922843933,1.4480760097503662,0.09301982074975967
-0.9010318517684937,1.4423844814300537,0.0911216214299202
-0.8941066265106201,1.409994125366211,0.08749554306268692
-0.8913995623588562,1.3840712308883667,0.08426134288311005
-0.8810582756996155,1.3490476608276367,0.08051667362451553
-0.8984302282333374,1.3564186096191406,0.07929106056690216
-0.9623779058456421,1.4311410188674927,0.0817461609840393
-2.3966317176818848,3.5137927532196045,0.19592314958572388
-1.3029729127883911,1.884007215499878,0.10239171236753464
-1.4191933870315552,2.022005796432495,0.10682228207588196
-1.2571163177490234,1.7984892129898071,-0.06702349334955215
-1.3386098146438599,1.9461352825164795,-0.07602708786725998
-1.3116040229797363,1.9360636472702026,-0.07887623459100723
-1.2883838415145874,1.9327067136764526,-0.0818839818239212
-1.372791051864624,2.0920207500457764,-0.09187087416648865
-1.1758918762207031,1.819490909576416,-0.0825798362493515
-1.4072216749191284,2.213505506515503,-0.10366734862327576
-1.192229986190796,1.905946969985962,-0.09194391965866089
-2.1397812366485596,3.6487483978271484,-0.1946820318698883
-0.8754323720932007,1.544396996498108,-0.08606407791376114
-1.729272723197937,3.1007046699523926,-0.17620879411697388
-1.76344633102417,3.2153141498565674,-0.18621942400932312
-1.793501615524292,3.3274974822998047,-0.19626203179359436
-1.650653600692749,3.1160995960235596,-0.18705973029136658
-1.6666985750198364,3.1999640464782715,-0.19531087577342987
-1.6257812976837158,3.176957368850708,-0.19701674580574036
-1.590297818183899,3.164105176925659,-0.19928304851055145
-1.5369678735733032,3.112018585205078,-0.19888997077941895
-1.4892834424972534,3.0700020790100098,-0.19907914102077484
-1.4485572576522827,3.0417652130126953,-0.19992975890636444
-1.400041103363037,2.9954521656036377,-0.19951625168323517
-1.3676999807357788,2.9801414012908936,-0.2010103017091751
-1.3276264667510986,2.9467570781707764,-0.20123730599880219
-1.2763450145721436,2.8883233070373535,-0.19955913722515106
-1.2426713705062866,2.8688087463378906,-0.20054291188716888
-1.202812910079956,2.8305718898773193,-0.2000488042831421
-1.1770637035369873,2.8242974281311035,-0.20177417993545532
-1.1449863910675049,2.803611993789673,-0.20233489573001862
-1.1030999422073364,2.7572994232177734,-0.20098313689231873
-1.0776795148849487,2.750412940979004,-0.2024555802345276
-1.0431134700775146,2.7176594734191895,-0.20194783806800842
-1.012804627418518,2.6956491470336914,-0.2021087259054184
-0.9773193597793579,2.658783435821533,-0.20107333362102509
-0.9558423161506653,2.658132314682007,-0.20273135602474213
-0.9253150224685669,2.6316030025482178,-0.20240546762943268
-0.894111692905426,2.601043701171875,-0.20166082680225372
-0.8705592155456543,2.5924339294433594,-0.20249657332897186
-0.8386992812156677,2.5577054023742676,-0.20126859843730927
-0.8232211470603943,2.5707602500915527,-0.2037583887577057
-0.7852246761322021,2.5131776332855225,-0.20065206289291382
-0.7651079893112183,2.5110936164855957,-0.20179133117198944
-0.7428098917007446,2.5013959407806396,-0.20229318737983704
-0.7187044620513916,2.483976364135742,-0.20214851200580597
-0.6897982358932495,2.4475488662719727,-0.2004200667142868
-0.6757575273513794,2.4634482860565186,-0.2029319703578949
-0.6549751162528992,2.456843376159668,-0.20350424945354462
-0.6316959857940674,2.4386837482452393,-0.20309539139270782
-0.6070853471755981,2.412700891494751,-0.2020036280155182
-0.5800966024398804,2.3751509189605713,-0.19992120563983917
-0.5580211877822876,2.356326103210449,-0.19929900765419006
-0.5410683751106262,2.36017107963562,-0.20054645836353302
-0.5210514068603516,2.3486194610595703,-0.20047171413898468
-0.5046661496162415,2.3520922660827637,-0.20167367160320282
-0.48509737849235535,2.3402042388916016,-0.20156247913837433
-0.4670715034008026,2.3358395099639893,-0.20195527374744415
-0.4473367929458618,2.323756217956543,-0.2016737312078476
-0.42889899015426636,2.315268039703369,-0.20168763399124146
-0.4073270857334137,2.2874550819396973,-0.20000791549682617
-0.3874645233154297,2.267132520675659,-0.198964461684227
-0.37025317549705505,2.262049674987793,-0.19909551739692688
-0.35105979442596436,2.2453439235687256,-0.19821646809577942
-0.3261873424053192,2.1860899925231934,-0.19355587661266327
-0.3153538107872009,2.219058036804199,-0.1970599740743637
-0.3009284436702728,2.2288472652435303,-0.1984909623861313
-0.2852976322174072,2.2308473587036133,-0.19910502433776855
-0.27151963114738464,2.2481887340545654,-0.20110119879245758
-0.2520485520362854,2.2190749645233154,-0.19895417988300323
-0.23744650185108185,2.2284562587738037,-0.20025405287742615
-0.22038745880126953,2.2145190238952637,-0.19941386580467224
-0.20347173511981964,2.200470447540283,-0.198445126414299
-0.18873098492622375,2.20955491065979,-0.1995716542005539
-0.17127111554145813,2.1875240802764893,-0.19789889454841614
-0.15550120174884796,2.18086314201355,-0.19761627912521362
-0.14006029069423676,2.177978992462158,-0.19761812686920166
-0.12397976219654083,2.1633453369140625,-0.1964453160762787
-0.1092643067240715,2.1719071865081787,-0.19738803803920746
-0.09439529478549957,2.1842641830444336,-0.19868925213813782
-0.07905980944633484,2.1809585094451904,-0.1985730081796646
-0.06321335583925247,2.158108949661255,-0.19661475718021393
-0.04834797605872154,2.1662700176239014,-0.197384312748909
-0.03277493268251419,2.1354315280914307,-0.19460949301719666
-0.017975129187107086,2.174504280090332,-0.1982165277004242
-0.002821675268933177,2.159010648727417,-0.19685888290405273
0.01209673099219799,2.143419027328491,-0.1954277604818344
0.027307193726301193,2.1666321754455566,-0.19744297862052917
0.04223255813121796,2.158621072769165,-0.19662155210971832
0.05702907219529152,2.150507926940918,-0.19580109417438507
0.07223667949438095,2.1500613689422607,-0.1956872195005417
0.08685186505317688,2.1417510509490967,-0.1947891265153885
0.10318573564291,2.172210454940796,-0.19732338190078735
0.11827283352613449,2.1714680194854736,-0.19702908396720886
0.13337342441082,2.170619249343872,-0.1967344433069229
0.14926350116729736,2.177410840988159,-0.19713744521141052
0.16437602043151855,2.176356077194214,-0.19676360487937927
0.18168726563453674,2.2023487091064453,-0.19875022768974304
0.1945122331380844,2.1739535331726074,-0.195838063955307
0.2122584730386734,2.199697494506836,-0.19781076908111572
0.2286359965801239,2.2059218883514404,-0.19802650809288025
0.24306844174861908,2.1965997219085693,-0.1967720091342926
0.2591768503189087,2.202651023864746,-0.19681602716445923
0.2743988633155823,2.200864315032959,-0.1961679905653
0.2917359471321106,2.2143914699554443,-0.19688795506954193
0.3041869103908539,2.1892054080963135,-0.1941688507795334
0.3283151686191559,2.2487239837646484,-0.19887596368789673
0.34382492303848267,2.246478319168091,-0.19804175198078156
0.35808876156806946,2.2364401817321777,-0.19653214514255524
0.3768572509288788,2.253159523010254,-0.19737474620342255
0.39654430747032166,2.2735595703125,-0.19853773713111877
0.41115233302116394,2.2631378173828125,-0.19689105451107025
0.42962580919265747,2.275637626647949,-0.19720201194286346
0.44533562660217285,2.2727038860321045,-0.19617782533168793
0.465790331363678,2.2925260066986084,-0.1971139758825302
0.47692352533340454,2.266463279724121,-0.1941143423318863
0.4961050748825073,2.278380870819092,-0.19424007833003998
0.5168790817260742,2.29780650138855,-0.19498485326766968
0.5389008522033691,2.3208296298980713,-0.19602015614509583
0.5514444708824158,2.3019745349884033,-0.19351449608802795
0.5805315971374512,2.3510990142822266,-0.19671881198883057
0.5931007266044617,2.3320116996765137,-0.19403736293315887
0.6169931888580322,2.358133554458618,-0.19513797760009766
0.6403971910476685,2.380241632461548,-0.19588106870651245
0.6632171273231506,2.3983542919158936,-0.1962747871875763
0.6777072548866272,2.386326789855957,-0.19416634738445282
0.7008756995201111,2.404106616973877,-0.1943570077419281
0.724012017250061,2.4217710494995117,-0.19454757869243622
0.7534253001213074,2.4577627182006836,-0.19616523385047913
0.7775570154190063,2.47487735748291,-0.19625148177146912
0.8017388582229614,2.491853952407837,-0.1962246149778366
0.8214770555496216,2.4937682151794434,-0.19492673873901367
0.84979248046875,2.521434783935547,-0.19564417004585266
0.8673585057258606,2.515594244003296,-0.1937304437160492
0.905565619468689,2.5684380531311035,-0.19630521535873413
0.9256735444068909,2.5697021484375,-0.19478964805603027
0.9552579522132874,2.5964090824127197,-0.1951865255832672
0.9872662425041199,2.6262431144714355,-0.1957245171070099
1.015326738357544,2.6449263095855713,-0.19542154669761658
1.047653079032898,2.674356698989868,-0.1958075761795044
1.080224633216858,2.703554391860962,-0.19608715176582336
1.1031479835510254,2.7070865631103516,-0.19446128606796265
1.1522388458251953,2.771360397338867,-0.19708506762981415
1.1713744401931763,2.763507127761841,-0.1945410668849945
1.1359267234802246,2.6304538249969482,-0.18319912254810333
1.1443120241165161,2.601456880569458,-0.17921672761440277
1.1656174659729004,2.600703477859497,-0.17714226245880127
1.1726707220077515,2.5677330493927,-0.17285971343517303
1.1981408596038818,2.5776379108428955,-0.17142869532108307
1.2221105098724365,2.58379864692688,-0.1697327345609665
1.2992973327636719,2.6983721256256104,-0.17497371137142181
1.5017695426940918,3.0641069412231445,-0.19607900083065033
1.5731735229492188,3.1551897525787354,-0.19907218217849731
1.6172447204589844,3.1899983882904053,-0.1984342634677887
1.6304327249526978,3.1615750789642334,-0.19374814629554749
1.433161735534668,2.732395648956299,-0.16490989923477173
1.4329813718795776,2.6885552406311035,-0.15968820452690125
1.4471931457519531,2.672248363494873,-0.15614119172096252
1.4661083221435547,2.6621110439300537,-0.1528092920780182
1.4691720008850098,2.624896764755249,-0.147988960146904
1.4537434577941895,2.557629108428955,-0.14152809977531433
1.449544072151184,2.5107483863830566,-0.13624504208564758
1.447293758392334,2.467088222503662,-0.13113272190093994
1.3602806329727173,2.2829744815826416,-0.11872515082359314
1.3571232557296753,2.2440617084503174,-0.11414217203855515
1.352232575416565,2.2014970779418945,-0.10931826382875443
1.371436357498169,2.1989452838897705,-0.10649824887514114
1.3774343729019165,2.1768901348114014,-0.1027236133813858
1.38823664188385,2.1608986854553223,-0.09910757839679718
1.4032306671142578,2.151343584060669,-0.0957704484462738
1.4128369092941284,2.1358375549316406,-0.09217536449432373
1.4076026678085327,2.0972506999969482,-0.08752565085887909
1.4418888092041016,2.116626024246216,-0.08518971502780914
1.4445704221725464,2.0912554264068604,-0.08097510039806366
1.4452351331710815,2.062394380569458,-0.0765661671757698
1.4636647701263428,2.059081792831421,-0.07303094118833542
1.4629533290863037,2.030911445617676,-0.06864305585622787
1.4770339727401733,2.0208287239074707,-0.06456069648265839
1.471297025680542,1.9863898754119873,-0.05974673852324486
2.2211813926696777,3.1098036766052246,0.1418609768152237
2.2144863605499268,3.1477718353271484,0.14871425926685333
2.1869258880615234,3.157219648361206,0.15405671298503876
2.1516499519348145,3.157503128051758,0.15882176160812378
2.1294517517089844,3.1722583770751953,0.1638927310705185
2.112172842025757,3.1975648403167725,0.16947288811206818
3.112107992172241,4.790738105773926,0.2602195143699646
3.1057870388031006,4.854787349700928,0.26947686076164246
1.6357896327972412,2.5987164974212646,0.14726287126541138
1.5995272397994995,2.5843474864959717,0.1493915319442749
1.8777801990509033,3.0816969871520996,0.18134815990924835
1.875497579574585,3.1284215450286865,0.18735355138778687
1.8440076112747192,3.128751516342163,0.19045789539813995
1.8290318250656128,3.1553456783294678,0.19507083296775818
2.8215973377227783,4.946508884429932,0.3102850317955017
2.7684359550476074,4.935895919799805,0.31395405530929565
2.6932549476623535,4.888087272644043,0.3151741623878479
2.6267223358154297,4.848552703857422,0.31658434867858887
2.5725722312927246,4.828619480133057,0.3191342055797577
2.5083775520324707,4.79163932800293,0.3203415274620056
2.4460253715515137,4.75777530670166,0.3216162919998169
2.3850224018096924,4.722903728485107,0.32269230484962463
2.334623098373413,4.704230785369873,0.32469823956489563
1.245163083076477,2.5548019409179688,0.17805512249469757
1.2229523658752441,2.5567078590393066,0.17984525859355927
1.201124668121338,2.5582668781280518,0.18158121407032013
1.1832304000854492,2.566438913345337,0.18373610079288483
1.1632533073425293,2.5711209774017334,0.1856568455696106
1.1586147546768188,2.611489772796631,0.1900319904088974
2.0784189701080322,4.778445720672607,0.35038670897483826
2.0631086826324463,4.835696220397949,0.3571847975254059
2.0383529663085938,4.871272087097168,0.3624124526977539
2.016324281692505,4.918089866638184,0.36843809485435486
1.9920917749404907,4.961304187774658,0.37407007813453674
2.423743486404419,6.164783000946045,0.4677779972553253
2.363830089569092,6.137612342834473,0.46857327222824097
2.0047216415405273,5.31516695022583,0.408261775970459
1.976768970489502,5.358595371246338,0.4139486849308014
1.943200707435608,5.387174606323242,0.41837525367736816
2.0726916790008545,5.878419399261475,0.45894956588745117
2.0684854984283447,5.999256610870361,0.47078534960746765
