X,Y,Z
-0.8538345694541931,1.481505036354065,-0.17381258308887482
-0.9236993193626404,1.6289112567901611,-0.19598685204982758
-0.9592547416687012,1.7196335792541504,-0.21200668811798096
-0.9427425265312195,1.7191630601882935,-0.21699611842632294
-0.9080842733383179,1.6842631101608276,-0.21742627024650574
-0.8795040845870972,1.6592215299606323,-0.2189057320356369
-0.8423157334327698,1.6167103052139282,-0.2177579253911972
-0.810967743396759,1.584193229675293,-0.2177150845527649
-0.7821800708770752,1.554654836654663,-0.21778370440006256
-0.7642065286636353,1.5456230640411377,-0.22058872878551483
-0.7408340573310852,1.5261926651000977,-0.22182834148406982
-0.7196768522262573,1.5099142789840698,-0.22333845496177673
-0.6957861185073853,1.4862940311431885,-0.22355256974697113
-0.6819007396697998,1.4835472106933594,-0.2268153578042984
-0.6535990834236145,1.4490312337875366,-0.2250477522611618
-0.6305854916572571,1.4247926473617554,-0.22470623254776
-0.6033353805541992,1.3896785974502563,-0.22250011563301086
-0.5812875032424927,1.3648996353149414,-0.22170639038085938
-0.5773540735244751,1.3827192783355713,-0.22774744033813477
0.5580739378929138,1.3732454776763916,-0.22967460751533508
0.5737351775169373,1.3841177225112915,-0.228397399187088
0.5955712199211121,1.4090803861618042,-0.2293674647808075
0.6223838329315186,1.4444612264633179,-0.2318904846906662
0.6324771046638489,1.4406962394714355,-0.22797013819217682
0.655144989490509,1.46510910987854,-0.22844013571739197
0.6801376342773438,1.4926702976226807,-0.22915510833263397
0.6972517967224121,1.502475380897522,-0.2270985096693039
0.7242399454116821,1.5332272052764893,-0.22803035378456116
0.7449475526809692,1.5497455596923828,-0.22671179473400116
0.7712573409080505,1.5763951539993286,-0.22667540609836578
0.789560079574585,1.5853211879730225,-0.22390706837177277
0.8302880525588989,1.6392749547958374,-0.22733855247497559
0.8664999008178711,1.6824175119400024,-0.22899465262889862
0.8946629166603088,1.707830786705017,-0.22792617976665497
0.9359104633331299,1.7569599151611328,-0.22979040443897247
0.960928738117218,1.7750766277313232,-0.2273668795824051
0.9997060894966125,1.8165675401687622,-0.22760728001594543
1.0448354482650757,1.867771029472351,-0.2287665754556656
1.0865799188613892,1.9118742942810059,-0.2287469506263733
1.144313097000122,1.9825575351715088,-0.23153410851955414
1.181863784790039,2.015456199645996,-0.22939851880073547
1.2302303314208984,2.0644493103027344,-0.22864900529384613
1.2945531606674194,2.140028238296509,-0.23052799701690674
1.3255643844604492,2.1583733558654785,-0.22581522166728973
1.355317234992981,2.172804355621338,-0.2203233391046524
1.3618863821029663,2.1510725021362305,-0.21114255487918854
1.3703031539916992,2.1326167583465576,-0.2022472470998764
1.389664888381958,2.130125045776367,-0.1946374475955963
1.774213194847107,2.679961919784546,-0.2355508953332901
1.8180980682373047,2.707791805267334,-0.22850926220417023
1.8064028024673462,2.6507396697998047,-0.21379360556602478
1.8848170042037964,2.7254600524902344,-0.20930303633213043
1.9027711153030396,2.7138004302978516,-0.19805137813091278
1.4267011880874634,2.005220651626587,-0.1380913108587265
1.440189242362976,1.9961531162261963,-0.129161074757576
1.4671918153762817,2.006039619445801,-0.12123540788888931
1.4651033878326416,1.9742199182510376,-0.11018970608711243
2.3211026191711426,3.2601258754730225,0.4848080575466156
1.5668292045593262,2.234278678894043,0.3399186134338379
1.55747652053833,2.258256673812866,0.35103487968444824
1.5448390245437622,2.2749574184417725,0.36055129766464233
1.5240398645401,2.278327226638794,0.3677082359790802
1.5186439752578735,2.3084614276885986,0.3789406418800354
1.4878982305526733,2.2994837760925293,0.3836861252784729
1.622981309890747,2.5469954013824463,0.4312904477119446
1.599669098854065,2.551229238510132,0.43811705708503723
3.0700087547302246,4.979954242706299,0.8667385578155518
3.0129411220550537,4.967050075531006,0.8753429055213928
3.0003325939178467,5.026214122772217,0.8965387940406799
2.970160961151123,5.059556007385254,0.9126570820808411
2.936699151992798,5.089958190917969,0.9280762672424316
2.9256749153137207,5.156098365783691,0.949718713760376
2.896293878555298,5.187986850738525,0.9648982286453247
2.862959146499634,5.217276573181152,0.9795243740081787
2.852264165878296,5.290961742401123,1.0020506381988525
2.832167625427246,5.347419738769531,1.0213972330093384
2.808211088180542,5.392566204071045,1.0382773876190186
2.7907145023345947,5.451325416564941,1.057945728302002
2.764488697052002,5.501224040985107,1.0754692554473877
2.736393928527832,5.547379016876221,1.0921719074249268
1.2321456670761108,2.543765068054199,0.5042369365692139
1.2074426412582397,2.5376014709472656,0.5063228607177734
1.1861062049865723,2.5381999015808105,0.5097435712814331
1.1702572107315063,2.553089141845703,0.5156895518302917
1.1602072715759277,2.5820205211639404,0.5245862007141113
1.1444932222366333,2.596512794494629,0.530471682548523
2.56451416015625,5.929595947265625,1.2179933786392212
2.5389931201934814,5.9844160079956055,1.235898733139038
2.5035531520843506,6.022337913513184,1.2496248483657837
2.4767987728118896,6.085297584533691,1.2686783075332642
2.443462371826172,6.129868030548096,1.2838689088821411
2.415424346923828,6.184388160705566,1.3010592460632324
2.388040542602539,6.242380142211914,1.3191304206848145
2.3604676723480225,6.304235935211182,1.3376975059509277
2.331638813018799,6.370294570922852,1.3568705320358276
2.296224355697632,6.41797399520874,1.3721925020217896
2.2680087089538574,6.483061790466309,1.3912156820297241
2.238407850265503,6.5442094802856445,1.4094665050506592
2.2092678546905518,6.608854293823242,1.4286173582077026
2.17356276512146,6.663305282592773,1.4449599981307983
2.105192184448242,6.615411281585693,1.4388821125030518
2.0524368286132812,6.6143622398376465,1.443013310432434
1.986812710762024,6.564945697784424,1.4364888668060303
1.92767333984375,6.5332159996032715,1.433811068534851
1.8700627088546753,6.504685878753662,1.4318573474884033
1.8058595657348633,6.457980632781982,1.4250646829605103
1.75399911403656,6.4511542320251465,1.4269334077835083
1.6916698217391968,6.4032816886901855,1.4197516441345215
0.832779586315155,3.2438695430755615,0.7209483981132507
1.5739703178405762,6.312718868255615,1.4063631296157837
0.805760383605957,3.33193039894104,0.7441362738609314
1.4803816080093384,6.317291259765625,1.413577914237976
1.4248616695404053,6.282054901123047,1.4082238674163818
1.3757156133651733,6.272436141967773,1.408655047416687
1.3219434022903442,6.236182689666748,1.403108835220337
1.2699328660964966,6.207032680511475,1.3992174863815308
1.2154717445373535,6.158629417419434,1.3909682035446167
1.1720988750457764,6.166135787963867,1.3949337005615234
1.1192265748977661,6.124782562255859,1.3873755931854248
1.0630512237548828,6.060473918914795,1.3746517896652222
1.0211952924728394,6.078476905822754,1.3806748390197754
0.963647186756134,5.9906158447265625,1.3626291751861572
0.9299575686454773,6.049171447753906,1.377941370010376
0.881125271320343,6.009509086608887,1.370949387550354
0.838483452796936,6.015054702758789,1.3733681440353394
0.7836368680000305,5.933511734008789,1.3559744358062744
0.738308310508728,5.911907196044922,1.3523014783859253
0.5917596817016602,5.023637771606445,1.1502341032028198
0.5710248947143555,5.155890941619873,1.1817119121551514
0.5315229892730713,5.125189781188965,1.17592191696167
0.39420557022094727,4.078454494476318,0.9365206956863403
0.36772021651268005,4.111280918121338,0.944501519203186
0.3435059189796448,4.170455455780029,0.9585843682289124
0.3139037489891052,4.168737411499023,0.9587244391441345
0.2827702462673187,4.140205383300781,0.9527357220649719
0.2560098171234131,4.176044940948486,0.9616069793701172
0.4196646809577942,7.743043899536133,1.784234881401062
0.3649360239505768,7.734166145324707,1.7825500965118408
0.3098260462284088,7.713556289672852,1.7779645919799805
0.25388774275779724,7.658315658569336,1.76548171043396
0.19990316033363342,7.636916160583496,1.7608819007873535
0.14551323652267456,7.615148544311523,1.7562869787216187
0.09223724156618118,7.577763080596924,1.7481637001037598
0.03958553448319435,7.559051036834717,1.7443736791610718
-0.012829329818487167,7.544029235839844,1.7403819561004639
-0.06483659148216248,7.505806922912598,1.731124997138977
-0.11737138032913208,7.478632926940918,1.7244975566864014
-0.16873884201049805,7.447300434112549,1.7170027494430542
-0.21981391310691833,7.423227787017822,1.7112667560577393
-0.27092790603637695,7.4064106941223145,1.7072864770889282
-0.3233203589916229,7.427353858947754,1.7117505073547363
-0.2736569941043854,5.421647071838379,1.2486921548843384
-0.3096769154071808,5.381847381591797,1.2387666702270508
-0.34648433327674866,5.372237682342529,1.2358691692352295
-0.38215047121047974,5.347180366516113,1.2294801473617554
-0.41784557700157166,5.325676918029785,1.2239711284637451
-0.45287373661994934,5.300145626068115,1.217600703239441
-0.424197793006897,4.584332466125488,1.0523478984832764
-0.45730045437812805,4.596839904785156,1.0541572570800781
-0.48570528626441956,4.563668251037598,1.0455461740493774
-0.5163556337356567,4.553016662597656,1.0421490669250488
-0.5461819171905518,4.534571170806885,1.03701651096344
-0.5773177742958069,4.523419380187988,1.0335912704467773
-0.6077992916107178,4.5121169090271,1.030199408531189
-0.6376945972442627,4.50080680847168,1.0262256860733032
-0.6679737567901611,4.49308967590332,1.023044466972351
-0.6941243410110474,4.458798408508301,1.0138689279556274
-0.7254971265792847,4.454339981079102,1.011501431465149
-0.7539290189743042,4.434680938720703,1.0057512521743774
-0.7835030555725098,4.422337532043457,1.001713514328003
-0.8141598105430603,4.417365550994873,0.9992009401321411
-0.832187294960022,4.348684310913086,0.9818593263626099
-0.7238461971282959,3.64768123626709,0.8221046328544617
-0.7476730942726135,3.6356451511383057,0.8179285526275635
-0.9143601059913635,4.295151233673096,0.96461421251297
-0.9541257619857788,4.334054470062256,0.9716894030570984
-0.9808869957923889,4.313089370727539,0.9653804302215576
-1.0103278160095215,4.3070573806762695,0.9619429111480713
-1.0400985479354858,4.300775527954102,0.9583139419555664
-1.0637753009796143,4.2721686363220215,0.9498052000999451
-1.097058892250061,4.280316352844238,0.9494820833206177
-1.1123743057250977,4.217945098876953,0.9335553050041199
-1.1438684463500977,4.218231201171875,0.9315658807754517
-1.1786226034164429,4.229360580444336,0.9316775798797607
-1.1999951601028442,4.196454048156738,0.9218169450759888
-1.2307004928588867,4.196441173553467,0.9192320704460144
-1.2550333738327026,4.174185276031494,0.9118061661720276
-1.286497950553894,4.173539638519287,0.9090938568115234
-1.3093277215957642,4.143327236175537,0.89994877576828
-1.3380544185638428,4.13510274887085,0.8955119252204895
-1.3660181760787964,4.126990795135498,0.8907001614570618
-1.391477346420288,4.111433982849121,0.8843276500701904
-1.4119911193847656,4.081174850463867,0.8748320937156677
-1.4406543970108032,4.072208881378174,0.869868814945221
-1.46060049533844,4.037672519683838,0.85945725440979
-1.492567539215088,4.03930139541626,0.856664776802063
-1.5252100229263306,4.044628143310547,0.8542603850364685
-1.542889952659607,4.0103325843811035,0.8435307145118713
-1.5745371580123901,4.011528491973877,0.8402718305587769
-1.593241810798645,3.9764366149902344,0.8293091058731079
-1.624114990234375,3.9733917713165283,0.8251481652259827
-1.6513586044311523,3.9633710384368896,0.8192479014396667
-1.6600338220596313,3.911017894744873,0.8044219613075256
-1.6924118995666504,3.9150922298431396,0.8012733459472656
-1.732560396194458,3.932394504547119,0.8006068468093872
-1.754045009613037,3.907325267791748,0.7913557291030884
-1.771956205368042,3.8751978874206543,0.7807101011276245
-1.7817490100860596,3.8297131061553955,0.7669734954833984
-1.817320466041565,3.839838743209839,0.7644253969192505
-1.8641235828399658,3.87001895904541,0.765651285648346
-1.8779503107070923,3.8304994106292725,0.7530407309532166
-1.9050480127334595,3.8184945583343506,0.7459117770195007
-1.9307390451431274,3.807020425796509,0.7384690642356873
-1.9631977081298828,3.809171199798584,0.7336101531982422
-1.9748055934906006,3.7698891162872314,0.7207237482070923
-2.002110004425049,3.757006883621216,0.7126129865646362
-2.017828941345215,3.723815679550171,0.7008163332939148
-1.711896538734436,3.1105735301971436,0.5804076790809631
-1.7213447093963623,3.0801613330841064,0.5697524547576904
-1.750231385231018,3.082911252975464,0.5650893449783325
-0.844805896282196,1.4638947248458862,0.2657484710216522
-0.8510818481445312,1.4519551992416382,0.26099878549575806
-0.8725306391716003,1.4668408632278442,0.260933518409729
-0.8782845139503479,1.455037236213684,0.25609490275382996
-0.8806142210960388,1.4362181425094604,0.24986228346824646
-0.8705908060073853,1.3976609706878662,0.2402488738298416
-0.8839259147644043,1.399091362953186,0.23745419085025787
-0.9014763236045837,1.406923770904541,0.23571686446666718
-0.8904047012329102,1.3687286376953125,0.22607000172138214
-0.9129480123519897,1.382412075996399,0.22500848770141602
-0.9092005491256714,1.357715368270874,0.2175079733133316
-2.3803486824035645,3.505826234817505,0.5526213645935059
-2.429689645767212,3.525621175765991,0.5458635091781616
-1.2102726697921753,1.7315449714660645,0.2631229758262634
-1.3940348625183105,1.9682551622390747,0.29329052567481995
-1.3702832460403442,2.173682451248169,-0.210134357213974
-1.2985975742340088,2.0937533378601074,-0.20945316553115845
-1.203856348991394,2.0041744709014893,-0.21331720054149628
-0.8402363061904907,1.445300579071045,-0.16266371309757233
-0.8414014577865601,1.4709919691085815,-0.16988550126552582
-1.0133036375045776,1.8017516136169434,-0.2133312076330185
-0.9886687994003296,1.7880834341049194,-0.21686959266662598
-0.9536685347557068,1.7534312009811401,-0.21750031411647797
-0.928040623664856,1.7356799840927124,-0.2200271338224411
-0.8845462799072266,1.6833630800247192,-0.21794846653938293
-0.8546956777572632,1.6544979810714722,-0.2185324877500534
-0.8250728845596313,1.6254137754440308,-0.218977153301239
-0.780241847038269,1.564843773841858,-0.21480123698711395
-0.7586042284965515,1.5489555597305298,-0.2165137231349945
-0.7391734719276428,1.536224126815796,-0.21849334239959717
-0.7314498424530029,1.5478603839874268,-0.22389183938503265
-0.710374653339386,1.5314383506774902,-0.2251659482717514
-0.6766924858093262,1.486637830734253,-0.22212918102741241
-0.6582171320915222,1.4731345176696777,-0.22351789474487305
-0.641403079032898,1.4630496501922607,-0.22530965507030487
-0.6216127276420593,1.445745825767517,-0.22587595880031586
-0.5962276458740234,1.4139479398727417,-0.22402265667915344
-0.5786193609237671,1.3997694253921509,-0.2248823046684265
-0.5714848041534424,1.4104619026184082,-0.2295989692211151
0.5710639953613281,1.4188966751098633,-0.23117171227931976
0.5722029805183411,1.393978476524353,-0.22420907020568848
0.5984978675842285,1.429660677909851,-0.22693416476249695
0.623760461807251,1.4615285396575928,-0.22888271510601044
0.6371968388557434,1.4647597074508667,-0.2261311262845993
0.6646707057952881,1.4997612237930298,-0.22823932766914368
0.6848480701446533,1.5167739391326904,-0.2274419516324997
0.7052223086357117,1.5336188077926636,-0.22651712596416473
0.722400426864624,1.5433342456817627,-0.2244071662425995
0.7550197243690491,1.584245204925537,-0.22661294043064117
0.7696334719657898,1.5864455699920654,-0.22317230701446533
0.7979380488395691,1.6163744926452637,-0.22351709008216858
0.8386723399162292,1.670363187789917,-0.2269320785999298
0.8768055438995361,1.7169208526611328,-0.22902649641036987
0.8997372388839722,1.7319648265838623,-0.22667573392391205
0.9120358228683472,1.7261979579925537,-0.22145472466945648
0.9698255062103271,1.8060415983200073,-0.22706517577171326
1.006687879562378,1.844180941581726,-0.22701093554496765
1.0536718368530273,1.8988323211669922,-0.22867600619792938
1.0991102457046509,1.9498103857040405,-0.22955603897571564
1.1339040994644165,1.9799381494522095,-0.22762294113636017
1.1890290975570679,2.0431249141693115,-0.22907529771327972
1.2488328218460083,2.1124866008758545,-0.2308071255683899
1.2991863489151,2.1647419929504395,-0.23027050495147705
1.3243639469146729,2.173018217086792,-0.22467896342277527
1.3400452136993408,2.164163827896118,-0.21702903509140015
1.3587980270385742,2.1623804569244385,-0.21020089089870453
1.373521327972412,2.1537859439849854,-0.20261095464229584
1.3739492893218994,2.1218323707580566,-0.19263479113578796
1.7777379751205444,2.705688714981079,-0.23668460547924042
1.8545242547988892,2.7819085121154785,-0.23387278616428375
1.8064591884613037,2.6695404052734375,-0.2149137556552887
1.866445779800415,2.7191162109375,-0.20915487408638
1.8755594491958618,2.694664239883423,-0.19746723771095276
1.4198380708694458,2.0099945068359375,-0.13941778242588043
1.4425463676452637,2.0135715007781982,-0.1315881311893463
1.4606133699417114,2.010715961456299,-0.12318014353513718
1.474679946899414,2.0009727478027344,-0.1138870120048523
2.31160306930542,3.2694244384765625,0.46725866198539734
2.2984187602996826,3.3051624298095703,0.4833879768848419
1.5224982500076294,2.2231123447418213,0.3318836987018585
1.5382946729660034,2.2814345359802246,0.3473629653453827
1.5243276357650757,2.29884934425354,0.35646510124206543
1.5154496431350708,2.3220338821411133,0.36617034673690796
1.5426852703094482,2.4000840187072754,0.384474515914917
1.627598762512207,2.5742173194885254,0.418506920337677
1.5784308910369873,2.5398006439208984,0.41897255182266235
3.027479887008667,4.948030948638916,0.8268218636512756
3.0038747787475586,4.987179756164551,0.8439552187919617
2.965210199356079,5.0079779624938965,0.8574200868606567
2.955573320388794,5.078514099121094,0.8795408606529236
2.9128639698028564,5.087568759918213,0.8905388116836548
2.9124755859375,5.169944763183594,0.9143563508987427
2.8767895698547363,5.196538925170898,0.9278075695037842
2.868255853652954,5.27384090423584,0.9504285454750061
2.851790189743042,5.333186626434326,0.9695553779602051
2.825676441192627,5.375430107116699,0.9857164621353149
2.8002896308898926,5.421337127685547,1.002153754234314
2.7730860710144043,5.467816352844238,1.0184593200683594
2.754394292831421,5.5311808586120605,1.037980556488037
1.2508584260940552,2.556382656097412,0.4831220805644989
1.2122819423675537,2.522796630859375,0.48019078373908997
1.1902164220809937,2.523892641067505,0.4834790825843811
1.1744306087493896,2.5388851165771484,0.48937487602233887
1.1651935577392578,2.5676393508911133,0.49792787432670593
1.1501445770263672,2.581998109817505,0.5036200881004333
2.5763466358184814,5.893548488616943,1.1561965942382812
2.544415235519409,5.938995361328125,1.1713128089904785
2.5195577144622803,6.001968860626221,1.1896922588348389
2.4927303791046143,6.061196804046631,1.2074434757232666
2.4599273204803467,6.101800441741943,1.2213536500930786
2.4337244033813477,6.160071849822998,1.238925814628601
2.3968899250030518,6.197415351867676,1.2521196603775024
2.374274969100952,6.274238586425781,1.27280592918396
2.3426625728607178,6.329430103302002,1.2892556190490723
2.3130156993865967,6.387630462646484,1.3063030242919922
2.2820844650268555,6.441854953765869,1.322589635848999
2.253415822982788,6.50706148147583,1.3413684368133545
2.2195749282836914,6.561661720275879,1.3571410179138184
2.1931674480438232,6.6416802406311035,1.378190279006958
2.1446220874786377,6.6559529304504395,1.385708212852478
2.084066390991211,6.625481128692627,1.3837757110595703
2.0220935344696045,6.591066360473633,1.3811064958572388
1.9647409915924072,6.566946506500244,1.3804682493209839
1.8989911079406738,6.517186164855957,1.3735218048095703
1.8454821109771729,6.507369518280029,1.3750249147415161
1.7851589918136597,6.471279621124268,1.3710048198699951
1.7259145975112915,6.430629253387451,1.3659189939498901
1.6693980693817139,6.400782585144043,1.3632102012634277
0.8146041631698608,3.2148141860961914,0.6864787340164185
1.5674256086349487,6.376978397369385,1.364400863647461
0.788688600063324,3.3106915950775146,0.709773063659668
1.4541221857070923,6.3036112785339355,1.3541971445083618
1.403307557106018,6.286673545837402,1.353367805480957
1.3447643518447876,6.2280802726745605,1.3435441255569458
1.298037052154541,6.221371173858643,1.3449420928955078
1.2499427795410156,6.210884094238281,1.3447767496109009
1.195355772972107,6.166338920593262,1.3371131420135498
1.1414101123809814,6.125227451324463,1.3302654027938843
1.0928629636764526,6.102250099182129,1.3273322582244873
1.0476949214935303,6.093893051147461,1.3276091814041138
0.9957990646362305,6.043767929077148,1.3188295364379883
0.9509332776069641,6.034846782684326,1.318655014038086
0.899925172328949,5.991887092590332,1.3106257915496826
0.8585096001625061,6.005097389221191,1.314914345741272
0.808872401714325,5.95748233795166,1.305934190750122
0.7673810720443726,5.962405681610107,1.3085010051727295
0.618939995765686,5.088085174560547,1.1179451942443848
0.5809049010276794,5.069040775299072,1.1151291131973267
0.5511521697044373,5.133441925048828,1.1299906969070435
0.4061402678489685,4.051029682159424,0.8922849297523499
0.37903109192848206,4.068729877471924,0.8967882394790649
0.35548266768455505,4.128044605255127,0.9105149507522583
0.3291623294353485,4.160586357116699,0.9183917045593262
0.2968939542770386,4.124505043029785,0.9111786484718323
0.2700994908809662,4.156722068786621,0.9188392162322998
0.44744354486465454,7.722724914550781,1.7074583768844604
0.39325496554374695,7.7254438400268555,1.7085009813308716
0.3378024697303772,7.697294235229492,1.7027980089187622
0.2833496630191803,7.699258804321289,1.7038451433181763
0.2291901409626007,7.6779398918151855,1.6998093128204346
0.17490385472774506,7.63717794418335,1.691544771194458
0.12142100185155869,7.6152825355529785,1.6866871118545532
0.06798055768013,7.566388130187988,1.6756030321121216
0.014311708509922028,7.543820381164551,1.6704299449920654
-0.037980105727910995,7.520877838134766,1.665259599685669
-0.08999421447515488,7.493758678436279,1.6592451333999634
-0.14161787927150726,7.470096588134766,1.654076099395752
-0.19280286133289337,7.438457489013672,1.6471937894821167
-0.2433239221572876,7.406707763671875,1.6392691135406494
-0.2967928647994995,7.435559272766113,1.6448216438293457
-0.2490384727716446,5.315146446228027,1.1752365827560425
-0.29110413789749146,5.408697128295898,1.1954399347305298
-0.3268435597419739,5.376271724700928,1.1878515481948853
-0.36420971155166626,5.374058723449707,1.1869980096817017
-0.3998129367828369,5.341174602508545,1.1791398525238037
-0.43728721141815186,5.346251487731934,1.179193377494812
-0.46641916036605835,5.256053924560547,1.1583038568496704
-0.44016924500465393,4.599752902984619,1.012847900390625
-0.47056302428245544,4.581709861755371,1.008096694946289
-0.5038080811500549,4.586166858673096,1.0083333253860474
-0.531238853931427,4.544957637786865,0.9985965490341187
-0.5625953674316406,4.541588306427002,0.9967504143714905
-0.5917753577232361,4.5229291915893555,0.9913875460624695
-0.6217679977416992,4.511642932891846,0.9876939654350281
-0.6529008746147156,4.503840446472168,0.984785795211792
-0.6819758415222168,4.484533309936523,0.9794245362281799
-0.7096124887466431,4.457492828369141,0.9724316000938416
-0.7406110167503357,4.452908039093018,0.9703216552734375
-0.7684940099716187,4.433257579803467,0.9643769860267639
-0.7947859168052673,4.405910015106201,0.9568173289299011
-0.8255062103271484,4.400843143463135,0.9541214108467102
-0.7136151790618896,3.664238929748535,0.7931357622146606
-0.7360609173774719,3.6446878910064697,0.7876570820808411
-0.7536143064498901,3.602543830871582,0.7773494720458984
-0.9270878434181213,4.285251617431641,0.9228902459144592
-0.9668084979057312,4.324191093444824,0.9292446374893188
-0.992831826210022,4.3032917976379395,0.9228050112724304
-1.0277019739151,4.3193864822387695,0.9243226647377014
-1.052382469177246,4.290525913238525,0.9162338972091675
-1.0767096281051636,4.2615227699279785,0.9081790447235107
-1.1067568063735962,4.254565238952637,0.9046740531921387
-1.1356571912765503,4.2477617263793945,0.9008157849311829
-1.1553938388824463,4.2075419425964355,0.8899309039115906
-1.1861050128936768,4.207754611968994,0.8876500129699707
-1.215553641319275,4.200174808502197,0.8836982846260071
-1.2454475164413452,4.192253112792969,0.8796793818473816
-1.2702140808105469,4.169638633728027,0.8726246953010559
-1.296186089515686,4.15454626083374,0.8666321039199829
-1.3266302347183228,4.153899669647217,0.8636969923973083
-1.3524048328399658,4.138444900512695,0.8577183485031128
-1.3769652843475342,4.115140914916992,0.8500346541404724
-1.4032775163650513,4.099086284637451,0.8439512848854065
-1.424288272857666,4.068410873413086,0.8348779678344727
-1.4504189491271973,4.0561299324035645,0.8290935754776001
-1.4777624607086182,4.04727840423584,0.824050784111023
-1.4970893859863281,4.016633987426758,0.8146162033081055
-1.5284698009490967,4.014089107513428,0.8107572197914124
-1.5427128076553345,3.9685263633728027,0.7983292937278748
-1.5815200805664062,3.987356185913086,0.7987543344497681
-1.6083180904388428,3.9777560234069824,0.7930905222892761
-1.6321282386779785,3.960864543914795,0.7860154509544373
-1.6627180576324463,3.9576222896575928,0.7815489768981934
-1.6906150579452515,3.94695782661438,0.7756064534187317
-1.712249517440796,3.9220094680786133,0.7669143676757812
-1.7420655488967896,3.9184908866882324,0.762065589427948
-1.7461590766906738,3.8588573932647705,0.746234655380249
-1.7821403741836548,3.8690383434295654,0.7439004778862
-1.806252360343933,3.850614070892334,0.7359262704849243
-1.8467811346054077,3.8667705059051514,0.7345741987228394
-1.8701351881027222,3.8482654094696045,0.7264245748519897
-1.8993209600448608,3.8438661098480225,0.7206853628158569
-1.9116578102111816,3.804617166519165,0.7083896994590759
-1.952423334121704,3.8198888301849365,0.7061221599578857
-1.9616450071334839,3.77312970161438,0.6924009919166565
-1.9912241697311401,3.7677080631256104,0.6861233711242676
-2.012645721435547,3.7489569187164307,0.6771705150604248
-2.0283260345458984,3.7199223041534424,0.6664317846298218
-1.712659478187561,3.0888640880584717,0.5484128594398499
-1.7346181869506836,3.0777974128723145,0.541573166847229
-0.8364585041999817,1.4615366458892822,0.25472018122673035
-0.850023627281189,1.4632190465927124,0.2525014877319336
-0.8600279688835144,1.4579627513885498,0.2490050196647644
-0.8586865067481995,1.432404637336731,0.24193061888217926
-0.8807132840156555,1.4468164443969727,0.24160651862621307
-0.8821254372596741,1.4284212589263916,0.23569397628307343
-0.8793774843215942,1.4034063816070557,0.22871752083301544
-0.893522322177887,1.4042696952819824,0.22581982612609863
-0.9076722860336304,1.4050452709197998,0.22278988361358643
-0.9125832915306091,1.393248200416565,0.21771858632564545
-0.9090632200241089,1.3683658838272095,0.21057844161987305
-0.944873034954071,1.4010331630706787,0.21202857792377472
-2.3904173374176025,3.4944796562194824,0.5196855068206787
-1.3526203632354736,1.950494647026062,0.28473961353302
-1.3149189949035645,1.8689790964126587,0.2673945128917694
-1.3624526262283325,2.178760290145874,-0.2084602266550064
-1.3629229068756104,2.2143614292144775,-0.21882162988185883
-1.26971435546875,2.0972206592559814,-0.2137850821018219
-1.2187564373016357,2.045403003692627,-0.21458427608013153
-0.8272514939308167,1.4350911378860474,-0.15897303819656372
-0.9567589163780212,1.6874045133590698,-0.1916578859090805
-1.0356184244155884,1.8564587831497192,-0.2159215807914734
-1.0014331340789795,1.825844645500183,-0.21728305518627167
-0.9455280303955078,1.753873586654663,-0.21341046690940857
-0.9110312461853027,1.7188256978988647,-0.21361497044563293
-0.8915715217590332,1.7108732461929321,-0.216958686709404
-0.8560269474983215,1.6718095541000366,-0.21617932617664337
-0.8369204998016357,1.66347336769104,-0.21919341385364532
-0.8027142286300659,1.6235662698745728,-0.21784447133541107
-0.767045795917511,1.579970359802246,-0.21581347286701202
-0.7521281838417053,1.5779389142990112,-0.21923746168613434
-0.7260059118270874,1.5511103868484497,-0.21906618773937225
-0.7117416858673096,1.5485949516296387,-0.22221437096595764
-0.690987229347229,1.531925916671753,-0.2232128530740738
-0.6704333424568176,1.5150812864303589,-0.22408482432365417
-0.6394141316413879,1.4731630086898804,-0.2211000770330429
-0.6228954792022705,1.4628562927246094,-0.22267185151576996
-0.6063857674598694,1.4524749517440796,-0.22408956289291382
-0.5841599106788635,1.4276411533355713,-0.22318783402442932
-0.5581966042518616,1.391750693321228,-0.22037607431411743
-0.5453491806983948,1.3879977464675903,-0.22261002659797668
-0.5409260988235474,1.4057728052139282,-0.22817443311214447
0.5299888849258423,1.385130524635315,-0.22477853298187256
0.5565357208251953,1.4250847101211548,-0.22852486371994019
0.5736108422279358,1.4396483898162842,-0.2280604988336563
0.5866504311561584,1.443267822265625,-0.2257957011461258
0.6148099899291992,1.4824110269546509,-0.22893571853637695
0.6221526861190796,1.4714981317520142,-0.22426697611808777
0.6461373567581177,1.4996700286865234,-0.22548295557498932
0.6629096269607544,1.509814977645874,-0.22386033833026886
0.6925669312477112,1.5480495691299438,-0.2262759953737259
0.7132036089897156,1.5648112297058105,-0.22530680894851685
0.7354529500007629,1.5850048065185547,-0.2247704267501831
0.7598223686218262,1.608412265777588,-0.224537193775177
0.7863337397575378,1.6350157260894775,-0.22459755837917328
0.8147321343421936,1.6649354696273804,-0.22492364048957825
0.8402360677719116,1.6875640153884888,-0.22404451668262482
0.874916136264801,1.7272056341171265,-0.22524556517601013
0.9049166440963745,1.7560842037200928,-0.22484688460826874
0.940417468547821,1.795141577720642,-0.22551549971103668
0.9782641530036926,1.837267518043518,-0.22635380923748016
1.0042190551757812,1.8548513650894165,-0.22385042905807495
1.0568357706069946,1.9197523593902588,-0.22673507034778595
1.100276231765747,1.9674279689788818,-0.22732383012771606
1.1426640748977661,2.0111496448516846,-0.22712987661361694
1.1899482011795044,2.0609428882598877,-0.22721293568611145
1.2415220737457275,2.117130756378174,-0.22767220437526703
1.3018827438354492,2.1861112117767334,-0.2290119230747223
1.3212816715240479,2.1842801570892334,-0.2225790172815323
1.3488494157791138,2.1955478191375732,-0.21736502647399902
1.3553942441940308,2.1738877296447754,-0.2088650017976761
1.3745228052139282,2.171764373779297,-0.20212596654891968
1.371181845664978,2.1330204010009766,-0.1917656511068344
1.7472494840621948,2.679201126098633,-0.2324863225221634
1.857861876487732,2.8078324794769287,-0.2346324473619461
1.8429476022720337,2.7436835765838623,-0.21999947726726532
1.8283969163894653,2.683730125427246,-0.20606741309165955
1.8711730241775513,2.7071757316589355,-0.1982317864894867
1.870113492012024,2.6659200191497803,-0.18535372614860535
1.4354883432388306,2.0185275077819824,-0.13283509016036987
1.4582998752593994,2.021925449371338,-0.12515395879745483
1.451612114906311,1.9839088916778564,-0.11463351547718048
1.4666998386383057,1.978127121925354,-0.1061113104224205
2.3010294437408447,3.228743076324463,0.4322846233844757
2.3126988410949707,3.2995142936706543,0.4529035687446594
2.2973554134368896,3.32741641998291,0.46679848432540894
2.3270089626312256,3.4229636192321777,0.4902169704437256
1.5172960758209229,2.2694623470306396,0.3314410448074341
1.5218268632888794,2.3118855953216553,0.3436530828475952
1.528061032295227,2.357616424560547,0.35647720098495483
1.5511537790298462,2.4337658882141113,0.37378448247909546
1.6188515424728394,2.582263231277466,0.4025627374649048
1.5840808153152466,2.566290855407715,0.40558362007141113
3.0097391605377197,4.9550604820251465,0.7934897541999817
2.9944207668304443,5.016289710998535,0.8135412931442261
2.9685566425323486,5.056446552276611,0.8298317790031433
2.9497504234313965,5.105611801147461,0.8473028540611267
2.9198389053344727,5.1385040283203125,0.8619393706321716
2.8991987705230713,5.1924285888671875,0.8798264861106873
2.868725299835205,5.229290962219238,0.894932210445404
2.857206106185913,5.295153617858887,0.9145247340202332
2.826611042022705,5.327054500579834,0.928344190120697
2.7968950271606445,5.366911888122559,0.9430068731307983
2.7861082553863525,5.4443535804748535,0.9644319415092468
2.7687761783599854,5.507450103759766,0.9832513928413391
2.7467665672302246,5.5596113204956055,1.000047206878662
1.2336208820343018,2.5425174236297607,0.46061182022094727
1.21451735496521,2.550863742828369,0.4652116894721985
1.1807005405426025,2.5276288986206055,0.46403637528419495
1.1708177328109741,2.5526394844055176,0.4715556800365448
1.1587316989898682,2.5742383003234863,0.47855740785598755
1.1369117498397827,2.574754476547241,0.48142728209495544
2.561150312423706,5.917219638824463,1.112416386604309
2.5336105823516846,5.973324775695801,1.1290630102157593
2.500091314315796,6.010756015777588,1.1420127153396606
2.481450080871582,6.087421894073486,1.1626503467559814
2.4548566341400146,6.146237373352051,1.179640293121338
2.423412322998047,6.1983962059021,1.1949044466018677
2.392639398574829,6.254006862640381,1.210970163345337
2.361255645751953,6.305384159088135,1.2261793613433838
2.3332200050354004,6.367425918579102,1.243595004081726
2.3012843132019043,6.4182610511779785,1.2588647603988647
2.2710471153259277,6.480470180511475,1.2756723165512085
2.2359986305236816,6.531767845153809,1.2903478145599365
2.204103708267212,6.593754291534424,1.3072500228881836
2.1736338138580322,6.658938407897949,1.3248246908187866
2.1221232414245605,6.657961368560791,1.329254388809204
2.046596050262451,6.579748630523682,1.3180850744247437
1.9920713901519775,6.571130752563477,1.320069670677185
1.930243968963623,6.536304473876953,1.3168138265609741
1.8682410717010498,6.497186660766602,1.3126829862594604
1.8126150369644165,6.475852966308594,1.3121193647384644
1.7530320882797241,6.435406684875488,1.3076435327529907
1.6997424364089966,6.416799545288086,1.307379126548767
0.8334333300590515,3.239891767501831,0.6615562438964844
1.5895575284957886,6.367885589599609,1.3031725883483887
0.7972385287284851,3.295240879058838,0.6759169697761536
1.483568787574768,6.324487686157227,1.300195574760437
1.432542085647583,6.303823947906494,1.29891037940979
1.3808364868164062,6.27909517288208,1.296691656112671
1.3263505697250366,6.243046760559082,1.2913730144500732
1.2739278078079224,6.217957496643066,1.2884012460708618
1.2220250368118286,6.188540458679199,1.2845333814620972
1.1695576906204224,6.147241115570068,1.278175711631775
1.1081451177597046,6.052814483642578,1.260774850845337
1.0719016790390015,6.093532562255859,1.271564245223999
1.026081919670105,6.089136600494385,1.2722636461257935
0.9755518436431885,6.050337314605713,1.265676498413086
0.9280206561088562,6.02625036239624,1.2622088193893433
0.8785086274147034,5.982823848724365,1.2547168731689453
0.8367331027984619,5.988224029541016,1.2575052976608276
0.7901606559753418,5.963093280792236,1.2539656162261963
0.7420969009399414,5.918671131134033,1.2459596395492554
0.5992487668991089,5.069035053253174,1.0678843259811401
0.5634668469429016,5.072794437408447,1.0695120096206665
0.5415550470352173,5.209381580352783,1.0992190837860107
0.3957308232784271,4.082630634307861,0.8622123003005981
0.36921918392181396,4.111701965332031,0.8691579103469849
0.3443666696548462,4.159608364105225,0.8801289796829224
0.3152139186859131,4.1617560386657715,0.880898118019104
0.2854635715484619,4.156084060668945,0.8800246715545654
0.2572672963142395,4.173084735870361,0.8839954733848572
0.4232121407985687,7.7616376876831055,1.6449493169784546
0.3678005635738373,7.733564853668213,1.639841079711914
0.3131987750530243,7.712733745574951,1.636339783668518
0.25874611735343933,7.691606044769287,1.632447361946106
0.20396506786346436,7.65115213394165,1.6237835884094238
0.14910343289375305,7.621788024902344,1.6175537109375
0.09564445167779922,7.599663734436035,1.6129392385482788
0.04265548661351204,7.573345184326172,1.6075116395950317
-0.0099477618932724,7.535194396972656,1.5996485948562622
-0.062231965363025665,7.511964321136475,1.5950287580490112
-0.11474353075027466,7.477062225341797,1.5872094631195068
-0.16596858203411102,7.445694446563721,1.5799193382263184
-0.2177431732416153,7.444530487060547,1.579115867614746
-0.26817935705184937,7.408639430999756,1.5710254907608032
-0.32150882482528687,7.448761940002441,1.5791293382644653
-0.27093759179115295,5.404544830322266,1.1455193758010864
-0.3082515001296997,5.387372970581055,1.1416263580322266
-0.34451594948768616,5.370140075683594,1.1370599269866943
-0.38055679202079773,5.352662086486816,1.1325008869171143
-0.4166697859764099,5.338751316070557,1.1287550926208496
-0.4517596662044525,5.3131608963012695,1.122596263885498
-0.42404982447624207,4.602105140686035,0.9717477560043335
-0.45597466826438904,4.599294185638428,0.9705995321273804
-0.48697277903556824,4.588731288909912,0.9675513505935669
-0.5167570114135742,4.570457935333252,0.9625681042671204
-0.5454535484313965,4.544389724731445,0.9559963941574097
-0.5753467082977295,4.525662899017334,0.9510043859481812
-0.6063247323036194,4.518133163452148,0.9484229683876038
-0.6377608180046082,4.5141777992248535,0.9466385841369629
-0.6624345183372498,4.464600086212158,0.935342013835907
-0.6965957283973694,4.483109951019287,0.9377809166908264
-0.7241806983947754,4.455989360809326,0.9306230545043945
-0.7521532773971558,4.436325550079346,0.9251053333282471
-0.7815190553665161,4.4239726066589355,0.9211495518684387
-0.8109477162361145,4.41139030456543,0.9171861410140991
-0.8381333947181702,4.387322425842285,0.9108851552009583
-0.7210937738418579,3.6384990215301514,0.7541601657867432
-0.7509911060333252,3.6564176082611084,0.7563134431838989
-0.7815232276916504,3.6779305934906006,0.7592526078224182
-0.9521680474281311,4.335031986236572,0.8931493759155273
-0.9857296943664551,4.3438520431518555,0.8932241797447205
-1.0055299997329712,4.292733669281006,0.881026029586792
-1.0412768125534058,4.30848503112793,0.8825328946113586
-1.0668740272521973,4.287152290344238,0.8759454488754272
-1.089331030845642,4.254536151885986,0.8671175837516785
-1.118269681930542,4.247737884521484,0.863601565361023
-1.1478028297424316,4.240583419799805,0.8600072860717773
-1.1738146543502808,4.2182841300964355,0.8533459305763245
-1.2011785507202148,4.203326225280762,0.8482583165168762
-1.2297896146774292,4.195859432220459,0.8442176580429077
-1.2537723779678345,4.173562526702881,0.8371621966362
-1.282065987586975,4.1657795906066895,0.8330618739128113
-1.3068628311157227,4.142827987670898,0.8258724212646484
-1.3335436582565308,4.127091884613037,0.8201952576637268
-1.3576123714447021,4.103903293609619,0.8130941987037659
-1.3928940296173096,4.117301940917969,0.8128046989440918
-1.4131829738616943,4.086935997009277,0.803814709186554
-1.4408419132232666,4.078188896179199,0.7991249561309814
-1.4657996892929077,4.057992935180664,0.7921020984649658
-1.491546869277954,4.04135274887085,0.7858609557151794
-1.5144597291946411,4.017335891723633,0.778235673904419
-1.5386987924575806,4.000894546508789,0.771593451499939
-1.5740509033203125,4.01292610168457,0.7704585194587708
-1.5930711030960083,3.9816038608551025,0.760961651802063
-1.6152127981185913,3.9571049213409424,0.7527638673782349
-1.6430013179779053,3.9466874599456787,0.7472948431968689
-1.6852647066116333,3.9717354774475098,0.7483440637588501
-1.6996856927871704,3.933171272277832,0.73712158203125
-1.7296054363250732,3.9296414852142334,0.7324549555778503
-1.7504980564117432,3.904633045196533,0.7237673401832581
-1.771589994430542,3.8793153762817383,0.7150172591209412
-1.8021093606948853,3.8748674392700195,0.7101393938064575
-1.8147951364517212,3.8360514640808105,0.6985325217247009
-1.8542226552963257,3.8526089191436768,0.6969638466835022
-1.8771997690200806,3.8340890407562256,0.689021646976471
-1.9077898263931274,3.8288230895996094,0.683336079120636
-1.9349043369293213,3.81642746925354,0.6764038801193237
-1.9569158554077148,3.797785758972168,0.6679600477218628
-1.9894357919692993,3.799562454223633,0.6631079912185669
-1.9977887868881226,3.7528066635131836,0.6496166586875916
-2.0151093006134033,3.7229039669036865,0.6390784382820129
-1.707775592803955,3.104083299636841,0.528314471244812
-1.7207565307617188,3.0803282260894775,0.5194515585899353
-1.7411197423934937,3.069967031478882,0.5128913521766663
-0.8419261574745178,1.460633635520935,0.2415468841791153
-0.8562350869178772,1.4618213176727295,0.239263117313385
-0.8661314249038696,1.4565421342849731,0.23581485450267792
-0.8757486939430237,1.451341152191162,0.23233665525913239
-0.8897387981414795,1.4524710178375244,0.22976967692375183
-0.8798027038574219,1.4136995077133179,0.2207971215248108
-0.8977305889129639,1.4213241338729858,0.21909324824810028
-0.9028429985046387,1.4094691276550293,0.21430790424346924
-0.9040154814720154,1.3908575773239136,0.20841574668884277
-0.9054054617881775,1.372017741203308,0.2024160623550415
-0.914802074432373,1.3663814067840576,0.19825047254562378
-2.394165515899658,3.527653217315674,0.5032047033309937
-2.4320836067199707,3.5315589904785156,0.4943932890892029
-1.2073475122451782,1.7277467250823975,0.2371530532836914
-1.3530733585357666,1.9108723402023315,0.25689053535461426
-1.391803503036499,2.207247257232666,-0.20152612030506134
-1.3628870248794556,2.1970551013946533,-0.20742535591125488
-1.2547181844711304,2.0883796215057373,-0.20954011380672455
-1.2272266149520874,2.0768847465515137,-0.21434351801872253
-0.8328022956848145,1.4326506853103638,-0.15184368193149567
-0.8419181108474731,1.471808671951294,-0.15996257960796356
-1.0865076780319214,1.9315335750579834,-0.21508072316646576
-1.0550510883331299,1.9083422422409058,-0.21762020885944366
-1.0044102668762207,1.8468314409255981,-0.21524657309055328
-0.9820140600204468,1.8362075090408325,-0.21858501434326172
-0.9052929282188416,1.7223892211914062,-0.20926406979560852
-0.8999713063240051,1.742077350616455,-0.21584933996200562
-0.873297929763794,1.7202328443527222,-0.21727405488491058
-0.8209531307220459,1.6460527181625366,-0.21173150837421417
-0.8156927824020386,1.6653788089752197,-0.21805529296398163
-0.781943142414093,1.6251341104507446,-0.21641495823860168
-0.7571534514427185,1.6020184755325317,-0.21688267588615417
-0.7357197999954224,1.585811734199524,-0.21810710430145264
-0.7127349376678467,1.565948486328125,-0.21879343688488007
-0.6921336054801941,1.5491920709609985,-0.21968607604503632
-0.6811040639877319,1.5535242557525635,-0.2235322743654251
-0.6545321345329285,1.5223075151443481,-0.2221112698316574
-0.6344813108444214,1.5050647258758545,-0.2226201742887497
-0.6162525415420532,1.4911733865737915,-0.2235400378704071
-0.5969574451446533,1.4734667539596558,-0.2237570881843567
-0.5720756649971008,1.4412717819213867,-0.2215697020292282
-0.5645052194595337,1.4520496129989624,-0.22594359517097473
-0.5459533929824829,1.4338383674621582,-0.22575348615646362
-0.5261496901512146,1.411889910697937,-0.22493335604667664
-0.5106968283653259,1.4006412029266357,-0.22559137642383575
0.521763801574707,1.437740683555603,-0.23127120733261108
0.5292099118232727,1.4272589683532715,-0.2271168828010559
0.5419790148735046,1.431203842163086,-0.2252475917339325
0.5616700649261475,1.4531304836273193,-0.22606119513511658
0.5833110213279724,1.4783891439437866,-0.2272530347108841
0.5966453552246094,1.4819048643112183,-0.2250528633594513
0.6071009635925293,1.4781532287597656,-0.22173860669136047
0.6427631974220276,1.5350995063781738,-0.22732190787792206
0.6594873666763306,1.5453636646270752,-0.22585859894752502
0.68604975938797,1.5766236782073975,-0.22726662456989288
0.7018730640411377,1.582899570465088,-0.22504745423793793
0.7191815376281738,1.592675805091858,-0.22319264709949493
0.7366546392440796,1.6022893190383911,-0.22126805782318115
0.7693432569503784,1.6432310342788696,-0.22348055243492126
0.8011658787727356,1.6802301406860352,-0.22491052746772766
0.8296526074409485,1.7101413011550903,-0.22522951662540436
0.8380240201950073,1.6979782581329346,-0.2199431210756302
0.8866097331047058,1.765411376953125,-0.2247404009103775
0.9184300899505615,1.7977536916732788,-0.22481971979141235
0.9522156715393066,1.8333638906478882,-0.22509141266345978
0.9814502596855164,1.8581297397613525,-0.2237553745508194
1.027694582939148,1.9133518934249878,-0.22585400938987732
1.0689363479614258,1.9579373598098755,-0.22640877962112427
1.1218796968460083,2.022609233856201,-0.22897842526435852
1.1550612449645996,2.0492570400238037,-0.22688721120357513
1.2142536640167236,2.1191744804382324,-0.22915112972259521
1.2775475978851318,2.195594549179077,-0.23178048431873322
1.2944315671920776,2.1908860206604004,-0.2255965769290924
1.3219484090805054,2.2023704051971436,-0.22078530490398407
1.34935462474823,2.213768720626831,-0.21586541831493378
1.3440016508102417,2.17203950881958,-0.2056955248117447
1.3715856075286865,2.1830368041992188,-0.20043723285198212
1.3995164632797241,2.1936700344085693,-0.19494126737117767
1.7507598400115967,2.7049553394317627,-0.2323460727930069
1.8549035787582397,2.8239152431488037,-0.2338772714138031
1.8751685619354248,2.811326265335083,-0.22371956706047058
1.8063410520553589,2.670480728149414,-0.20394593477249146
1.8509831428527832,2.6974124908447266,-0.19700032472610474
1.856571078300476,2.6658358573913574,-0.18538963794708252
1.43751859664917,2.0361597537994385,-0.13445352017879486
1.4517022371292114,2.0266056060791016,-0.12615104019641876
1.4701573848724365,2.0234198570251465,-0.11814066022634506
1.4577139616012573,1.9798086881637573,-0.10789498686790466
2.3275115489959717,3.2930991649627686,0.4227040708065033
2.307999610900879,3.314720392227173,0.4355139434337616
2.269822359085083,3.311210870742798,0.44476428627967834
2.3057632446289062,3.4212594032287598,0.46946480870246887
2.298111915588379,3.462212085723877,0.4839687943458557
2.2960493564605713,3.513134241104126,0.49987420439720154
1.6163995265960693,2.5150115489959717,0.3638947606086731
1.6223835945129395,2.5652921199798584,0.377017617225647
1.603674292564392,2.5759594440460205,0.38426244258880615
3.0387778282165527,4.962496757507324,0.7505632638931274
3.0001721382141113,4.983903408050537,0.7639122009277344
2.9758450984954834,5.023568630218506,0.7794639468193054
2.9517087936401367,5.062774658203125,0.7948986887931824
2.9300544261932373,5.113580226898193,0.8119639158248901
2.905991315841675,5.160916328430176,0.8283504843711853
2.8835480213165283,5.207038879394531,0.844192624092102
2.8705203533172607,5.269700050354004,0.8627192974090576
2.831495761871338,5.288943767547607,0.8738489747047424
2.819322109222412,5.363542556762695,0.8941240310668945
2.7849583625793457,5.39271354675293,0.906622588634491
2.771113634109497,5.458802700042725,0.9251552224159241
2.7545809745788574,5.521549701690674,0.9432254433631897
2.7231860160827637,5.561181545257568,0.956855833530426
1.2116074562072754,2.5221664905548096,0.4371330142021179
1.1918189525604248,2.5265557765960693,0.44087928533554077
1.1820224523544312,2.5516762733459473,0.44823792576789856
1.1572891473770142,2.545306444168091,0.4499969482421875
1.1540257930755615,2.588346004486084,0.46029090881347656
2.573575973510742,5.8881144523620605,1.0532314777374268
2.554994583129883,5.961721897125244,1.0724852085113525
2.5203874111175537,5.995741367340088,1.0845613479614258
2.4952592849731445,6.054678916931152,1.1011102199554443
