X,Y,Z
0.30984747409820557,3.875340700149536,-0.15063482522964478
0.3378102779388428,3.8808510303497314,-0.15064427256584167
0.36404940485954285,3.87064790725708,-0.1500537246465683
0.3909481167793274,3.868034601211548,-0.14976505935192108
0.4161096215248108,3.849717855453491,-0.14882966876029968
0.44800955057144165,3.893305540084839,-0.15021130442619324
0.47534775733947754,3.8900787830352783,-0.1497848778963089
0.5098512768745422,3.9447689056396484,-0.15159493684768677
0.5383545160293579,3.948875904083252,-0.15146273374557495
0.5613544583320618,3.91414475440979,-0.14982980489730835
0.5819265246391296,3.867744207382202,-0.14765676856040955
0.6205651164054871,3.9368538856506348,-0.14989082515239716
0.6490556001663208,3.9401910305023193,-0.1496247500181198
0.6658610105514526,3.874049425125122,-0.14673076570034027
0.7037581205368042,3.9308316707611084,-0.14850027859210968
0.7321260571479797,3.9336137771606445,-0.148117333650589
0.7620438933372498,3.943857431411743,-0.1480187028646469
0.7820220589637756,3.900165319442749,-0.1458946317434311
0.8210720419883728,3.9519810676574707,-0.14735178649425507
0.8518186211585999,3.9614665508270264,-0.14722958207130432
0.8756126761436462,3.9403114318847656,-0.1458621770143509
0.9209309816360474,4.014149188995361,-0.1479939967393875
0.9490166902542114,4.007633686065674,-0.14714549481868744
0.9667308926582336,3.9592392444610596,-0.14477579295635223
0.998068630695343,3.967589855194092,-0.14449284970760345
1.0320870876312256,3.9871444702148438,-0.1445295661687851
1.0593172311782837,3.9800305366516113,-0.14358745515346527
1.1252354383468628,4.111886024475098,-0.1476261168718338
1.1760318279266357,4.1829094886779785,-0.14945252239704132
1.1845245361328125,4.10339879989624,-0.14590714871883392
1.2169052362442017,4.110240459442139,-0.14533747732639313
1.2618906497955322,4.157928943634033,-0.14619408547878265
1.2839628458023071,4.126680850982666,-0.14425423741340637
1.3149747848510742,4.12514066696167,-0.1433679163455963
1.3605111837387085,4.167921543121338,-0.14400917291641235
1.412240743637085,4.229003429412842,-0.14516519010066986
1.46230149269104,4.282195091247559,-0.14602814614772797
1.4763838052749634,4.227810859680176,-0.1432069092988968
1.5194252729415894,4.254060745239258,-0.14310041069984436
1.5648068189620972,4.287532806396484,-0.14320425689220428
1.6292487382888794,4.372011184692383,-0.14491386711597443
1.6782464981079102,4.412018775939941,-0.14511889219284058
1.721603512763977,4.433050155639648,-0.14465488493442535
1.7730934619903564,4.471616268157959,-0.14472706615924835
1.0759013891220093,2.6605124473571777,-0.08537790924310684
1.0997414588928223,2.6676793098449707,-0.08486149460077286
1.0922244787216187,2.5989410877227783,-0.08193665742874146
1.1210373640060425,2.616436719894409,-0.08173131942749023
1.1518614292144775,2.637169122695923,-0.08158396929502487
1.150490641593933,2.586599826812744,-0.07921013981103897
1.1662312746047974,2.575287103652954,-0.07805569469928741
1.1840940713882446,2.567155599594116,-0.07697489112615585
1.19524085521698,2.5447709560394287,-0.07547592371702194
1.2023818492889404,2.5154941082000732,-0.07373367249965668
1.1986076831817627,2.4653258323669434,-0.07141811400651932
1.2190783023834229,2.4640164375305176,-0.07050082832574844
1.2274352312088013,2.438056230545044,-0.0688781887292862
1.2473193407058716,2.4367527961730957,-0.06792329251766205
1.2490568161010742,2.4007327556610107,-0.0660044401884079
1.2585246562957764,2.378157615661621,-0.06442505121231079
1.256507158279419,2.3350019454956055,-0.06231808662414551
1.275739073753357,2.333487033843994,-0.06131212040781975
1.2873013019561768,2.318229913711548,-0.05994357913732529
1.3013607263565063,2.305915594100952,-0.058611996471881866
1.3136789798736572,2.289951801300049,-0.057168010622262955
1.3207993507385254,2.267824172973633,-0.05557019263505936
1.3278627395629883,2.2455971240997314,-0.05397234112024307
1.3353883028030396,2.2229573726654053,-0.05232995003461838
1.3462536334991455,2.2072808742523193,-0.050852082669734955
1.3649460077285767,2.204993486404419,-0.04965312406420708
1.36751389503479,2.175804376602173,-0.047820501029491425
1.3782392740249634,2.1597964763641357,-0.04627281054854393
1.387900948524475,2.144331693649292,-0.044728219509124756
1.4150879383087158,2.1546106338500977,-0.043669018894433975
1.4216052293777466,2.131593942642212,-0.041862163692712784
1.4198774099349976,2.0998504161834717,-0.03991641476750374
1.4117451906204224,2.0581626892089844,-0.037761617451906204
1.4393147230148315,2.0676262378692627,-0.03649161383509636
1.4343634843826294,2.032968044281006,-0.034443050622940063
1.4528582096099854,2.029435873031616,-0.03281215578317642
1.4570810794830322,2.0071589946746826,-0.030866816639900208
1.4651756286621094,1.9915944337844849,-0.029006879776716232
2.115509510040283,2.9813714027404785,0.06486827880144119
2.1057968139648438,3.016798973083496,0.06813769042491913
2.589223861694336,3.7650978565216064,0.08783236891031265
3.1578783988952637,4.66773796081543,0.11236028373241425
3.1361238956451416,4.710464954376221,0.11667468398809433
3.1075377464294434,4.7386250495910645,0.12044826149940491
3.0908968448638916,4.791284561157227,0.12482597678899765
1.6303563117980957,2.5684444904327393,0.06847848743200302
1.6245299577713013,2.5997564792633057,0.07082948088645935
1.6052554845809937,2.6116526126861572,0.07261332124471664
2.9109909534454346,4.815814971923828,0.13653013110160828
2.807520866394043,4.718411445617676,0.13616910576820374
2.7243199348449707,4.654070854187012,0.13664107024669647
2.7317538261413574,4.748995304107666,0.14179068803787231
2.453608751296997,4.3366475105285645,0.13149632513523102
2.4442784786224365,4.391061782836914,0.13512887060642242
2.4233593940734863,4.429290294647217,0.1382388472557068
2.39793062210083,4.460771083831787,0.1411430537700653
2.3842697143554688,4.512221813201904,0.1446400284767151
2.4733970165252686,4.760790824890137,0.15452513098716736
2.420654535293579,4.743951320648193,0.15579721331596375
2.366450309753418,4.7231526374816895,0.15691150724887848
2.3057539463043213,4.683470726013184,0.15728391706943512
1.2305920124053955,2.544890880584717,0.0863926112651825
1.2020303010940552,2.5325589179992676,0.08683785796165466
1.1867783069610596,2.54831862449646,0.08823724836111069
1.1752597093582153,2.570794105529785,0.08985081315040588
1.1589468717575073,2.582430601119995,0.09108380973339081
1.1499953269958496,2.612006425857544,0.09292589873075485
1.1275361776351929,2.6132395267486572,0.0937497615814209
2.0486865043640137,4.843334674835205,0.17515604197978973
2.0298562049865723,4.893481254577637,0.1783449798822403
2.0060534477233887,4.932732105255127,0.18116110563278198
1.9847670793533325,4.983315467834473,0.18430839478969574
2.042973518371582,5.241443157196045,0.19523796439170837
2.003135919570923,5.248371124267578,0.19682474434375763
1.9842416048049927,5.309686183929443,0.20045508444309235
1.9601936340332031,5.360127925872803,0.20366467535495758
1.9385179281234741,5.421863555908203,0.20722849667072296
1.8767681121826172,5.373234272003174,0.20660188794136047
1.8858044147491455,5.522852897644043,0.2135658860206604
1.8535412549972534,5.554278373718262,0.21599611639976501
1.942575216293335,5.960546493530273,0.2330368161201477
1.8997498750686646,5.974267482757568,0.23471777141094208
1.865376353263855,6.01772403717041,0.23760372400283813
1.8380186557769775,6.079103946685791,0.2411736398935318
1.8232476711273193,6.185288906097412,0.24655666947364807
1.7754454612731934,6.1828718185424805,0.2475791871547699
1.757529377937317,6.289309501647949,0.25287118554115295
1.7360764741897583,6.388282299041748,0.257906973361969
1.6884976625442505,6.392885208129883,0.25915634632110596
1.6497647762298584,6.427109718322754,0.26159700751304626
0.8137732744216919,3.264648199081421,0.13340267539024353
1.545238971710205,6.392704963684082,0.2620886564254761
0.7876931428909302,3.3632519245147705,0.13834670186042786
1.4270418882369995,6.296009540557861,0.259863018989563
1.3798307180404663,6.290489673614502,0.2604970633983612
1.331205129623413,6.276969909667969,0.26080599427223206
1.2766282558441162,6.236468315124512,0.2598433196544647
1.2203279733657837,6.184045314788818,0.25834712386131287
1.1633431911468506,6.127449989318848,0.25668779015541077
1.115763783454895,6.108479976654053,0.2565823197364807
1.0678306818008423,6.085299968719482,0.256305992603302
1.0336391925811768,6.142617702484131,0.2593626379966736
0.9771899580955505,6.068813800811768,0.25677070021629333
0.9335835576057434,6.075639247894287,0.2576049864292145
0.8779835104942322,5.993180274963379,0.2546451985836029
0.829261064529419,5.948859214782715,0.2533020079135895
0.7899589538574219,5.969919204711914,0.2547510862350464
0.7421949505805969,5.928823471069336,0.2533950209617615
0.6103290915489197,5.170337677001953,0.22130639851093292
0.561669647693634,5.069822788238525,0.21734270453453064
0.5373080968856812,5.178390979766846,0.2223428189754486
0.3994353115558624,4.129270553588867,0.17758141458034515
0.36789730191230774,4.100837707519531,0.17661766707897186
0.34299084544181824,4.149978160858154,0.17889580130577087
0.31720706820487976,4.202897071838379,0.18135257065296173
0.28598833084106445,4.177742958068848,0.18044672906398773
0.2564985752105713,4.171825885772705,0.18037796020507812
0.23067441582679749,4.2319488525390625,0.1831759512424469
0.3703688681125641,7.792498588562012,0.3375284671783447
0.31404751539230347,7.771525859832764,0.33676138520240784
0.2581343948841095,7.722812652587891,0.3348047137260437
0.20412792265415192,7.716610431671143,0.3347058892250061
0.1497652232646942,7.678813457489014,0.3332512080669403
0.0961824581027031,7.660146713256836,0.3326414227485657
0.04181170463562012,7.637219429016113,0.331646591424942
-0.011226680129766464,7.598300933837891,0.32993629574775696
-0.06383023411035538,7.5629167556762695,0.3283955454826355
-0.11600177735090256,7.531073570251465,0.3270244002342224
-0.1680821031332016,7.514477252960205,0.32633113861083984
-0.219689279794693,7.48972225189209,0.3252626955509186
-0.2713046371936798,7.452896595001221,0.3234485983848572
-0.3237231969833374,7.4664411544799805,0.32384049892425537
-0.26828399300575256,5.332003593444824,0.23113512992858887
-0.31087949872016907,5.427426338195801,0.23515167832374573
-0.34811079502105713,5.417353630065918,0.23460668325424194
-0.38515573740005493,5.399208068847656,0.23364578187465668
-0.4185082018375397,5.345853805541992,0.23107916116714478
-0.45142075419425964,5.296191692352295,0.2286881059408188
-0.2311353087425232,2.5065760612487793,0.108122318983078
-0.45395082235336304,4.5748701095581055,0.19714507460594177
-0.49202051758766174,4.625896453857422,0.19915419816970825
-0.5194987654685974,4.5836358070373535,0.19704067707061768
-0.547273576259613,4.548978328704834,0.19522739946842194
-0.5795243978500366,4.552871227264404,0.1950794905424118
-0.6121223568916321,4.556499481201172,0.19492582976818085
-0.6399540305137634,4.5211639404296875,0.193110391497612
-0.6696211099624634,4.505050182342529,0.19211992621421814
-0.7004925608634949,4.50037956237793,0.19150018692016602
-0.7288247346878052,4.480088710784912,0.19022613763809204
-0.7583473920822144,4.467294692993164,0.18927982449531555
-0.7866273522377014,4.44657564163208,0.18800543248653412
-0.8152124881744385,4.425577163696289,0.18672411143779755
-0.8390610814094543,4.3853888511657715,0.1845790445804596
-0.7276982665061951,3.667523145675659,0.15393421053886414
-0.7511511445045471,3.6548495292663574,0.1529795378446579
-0.7780251502990723,3.657231330871582,0.15265700221061707
-0.9431758522987366,4.284413814544678,0.1783374845981598
-0.9815909266471863,4.315844535827637,0.17915892601013184
-1.0145292282104492,4.324295520782471,0.1788923293352127
-1.040289044380188,4.302147388458252,0.1773681491613388
-1.0602940320968628,4.257084846496582,0.17491166293621063
-1.0874238014221191,4.238185882568359,0.17352698743343353
-1.1237913370132446,4.256989479064941,0.17370282113552094
-1.147749423980713,4.230413913726807,0.17196109890937805
-1.177445411682129,4.2263383865356445,0.1710939109325409
-1.2082120180130005,4.225807189941406,0.17037619650363922
-1.2324821949005127,4.198498725891113,0.16856104135513306
-1.2593485116958618,4.182408809661865,0.16721996665000916
-1.28813898563385,4.1736741065979,0.166140615940094
-1.3139222860336304,4.1574883460998535,0.1646847277879715
-1.3395458459854126,4.141144752502441,0.1632329821586609
-1.3661030530929565,4.124283790588379,0.16173997521400452
-1.3922717571258545,4.107327461242676,0.16026033461093903
-1.4155631065368652,4.082882881164551,0.1584814488887787
-1.44041109085083,4.065950870513916,0.15691132843494415
-1.4730998277664185,4.0708818435668945,0.15618924796581268
-1.50099515914917,4.060729503631592,0.15487618744373322
-1.5241355895996094,4.035464286804199,0.15297004580497742
-1.5491141080856323,4.01762580871582,0.15135736763477325
-1.5731239318847656,3.9999496936798096,0.14967545866966248
-1.599839687347412,3.9893922805786133,0.14826971292495728
-1.6198502779006958,3.9602808952331543,0.14615726470947266
-1.6478326320648193,3.9487743377685547,0.14467665553092957
-1.6794462203979492,3.9482181072235107,0.143581822514534
-1.6980228424072266,3.919055700302124,0.14138267934322357
-1.7209820747375488,3.900550365447998,0.13958297669887543
-1.7384127378463745,3.867201566696167,0.1372213214635849
-1.7819637060165405,3.8903703689575195,0.13684606552124023
-1.7915894985198975,3.8429698944091797,0.13395297527313232
-1.8203890323638916,3.838114023208618,0.1325325071811676
-1.842936396598816,3.8187286853790283,0.13059063255786896
-1.8660229444503784,3.7988619804382324,0.1286076456308365
-1.8820350170135498,3.7648415565490723,0.12611547112464905
-1.903337836265564,3.745419502258301,0.12408850342035294
-1.928156852722168,3.7327628135681152,0.12228767573833466
-1.6834759712219238,3.204288959503174,0.10372844338417053
-1.9834914207458496,3.712635040283203,0.11873507499694824
-2.030134439468384,3.7407989501953125,0.118094801902771
-1.7119050025939941,3.104891300201416,0.09671305865049362
-1.725799560546875,3.079350471496582,0.09456216543912888
-0.794335663318634,1.394553542137146,0.04220622777938843
-0.795606255531311,1.3758386373519897,0.04100655019283295
-0.7848395705223083,1.336940884590149,0.039226483553647995
-0.8262929320335388,1.3850347995758057,0.03993980213999748
-0.8782114386558533,1.4495317935943604,0.04107145220041275
-0.8793857097625732,1.4305411577224731,0.03979179635643959
-0.8971982002258301,1.43790864944458,0.03922165557742119
-0.8946634531021118,1.4118502140045166,0.03771189600229263
-2.3695297241210938,3.527111291885376,0.08551439642906189
-1.3904016017913818,2.011025905609131,0.04594571515917778
-1.3095163106918335,1.867502212524414,0.04128006473183632
-2.560204267501831,3.4551236629486084,0.06475725024938583
-1.5037095546722412,2.1511313915252686,-0.045996181666851044
-1.2753024101257324,1.8532133102416992,-0.041280802339315414
-1.4338561296463013,2.151388168334961,-0.05155271291732788
-1.3029422760009766,1.9850839376449585,-0.04907751828432083
-1.3501030206680298,2.089481830596924,-0.05320960283279419
-0.8656661510467529,1.4297415018081665,-0.0403408482670784
-0.8216029405593872,1.3787379264831543,-0.03975255414843559
-0.8079257607460022,1.3777215480804443,-0.04055636748671532
-0.7487833499908447,1.2991538047790527,-0.03902623802423477
-0.8607504963874817,1.5184831619262695,-0.04648246243596077
-0.9965943098068237,1.787007451057434,-0.055688127875328064
-1.63495934009552,2.982266426086426,-0.09454511851072311
-1.6314729452133179,3.0285377502441406,-0.09763073921203613
-1.5953068733215332,3.0123794078826904,-0.09865548461675644
-1.6337244510650635,3.1376781463623047,-0.10432496666908264
-1.6000982522964478,3.1286048889160156,-0.10553179681301117
-1.5843902826309204,3.1540122032165527,-0.10789256542921066
-1.569251298904419,3.1789350509643555,-0.11019959300756454
-1.5327844619750977,3.161938428878784,-0.11106052994728088
-1.5298271179199219,3.2152702808380127,-0.11432944238185883
-1.5033267736434937,3.219067096710205,-0.11584173887968063
-1.7673085927963257,3.853971481323242,-0.14027878642082214
-1.7402342557907104,3.8661985397338867,-0.14229868352413177
-1.7279925346374512,3.914325475692749,-0.14559826254844666
-1.7101378440856934,3.951878070831299,-0.1485549658536911
-1.6887102127075195,3.9779789447784424,-0.15102599561214447
-1.6669666767120361,4.003985404968262,-0.1535126268863678
-1.6381014585494995,4.015809535980225,-0.155374214053154
-1.614945888519287,4.041924953460693,-0.15780186653137207
-1.5832780599594116,4.0459794998168945,-0.15936364233493805
-1.560675859451294,4.071406841278076,-0.16174554824829102
-1.5344454050064087,4.089634895324707,-0.1637827455997467
-1.5023741722106934,4.093141078948975,-0.16519643366336823
-1.481243371963501,4.125659942626953,-0.1677783876657486
-1.4467971324920654,4.121252536773682,-0.16886933147907257
-1.423068642616272,4.145948886871338,-0.1711200475692749
-1.3934041261672974,4.155948162078857,-0.1726832091808319
-1.3636689186096191,4.165734767913818,-0.17424634099006653
-1.334480881690979,4.175112724304199,-0.17577718198299408
-1.3048508167266846,4.1844024658203125,-0.17732775211334229
-1.27077317237854,4.178499698638916,-0.17815053462982178
-1.234300136566162,4.164939880371094,-0.17858359217643738
-1.1981897354125977,4.1510443687438965,-0.17899677157402039
-1.1576820611953735,4.117887020111084,-0.17855140566825867
-1.1228448152542114,4.103191375732422,-0.17889989912509918
-1.0813205242156982,4.06583309173584,-0.17816773056983948
-1.0339001417160034,4.001555919647217,-0.17619359493255615
-1.0208526849746704,4.069261074066162,-0.18003219366073608
-0.9713167548179626,3.988992929458618,-0.17731496691703796
-0.9273976683616638,3.9272375106811523,-0.17539763450622559
-0.9044057130813599,3.956573486328125,-0.17743274569511414
-0.8865000605583191,4.008554458618164,-0.18047955632209778
-0.831433892250061,3.888695478439331,-0.17577789723873138
-0.8043392300605774,3.8943464756011963,-0.17673054337501526
-0.7642399668693542,3.8347485065460205,-0.17471887171268463
-0.7352096438407898,3.8324360847473145,-0.17518916726112366
-0.6592636108398438,3.57270884513855,-0.16384491324424744
-0.6328418254852295,3.569523811340332,-0.16422957181930542
-0.6315882205963135,3.7122905254364014,-0.17135213315486908
-0.6132810115814209,3.762775421142578,-0.1742517650127411
-0.5803431868553162,3.7284798622131348,-0.173104926943779
-0.552987277507782,3.724716901779175,-0.17336085438728333
-0.521957516670227,3.6936988830566406,-0.1723507046699524
-0.4941815137863159,3.681741952896118,-0.1722290813922882
-0.31350380182266235,2.465742588043213,-0.11564318090677261
-0.4319726824760437,3.599132537841797,-0.169128879904747
-0.2803111970424652,2.4854133129119873,-0.11701619625091553
-0.3802150785923004,3.5970773696899414,-0.16967837512493134
-0.35519400238990784,3.5996129512786865,-0.17012761533260345
-0.32876378297805786,3.5864288806915283,-0.1698402315378189
-0.30042117834091187,3.54974102973938,-0.168342724442482
-0.2751636803150177,3.5517737865448,-0.16864879429340363
-0.2514400780200958,3.5691637992858887,-0.1696895956993103
-0.22486618161201477,3.5435547828674316,-0.1686927080154419
-0.20064100623130798,3.5528109073638916,-0.16936255991458893
-0.17547838389873505,3.546318769454956,-0.1692146509885788
-0.14959226548671722,3.5318763256073,-0.16862933337688446
-0.12436830252408981,3.5172297954559326,-0.16803979873657227
-0.09989482164382935,3.518002510070801,-0.16819415986537933
-0.07511401921510696,3.5030009746551514,-0.16760176420211792
-0.05065041780471802,3.4956305027008057,-0.16733449697494507
-0.025886936113238335,3.495901584625244,-0.1673426330089569
-0.0015239700442180037,3.468683958053589,-0.16604317724704742
0.022350961342453957,3.429593324661255,-0.16418327391147614
0.04620766639709473,3.429354429244995,-0.1641910970211029
0.07069636136293411,3.460158109664917,-0.16567836701869965
0.09494659304618835,3.467390537261963,-0.1659216582775116
0.11917401850223541,3.4588401317596436,-0.16541622579097748
0.14226298034191132,3.4345431327819824,-0.16416803002357483
0.16539691388607025,3.4178876876831055,-0.1632939875125885
0.18916884064674377,3.4166605472564697,-0.16316531598567963
0.21381889283657074,3.430856227874756,-0.16365879774093628
0.2363690733909607,3.4059224128723145,-0.16227641701698303
0.26177671551704407,3.427556037902832,-0.1631237268447876
0.2823712229728699,3.3867809772491455,-0.1610090136528015
0.3066261112689972,3.39251971244812,-0.16111499071121216
0.3316269516944885,3.4058659076690674,-0.16148890554904938
0.35393771529197693,3.3879470825195312,-0.16033898293972015
0.3808363378047943,3.41645884513855,-0.1613975465297699
0.4027288854122162,3.3982503414154053,-0.16025426983833313
0.4292789101600647,3.4186153411865234,-0.16093683242797852
0.45393872261047363,3.423323154449463,-0.1608220934867859
0.47684934735298157,3.412353038787842,-0.15991009771823883
0.5037674307823181,3.432173490524292,-0.16045352816581726
0.5264182090759277,3.4209020137786865,-0.1595463901758194
0.5502077341079712,3.417181968688965,-0.1589995175600052
0.5809523463249207,3.455651044845581,-0.16036733984947205
0.6033575534820557,3.443918466567993,-0.15932349860668182
0.6302542686462402,3.454998254776001,-0.15933264791965485
0.657121479511261,3.465909481048584,-0.15934176743030548
0.6812174916267395,3.4612863063812256,-0.15864095091819763
0.7035887837409973,3.4488766193389893,-0.15755413472652435
0.7320618033409119,3.4669175148010254,-0.15777112543582916
0.7579076886177063,3.4693870544433594,-0.15727098286151886
0.7819239497184753,3.4640913009643555,-0.15642964839935303
0.805993378162384,3.458608388900757,-0.1555851250886917
0.8381189107894897,3.4871370792388916,-0.15623712539672852
0.8638135194778442,3.4889461994171143,-0.15560053288936615
0.8919478058815002,3.498016595840454,-0.1552770733833313
0.9201300740242004,3.506894826889038,-0.15494988858699799
0.9638186693191528,3.5720455646514893,-0.15709608793258667
0.9843049049377441,3.5503039360046387,-0.15537403523921967
1.0127636194229126,3.558574676513672,-0.15488958358764648
1.0560553073883057,3.6151938438415527,-0.15648233890533447
1.0788949728012085,3.600346565246582,-0.15497569739818573
1.1062545776367188,3.600252151489258,-0.154108464717865
1.1474100351333618,3.644728899002075,-0.15508930385112762
1.178181767463684,3.655463218688965,-0.15456727147102356
1.2157175540924072,3.6843323707580566,-0.15478666126728058
1.2438702583312988,3.683220624923706,-0.1537359654903412
1.303931713104248,3.7741270065307617,-0.15650442242622375
1.3439807891845703,3.805678367614746,-0.15669384598731995
1.3578559160232544,3.763486623764038,-0.15382462739944458
1.3984547853469849,3.7944464683532715,-0.1539396494626999
1.436266541481018,3.8137474060058594,-0.1535302847623825
1.4836879968643188,3.8584136962890625,-0.15412786602973938
1.5538641214370728,3.9610421657562256,-0.15690398216247559
1.5935885906219482,3.9831619262695312,-0.15644949674606323
1.613771915435791,3.954024314880371,-0.15394774079322815
1.6582452058792114,3.982207775115967,-0.15364736318588257
1.6975144147872925,3.9996485710144043,-0.15286853909492493
1.1216903924942017,2.594313144683838,-0.09818776696920395
1.147207260131836,2.604522466659546,-0.09758805483579636
1.157300591468811,2.578721046447754,-0.09562328457832336
1.1801623106002808,2.5812716484069824,-0.09468676149845123
1.185852289199829,2.548600196838379,-0.09245133399963379
1.1962791681289673,2.5265023708343506,-0.09061285853385925
1.200256586074829,2.4900357723236084,-0.08824558556079865
1.202021598815918,2.4501521587371826,-0.08578135818243027
1.2151035070419312,2.4350156784057617,-0.08413723111152649
1.2348525524139404,2.4338672161102295,-0.08299726247787476
1.2409822940826416,2.404463052749634,-0.08085886389017105
1.2539901733398438,2.3889365196228027,-0.07920043170452118
1.2624255418777466,2.3668506145477295,-0.07729781419038773
1.2781267166137695,2.3584558963775635,-0.07584792375564575
1.2910164594650269,2.3425612449645996,-0.07408751547336578
1.3070820569992065,2.3336827754974365,-0.07257026433944702
1.310847520828247,2.304701328277588,-0.07041291147470474
1.3301676511764526,2.302675485610962,-0.06906828284263611
1.324405550956726,2.2563722133636475,-0.06636780500411987
1.3237969875335693,2.220482349395752,-0.06397320330142975
1.3463777303695679,2.2251861095428467,-0.06276731938123703
1.349358320236206,2.195972442626953,-0.06054505333304405
1.364485740661621,2.1866507530212402,-0.058866340667009354
1.3661142587661743,2.157996416091919,-0.05667196214199066
1.389223337173462,2.161830186843872,-0.05526675656437874
1.4042164087295532,2.1521668434143066,-0.05347859114408493
1.4138325452804565,2.1365461349487305,-0.051526088267564774
1.4278782606124878,2.1272284984588623,-0.04969194903969765
1.4425642490386963,2.1173410415649414,-0.04776544123888016
1.4496644735336304,2.0983035564422607,-0.045602910220623016
1.4545390605926514,2.0759224891662598,-0.043342623859643936
1.446147084236145,2.0340826511383057,-0.04062218964099884
1.4452301263809204,2.005960702896118,-0.038212988525629044
1.4542462825775146,1.9898074865341187,-0.03590663895010948
1.4671117067337036,1.9803794622421265,-0.03368963673710823
2.134127616882324,2.9869894981384277,0.07784031331539154
2.103600263595581,2.9893972873687744,0.08082875609397888
2.104001760482788,3.036658763885498,0.08494564145803452
2.586796522140503,3.794602632522583,0.10960538685321808
3.1415491104125977,4.678028106689453,0.13900531828403473
3.123809814453125,4.7272467613220215,0.14430537819862366
3.1070191860198975,4.780130863189697,0.1497177630662918
3.1031503677368164,4.847548961639404,0.15533798933029175
1.6376819610595703,2.6003010272979736,0.08517161011695862
1.609993577003479,2.599107265472412,0.0869375690817833
1.5674164295196533,2.570209503173828,0.08762896060943604
2.8097636699676514,4.684363842010498,0.1627212017774582
2.7784812450408936,4.71192741394043,0.16658438742160797
2.782189130783081,4.795576095581055,0.17232267558574677
1.362762451171875,2.3870038986206055,0.08712385594844818
2.4494681358337402,4.364876747131348,0.16169118881225586
2.433542490005493,4.413827419281006,0.1659231334924698
2.4287283420562744,4.478645324707031,0.1706283837556839
2.378789186477661,4.461062908172607,0.17219173908233643
2.4706947803497314,4.717054843902588,0.18433262407779694
2.44323992729187,4.748785495758057,0.18781603872776031
2.398979663848877,4.7449541091918945,0.18982666730880737
2.332630157470703,4.695132732391357,0.18991698324680328
1.2543106079101562,2.571776866912842,0.10511045157909393
1.2253282070159912,2.5597095489501953,0.10569170862436295
1.2024850845336914,2.5575287342071533,0.10662103444337845
1.189529538154602,2.5764265060424805,0.10843542218208313
1.1704726219177246,2.585083246231079,0.10977482795715332
1.1610532999038696,2.614917039871216,0.11200127750635147
1.1300714015960693,2.5943758487701416,0.11204212158918381
2.06290602684021,4.827399253845215,0.21016648411750793
2.0407602787017822,4.870575904846191,0.21369312703609467
2.015103578567505,4.91069221496582,0.2170637845993042
1.9882923364639282,4.946757793426514,0.22024771571159363
1.989525556564331,5.051182270050049,0.22646461427211761
2.010472059249878,5.210472583770752,0.23522579669952393
1.997959017753601,5.290346145629883,0.2403491735458374
1.9711265563964844,5.337761402130127,0.24402201175689697
1.943587303161621,5.380960941314697,0.2474859654903412
1.8982654809951782,5.3721923828125,0.248538076877594
1.8735995292663574,5.422054290771484,0.252316951751709
1.8696317672729492,5.538784027099609,0.2591048777103424
1.864447832107544,5.659713268280029,0.26615774631500244
1.911446452140808,5.943899154663086,0.2809508144855499
1.8770283460617065,5.979306697845459,0.28404200077056885
1.8662080764770508,6.092872619628906,0.2908891439437866
1.827105164527893,6.120911598205566,0.2935195565223694
1.7973805665969849,6.182460784912109,0.2977539002895355
1.7569061517715454,6.210213661193848,0.3004007935523987
1.7395421266555786,6.316248893737793,0.3068234920501709
1.7227462530136108,6.429890155792236,0.31367242336273193
1.6693456172943115,6.411623477935791,0.3139520585536957
0.8270905017852783,3.2721669673919678,0.16078847646713257
1.5537347793579102,6.340065002441406,0.31266191601753235
0.8003474473953247,3.3670198917388916,0.1666237860918045
1.4653767347335815,6.360908031463623,0.31588512659072876
1.4012103080749512,6.283363342285156,0.31305673718452454
1.3426191806793213,6.228240489959717,0.3111882507801056
1.304710865020752,6.272092819213867,0.3142935335636139
1.246134638786316,6.2083353996276855,0.3119889199733734
1.1962230205535889,6.182317733764648,0.3115745186805725
1.1403628587722778,6.121378421783447,0.30939891934394836
1.098464012145996,6.136907577514648,0.31088241934776306
1.049675464630127,6.117678165435791,0.31060731410980225
1.0052167177200317,6.117178916931152,0.3112815022468567
0.9589912295341492,6.10084867477417,0.3111521005630493
0.9055739045143127,6.034008502960205,0.3084494471549988
0.8556389212608337,5.986075401306152,0.3066316843032837
0.8106041550636292,5.976551055908203,0.3066479563713074
0.7674520611763,5.974338054656982,0.30704444646835327
0.6377776861190796,5.255313873291016,0.2705483138561249
0.5746462345123291,5.027031421661377,0.2592428922653198
0.5534183382987976,5.158873081207275,0.26651254296302795
0.520805299282074,5.197526931762695,0.26884952187538147
0.3840029537677765,4.129017353057861,0.21381878852844238
0.3513527512550354,4.088835716247559,0.2119813710451126
0.3302289843559265,4.1844987869262695,0.21719849109649658
0.3016335070133209,4.194459915161133,0.2179839313030243
0.2716470956802368,4.184762001037598,0.2177533209323883
0.24343587458133698,4.213839054107666,0.21938596665859222
0.3948025405406952,7.7802348136901855,0.40530115365982056
0.339761346578598,7.76719331741333,0.40487757325172424
0.28501173853874207,7.749856948852539,0.4042474031448364
0.23024854063987732,7.720436096191406,0.40300410985946655
0.1753016859292984,7.70625638961792,0.4024793207645416
0.12090609222650528,7.6643829345703125,0.40029335021972656
0.06714505702257156,7.618226051330566,0.3979029357433319
0.01409025490283966,7.602902412414551,0.3971420228481293
-0.03861202672123909,7.575508117675781,0.3957694172859192
-0.09179636836051941,7.543838024139404,0.39419350028038025
-0.1438126415014267,7.5196213722229,0.3928591310977936
-0.1955905556678772,7.502856731414795,0.39179331064224243
-0.24701398611068726,7.481837749481201,0.3905250132083893
-0.2983858585357666,7.464362144470215,0.3894610106945038
-0.3505491316318512,7.4699177742004395,0.389617919921875
-0.29268255829811096,5.418344497680664,0.2825270891189575
-0.33066660165786743,5.4239935874938965,0.28258660435676575
-0.3671149015426636,5.40602970123291,0.28138118982315063
-0.40333062410354614,5.387821197509766,0.2801780700683594
-0.43947309255599976,5.369358062744141,0.2789754867553711
-0.47498321533203125,5.338939189910889,0.2771632671356201
-0.2403729259967804,2.504671335220337,0.12992346286773682
-0.2584144175052643,2.5107321739196777,0.13004644215106964
-0.275723397731781,2.5089051723480225,0.12976616621017456
-0.2939002513885498,2.5147106647491455,0.12988655269145966
-0.3107236623764038,2.504840135574341,0.12919875979423523
-0.32304367423057556,2.4639554023742676,0.12692393362522125
-0.3342145085334778,2.4191675186157227,0.1244291439652443
-0.6539854407310486,4.505506992340088,0.23127463459968567
-0.686652660369873,4.512518405914307,0.23117908835411072
-0.7128313779830933,4.472941875457764,0.22869940102100372
-0.7451449036598206,4.4756178855896,0.22839957475662231
-0.7735254764556885,4.454998016357422,0.22692261636257172
-0.8041211366653442,4.449617862701416,0.22612476348876953
-0.8251558542251587,4.394213676452637,0.22274428606033325
-0.8536797761917114,4.380854606628418,0.22151291370391846
-0.7415268421173096,3.6673076152801514,0.18496201932430267
-0.7670006155967712,3.6621010303497314,0.18424366414546967
-0.9419538974761963,4.346890449523926,0.2181505411863327
-0.9698461890220642,4.3328070640563965,0.21675123274326324
-0.9975904226303101,4.318546295166016,0.2153555005788803
-1.0313048362731934,4.326716899871826,0.2150713950395584
-1.0613752603530884,4.319490432739258,0.21403180062770844
-1.0732052326202393,4.24018669128418,0.20944233238697052
-1.096401572227478,4.210115909576416,0.20720961689949036
-1.1360840797424316,4.244086742401123,0.20807112753391266
-1.1654068231582642,4.23618745803833,0.206867516040802
-1.1946744918823242,4.228085517883301,0.20566388964653015
-1.2207026481628418,4.208515644073486,0.20391230285167694
-1.2474406957626343,4.192586898803711,0.20231622457504272
-1.2734277248382568,4.176671981811523,0.20062647759914398
-1.302070140838623,4.167896747589111,0.19927465915679932
-1.3282735347747803,4.151491165161133,0.1975690722465515
-1.352217435836792,4.127396583557129,0.19550111889839172
-1.3858439922332764,4.132759094238281,0.19483523070812225
-1.4110890626907349,4.116028785705566,0.19299116730690002
-1.4310455322265625,4.084400177001953,0.19046351313591003
-1.45938241481781,4.074432849884033,0.18892820179462433
-1.487684965133667,4.064255237579346,0.18739093840122223
-1.5131827592849731,4.04656982421875,0.18551847338676453
-1.5347999334335327,4.021790504455566,0.18321067094802856
-1.5617562532424927,4.011474609375,0.18156611919403076
-1.5923991203308105,4.00788688659668,0.1801941692829132
-1.6143362522125244,3.98233699798584,0.17784272134304047
-1.6314527988433838,3.9458835124969482,0.17502275109291077
-1.6637959480285645,3.94938063621521,0.1738782525062561
-1.659315824508667,3.8665382862091064,0.1689590960741043
-1.686187744140625,3.8549747467041016,0.16713085770606995
-1.7352254390716553,3.8931362628936768,0.16744934022426605
-1.7619062662124634,3.8812150955200195,0.16556720435619354
-1.787713885307312,3.869478702545166,0.16361679136753082
-1.8034496307373047,3.836388111114502,0.16078028082847595
-1.837262511253357,3.837714910507202,0.1593061238527298
-1.863899827003479,3.824932813644409,0.1572735458612442
-1.8928717374801636,3.819479465484619,0.15546299517154694
-1.9040491580963135,3.7790684700012207,0.15222199261188507
-1.9137065410614014,3.7348387241363525,0.14881347119808197
-1.94509756565094,3.7318859100341797,0.14702710509300232
-1.9708077907562256,3.718461513519287,0.14475642144680023
-1.9915348291397095,3.6986241340637207,0.14223021268844604
-1.7015447616577148,3.1098432540893555,0.11807600408792496
-1.7155838012695312,3.084339141845703,0.115547314286232
-1.7326875925064087,3.0658726692199707,0.11327064037322998
-0.8473821878433228,1.476377248764038,0.05374743416905403
-0.841543972492218,1.44370698928833,0.05176772549748421
-0.859529972076416,1.4512896537780762,0.051211822777986526
-0.8732380867004395,1.4522398710250854,0.05039147660136223
-0.8826164603233337,1.4465957880020142,0.04932515323162079
-0.8926374912261963,1.4404726028442383,0.04818108305335045
-0.9026678204536438,1.4342466592788696,0.04703100770711899
-0.8909082412719727,1.3955061435699463,0.04481837525963783
-0.8989177942276001,1.3671263456344604,0.041958823800086975
-1.4763967990875244,2.150670289993286,0.0608927421271801
-1.3098200559616089,1.8813320398330688,0.051647085696458817
-1.4043397903442383,2.025001287460327,-0.051519863307476044
-1.2357085943222046,1.8091416358947754,-0.047874365001916885
-1.3416881561279297,1.996722936630249,-0.05485549941658974
-1.2543377876281738,1.8953253030776978,-0.05382309854030609
-1.2893049716949463,1.9797528982162476,-0.05804711580276489
-1.4640223979949951,2.285223960876465,-0.06903795152902603
-0.8184596300125122,1.3622246980667114,-0.04550712928175926
-0.7789149284362793,1.3175715208053589,-0.04498113691806793
-0.89975506067276,1.5992974042892456,-0.05792390555143356
-1.6526522636413574,2.989830732345581,-0.11028572916984558
-2.027841329574585,3.7323901653289795,-0.14008013904094696
-2.0128469467163086,3.7669708728790283,-0.14368756115436554
-1.9987692832946777,3.805246591567993,-0.14743933081626892
-1.9368778467178345,3.7537357807159424,-0.14765487611293793
-1.9131364822387695,3.774538278579712,-0.1506696492433548
-1.8937575817108154,3.801645517349243,-0.15386933088302612
-1.8699246644973755,3.822011947631836,-0.15676435828208923
-1.8606443405151367,3.8741211891174316,-0.16096200048923492
-1.818210244178772,3.855304002761841,-0.16216708719730377
-1.8093515634536743,3.906733512878418,-0.16630852222442627
-1.7631862163543701,3.8805670738220215,-0.16712602972984314
-1.5332505702972412,3.4403581619262695,-0.14981871843338013
-1.5604523420333862,3.5690507888793945,-0.1570950150489807
-1.6478883028030396,3.841578960418701,-0.17085780203342438
-1.652417540550232,3.9286036491394043,-0.17648173868656158
-1.3945918083190918,3.384803295135498,-0.15354318916797638
-1.3514822721481323,3.347506523132324,-0.15327998995780945
-1.3367868661880493,3.378513813018799,-0.1561088114976883
-1.377994179725647,3.555083751678467,-0.16572950780391693
-1.5545629262924194,4.097503662109375,-0.19260555505752563
-1.4852721691131592,4.002529621124268,-0.189721018075943
-1.4240714311599731,3.9209790229797363,-0.18733438849449158
-1.3915483951568604,3.9159843921661377,-0.1885727345943451
-1.395705223083496,4.017834186553955,-0.19489212334156036
-1.3306041955947876,3.9204533100128174,-0.19151760637760162
-1.2716913223266602,3.837233066558838,-0.18878494203090668
-1.1367579698562622,3.5118162631988525,-0.17396065592765808
-1.1732349395751953,3.7130913734436035,-0.18516351282596588
-1.14899480342865,3.7287535667419434,-0.18707504868507385
-1.106602430343628,3.6844778060913086,-0.18597659468650818
-1.062186598777771,3.628391742706299,-0.18423157930374146
-1.0364680290222168,3.635746717453003,-0.185712069272995
-0.9973266124725342,3.5939981937408447,-0.1845904290676117
-0.9768764972686768,3.6197519302368164,-0.18687008321285248
-0.938325047492981,3.5774600505828857,-0.18563708662986755
-0.9037613272666931,3.5460355281829834,-0.18493717908859253
-0.8767290115356445,3.5447115898132324,-0.1858213245868683
-0.8380676507949829,3.4938409328460693,-0.1839783638715744
-0.8035829067230225,3.457834482192993,-0.18286414444446564
-0.7723372578620911,3.4329090118408203,-0.18232493102550507
-0.7451538443565369,3.4228882789611816,-0.18256448209285736
-0.7161014080047607,3.4051132202148438,-0.18240505456924438
-0.6921463012695312,3.4100136756896973,-0.18332961201667786
-0.6598638296127319,3.3726468086242676,-0.18195994198322296
-0.628951907157898,3.3388147354125977,-0.18077224493026733
-0.6015313267707825,3.3200342655181885,-0.18039101362228394
-0.5820181965827942,3.3472201824188232,-0.1825276017189026
-0.5501297116279602,3.3011720180511475,-0.18052901327610016
-0.5280947685241699,3.3126296997070312,-0.1816585659980774
-0.4966500699520111,3.26222562789917,-0.17939504981040955
-0.47843316197395325,3.296442747116089,-0.1817864030599594
-0.4497893750667572,3.2610650062561035,-0.18035590648651123
-0.4259147644042969,3.256371021270752,-0.18048995733261108
-0.4006897807121277,3.239891767501831,-0.1799534559249878
-0.3752938508987427,3.2193427085876465,-0.17919427156448364
-0.3477714955806732,3.175323724746704,-0.17712709307670593
-0.3256520926952362,3.1776394844055176,-0.17764754593372345
-0.30263233184814453,3.175973415374756,-0.17784790694713593
-0.27967017889022827,3.1702260971069336,-0.1777864247560501
-0.2568318545818329,3.164310932159424,-0.17772264778614044
-0.23426006734371185,3.158219814300537,-0.1776541769504547
-0.21126244962215424,3.1441855430603027,-0.17714542150497437
-0.18989282846450806,3.1611616611480713,-0.1782965064048767
-0.1649404764175415,3.1078734397888184,-0.1754317730665207
-0.1454084813594818,3.1556875705718994,-0.17828233540058136
-0.12283650785684586,3.1410226821899414,-0.1776128113269806
-0.10047566890716553,3.126197576522827,-0.17694121599197388
-0.07830491662025452,3.126823663711548,-0.1770799458026886
-0.05605287477374077,3.1038944721221924,-0.17581461369991302
-0.034368742257356644,3.100306749343872,-0.17565304040908813
-0.012740405276417732,3.0770673751831055,-0.17438599467277527
0.008650986477732658,3.084878444671631,-0.1748868227005005
0.030537433922290802,3.0925393104553223,-0.17533700168132782
0.05147882550954819,3.061062812805176,-0.17347227036952972
0.07198473066091537,3.0294458866119385,-0.17160950601100922
0.09256020188331604,3.013284921646118,-0.1706315129995346
0.1135290116071701,3.012573003768921,-0.1705368459224701
0.13515233993530273,3.0273027420043945,-0.1713031381368637
0.15694114565849304,3.0340757369995117,-0.17149673402309418
0.17933622002601624,3.0562894344329834,-0.17257314920425415
0.19903595745563507,3.031632900238037,-0.17101086676120758
0.22238482534885406,3.061307430267334,-0.17252102494239807
0.2424406111240387,3.0441484451293945,-0.17139935493469238
0.2645301818847656,3.0501604080200195,-0.17144590616226196
0.28344860672950745,3.02497935295105,-0.16975167393684387
0.3067471981048584,3.0462474822998047,-0.17067186534404755
0.3270943760871887,3.036306142807007,-0.16984926164150238
0.3508758246898651,3.0572283267974854,-0.17076003551483154
0.37140703201293945,3.0469729900360107,-0.16980762779712677
0.39243414998054504,3.044365644454956,-0.16927513480186462
0.41664937138557434,3.0647950172424316,-0.1700277477502823
0.4390392005443573,3.069577932357788,-0.16991519927978516
0.4621219038963318,3.0780508518218994,-0.17001228034496307
0.4825025796890259,3.06706166267395,-0.16892848908901215
0.5048502087593079,3.0714056491851807,-0.16866950690746307
0.5273343324661255,3.0755786895751953,-0.16840530931949615
0.5542320609092712,3.1025874614715576,-0.16938850283622742
0.5758299231529236,3.0986897945404053,-0.168687641620636
0.5986891388893127,3.1023433208465576,-0.16831113398075104
0.6203558444976807,3.0981295108795166,-0.16746076941490173
0.643255352973938,3.1014695167541504,-0.16703446209430695
0.670566201210022,3.123659133911133,-0.1676177829504013
0.6939634084701538,3.126582622528076,-0.16716942191123962
0.7241801023483276,3.1598072052001953,-0.1682443469762802
0.7462095618247986,3.1547317504882812,-0.16722118854522705
0.7678536772727966,3.1495871543884277,-0.16621428728103638
0.7954598069190979,3.166921854019165,-0.16638632118701935
0.821363627910614,3.1764771938323975,-0.16614973545074463
0.8501657843589783,3.1972155570983887,-0.16639752686023712
0.8723649382591248,3.191291332244873,-0.165211483836174
0.9027190208435059,3.215329647064209,-0.16558586061000824
0.9272586703300476,3.216521978378296,-0.16476978361606598
0.9563129544258118,3.23248553276062,-0.1647091805934906
0.9761372804641724,3.218467950820923,-0.16300779581069946
1.0042481422424316,3.230311632156372,-0.16259200870990753
1.0335943698883057,3.24568772315979,-0.1623561978340149
0.9932454824447632,3.045585870742798,-0.1513933390378952
1.0266848802566528,3.0757057666778564,-0.15191295742988586
1.171078085899353,3.430630922317505,-0.168253555893898
1.191742181777954,3.4153194427490234,-0.1663219928741455
1.2184240818023682,3.4142589569091797,-0.16504494845867157
1.2595573663711548,3.4534263610839844,-0.16571642458438873
1.2805031538009644,3.4374680519104004,-0.16367954015731812
1.3328694105148315,3.505404233932495,-0.16556647419929504
1.3595280647277832,3.503608465194702,-0.1641274094581604
1.4102046489715576,3.5592780113220215,-0.16530343890190125
1.423250436782837,3.5205135345458984,-0.16211135685443878
1.4662843942642212,3.5578360557556152,-0.16231879591941833
1.5053507089614868,3.583942413330078,-0.1619866043329239
1.58841872215271,3.709902286529541,-0.16606469452381134
1.1414768695831299,2.614824056625366,-0.115878164768219
1.1481297016143799,2.5821046829223633,-0.11324603855609894
1.1734697818756104,2.592193126678467,-0.1124710664153099
1.1796729564666748,2.559389352798462,-0.10982387512922287
1.2023988962173462,2.5618016719818115,-0.1086762472987175
1.233693242073059,2.5816025733947754,-0.10820414870977402
1.24064302444458,2.5523228645324707,-0.10566042363643646
1.975879192352295,3.9961464405059814,-0.1633383184671402
1.226420283317566,2.4375579357147217,-0.09831088036298752
1.2396016120910645,2.4221808910369873,-0.09635720402002335
1.248487949371338,2.4000914096832275,-0.0941137969493866
1.2685776948928833,2.398437976837158,-0.09263745695352554
1.2741323709487915,2.3689956665039062,-0.09008125960826874
1.2827847003936768,2.3466060161590576,-0.08780274540185928
1.29068124294281,2.324490785598755,-0.0855344757437706
1.3025420904159546,2.308969736099243,-0.08349091559648514
1.3091212511062622,2.2828359603881836,-0.08101702481508255
1.3125711679458618,2.253849506378174,-0.07847031950950623
1.3312991857528687,2.2519776821136475,-0.07686714082956314
1.334729552268982,2.2227282524108887,-0.07426419109106064
1.3500401973724365,2.2135262489318848,-0.07232986390590668
1.3605992794036865,2.1979360580444336,-0.07013892382383347
1.3711445331573486,2.182217836380005,-0.06794161349534988
1.3778605461120605,2.159541368484497,-0.06548552960157394
1.3813620805740356,2.1341428756713867,-0.06295762956142426
1.401745080947876,2.134899616241455,-0.06118040531873703
1.414652705192566,2.121739625930786,-0.0588570237159729
1.428537368774414,2.112475872039795,-0.05666756257414818
1.4422852993011475,2.1031723022460938,-0.054439786821603775
1.4479299783706665,2.080345630645752,-0.05174897983670235
1.4657493829727173,2.077453374862671,-0.049554768949747086
1.4478766918182373,2.0231354236602783,-0.04603860154747963
1.4661686420440674,2.0196356773376465,-0.043645888566970825
1.4579219818115234,1.9821791648864746,-0.040536824613809586
2.1149590015411377,2.9809939861297607,0.09374305605888367
2.1006507873535156,3.0100338459014893,0.09812624007463455
2.6057991981506348,3.7905051708221436,0.12750497460365295
3.165942907333374,4.679688453674316,0.16221092641353607
3.1260263919830322,4.696878433227539,0.1674002707004547
3.1124489307403564,4.747781276702881,0.17345228791236877
3.0900466442108154,4.7901082038879395,0.17919287085533142
1.637784719467163,2.5812599658966064,0.0987720638513565
1.6276763677597046,2.6059792041778564,0.1018066257238388
1.6005698442459106,2.6043055057525635,0.10375048965215683
2.929605007171631,4.84814977645874,0.19680270552635193
2.7914726734161377,4.6941046714782715,0.1938585788011551
2.768493890762329,4.730154991149902,0.19860756397247314
1.381821870803833,2.4025022983551025,0.10249996185302734
2.4669792652130127,4.362887859344482,0.18897798657417297
2.432685136795044,4.373022079467773,0.19210933148860931
2.4089276790618896,4.40380859375,0.19611763954162598
2.3779945373535156,4.424870014190674,0.1996336430311203
2.3818531036376953,4.511108875274658,0.20611566305160522
2.470820188522339,4.759551048278809,0.22005242109298706
2.422635793685913,4.749078273773193,0.2220812886953354
2.357893466949463,4.707310676574707,0.2225334346294403
2.3065874576568604,4.689058780670166,0.22401724755764008
1.2308443784713745,2.547607421875,0.12296043336391449
1.2128416299819946,2.5561482906341553,0.12458352744579315
1.1940871477127075,2.5648858547210693,0.1261630356311798
1.173688530921936,2.5699169635772705,0.12756294012069702
1.1573669910430908,2.5815112590789795,0.1292402595281601
1.151941180229187,2.6180026531219482,0.13218404352664948
2.072176218032837,4.804776191711426,0.24454045295715332
2.043193817138672,4.833986759185791,0.24792173504829407
2.0267257690429688,4.891501426696777,0.2527424693107605
2.002894878387451,4.930666923522949,0.25661665201187134
1.985555648803711,4.987969875335693,0.26143878698349
