X,Y,Z
0.6965135335922241,3.125269651412964,0.18057824671268463
0.6780288219451904,3.145244836807251,0.1822783648967743
0.664071261882782,3.188020706176758,0.18531805276870728
0.6498597860336304,3.2346746921539307,0.18846918642520905
0.6313418745994568,3.2621350288391113,0.19051861763000488
0.6091983914375305,3.2742340564727783,0.19169296324253082
0.5876464247703552,3.28605318069458,0.19284819066524506
0.567406415939331,3.3053953647613525,0.19445501267910004
0.5480185151100159,3.3323419094085693,0.19644758105278015
0.5262869000434875,3.3476531505584717,0.19769024848937988
0.5045134425163269,3.366743326187134,0.199175164103508
0.48299288749694824,3.3856215476989746,0.20065347850322723
0.46359482407569885,3.419783115386963,0.20304831862449646
0.4452349841594696,3.4654393196105957,0.2061435878276825
0.42835795879364014,3.530397415161133,0.21026085317134857
0.4043673276901245,3.5410501956939697,0.21114353835582733
0.379408597946167,3.5477075576782227,0.21180373430252075
0.35768985748291016,3.581289291381836,0.21407830715179443
0.3349427878856659,3.6069602966308594,0.21589295566082
0.31181004643440247,3.632493257522583,0.21767430007457733
0.2872674763202667,3.646235227584839,0.2186332792043686
0.2662848234176636,3.718181610107422,0.22309888899326324
0.2444961816072464,3.7860898971557617,0.22733639180660248
0.21900933980941772,3.8032565116882324,0.2285408079624176
0.19372759759426117,3.8280375003814697,0.2302154153585434
0.1682279407978058,3.8565523624420166,0.23203806579113007
0.14167465269565582,3.8810243606567383,0.23354139924049377
0.11548440158367157,3.913093328475952,0.23551338911056519
0.08946765214204788,3.9722719192504883,0.23912961781024933
0.06275171041488647,4.031272888183594,0.24274827539920807
0.03498441353440285,4.062798500061035,0.24472574889659882
0.006265610456466675,4.113635540008545,0.24774159491062164
-0.02235404960811138,4.113584518432617,0.2476576715707779
-0.051745738834142685,4.175716876983643,0.2513284385204315
-0.08253108710050583,4.264926433563232,0.256638765335083
-0.11256834864616394,4.27984619140625,0.2574898898601532
-0.14234164357185364,4.278964519500732,0.25740256905555725
-0.1721823513507843,4.270080089569092,0.2566525340080261
-0.2045167088508606,4.327225685119629,0.25987696647644043
-0.23663944005966187,4.364655494689941,0.26192495226860046
-0.2740531861782074,4.479686260223389,0.2686356008052826
-0.30733248591423035,4.5088114738464355,0.27020084857940674
-0.3429531157016754,4.557098388671875,0.2728808522224426
-0.3789082467556,4.609057426452637,0.27562403678894043
-0.4127807021141052,4.62966775894165,0.27650007605552673
-0.45521071553230286,4.735417366027832,0.28246375918388367
-0.4912654459476471,4.763206481933594,0.2837789058685303
-0.5882482528686523,5.333279132843018,0.3173663318157196
-0.6346745491027832,5.410454273223877,0.321493536233902
-0.6652028560638428,5.351828098297119,0.3174341917037964
-0.7015002369880676,5.3433074951171875,0.316368967294693
-0.7505860924720764,5.427241802215576,0.3207833170890808
-0.7906650304794312,5.433421611785889,0.32059231400489807
-0.8242865800857544,5.400861740112305,0.31814271211624146
-0.8497258424758911,5.321958541870117,0.31280753016471863
-0.8624473214149475,5.173748970031738,0.3033808469772339
-0.8865301012992859,5.102461814880371,0.2985076308250427
-0.9293056726455688,5.138505458831787,0.2999269664287567
-0.949058473110199,5.043713569641113,0.2937121093273163
-0.977340579032898,5.002613544464111,0.29064300656318665
-1.0168836116790771,5.022655010223389,0.2909509241580963
-1.0439937114715576,4.98130464553833,0.28771620988845825
-1.0837554931640625,5.000814914703369,0.28801268339157104
-1.120625376701355,5.0007500648498535,0.28716444969177246
-1.1474446058273315,4.958714485168457,0.28393471240997314
-1.183241605758667,4.958393096923828,0.28299659490585327
-1.1954859495162964,4.863210201263428,0.2765808701515198
-1.2332819700241089,4.873963356018066,0.276216596364975
-1.2190169095993042,4.68039083480835,0.2642955482006073
-1.2514878511428833,4.67189359664917,0.26287841796875
-1.283772587776184,4.663205623626709,0.26144540309906006
-1.3132028579711914,4.64698600769043,0.25943854451179504
-1.3424298763275146,4.630593776702881,0.25743892788887024
-1.3743096590042114,4.621321678161621,0.25582846999168396
-1.121882677078247,3.6789658069610596,0.20278999209403992
-1.1322834491729736,3.6227526664733887,0.19883836805820465
-1.159260630607605,3.622478485107422,0.19786734879016876
-1.4884196519851685,4.545184135437012,0.24703551828861237
-1.5196000337600708,4.534952640533447,0.24523526430130005
-1.5533599853515625,4.531846046447754,0.24382512271404266
-1.600377082824707,4.565194129943848,0.2443609982728958
-1.6407132148742676,4.5799760818481445,0.24379506707191467
-1.6688408851623535,4.561600685119629,0.2414039671421051
-1.6899700164794922,4.524778842926025,0.23805780708789825
-1.731224536895752,4.538506031036377,0.23733235895633698
-1.7740508317947388,4.555558681488037,0.23678022623062134
-1.8323055505752563,4.612418174743652,0.23817959427833557
-1.8162522315979004,4.484445095062256,0.22999100387096405
-1.8432365655899048,4.465092182159424,0.22742688655853271
-1.8622806072235107,4.4234490394592285,0.22368137538433075
-1.8729928731918335,4.363889217376709,0.2190760374069214
-1.8898495435714722,4.3226823806762695,0.2153351902961731
-1.8948405981063843,4.256619453430176,0.2103632390499115
-1.9038339853286743,4.201358318328857,0.2059745490550995
-1.9400209188461304,4.202089309692383,0.20425108075141907
-1.9657869338989258,4.181590557098389,0.20151610672473907
-1.9901294708251953,4.161529064178467,0.198701873421669
-2.014291763305664,4.141327381134033,0.19589592516422272
-2.0422630310058594,4.127723693847656,0.19337844848632812
-2.0714759826660156,4.113264560699463,0.1907402127981186
-2.0991122722625732,4.09935188293457,0.18809546530246735
-2.1261401176452637,4.085521221160889,0.18542355298995972
-2.1495137214660645,4.0645647048950195,0.18243318796157837
-2.174060583114624,4.042752265930176,0.17931640148162842
-2.2052221298217773,4.034863471984863,0.17677965760231018
-2.224515676498413,4.006536483764648,0.17325520515441895
-2.2545769214630127,3.998786687850952,0.17067135870456696
-2.2745981216430664,3.9695754051208496,0.16704483330249786
-2.2758991718292236,3.910348653793335,0.16216407716274261
-2.2437326908111572,3.798097610473633,0.15513353049755096
-2.2510130405426025,3.7529985904693604,0.1508687287569046
-2.2730367183685303,3.730686664581299,0.14745038747787476
-2.2936325073242188,3.7090065479278564,0.14402121305465698
-2.3134171962738037,3.6876068115234375,0.1405968964099884
-2.3465664386749268,3.6852540969848633,0.1377941071987152
-2.372232437133789,3.668914794921875,0.13431371748447418
-2.399977207183838,3.660291910171509,0.13112130761146545
-2.4280805587768555,3.6512157917022705,0.12786170840263367
-2.457850694656372,3.640798568725586,0.12434085458517075
-2.4766407012939453,3.6187095642089844,0.12038253247737885
-2.0415682792663574,2.9417498111724854,0.09516102075576782
-2.0665476322174072,2.9339210987091064,0.09200312942266464
-2.0849645137786865,2.920966386795044,0.0886455699801445
-2.0947017669677734,2.8948354721069336,0.08480432629585266
-1.109058141708374,1.5112262964248657,0.04254639893770218
-1.113682508468628,1.498153805732727,0.040444474667310715
-2.064706325531006,2.9167351722717285,-0.06842610239982605
-2.091672897338867,3.002697229385376,-0.07388216257095337
-2.4360427856445312,3.5526528358459473,-0.09128821641206741
-2.4449656009674072,3.6220479011535645,-0.09682269394397736
-2.4173824787139893,3.64040207862854,-0.1009783148765564
-2.39139461517334,3.6574158668518066,-0.10487428307533264
-2.3645946979522705,3.674689292907715,-0.1086868941783905
-2.3410630226135254,3.698857307434082,-0.11269186437129974
-2.314486265182495,3.71543288230896,-0.11632340401411057
-2.2832462787628174,3.7254438400268555,-0.1196434423327446
-2.2553465366363525,3.74228572845459,-0.1231686919927597
-2.232835531234741,3.7647321224212646,-0.12672777473926544
-2.2059407234191895,3.780442476272583,-0.12999986112117767
-2.1775102615356445,3.796774387359619,-0.1333131194114685
-2.1577844619750977,3.8258473873138428,-0.13697972893714905
-2.1271703243255615,3.833914041519165,-0.1398278921842575
-2.1026113033294678,3.8562209606170654,-0.14313702285289764
-2.074150562286377,3.8714892864227295,-0.14619705080986023
-2.0428760051727295,3.879148244857788,-0.14889174699783325
-2.0278356075286865,3.917717933654785,-0.15269900858402252
-1.9921064376831055,3.9183850288391113,-0.15499116480350494
-1.9741554260253906,3.953545570373535,-0.1586408019065857
-1.9431312084197998,3.960081100463867,-0.16107285022735596
-1.9278523921966553,4.002121925354004,-0.16495069861412048
-1.898719072341919,4.015915393829346,-0.16761820018291473
-1.8731166124343872,4.036417484283447,-0.17055347561836243
-1.8449763059616089,4.049248695373535,-0.1731128841638565
-1.8192543983459473,4.0693159103393555,-0.17591486871242523
-1.7991702556610107,4.10371208190918,-0.17931371927261353
-1.7737836837768555,4.127386569976807,-0.1822861284017563
-1.7510442733764648,4.153926849365234,-0.1853175312280655
-1.7245855331420898,4.173323154449463,-0.18799027800559998
-1.6973987817764282,4.19277286529541,-0.1906236708164215
-1.6642670631408691,4.197533130645752,-0.1925991326570511
-1.6344619989395142,4.2091240882873535,-0.19486680626869202
-1.6077206134796143,4.227659225463867,-0.19740934669971466
-1.5800762176513672,4.2462992668151855,-0.19986185431480408
-1.5469081401824951,4.2500901222229,-0.2016257494688034
-1.5247738361358643,4.282844066619873,-0.20475131273269653
-1.4892226457595825,4.278710842132568,-0.20613683760166168
-1.461323857307434,4.296469688415527,-0.20844151079654694
-1.4354913234710693,4.321525573730469,-0.21108557283878326
-1.1530728340148926,3.555814027786255,-0.17486031353473663
-1.1365015506744385,3.589729070663452,-0.17769184708595276
-1.3480360507965088,4.365657806396484,-0.21750839054584503
-1.3179607391357422,4.378819465637207,-0.21942318975925446
-1.286704421043396,4.38801908493042,-0.2211502194404602
-1.2621757984161377,4.4194016456604,-0.2239980846643448
-1.2293474674224854,4.420461654663086,-0.2253064066171646
-1.2003161907196045,4.436435222625732,-0.22729457914829254
-1.1722432374954224,4.4599928855896,-0.22962531447410583
-1.1444979906082153,4.483222007751465,-0.23193728923797607
-1.1149852275848389,4.4986138343811035,-0.23384755849838257
-1.0763438940048218,4.47584342956543,-0.23377443850040436
-1.0412676334381104,4.468040466308594,-0.23433780670166016
-1.0125117301940918,4.490571975708008,-0.23647093772888184
-0.9824033975601196,4.505171298980713,-0.23818612098693848
-0.9541358947753906,4.5271220207214355,-0.24029496312141418
-0.9210201501846313,4.525944709777832,-0.24118709564208984
-0.8950457572937012,4.5628981590271,-0.24396075308322906
-0.8672961592674255,4.595983505249023,-0.24653930962085724
-0.8348069787025452,4.601935386657715,-0.24766579270362854
-0.8067750930786133,4.630631446838379,-0.2500205338001251
-0.7822813391685486,4.682235240936279,-0.253635436296463
-0.7499799132347107,4.691417694091797,-0.2547752261161804
-0.7175738215446472,4.704324722290039,-0.2561299204826355
-0.6844805479049683,4.709202766418457,-0.25705012679100037
-0.6538224220275879,4.7292585372924805,-0.25880685448646545
-0.622918426990509,4.749114036560059,-0.26056957244873047
-0.5924643278121948,4.776553153991699,-0.26255831122398376
-0.5589601397514343,4.780551433563232,-0.26325732469558716
-0.5247921943664551,4.784383773803711,-0.26396963000297546
-0.4851176142692566,4.72580099105835,-0.2612317204475403
-0.44331374764442444,4.6358418464660645,-0.2567555010318756
-0.40466976165771484,4.568871974945068,-0.25335943698883057
-0.18379606306552887,2.254685401916504,-0.12517650425434113
-0.1720566749572754,2.3142688274383545,-0.12864387035369873
-0.1585903912782669,2.3543105125427246,-0.1310340017080307
-0.13893374800682068,2.3008391857147217,-0.12822458148002625
-0.12143886834383011,2.2744812965393066,-0.12684276700019836
-0.10520853847265244,2.267474889755249,-0.1265198439359665
-0.08973723649978638,2.2837464809417725,-0.12750351428985596
-0.0744757205247879,2.303799629211426,-0.12870433926582336
-0.05921521037817001,2.3354477882385254,-0.13056111335754395
-0.04158703610301018,2.2617106437683105,-0.12645938992500305
-0.025470510125160217,2.230746269226074,-0.12471453100442886
-0.017605479806661606,4.07172966003418,-0.22762472927570343
0.010611134581267834,4.040552616119385,-0.22587941586971283
0.03843089938163757,4.0130815505981445,-0.2243521511554718
0.06492117047309875,3.930830955505371,-0.21968278288841248
0.09111940115690231,3.8835060596466064,-0.21688729524612427
0.1171032041311264,3.8516035079956055,-0.21496666967868805
0.1436012089252472,3.831202268600464,-0.21369770169258118
0.16916483640670776,3.8067445755004883,-0.2122165709733963
0.19440039992332458,3.782120943069458,-0.21067436039447784
0.21716873347759247,3.7223000526428223,-0.20706704258918762
0.23889696598052979,3.6584534645080566,-0.20325413346290588
0.2632659375667572,3.6372482776641846,-0.2018216848373413
0.28671589493751526,3.6120193004608154,-0.20018194615840912
0.3104407787322998,3.594419240951538,-0.19894260168075562
0.33238446712493896,3.561147689819336,-0.19671417772769928
0.356250524520874,3.551027536392212,-0.1957777440547943
0.37498554587364197,3.4902889728546143,-0.19206084311008453
0.39568352699279785,3.45662522315979,-0.18985708057880402
0.41735729575157166,3.4344582557678223,-0.18828511238098145
0.43704649806022644,3.400585412979126,-0.18594583868980408
0.4573363661766052,3.374335289001465,-0.1840398609638214
0.4788305461406708,3.35562801361084,-0.18255065381526947
0.49930045008659363,3.332958221435547,-0.18086367845535278
0.5213199853897095,3.321723461151123,-0.17980818450450897
0.5404156446456909,3.294996976852417,-0.17779135704040527
0.5618278980255127,3.2835402488708496,-0.1766115128993988
0.5817103981971741,3.2642693519592285,-0.1750243753194809
0.6047955751419067,3.260113000869751,-0.174244225025177
0.6178563237190247,3.206073522567749,-0.1708243489265442
0.6322064399719238,3.163550615310669,-0.16789980232715607
0.6468121409416199,3.1247987747192383,-0.16519376635551453
0.6666072010993958,3.112703561782837,-0.1639142632484436
0.6835594177246094,3.085102081298828,-0.16181252896785736
0.7050078511238098,3.080317497253418,-0.1609313189983368
0.7243223786354065,3.06786847114563,-0.159543976187706
0.7397819757461548,3.0401430130004883,-0.15737727284431458
0.7568184733390808,3.019911766052246,-0.15561403334140778
0.7781748175621033,3.014531373977661,-0.1546042263507843
0.7960715293884277,2.9977974891662598,-0.15302522480487823
0.8124192953109741,2.9772908687591553,-0.15115942060947418
0.830604612827301,2.964221239089966,-0.14968545734882355
0.8487234115600586,2.9510207176208496,-0.14821301400661469
0.865199863910675,2.930018901824951,-0.14633387327194214
0.8707637190818787,2.8754684925079346,-0.14279185235500336
0.8660474419593811,2.791269063949585,-0.13774782419204712
0.8779500126838684,2.763049364089966,-0.1355038732290268
0.8921010494232178,2.7421605587005615,-0.13362912833690643
0.9114945530891418,2.735832452774048,-0.1324499249458313
0.9302580952644348,2.729567766189575,-0.13124485313892365
0.9513307809829712,2.730620861053467,-0.13035176694393158
0.972481906414032,2.7315051555633545,-0.1294504702091217
0.9860088229179382,2.71010684967041,-0.12748529016971588
1.004832148551941,2.7032439708709717,-0.12620970606803894
1.0206658840179443,2.6890220642089844,-0.12450999021530151
1.0359883308410645,2.674849271774292,-0.12283363193273544
1.0455522537231445,2.6460249423980713,-0.12049420922994614
1.066892385482788,2.6459732055664062,-0.11945092678070068
1.0776535272598267,2.6205835342407227,-0.11724299192428589
1.0971170663833618,2.6167924404144287,-0.1159488782286644
1.1132192611694336,2.605802297592163,-0.11435949057340622
1.1249558925628662,2.583801746368408,-0.11227430403232574
1.1365288496017456,2.5617241859436035,-0.11019392311573029
1.1408125162124634,2.525658369064331,-0.10748249292373657
1.1482131481170654,2.496610641479492,-0.10507773607969284
1.1652551889419556,2.488765239715576,-0.10357652604579926
1.1640877723693848,2.441890001296997,-0.10045231133699417
1.1804827451705933,2.4340693950653076,-0.0989176481962204
1.1967215538024902,2.4261891841888428,-0.09737494587898254
1.2099403142929077,2.4109551906585693,-0.0955047532916069
1.2231377363204956,2.3955864906311035,-0.09363102912902832
1.2391990423202515,2.387380838394165,-0.09201029688119888
1.2404625415802002,2.351532220840454,-0.0893331915140152
1.2563538551330566,2.34314227104187,-0.08769403398036957
1.2707504034042358,2.3309826850891113,-0.08588381111621857
1.278891682624817,2.3087520599365234,-0.08366713672876358
1.2940860986709595,2.300330400466919,-0.0819825530052185
1.3058947324752808,2.2847189903259277,-0.07999975234270096
1.3255383968353271,2.282475233078003,-0.07845631241798401
1.3286080360412598,2.253596305847168,-0.07598638534545898
1.347701907157898,2.2513973712921143,-0.074397511780262
1.3551844358444214,2.228703022003174,-0.0720861405134201
1.365878939628601,2.213052749633789,-0.07000257819890976
1.3843971490859985,2.210794448852539,-0.06833785027265549
1.3910335302352905,2.1881983280181885,-0.06597931683063507
1.4060988426208496,2.1786084175109863,-0.0639512687921524
1.4158962965011597,2.162982702255249,-0.061773378401994705
1.4346998929977417,2.15999698638916,-0.05989601090550423
1.4449752569198608,2.143782377243042,-0.05758567526936531
1.4542598724365234,2.1280975341796875,-0.055296655744314194
1.4576044082641602,2.1021463871002197,-0.05264225974678993
1.4625743627548218,2.0796778202056885,-0.05006904527544975
1.434869647026062,2.0132100582122803,-0.04650576785206795
1.4577773809432983,2.016049385070801,-0.04442037642002106
1.4751936197280884,2.013085126876831,-0.04215042665600777
1.4719257354736328,1.981570839881897,-0.03921344876289368
1.4325854778289795,2.0099151134490967,0.05163196846842766
1.4647252559661865,2.087571859359741,0.055750951170921326
1.4687111377716064,2.127554416656494,0.05892423912882805
1.4537532329559326,2.1377413272857666,0.06112710013985634
1.4329081773757935,2.142315626144409,0.06313111633062363
1.4298866987228394,2.1723761558532715,0.06582904607057571
1.409942626953125,2.176011085510254,0.06765609979629517
1.3975930213928223,2.193167209625244,0.06984535604715347
1.3855950832366943,2.209928274154663,0.07198332250118256
1.3782635927200317,2.232823371887207,0.07425618171691895
1.3614225387573242,2.243070363998413,0.07608264684677124
1.3443654775619507,2.2532718181610107,0.07792406529188156
1.3325837850570679,2.269261121749878,0.07985246181488037
1.319878101348877,2.285637140274048,0.0817672610282898
1.3104946613311768,2.3089442253112793,0.08393049240112305
1.2939188480377197,2.3182148933410645,0.08554285019636154
1.2830370664596558,2.3375658988952637,0.08751966059207916
1.2657190561294556,2.3469302654266357,0.089058056473732
1.2519878149032593,2.363064765930176,0.09086169302463531
1.2460857629776,2.3925669193267822,0.09314437955617905
1.2256265878677368,2.394286632537842,0.09433376044034958
1.2181426286697388,2.424287796020508,0.09661471843719482
1.1967886686325073,2.426140308380127,0.09776604175567627
1.1966934204101562,2.469583511352539,0.10056252032518387
1.1911633014678955,2.5024964809417725,0.10294348001480103
1.1794627904891968,2.525221347808838,0.10485296696424484
1.1772494316101074,2.5691986083984375,0.10766962915658951
1.1553950309753418,2.5704877376556396,0.1087065190076828
1.143757700920105,2.5927066802978516,0.11059855669736862
1.1266244649887085,2.6043975353240967,0.11199450492858887
1.1076561212539673,2.6124684810638428,0.11321865022182465
1.0946623086929321,2.634800910949707,0.115069679915905
1.0788910388946533,2.6496756076812744,0.1165883019566536
1.0660451650619507,2.6716344356536865,0.11840086430311203
1.049501895904541,2.6865086555480957,0.11984428018331528
1.035609245300293,2.708564519882202,0.1216198056936264
1.0189934968948364,2.72314453125,0.12306118756532669
1.002338171005249,2.7375826835632324,0.12450191378593445
0.985572338104248,2.7519073486328125,0.1258944422006607
0.9721544981002808,2.7773115634918213,0.12775996327400208
0.938193142414093,2.7435903549194336,0.12690746784210205
0.9163026213645935,2.7427048683166504,0.12755370140075684
0.8920266032218933,2.7342357635498047,0.12784884870052338
0.8845151662826538,2.777614116668701,0.13051384687423706
0.8680593967437744,2.7950198650360107,0.13193020224571228
0.8875546455383301,2.931854009628296,0.13902191817760468
0.8712568879127502,2.952972173690796,0.14065468311309814
0.852817177772522,2.96642804145813,0.14192606508731842
0.8336277008056641,2.9799399375915527,0.14316916465759277
0.8194666504859924,3.0121421813964844,0.1452532708644867
0.7959385514259338,3.01033353805542,0.14570733904838562
0.7804387807846069,3.038527488708496,0.14761877059936523
0.7611430883407593,3.0514228343963623,0.14879101514816284
0.7412511110305786,3.0643064975738525,0.1499534249305725
0.7229794859886169,3.084667205810547,0.15139596164226532
0.7062113881111145,3.112525224685669,0.1532190591096878
0.6857383251190186,3.125054359436035,0.15429982542991638
0.6728854775428772,3.1716995239257812,0.15707004070281982
0.6550765633583069,3.199289321899414,0.1589229702949524
0.642252504825592,3.2535738945007324,0.16200123727321625
0.6206015944480896,3.265686511993408,0.1629815697669983
0.5974401831626892,3.269973039627075,0.16357991099357605
0.5785792469978333,3.297102212905884,0.1653270572423935
0.5578169226646423,3.316474437713623,0.16670233011245728
0.5377049446105957,3.3395273685455322,0.16821281611919403
0.5152920484542847,3.3509299755096436,0.1690736711025238
0.49277767539024353,3.3621771335601807,0.16993604600429535
0.47231751680374146,3.3887240886688232,0.17158250510692596
0.45338520407676697,3.4306414127349854,0.1740235835313797
0.43383917212486267,3.468531608581543,0.17627006769180298
0.4148883819580078,3.517974615097046,0.17900356650352478
0.3918248116970062,3.5363011360168457,0.1801486313343048
0.370499849319458,3.5738818645477295,0.18228696286678314
0.3470028340816498,3.5918993949890137,0.18343770503997803
0.3243410885334015,3.625333309173584,0.18539094924926758
0.2997267246246338,3.635263681411743,0.18611326813697815
0.27749505639076233,3.680053234100342,0.18851831555366516
0.2543846070766449,3.720815658569336,0.19072884321212769
0.23238879442214966,3.788688898086548,0.19434210658073425
0.20678573846817017,3.8136024475097656,0.1957663595676422
0.18096977472305298,3.8305251598358154,0.19678886234760284
0.15565817058086395,3.8667690753936768,0.1987272948026657
0.1294167935848236,3.8911523818969727,0.1999967098236084
0.10335439443588257,3.9348556995391846,0.20226925611495972
0.07707248628139496,4.021294593811035,0.20675025880336761
0.04946982488036156,4.04903507232666,0.20822373032569885
0.02146489918231964,4.072683811187744,0.20949748158454895
-0.006859308574348688,4.111748695373535,0.21144209802150726
-0.03559958189725876,4.131111145019531,0.21235698461532593
-0.06596391648054123,4.204873085021973,0.21607567369937897
-0.09677116572856903,4.274519443511963,0.2195923924446106
-0.12624157965183258,4.265949726104736,0.21910059452056885
-0.1561586856842041,4.272771835327148,0.21939338743686676
-0.18541835248470306,4.263805866241455,0.218735933303833
-0.21868743002414703,4.336460113525391,0.22227326035499573
-0.2530953884124756,4.4010329246521,0.2253977507352829
-0.2904461920261383,4.504294395446777,0.2305106669664383
-0.3240055441856384,4.533308506011963,0.23182953894138336
-0.3588162660598755,4.573749542236328,0.2336753010749817
-0.39368677139282227,4.610058784484863,0.23520539700984955
-0.43079715967178345,4.657697677612305,0.23731227219104767
-0.47566717863082886,4.782747268676758,0.24336913228034973
-0.5143123269081116,4.829776763916016,0.245453342795372
-0.6222891211509705,5.4812140464782715,0.2782224118709564
-0.6531548500061035,5.418718338012695,0.27458855509757996
-0.692142903804779,5.421781063079834,0.2742167115211487
-0.7263495326042175,5.393723487854004,0.2722950279712677
-0.7569712400436401,5.342268943786621,0.2692107558250427
-0.7934929132461548,5.333060264587402,0.26826944947242737
-0.8293113112449646,5.319748401641846,0.26713138818740845
-0.8588197231292725,5.267682075500488,0.2638561725616455
-0.8922718167304993,5.246336460113525,0.26215091347694397
-0.9111812710762024,5.144103050231934,0.25642940402030945
-0.9290738105773926,5.041797161102295,0.25073331594467163
-0.9670154452323914,5.050593852996826,0.2505815625190735
-0.9904186725616455,4.986451148986816,0.24674881994724274
-1.0297696590423584,5.002431392669678,0.2467777132987976
-1.063894510269165,4.9953389167785645,0.24569004774093628
-1.0963873863220215,4.980371475219727,0.2442256063222885
-1.1188600063323975,4.91942024230957,0.24051572382450104
-1.169027328491211,4.979964733123779,0.2427564263343811
-1.176918387413025,4.861819744110107,0.23612640798091888
-1.2316789627075195,4.940840721130371,0.23908939957618713
-1.2206249237060547,4.758555889129639,0.22943496704101562
-1.2325530052185059,4.670841217041016,0.22438190877437592
-1.2649561166763306,4.662229061126709,0.22314918041229248
-1.2974289655685425,4.653360843658447,0.22181770205497742
-1.3268011808395386,4.637020111083984,0.22008304297924042
-1.3559693098068237,4.620506763458252,0.21835464239120483
-1.3830182552337646,4.596250057220459,0.21626614034175873
-1.1238985061645508,3.6431691646575928,0.17066651582717896
-1.1470915079116821,3.627803087234497,0.16915887594223022
-1.1787830591201782,3.6423044204711914,0.16897743940353394
-1.4989899396896362,4.5271477699279785,0.20896698534488678
-1.5271557569503784,4.509555339813232,0.20709876716136932
-1.605723261833191,4.63534688949585,0.21176829934120178
-1.6273694038391113,4.594757080078125,0.2088061273097992
-1.6414964199066162,4.535890102386475,0.20488636195659637
-1.653007984161377,4.473580360412598,0.20086908340454102
-1.6680020093917847,4.4222331047058105,0.19737321138381958
-1.6987770795822144,4.410580635070801,0.1956300437450409
-1.7150169610977173,4.362458229064941,0.19227448105812073
-1.7505956888198853,4.36521053314209,0.19103369116783142
-1.7739020586013794,4.339010238647461,0.1885605901479721
-1.7942159175872803,4.305369853973389,0.18577085435390472
-1.819506049156189,4.282104969024658,0.18341223895549774
-1.848828911781311,4.269608020782471,0.1814916580915451
-1.8714332580566406,4.2427754402160645,0.17887219786643982
-1.8964595794677734,4.223174571990967,0.1765989363193512
-1.9186890125274658,4.196043014526367,0.17399372160434723
-1.9478517770767212,4.182670593261719,0.17193999886512756
-1.9759610891342163,4.16955041885376,0.16984350979328156
-2.0040364265441895,4.156217098236084,0.1676909327507019
-2.0247111320495605,4.128884792327881,0.16501155495643616
-2.056954860687256,4.12173318862915,0.16306862235069275
-2.0852246284484863,4.1075921058654785,0.16082532703876495
-2.108768939971924,4.086860656738281,0.15825088322162628
-2.1121864318847656,4.027963638305664,0.15422801673412323
-2.121896743774414,3.9787566661834717,0.15052099525928497
-2.1103219985961914,3.8919811248779297,0.14545071125030518
-2.120755195617676,3.8507747650146484,0.14206679165363312
-2.140267848968506,3.8266358375549316,0.1393366903066635
-2.1624269485473633,3.805267095565796,0.1366523802280426
-2.185192823410034,3.7833144664764404,0.13388223946094513
-2.209756851196289,3.769108533859253,0.1313665509223938
-2.226241111755371,3.7413198947906494,0.12839022278785706
-2.2640292644500732,3.746066093444824,0.12641729414463043
-2.2894039154052734,3.7307028770446777,0.1237129345536232
-2.3138883113861084,3.715657949447632,0.1209421157836914
-2.3424232006073,3.707066059112549,0.11838454753160477
-2.3724095821380615,3.6973235607147217,0.11564941704273224
-2.398501396179199,3.6852028369903564,0.11280183494091034
-2.422093391418457,3.6698296070098877,0.10985070466995239
-2.45638108253479,3.665881872177124,0.10701385885477066
-2.4649746417999268,3.6271965503692627,0.10317575931549072
-2.4945168495178223,3.6212682723999023,0.10026812553405762
-2.0561020374298096,2.9416282176971436,0.0790257453918457
-2.0707600116729736,2.9218361377716064,0.07599462568759918
-2.0848593711853027,2.902255058288574,0.07292523980140686
-2.1188228130340576,2.9066803455352783,0.0702228844165802
-1.1090171337127686,1.5017517805099487,0.03480631485581398
-2.0750253200531006,2.909649133682251,-0.05702539160847664
-2.053603172302246,2.9247443675994873,-0.06019407510757446
-2.452974319458008,3.550834894180298,-0.07649699598550797
-2.4500794410705566,3.600098133087158,-0.080694280564785
-2.4312984943389893,3.6315431594848633,-0.08450944721698761
-2.404632329940796,3.649174690246582,-0.08790235221385956
-2.3781497478485107,3.6664083003997803,-0.09118401259183884
-2.354748010635376,3.690668821334839,-0.09458328783512115
-2.3239171504974365,3.700859308242798,-0.09751654416322708
-2.297429084777832,3.717280626296997,-0.10051678121089935
-2.273634910583496,3.7409427165985107,-0.10368631780147552
-2.2460007667541504,3.757516622543335,-0.10663430392742157
-2.2195510864257812,3.773120641708374,-0.10941877216100693
-2.1954398155212402,3.796144485473633,-0.1123843863606453
-2.1713438034057617,3.818883180618286,-0.11533670127391815
-2.1447365283966064,3.833810329437256,-0.11794081330299377
-2.112701416015625,3.8425652980804443,-0.12034953385591507
-2.0881104469299316,3.8647818565368652,-0.12313242256641388
-2.0624122619628906,3.8828983306884766,-0.12572826445102692
-2.035216808319092,3.8971426486968994,-0.12815754115581512
-2.013829231262207,3.925719738006592,-0.13100427389144897
-1.988132357597351,3.9474596977233887,-0.13367222249507904
-1.9603888988494873,3.9612326622009277,-0.13597354292869568
-1.9391587972640991,3.9889626502990723,-0.13873471319675446
-1.9066879749298096,3.995856523513794,-0.14072184264659882
-1.8907760381698608,4.037846565246582,-0.14396168291568756
-1.862587809562683,4.050848960876465,-0.14611169695854187
-1.8367464542388916,4.0711212158203125,-0.14853057265281677
-1.8151698112487793,4.102066516876221,-0.15125979483127594
-1.7885793447494507,4.122165203094482,-0.15360671281814575
-1.7596580982208252,4.134518623352051,-0.1556260585784912
-1.739725947380066,4.168262481689453,-0.15844158828258514
-1.7061235904693604,4.173620700836182,-0.16012173891067505
-1.6789189577102661,4.1929755210876465,-0.16231948137283325
-1.6521387100219727,4.211915016174316,-0.16448482871055603
-1.619996428489685,4.215945720672607,-0.166055828332901
-1.5953683853149414,4.241942882537842,-0.16841398179531097
-1.5643537044525146,4.253406524658203,-0.17021244764328003
-1.5340003967285156,4.264377117156982,-0.17196790874004364
-1.5042815208435059,4.274881362915039,-0.17368236184120178
-1.4716960191726685,4.277885913848877,-0.17505080997943878
-1.4485474824905396,4.310428142547607,-0.17756113409996033
-1.1860514879226685,3.6161000728607178,-0.14996807277202606
-1.1463083028793335,3.5796895027160645,-0.14942710101604462
-1.1259981393814087,3.6024363040924072,-0.15134581923484802
-1.3302735090255737,4.364450454711914,-0.18442705273628235
-1.3024040460586548,4.385002613067627,-0.18634222447872162
-1.275429606437683,4.409117698669434,-0.1884232461452484
-1.2442402839660645,4.417958736419678,-0.18985478579998016
-1.2175883054733276,4.441507816314697,-0.19190283119678497
-1.1881022453308105,4.457509517669678,-0.1934966742992401
-1.1603690385818481,4.480881690979004,-0.195425882935524
-1.1287105083465576,4.488905906677246,-0.19669416546821594
-1.102392315864563,4.519491195678711,-0.19897006452083588
-1.0545783042907715,4.458678245544434,-0.19716641306877136
-1.0281890630722046,4.488814830780029,-0.1992707997560501
-0.9963590502738953,4.495937824249268,-0.2003675103187561
-0.9679446816444397,4.518057823181152,-0.2021404355764389
-0.937490701675415,4.53239631652832,-0.20358416438102722
-0.9103636741638184,4.561755657196045,-0.20564104616641998
-0.881794810295105,4.587193489074707,-0.20742514729499817
-0.8507829308509827,4.6009416580200195,-0.20869478583335876
-0.8280147314071655,4.660550594329834,-0.2120596021413803
-0.7983035445213318,4.685482501983643,-0.21387256681919098
-0.7668328881263733,4.698605060577393,-0.21508345007896423
-0.7337746024131775,4.7038469314575195,-0.2158336341381073
-0.7018292546272278,4.716574668884277,-0.21693885326385498
-0.6698670983314514,4.729068279266357,-0.21804367005825043
-0.6384251117706299,4.749129772186279,-0.21951702237129211
-0.6072745323181152,4.768916606903076,-0.22092384099960327
-0.5747016668319702,4.78078556060791,-0.2218518853187561
-0.5428690314292908,4.800186634063721,-0.22314226627349854
-0.5059852600097656,4.772797584533691,-0.22226572036743164
-0.4678019881248474,4.725693225860596,-0.22047238051891327
-0.4239563047885895,4.616180419921875,-0.21573279798030853
-0.38703104853630066,4.564584255218506,-0.2135453224182129
-0.35175615549087524,4.524371147155762,-0.21189600229263306
-0.3149014413356781,4.452749252319336,-0.20877955853939056
-0.2799677550792694,4.392509460449219,-0.2061983346939087
-0.24647606909275055,4.351511001586914,-0.20451848208904266
-0.1129862368106842,2.2759358882904053,-0.10701094567775726
-0.09710218757390976,2.276665210723877,-0.1070936992764473
-0.08246506005525589,2.312378168106079,-0.10882814228534698
-0.0653827041387558,2.2777888774871826,-0.1072588786482811
-0.08962608128786087,4.146775722503662,-0.1953861564397812
-0.06020897999405861,4.112185955047607,-0.1937464475631714
-0.0314825214445591,4.104701995849609,-0.19337506592273712
-0.002841509645804763,4.065802574157715,-0.19153323769569397
0.025194883346557617,4.034509658813477,-0.190059095621109
0.052837010473012924,3.9679040908813477,-0.18693067133426666
0.0790577158331871,3.901127815246582,-0.18368975818157196
0.10526411235332489,3.8692896366119385,-0.18205460906028748
0.13156534731388092,3.8528754711151123,-0.1811555176973343
0.15755319595336914,3.8323817253112793,-0.18007417023181915
0.1827002614736557,3.8000216484069824,-0.17844542860984802
0.20694494247436523,3.7518959045410156,-0.17601065337657928
0.22934624552726746,3.691967010498047,-0.17296040058135986
0.2522377669811249,3.6513760089874268,-0.17083090543746948
0.27608996629714966,3.630098342895508,-0.16961653530597687
0.30001455545425415,3.6125519275665283,-0.16858647763729095
0.3233831822872162,3.5870447158813477,-0.16714893281459808
0.3447534143924713,3.5497922897338867,-0.16508306562900543
0.36764463782310486,3.5318222045898438,-0.16392648220062256
0.38775065541267395,3.4904329776763916,-0.1616951823234558
0.4092569649219513,3.4644222259521484,-0.16018794476985931
0.4303395450115204,3.4343605041503906,-0.15848255157470703
0.44786810874938965,3.384915351867676,-0.15579754114151
0.46904364228248596,3.366312026977539,-0.1545468419790268
0.4900137186050415,3.3475735187530518,-0.1533004194498062
0.5103036165237427,3.324826955795288,-0.15187929570674896
0.5338045954704285,3.321160078048706,-0.15133064985275269
0.5527411103248596,3.294351816177368,-0.14962637424468994
0.5740230679512024,3.2828166484832764,-0.1486273556947708
0.5938042998313904,3.2634613513946533,-0.14728400111198425
0.6121812462806702,3.236266613006592,-0.14559349417686462
0.6264479756355286,3.189828395843506,-0.1430535465478897
0.6425338983535767,3.154806137084961,-0.14093002676963806
0.658564031124115,3.1236190795898438,-0.13899601995944977
0.6766901016235352,3.103799819946289,-0.1375816911458969
0.6965314149856567,3.091439962387085,-0.1365024745464325
0.7144917845726013,3.0713460445404053,-0.13509158790111542
0.7322502732276917,3.0511457920074463,-0.1335834413766861
0.7512446641921997,3.0385210514068604,-0.13242028653621674
0.7681494951248169,3.018221378326416,-0.13093414902687073
0.7881368398666382,3.009066104888916,-0.1299309879541397
0.80498868227005,2.9884729385375977,-0.12844400107860565
0.8257080912590027,2.9828548431396484,-0.12750637531280518
0.8396050333976746,2.95467472076416,-0.1256261020898819
0.8488357663154602,2.9114415645599365,-0.12312372028827667
0.8713462352752686,2.9129719734191895,-0.12251324951648712
0.8698018789291382,2.8359923362731934,-0.11861059069633484
0.8718740344047546,2.7740862369537354,-0.11528365314006805
0.8787763714790344,2.7309725284576416,-0.11278071254491806
0.9023368954658508,2.7397615909576416,-0.11242800951004028
0.9163990616798401,2.718658924102783,-0.11084213107824326
0.942725419998169,2.734468460083008,-0.11073663830757141
0.9586488008499146,2.720693588256836,-0.10938660055398941
0.9800207614898682,2.7214105129241943,-0.10861128568649292
1.0014479160308838,2.721961259841919,-0.10783016681671143
1.014884352684021,2.7003486156463623,-0.10617005079984665
1.0304479598999023,2.686131477355957,-0.10476453602313995
1.0457243919372559,2.6718828678131104,-0.10335105657577515
1.0583089590072632,2.650160789489746,-0.10164372622966766
1.07377290725708,2.6355485916137695,-0.10021232813596725
1.0874391794204712,2.6173055171966553,-0.09863927215337753
1.1050132513046265,2.6099796295166016,-0.09744077920913696
1.1194450855255127,2.595365524291992,-0.09597714245319366
1.1281013488769531,2.5660927295684814,-0.09395164996385574
1.142711877822876,2.5511112213134766,-0.09246852248907089
1.1500970125198364,2.5221123695373535,-0.09044674038887024
1.1570805311203003,2.493159294128418,-0.08843935281038284
1.1589206457138062,2.453542947769165,-0.08606704324483871
1.176256775856018,2.445324420928955,-0.08476857841014862
1.1859183311462402,2.4233224391937256,-0.08299272507429123
1.1985546350479126,2.4084224700927734,-0.0814601331949234
1.2147190570831299,2.4003541469573975,-0.08015570789575577
1.227814793586731,2.384946823120117,-0.07857707142829895
1.2366936206817627,2.3627848625183105,-0.07676518708467484
1.2526302337646484,2.3544201850891113,-0.07537619024515152
1.2628459930419922,2.3356919288635254,-0.07367026805877686
1.2752649784088135,2.320071220397949,-0.0720372125506401
1.2945483922958374,2.318359851837158,-0.0708199292421341
1.3020743131637573,2.296245813369751,-0.06897897273302078
1.3139426708221436,2.280510425567627,-0.0672902762889862
1.3297590017318726,2.2713685035705566,-0.06578655540943146
1.3366361856460571,2.249220132827759,-0.06389619410037994
1.355381727218628,2.2471423149108887,-0.06258249282836914
1.36273193359375,2.224437713623047,-0.06063161417841911
1.3737224340438843,2.2085180282592773,-0.05883786082267761
1.392195224761963,2.2062034606933594,-0.057422541081905365
1.402860403060913,2.1902096271514893,-0.05559777840971947
1.404965877532959,2.161005735397339,-0.05341328680515289
1.4231643676757812,2.158468008041382,-0.05189160630106926
1.4377541542053223,2.1488189697265625,-0.050121936947107315
1.4479613304138184,2.132561206817627,-0.048161979764699936
1.457105040550232,2.1168880462646484,-0.046218957751989365
1.4644969701766968,2.0975468158721924,-0.04413582384586334
1.4558939933776855,2.0558900833129883,-0.041551440954208374
1.4508253335952759,2.021167516708374,-0.039131805300712585
1.4692682027816772,2.0175111293792725,-0.03720884397625923
1.468037724494934,1.9893921613693237,-0.03482433781027794
1.4773459434509277,2.0885064601898193,0.04463823884725571
1.4684951305389404,2.1089890003204346,0.046829767525196075
1.4566999673843384,2.1265835762023926,0.04894373193383217
1.4459574222564697,2.1432888507843018,0.050920769572257996
1.4338691234588623,2.1607320308685303,0.05287524685263634
1.4220576286315918,2.1778149604797363,0.05478900298476219
1.4109206199645996,2.1942965984344482,0.056606490164995193
1.390066146850586,2.1982882022857666,0.058078184723854065
1.3817458152770996,2.221900463104248,0.06006418168544769
1.37441885471344,2.2447354793548584,0.06194574013352394
1.353590965270996,2.2482028007507324,0.06325765699148178
1.3486498594284058,2.278397798538208,0.06533052027225494
1.328783392906189,2.2809665203094482,0.06653899699449539
1.315873622894287,2.2974014282226562,0.06815142929553986
1.3025779724121094,2.3138911724090576,0.06973933428525925
1.2876825332641602,2.326636552810669,0.07119358330965042
1.2751431465148926,2.3423876762390137,0.07270979881286621
1.265223741531372,2.365448236465454,0.07442358881235123
1.2509984970092773,2.3817853927612305,0.07594909518957138
1.234013319015503,2.390589952468872,0.07718569040298462
1.2244222164154053,2.4130046367645264,0.07884921878576279
1.210192084312439,2.4288623332977295,0.08024904131889343
1.195773959159851,2.4446499347686768,0.08165664970874786
1.1848069429397583,2.4672815799713135,0.08329309523105621
1.1759244203567505,2.493091344833374,0.08501864969730377
1.1708972454071045,2.5298783779144287,0.08709630370140076
1.1653064489364624,2.5667622089385986,0.08919311314821243
1.1499923467636108,2.582171678543091,0.09054743498563766
1.1366668939590454,2.6008145809173584,0.09199952334165573
1.1208479404449463,2.6161301136016846,0.09332026541233063
1.1048307418823242,2.631368637084961,0.09460058063268661
1.0856809616088867,2.6392908096313477,0.09562486410140991
1.0730451345443726,2.661262273788452,0.09713882207870483
1.0602421760559082,2.6831507682800293,0.09865892678499222
1.0405182838439941,2.690826416015625,0.09960418194532394
1.0238099098205566,2.705543041229248,0.10080536454916
1.0098146200180054,2.7274203300476074,0.10227850079536438
0.9961381554603577,2.74902606010437,0.1037341058254242
0.9690244793891907,2.7338287830352783,0.10378385335206985
0.946422278881073,2.733442544937134,0.10434810817241669
0.9267608523368835,2.7401392459869385,0.10517561435699463
0.9096923470497131,2.754044771194458,0.10628116130828857
0.8856925964355469,2.7454233169555664,0.10650917887687683
0.8757259845733643,2.781345844268799,0.1084437221288681
0.8817442655563354,2.8734638690948486,0.11254999041557312
0.8778899312019348,2.935781717300415,0.11551129817962646
0.8613924980163574,2.9569008350372314,0.11686480790376663
0.8450405597686768,2.9778189659118652,0.11821149289608002
0.8282803297042847,2.998696804046631,0.11954085528850555
0.8068183660507202,3.0045154094696045,0.12021651118993759
0.7898791432380676,3.0291590690612793,0.12166198343038559
0.7702844142913818,3.042227268218994,0.12264169007539749
0.7528013586997986,3.0626537799835205,0.12391915917396545
0.7332412004470825,3.075394630432129,0.12488403171300888
0.7148523330688477,3.0957233905792236,0.12607620656490326
0.6975310444831848,3.1236486434936523,0.1275951862335205
0.6777873635292053,3.1399483680725098,0.12864303588867188
0.6622774600982666,3.1751363277435303,0.13046856224536896
0.6463401317596436,3.2102527618408203,0.1323043555021286
0.6318646669387817,3.25685715675354,0.13454879820346832
0.6098206639289856,3.268976926803589,0.13536301255226135
0.5893890261650085,3.2885642051696777,0.13649049401283264
0.5689637064933777,3.3079817295074463,0.13761723041534424
0.548486053943634,3.3272414207458496,0.13874448835849762
0.5270152688026428,3.3425452709198,0.13968057930469513
0.505301296710968,3.361668109893799,0.1407221555709839
0.4837990701198578,3.380584716796875,0.14175984263420105
0.46310654282569885,3.4070992469787598,0.1431259959936142
0.4443589448928833,3.4489333629608154,0.14514422416687012
0.42744380235671997,3.5100364685058594,0.14798744022846222
0.4045591950416565,3.5284483432769775,0.14895129203796387
0.3801417648792267,3.5390005111694336,0.14957591891288757
0.3587736189365387,3.576521635055542,0.1513468325138092
0.33595138788223267,3.6022441387176514,0.15262791514396667
0.31289398670196533,3.627811908721924,0.1539115458726883
0.28883734345436096,3.6454548835754395,0.15483587980270386
0.265942245721817,3.690232753753662,0.15681950747966766
0.24492964148521423,3.7659919261932373,0.16012872755527496
0.21989387273788452,3.790985345840454,0.1612897366285324
0.19470834732055664,3.8158023357391357,0.16245165467262268
0.1697033941745758,3.8521478176116943,0.16411392390727997
0.14321494102478027,3.8766517639160156,0.16520629823207855
0.11685337871313095,3.900960922241211,0.16624800860881805
0.09114524722099304,3.968008279800415,0.1691194623708725
0.06454676389694214,4.03488302230835,0.17199237644672394
0.03667318448424339,4.058647155761719,0.17303653061389923
0.007991308346390724,4.105636119842529,0.17508061230182648
-0.020624803379178047,4.113400459289551,0.17533887922763824
-0.04958232119679451,4.140477657318115,0.17642106115818024
-0.07976270467042923,4.214175224304199,0.17949669063091278
-0.11050731688737869,4.26814079284668,0.18173865973949432
-0.14017035067081451,4.267273426055908,0.1816539168357849
-0.16999776661396027,4.258382797241211,0.1811995506286621
-0.20150460302829742,4.299995422363281,0.1827983260154724
-0.23464451730251312,4.360859394073486,0.1852201670408249
-0.2698206603527069,4.440945625305176,0.1884620636701584
-0.30515190958976746,4.50516939163208,0.1910342127084732
-0.3411014974117279,4.557394027709961,0.19310015439987183
-0.3755381107330322,4.589942932128906,0.1942540556192398
-0.4137992560863495,4.6611175537109375,0.1969822645187378
-0.45375901460647583,4.739754676818848,0.20002633333206177
-0.4905308485031128,4.77534294128418,0.20125538110733032
-0.5989063382148743,5.450680255889893,0.22940972447395325
-0.6372728943824768,5.450276851654053,0.22910109162330627
-0.6714550256729126,5.418670177459717,0.2273247092962265
-0.7066718339920044,5.398472785949707,0.22602912783622742
-0.743827760219574,5.393506050109863,0.22538259625434875
-0.7795444130897522,5.3727126121521,0.22407710552215576
-0.8180087804794312,5.374913692474365,0.22374820709228516
-0.8490081429481506,5.330615520477295,0.22144415974617004
-0.8560419082641602,5.147604465484619,0.21329987049102783
-0.8926079869270325,5.1493449211120605,0.21283896267414093
-0.9216157793998718,5.108573913574219,0.21063363552093506
-0.9577041268348694,5.101964473724365,0.20983397960662842
-0.9983377456665039,5.122040748596191,0.2101486474275589
-1.023317575454712,5.065390110015869,0.20721393823623657
-1.0482841730117798,5.012478351593018,0.20442000031471252
-1.0841273069381714,5.012872695922852,0.2038143426179886
-1.119217872619629,5.00519323348999,0.20287303626537323
-1.1513370275497437,4.9859232902526855,0.2014782577753067
-1.1522608995437622,4.837406635284424,0.19484136998653412
-1.1981618404388428,4.882571220397949,0.19592222571372986
-1.2217408418655396,4.836517333984375,0.19335046410560608
-1.2199186086654663,4.691965103149414,0.18686076998710632
-1.2485055923461914,4.668320655822754,0.18521636724472046
-1.278849482536316,4.652045249938965,0.1838775873184204
-1.3083173036575317,4.635778427124023,0.18241892755031586
-1.3418933153152466,4.634345054626465,0.18154804408550262
-1.367200493812561,4.602560997009277,0.1794842779636383
-1.1135120391845703,3.6557624340057373,0.1419154554605484
-1.1295278072357178,3.618180274963379,0.13981866836547852
-1.1588644981384277,3.625325918197632,0.13939273357391357
-1.4781749248504639,4.519059658050537,0.17285531759262085
-1.5141021013259888,4.52366828918457,0.17211711406707764
-1.545222520828247,4.513183116912842,0.17080624401569366
-1.5714242458343506,4.487635135650635,0.16892726719379425
-1.6006650924682617,4.473194599151611,0.1674056053161621
-1.6307414770126343,4.462371349334717,0.16598358750343323
-1.6607444286346436,4.451344966888428,0.16456155478954315
-1.6695940494537354,4.3813066482543945,0.16094006597995758
-1.7028796672821045,4.376909255981445,0.159754678606987
-1.7296757698059082,4.3580451011657715,0.1579800248146057
-1.752981185913086,4.331936836242676,0.1559244692325592
-1.782004475593567,4.320133686065674,0.15439322590827942
