X,Y,Z
-1.96234130859375,3.8315470218658447,0.8436618447303772
-1.9818813800811768,3.806011199951172,0.8323975205421448
-1.9858484268188477,3.7537918090820312,0.8150590062141418
-2.014596700668335,3.7489800453186035,0.808111846446991
-2.017132043838501,3.6927502155303955,0.7898575663566589
-1.7138113975524902,3.0856361389160156,0.6547361612319946
-1.7351094484329224,3.075314521789551,0.6471584439277649
-0.836713433265686,1.4609391689300537,0.30475354194641113
-0.8542109131813049,1.4693701267242432,0.3037983179092407
-0.8686731457710266,1.4706391096115112,0.3011381924152374
-0.8714850544929504,1.451884388923645,0.2943584620952606
-0.8812359571456909,1.4468162059783936,0.29025423526763916
-0.8908522129058838,1.4417393207550049,0.28613296151161194
-0.8886587619781494,1.4167269468307495,0.2779475152492523
-0.8864510655403137,1.3916199207305908,0.26974937319755554
-0.904532790184021,1.3992124795913696,0.2677331566810608
-0.9053230881690979,1.3811367750167847,0.2608015537261963
-0.9063963294029236,1.362805962562561,0.2537119388580322
-0.9162771105766296,1.3570796251296997,0.24886777997016907
-2.4031782150268555,3.510004758834839,0.6334987282752991
-1.273930311203003,1.8354052305221558,0.32573986053466797
-1.2724485397338867,2.003591299057007,-0.2104562371969223
-1.2743456363677979,2.0382637977600098,-0.22185973823070526
-1.1312743425369263,1.8687987327575684,-0.2172715961933136
-1.0998327732086182,1.846006155014038,-0.22114168107509613
-0.8455061912536621,1.4666898250579834,-0.18594349920749664
-0.86344313621521,1.5227748155593872,-0.1981813609600067
-0.9318656921386719,1.6705031394958496,-0.22288793325424194
-0.8878052234649658,1.6186811923980713,-0.22124305367469788
-0.8518099188804626,1.5800503492355347,-0.22107023000717163
-0.8148680925369263,1.5374650955200195,-0.2199506014585495
-0.7948621511459351,1.5253099203109741,-0.22289104759693146
-0.776549220085144,1.5165421962738037,-0.22621360421180725
-0.7585027813911438,1.5075441598892212,-0.22938880324363708
-0.7271144986152649,1.4705291986465454,-0.22806240618228912
-0.6976702213287354,1.4367913007736206,-0.22707566618919373
-0.6704806089401245,1.4062072038650513,-0.22627787292003632
-0.6455332636833191,1.3787790536880493,-0.22576181590557098
-0.6388713717460632,1.389644980430603,-0.23141399025917053
-0.6192527413368225,1.3723784685134888,-0.23230397701263428
0.06659427285194397,2.2050819396972656,-0.5807580947875977
0.6373400092124939,1.3737635612487793,-0.22649028897285461
0.6686109900474548,1.41532564163208,-0.22942359745502472
0.678686797618866,1.4112590551376343,-0.22484415769577026
0.708934485912323,1.4489076137542725,-0.22674678266048431
0.7278828024864197,1.4618867635726929,-0.22454380989074707
0.7628111839294434,1.5057463645935059,-0.2268962860107422
0.7894489169120789,1.5320407152175903,-0.22636915743350983
0.8108735680580139,1.5478719472885132,-0.2241189181804657
0.8362957835197449,1.5702788829803467,-0.22264444828033447
0.8641310930252075,1.5957212448120117,-0.22134101390838623
0.9166927337646484,1.6650432348251343,-0.22570060193538666
0.9528225064277649,1.7034822702407837,-0.2255845069885254
0.9801827669143677,1.7245217561721802,-0.22283706068992615
1.0216174125671387,1.7687307596206665,-0.22277793288230896
1.0593434572219849,1.8060212135314941,-0.22153541445732117
1.1177328824996948,1.8761627674102783,-0.2237938940525055
1.167343258857727,1.9288501739501953,-0.2233908474445343
1.2358224391937256,2.0109217166900635,-0.22587908804416656
1.288618564605713,2.0660288333892822,-0.22481201589107513
1.3301762342453003,2.100550889968872,-0.22090749442577362
1.366430640220642,2.1245017051696777,-0.2153533399105072
1.3850212097167969,2.122610569000244,-0.20719566941261292
1.391047716140747,2.1008713245391846,-0.196958988904953
1.3973051309585571,2.0788159370422363,-0.18653078377246857
1.7317525148391724,2.5401923656463623,-0.21765285730361938
1.8136258125305176,2.6220543384552,-0.21357521414756775
1.982306718826294,2.823854684829712,-0.217646986246109
1.9535996913909912,2.744865894317627,-0.19946248829364777
1.963099718093872,2.7198071479797363,-0.18517424166202545
1.4544174671173096,1.9860373735427856,-0.12562088668346405
1.476574182510376,1.9897123575210571,-0.11618172377347946
1.564821481704712,2.202265977859497,0.39600270986557007
1.7678520679473877,2.525296688079834,0.46307066082954407
1.560205101966858,2.263253927230835,0.42283913493156433
1.5201295614242554,2.242100954055786,0.42635950446128845
1.5074388980865479,2.258249282836914,0.43639183044433594
1.4951456785202026,2.273982286453247,0.44617587327957153
1.480960488319397,2.290743827819824,0.4559943377971649
1.4709994792938232,2.3137576580047607,0.46694526076316833
1.4501217603683472,2.3162765502929688,0.4732494652271271
1.4533321857452393,2.3580095767974854,0.48762041330337524
1.4806004762649536,2.443431854248047,0.510942280292511
1.4533060789108276,2.4402503967285156,0.5159683227539062
1.408421277999878,2.402796506881714,0.5131474137306213
1.3910069465637207,2.411430835723877,0.5200979709625244
1.3874306678771973,2.4473893642425537,0.5326356887817383
1.372084379196167,2.463329315185547,0.5408989191055298
2.8804759979248047,5.260267734527588,1.1648612022399902
2.8515982627868652,5.294776916503906,1.1820383071899414
2.8265695571899414,5.3399338722229,1.201305866241455
2.806724786758423,5.399326801300049,1.2234381437301636
2.7810964584350586,5.448343753814697,1.2433654069900513
2.765373468399048,5.513497829437256,1.266762614250183
2.737750768661499,5.554305076599121,1.2845841646194458
1.2208367586135864,2.5225751399993896,0.5869853496551514
1.1984211206436157,2.5236148834228516,0.59064120054245
1.1858316659927368,2.545196533203125,0.5991307497024536
1.1644734144210815,2.5454699993133545,0.6024637818336487
1.1616140604019165,2.5874781608581543,0.6157992482185364
2.5853021144866943,5.870439052581787,1.404224157333374
2.5578510761260986,5.925647258758545,1.4240580797195435
2.528223991394043,5.977210521697998,1.4431785345077515
2.4983062744140625,6.024447917938232,1.4611364603042603
2.4776320457458496,6.096315860748291,1.4852771759033203
2.4469144344329834,6.143113136291504,1.5033711194992065
2.41510009765625,6.194254398345947,1.521567702293396
2.386660575866699,6.255911350250244,1.542514681816101
2.3618197441101074,6.328005790710449,1.5661661624908447
2.3279073238372803,6.374687671661377,1.5835679769515991
2.295588970184326,6.424485683441162,1.6017764806747437
2.2633957862854004,6.477941036224365,1.620750904083252
2.235347270965576,6.549842357635498,1.643643856048584
2.200425148010254,6.603586673736572,1.6621348857879639
2.165644407272339,6.66084623336792,1.68170166015625
2.09684157371521,6.605081558227539,1.672559142112732
2.0390405654907227,6.581351280212402,1.671532392501831
1.9757850170135498,6.539173603057861,1.6655224561691284
1.921742558479309,6.529735565185547,1.6670019626617432
1.8595826625823975,6.490692138671875,1.6609677076339722
1.7985318899154663,6.454905986785889,1.6558440923690796
1.7452175617218018,6.436389446258545,1.6550034284591675
0.8417763113975525,3.1922340393066406,0.8227993249893188
0.8306171298027039,3.241272449493408,0.8374601006507874
1.578782081604004,6.349510192871094,1.6434556245803833
0.7895859479904175,3.277317523956299,0.8498417735099792
1.4724920988082886,6.30991268157959,1.6392674446105957
1.4188754558563232,6.278107643127441,1.6340330839157104
1.3612120151519775,6.223633766174316,1.6229088306427002
1.3113542795181274,6.202025413513184,1.6203933954238892
1.2635146379470825,6.195281028747559,1.6211862564086914
1.2111308574676514,6.162236213684082,1.6146613359451294
1.1642056703567505,6.154788494110107,1.6149072647094727
1.111041784286499,6.1097235679626465,1.605322241783142
1.0637688636779785,6.090210914611816,1.602467656135559
1.011743187904358,6.0443434715271,1.5927672386169434
0.9659067988395691,6.027828216552734,1.5908074378967285
0.9225792288780212,6.030014991760254,1.5927505493164062
0.8721113801002502,5.9832844734191895,1.5818419456481934
0.8254647850990295,5.958614349365234,1.5768247842788696
0.7813888788223267,5.952352046966553,1.5767593383789062
0.6290191411972046,5.0646843910217285,1.3430051803588867
0.5936638116836548,5.068310737609863,1.3454176187515259
0.559006929397583,5.079268455505371,1.3496005535125732
0.5282354950904846,5.131502628326416,1.3641397953033447
0.3918796479701996,4.089704513549805,1.0877723693847656
0.3668022155761719,4.140970230102539,1.1020622253417969
0.33736059069633484,4.135563373565674,1.1013095378875732
0.30857354402542114,4.137478351593018,1.1025587320327759
0.2790620028972626,4.127890586853027,1.100792407989502
0.2536799907684326,4.185998439788818,1.1168290376663208
0.4145466089248657,7.753178119659424,2.0688438415527344
0.35752686858177185,7.695285797119141,2.053776741027832
0.3036249279975891,7.697327136993408,2.0548038482666016
0.24824638664722443,7.642397880554199,2.040714979171753
0.19479812681674957,7.628575801849365,2.0376946926116943
0.1402622014284134,7.599302768707275,2.030656337738037
0.0870809406042099,7.566038131713867,2.0219297409057617
0.034433554857969284,7.574082851409912,2.0236685276031494
-0.018139241263270378,7.506282806396484,2.0052435398101807
-0.07027711719274521,7.502275466918945,2.003960609436035
-0.12270978093147278,7.463930606842041,1.9936017990112305
-0.17370447516441345,7.425240516662598,1.9832509756088257
-0.22505846619606018,7.412607192993164,1.9799551963806152
-0.27591490745544434,7.396041393280029,1.9749523401260376
-0.3278111517429352,7.4094390869140625,1.9774640798568726
-0.27533072233200073,5.37931489944458,1.4349501132965088
-0.31302255392074585,5.373770713806152,1.4328246116638184
-0.3488384187221527,5.349160671234131,1.4256978034973145
-0.38493576645851135,5.331837177276611,1.4205846786499023
-0.4195530414581299,5.299219608306885,1.41146981716156
-0.44997408986091614,5.225159168243408,1.3908036947250366
-0.42880454659461975,4.602032661437988,1.223836064338684
-0.45896267890930176,4.584399223327637,1.2181215286254883
-0.48855090141296387,4.56280517578125,1.2114181518554688
-0.5177611112594604,4.537231922149658,1.203715205192566
-0.5493107438087463,4.5339765548706055,1.2019975185394287
-0.5804749727249146,4.522938251495361,1.1982614994049072
-0.6076093316078186,4.489473342895508,1.1880625486373901
-0.6416009664535522,4.508292198181152,1.1915500164031982
-0.6692346334457397,4.481996536254883,1.183166742324829
-0.6965895891189575,4.455519676208496,1.174803376197815
-0.7263323068618774,4.439938545227051,1.1693414449691772
-0.7559499740600586,4.427968978881836,1.1649181842803955
-0.7841635346412659,4.40834379196167,1.1585417985916138
-0.811562716960907,4.388811111450195,1.1515393257141113
-0.8386889100074768,4.369123935699463,1.144505500793457
-0.7245621681213379,3.6404612064361572,0.9521114826202393
-0.7486246824264526,3.6285641193389893,0.947488009929657
-0.9225456714630127,4.319862365722656,1.1262651681900024
-0.9543049335479736,4.321539402008057,1.1250178813934326
-0.9826528429985046,4.308282852172852,1.1197640895843506
-1.0102550983428955,4.2951130867004395,1.1140005588531494
-1.0418277978897095,4.2963762283325195,1.1119905710220337
-1.0674225091934204,4.275465965270996,1.1043397188186646
-1.093503713607788,4.25423526763916,1.09661865234375
-1.1213741302490234,4.240146636962891,1.0907968282699585
-1.149051547050476,4.225881576538086,1.0849939584732056
-1.1786009073257446,4.218873977661133,1.0805596113204956
-1.2072697877883911,4.211925506591797,1.076006293296814
-1.2316631078720093,4.19020414352417,1.067733645439148
-1.2583272457122803,4.175518035888672,1.0612874031066895
-1.285396695137024,4.1605072021484375,1.0547679662704468
-1.315065860748291,4.152427673339844,1.0500212907791138
-1.3427252769470215,4.140806198120117,1.0442354679107666
-1.3659803867340088,4.11851167678833,1.0353360176086426
-1.3963605165481567,4.117661476135254,1.031875491142273
-1.4119794368743896,4.073441982269287,1.0176020860671997
-1.443162202835083,4.07192325592041,1.013967752456665
-1.4723198413848877,4.062848091125488,1.0084384679794312
-1.4954195022583008,4.039547443389893,0.9993779063224792
-1.5200645923614502,4.023680210113525,0.9916395545005798
-1.5472575426101685,4.014771461486816,0.9856740832328796
-1.571773648262024,3.998525381088257,0.9779365658760071
-1.6089990139007568,4.009883403778076,0.9767757654190063
-1.6315722465515137,3.9858076572418213,0.9670875668525696
-1.6564451456069946,3.968817710876465,0.9590182900428772
-1.6862177848815918,3.966179847717285,0.9539580941200256
-1.7038594484329224,3.935321807861328,0.9421756267547607
-1.7298154830932617,3.921475648880005,0.9343801736831665
-1.7623380422592163,3.9212121963500977,0.9297904968261719
-1.7790781259536743,3.8859403133392334,0.91695636510849
-1.8025685548782349,3.8684000968933105,0.9079923033714294
-1.8319112062454224,3.8648135662078857,0.9020967483520508
-1.8617480993270874,3.860806941986084,0.8960362672805786
-1.889029860496521,3.8493645191192627,0.888131856918335
-1.9130308628082275,3.8307766914367676,0.8785915970802307
-1.9433341026306152,3.8259294033050537,0.8720871806144714
-1.9654896259307861,3.8078887462615967,0.862144410610199
-1.9839234352111816,3.782916784286499,0.8507024049758911
-2.0072591304779053,3.7638933658599854,0.8403158187866211
-2.0159902572631836,3.7176504135131836,0.8239161968231201
-1.705295443534851,3.093867063522339,0.6805040240287781
-1.7260669469833374,3.084017753601074,0.6727991104125977
-0.8269201517105103,1.4552338123321533,0.31485307216644287
-0.845041036605835,1.4633979797363281,0.31380563974380493
-0.8594157695770264,1.4647616147994995,0.3112810254096985
-0.865580141544342,1.4530351161956787,0.3058788776397705
-0.86727374792099,1.434929609298706,0.29907873272895813
-0.8890464901924133,1.449547290802002,0.29904332756996155
-0.8711997270584106,1.3981549739837646,0.2852015197277069
-0.8894320130348206,1.4057691097259521,0.2835139334201813
-0.8987681865692139,1.4007116556167603,0.27906838059425354
-0.8954572677612305,1.3761990070343018,0.2708067297935486
-0.9011881351470947,1.3641568422317505,0.26476362347602844
-0.9455433487892151,1.4097201824188232,0.2697007358074188
-2.3827641010284424,3.504610061645508,0.6604554057121277
-1.3974356651306152,1.9974921941757202,0.3642154335975647
-1.2778247594833374,2.0274510383605957,-0.21597515046596527
-1.2870413064956665,2.07578182220459,-0.22907856106758118
-1.1623601913452148,1.9050216674804688,-0.2172917276620865
-1.110472559928894,1.849209189414978,-0.217634379863739
-0.8351395726203918,1.4372113943099976,-0.17925147712230682
-0.8479376435279846,1.4829124212265015,-0.18993115425109863
-0.9455591440200806,1.6811217069625854,-0.22091954946517944
-0.9121479988098145,1.6500283479690552,-0.22239086031913757
-0.8705472350120544,1.6012494564056396,-0.22094012796878815
-0.8316610455513,1.5553491115570068,-0.2194989025592804
-0.7787439227104187,1.4817355871200562,-0.21371464431285858
-0.7784875631332397,1.507301688194275,-0.22204898297786713
-0.7639631628990173,1.5052472352981567,-0.22633087635040283
-0.7288902997970581,1.4614536762237549,-0.22409480810165405
-0.7130039930343628,1.4555860757827759,-0.22747081518173218
-0.6889842748641968,1.4320871829986572,-0.2279409021139145
-0.6556227803230286,1.387290596961975,-0.22473624348640442
-0.637486457824707,1.373714566230774,-0.2263759970664978
-0.6176860332489014,1.3565653562545776,-0.22736068069934845
-0.6078901886940002,1.3602534532546997,-0.23168660700321198
0.635695219039917,1.3827682733535767,-0.2292529195547104
0.6488433480262756,1.3859072923660278,-0.22602111101150513
0.6737085580825806,1.4133720397949219,-0.22653734683990479
0.6970909237861633,1.4371836185455322,-0.22637079656124115
0.7295858860015869,1.4780197143554688,-0.228617861866951
0.7609743475914001,1.5150283575057983,-0.23003029823303223
0.7715176939964294,1.5104492902755737,-0.2249688357114792
0.8052305579185486,1.5504791736602783,-0.22643154859542847
0.8346072435379028,1.5796279907226562,-0.22587507963180542
0.8696652054786682,1.6188316345214844,-0.22660616040229797
0.9031645059585571,1.654397964477539,-0.22655357420444489
0.9429660439491272,1.6997134685516357,-0.22750890254974365
0.9665370583534241,1.7140272855758667,-0.22399252653121948
1.023132085800171,1.7853933572769165,-0.22751902043819427
1.060793399810791,1.8227689266204834,-0.2264275848865509
1.1112265586853027,1.8796091079711914,-0.22724945843219757
1.1686228513717651,1.9457958936691284,-0.22869336605072021
1.228421688079834,2.0149872303009033,-0.22998324036598206
1.2855536937713623,2.076634407043457,-0.22970359027385712
1.3314130306243896,2.1177141666412354,-0.2266194373369217
1.3627389669418335,2.1356210708618164,-0.22080501914024353
1.3813908100128174,2.1337625980377197,-0.21284174919128418
1.3837307691574097,2.1052334308624268,-0.20185938477516174
1.3899528980255127,2.0832889080047607,-0.1914936751127243
1.7313889265060425,2.558723211288452,-0.2251710444688797
1.8045780658721924,2.6277341842651367,-0.2203012853860855
1.9720702171325684,2.830413341522217,-0.22530986368656158
1.930055856704712,2.73230242729187,-0.20586077868938446
1.9450894594192505,2.713027238845825,-0.19176693260669708
1.4565398693084717,2.003425121307373,-0.13230670988559723
1.479017972946167,2.0069518089294434,-0.12302100658416748
2.337926149368286,3.3110809326171875,0.5741365551948547
1.7740134000778198,2.5519587993621826,0.4515625536441803
1.5481820106506348,2.2645556926727295,0.4085032641887665
1.5073533058166504,2.239286184310913,0.41102683544158936
1.4971427917480469,2.258451223373413,0.4213707745075226
1.4874320030212402,2.281712770462036,0.4322759509086609
1.4739282131195068,2.298064947128296,0.4417189657688141
1.4695823192596436,2.326752185821533,0.4532352685928345
1.4780882596969604,2.378988027572632,0.46945035457611084
1.4673097133636475,2.402186393737793,0.479796826839447
1.5146245956420898,2.5205419063568115,0.5091907382011414
1.4964359998703003,2.5298824310302734,0.5165925025939941
1.4408183097839355,2.4763023853302,0.5108605623245239
1.4059709310531616,2.4594297409057617,0.5123993158340454
1.3722333908081055,2.4418091773986816,0.5135079026222229
1.3657863140106201,2.470447540283203,0.5241146087646484
1.3662832975387573,2.5126020908355713,0.5376884341239929
2.843986988067627,5.324315071105957,1.1483341455459595
2.816553831100464,5.370677471160889,1.167528748512268
2.800140142440796,5.432671070098877,1.1896964311599731
2.7784359455108643,5.484090328216553,1.209588646888733
2.757011651992798,5.539307117462158,1.2301701307296753
1.228790044784546,2.5154967308044434,0.5621848702430725
1.2159243822097778,2.5375101566314697,0.570745050907135
1.1911531686782837,2.5311787128448486,0.5727044343948364
1.1698585748672485,2.5315258502960205,0.5761545300483704
1.1546555757522583,2.5457770824432373,0.5826597213745117
1.1417310237884521,2.5672643184661865,0.590579092502594
2.577728748321533,5.913004398345947,1.3671985864639282
2.5402355194091797,5.9433674812316895,1.3810948133468628
2.518651008605957,6.008159637451172,1.4029054641723633
2.4948155879974365,6.069356441497803,1.424054503440857
2.4611215591430664,6.113754749298096,1.4403692483901978
2.431091070175171,6.1686110496521,1.4592481851577759
2.4040467739105225,6.234138011932373,1.4808766841888428
2.374622344970703,6.28803014755249,1.4995779991149902
2.3485796451568604,6.352480888366699,1.520947813987732
2.3197426795959473,6.413567543029785,1.5413092374801636
2.28263521194458,6.457122325897217,1.5568653345108032
2.2552924156188965,6.5331130027771,1.5804965496063232
2.2201743125915527,6.583238124847412,1.5978446006774902
2.191599130630493,6.65089225769043,1.6194685697555542
2.1353678703308105,6.6351237297058105,1.620879054069519
2.0729446411132812,6.601122856140137,1.6173311471939087
2.0061004161834717,6.556293964385986,1.6105833053588867
1.944150686264038,6.521571159362793,1.606260895729065
1.890944480895996,6.511684894561768,1.6080313920974731
1.8316667079925537,6.475554466247559,1.6032730340957642
1.7740683555603027,6.4425787925720215,1.5993092060089111
1.7234610319137573,6.435013294219971,1.601309895515442
0.8399845361709595,3.2303552627563477,0.8054793477058411
1.606338381767273,6.364452362060547,1.5901812314987183
0.810522735118866,3.310699462890625,0.8288970589637756
1.5036239624023438,6.33206033706665,1.5886039733886719
1.4532290697097778,6.315165042877197,1.5876816511154175
1.398221492767334,6.2795281410217285,1.5821287631988525
1.3380314111709595,6.217801094055176,1.5688694715499878
1.2918379306793213,6.21868896484375,1.5714645385742188
1.2397429943084717,6.189495086669922,1.566521406173706
1.1854660511016846,6.141120433807373,1.556714653968811
1.1334421634674072,6.103578567504883,1.5497232675552368
1.0887761116027832,6.099076747894287,1.5511292219161987
1.0406297445297241,6.0757737159729,1.5472710132598877
0.9986810088157654,6.089660167694092,1.5524253845214844
0.940680980682373,6.002227306365967,1.5318078994750977
0.8985254168510437,6.015512466430664,1.5369713306427002
0.8490400314331055,5.968348026275635,1.5266978740692139
0.8048912286758423,5.954561233520508,1.5250121355056763
0.7604946494102478,5.936698913574219,1.5223435163497925
0.6017749905586243,4.975537300109863,1.2767863273620605
0.5829070806503296,5.122111797332764,1.3152620792388916
0.5440695285797119,5.106873989105225,1.3122913837432861
0.4060108959674835,4.082052230834961,1.0497329235076904
0.37828388810157776,4.091945171356201,1.0531095266342163
0.3559143841266632,4.165736675262451,1.0729988813400269
0.3251214623451233,4.145119667053223,1.0685780048370361
0.29606887698173523,4.1546783447265625,1.0713101625442505
0.2678806185722351,4.171555519104004,1.0759793519973755
0.4428792893886566,7.745784759521484,1.9985769987106323
0.3877604603767395,7.725646495819092,1.9941585063934326
0.3326384723186493,7.693775177001953,1.9867992401123047
0.27710381150245667,7.665325164794922,1.9804307222366333
0.22251473367214203,7.621413707733154,1.9698138236999512
0.16943098604679108,7.622742176055908,1.9699532985687256
0.11584419757127762,7.597231864929199,1.963252305984497
0.0626186951994896,7.559999942779541,1.9536182880401611
0.00911224726587534,7.529961109161377,1.9459396600723267
-0.04313255846500397,7.4957685470581055,1.9372806549072266
-0.09495510905981064,7.472562789916992,1.9315521717071533
-0.1462785005569458,7.441546440124512,1.9234483242034912
-0.1977236419916153,7.433070182800293,1.9204107522964478
-0.24867773056030273,7.412898063659668,1.9144465923309326
-0.3020910918712616,7.4376959800720215,1.920177698135376
-0.2565424144268036,5.391634941101074,1.3915364742279053
-0.2944406270980835,5.397478103637695,1.3926982879638672
-0.3303416967391968,5.369073390960693,1.3850913047790527
-0.36651480197906494,5.351861476898193,1.3800204992294312
-0.401810884475708,5.3194098472595215,1.3705562353134155
-0.43666085600852966,5.294309139251709,1.3630812168121338
-0.413212388753891,4.620719909667969,1.1888339519500732
-0.4424237608909607,4.587972164154053,1.1796410083770752
-0.4732015132904053,4.573855400085449,1.1753010749816895
-0.5030994415283203,4.548191547393799,1.1680450439453125
-0.5363166332244873,4.560119152069092,1.1700358390808105
-0.5639042258262634,4.526826858520508,1.160170078277588
-0.5921000242233276,4.5008649826049805,1.15225088596344
-0.6230829358100891,4.497228622436523,1.1501084566116333
-0.6537992358207703,4.485774993896484,1.1459920406341553
-0.6838040351867676,4.474187850952148,1.1419230699539185
-0.7136792540550232,4.46239709854126,1.1378610134124756
-0.7411420941352844,4.43940544128418,1.1303932666778564
-0.7662709951400757,4.405094623565674,1.1199586391448975
-0.7950148582458496,4.393013000488281,1.1152422428131104
-0.8229896426200867,4.373165130615234,1.108574628829956
-0.7139423489570618,3.6536712646484375,0.9248725771903992
-0.7371616363525391,3.638059377670288,0.9196560978889465
-0.7609252333641052,3.6260311603546143,0.9153395891189575
-0.935280442237854,4.310943126678467,1.0860860347747803
-0.9685483574867249,4.32004451751709,1.0862354040145874
-0.9963148236274719,4.306821823120117,1.080857515335083
-1.0245307683944702,4.293293476104736,1.0754209756851196
-1.0454976558685303,4.25005578994751,1.062605619430542
-1.075234293937683,4.243522644042969,1.0590366125106812
-1.1030945777893066,4.229511260986328,1.0532203912734985
-1.1338592767715454,4.230278968811035,1.050844669342041
-1.1626675128936768,4.223496913909912,1.0466378927230835
-1.1854206323623657,4.194526672363281,1.0369784832000732
-1.2190202474594116,4.201782703399658,1.036277413368225
-1.2435247898101807,4.175848007202148,1.0274014472961426
-1.2703921794891357,4.160882949829102,1.0212171077728271
-1.302003264427185,4.164258003234863,1.018990159034729
-1.3244386911392212,4.138405799865723,1.009663462638855
-1.3524588346481323,4.130523681640625,1.0047850608825684
-1.3795584440231323,4.114774227142334,0.9978845715522766
-1.4010299444198608,4.084589958190918,0.9876093864440918
-1.4297083616256714,4.075854778289795,0.9825848340988159
-1.4521502256393433,4.053067684173584,0.9735749363899231
-1.4769309759140015,4.037323474884033,0.9662983417510986
-1.5042296648025513,4.028561115264893,0.9607431888580322
-1.533011555671692,4.019096374511719,0.9548725485801697
-1.5585905313491821,4.002435684204102,0.9473937153816223
-1.586822509765625,3.992696762084961,0.941604733467102
-1.6138137578964233,3.9833521842956543,0.9352874159812927
-1.6407079696655273,3.9738309383392334,0.928977370262146
-1.6636481285095215,3.953357219696045,0.9200780391693115
-1.682600975036621,3.921929121017456,0.9085959792137146
-1.716460943222046,3.9254391193389893,0.9052669405937195
-1.746971845626831,3.9218804836273193,0.9001352787017822
-1.7670811414718628,3.897693157196045,0.8898727297782898
-1.7937884330749512,3.887111186981201,0.8826954960823059
-1.807631015777588,3.8485331535339355,0.8691977858543396
-1.8382552862167358,3.84415602684021,0.8633636832237244
-1.868902325630188,3.8395321369171143,0.8575003147125244
-1.9016571044921875,3.8422608375549316,0.8527559638023376
-1.9175406694412231,3.8104069232940674,0.840208888053894
-1.9538891315460205,3.8195040225982666,0.8367595076560974
-1.9776092767715454,3.8004658222198486,0.8268892765045166
-1.9795787334442139,3.7405829429626465,0.808262825012207
-2.0014407634735107,3.722059488296509,0.7982643842697144
-2.0226659774780273,3.703665018081665,0.7882057428359985
-1.701649785041809,3.0666778087615967,0.6474015116691589
-1.738657832145691,3.0828070640563965,0.6453675627708435
-0.8373392820358276,1.460893988609314,0.3032466471195221
-0.8548551201820374,1.469325304031372,0.30219903588294983
-0.8568180203437805,1.4511208534240723,0.295665442943573
-0.8710526823997498,1.4524271488189697,0.292957067489624
-0.8815066814422607,1.4469363689422607,0.2888299524784088
-0.8753624558448792,1.4153755903244019,0.27947890758514404
-0.8970500826835632,1.4299260377883911,0.27914124727249146
-0.9067602753639221,1.4246277809143066,0.2748243808746338
-0.8879214525222778,1.3734525442123413,0.2615101933479309
-0.9060654044151306,1.3809040784835815,0.259452223777771
-0.9109049439430237,1.3693076372146606,0.2536779046058655
-0.9590933918952942,1.421568512916565,0.2594982087612152
-2.4081313610076904,3.5165085792541504,0.6317051649093628
-1.240045428276062,1.761497974395752,0.30567264556884766
-1.3145731687545776,2.0696184635162354,-0.21163822710514069
-1.2989106178283691,2.078566551208496,-0.2204653024673462
-1.1436816453933716,1.8892099857330322,-0.2138443887233734
-0.8457533717155457,1.467157006263733,-0.18106961250305176
-0.9305349588394165,1.6416165828704834,-0.2080012708902359
-0.907301127910614,1.6271953582763672,-0.21134032309055328
-0.8993866443634033,1.6396732330322266,-0.21807751059532166
-0.8688498735427856,1.6113440990447998,-0.21928094327449799
-0.8331872820854187,1.5724605321884155,-0.21886862814426422
-0.7843157649040222,1.5054445266723633,-0.2139914184808731
-0.7804771661758423,1.5241327285766602,-0.22111669182777405
-0.7553160190582275,1.5014066696166992,-0.22217240929603577
-0.7375463247299194,1.4922208786010742,-0.22506028413772583
-0.7131534218788147,1.468946933746338,-0.22572846710681915
-0.6841670274734497,1.4349440336227417,-0.22445711493492126
-0.663810133934021,1.4181795120239258,-0.22571182250976562
-0.6390729546546936,1.3905978202819824,-0.22504529356956482
-0.6227717995643616,1.3803374767303467,-0.2270466387271881
-0.6096211671829224,1.3770571947097778,-0.23008114099502563
0.6083645820617676,1.3858383893966675,-0.23253144323825836
0.6393173336982727,1.403000831604004,-0.2282021939754486
0.668791651725769,1.441190481185913,-0.23068968951702118
0.6788313984870911,1.4371912479400635,-0.22627203166484833
0.7039868831634521,1.464468240737915,-0.2266840636730194
0.7382519245147705,1.5087804794311523,-0.22945676743984222
0.7715412974357605,1.5492137670516968,-0.23130908608436584
0.7823115587234497,1.5445390939712524,-0.2263428270816803
0.8073453903198242,1.5672873258590698,-0.22528813779354095
0.8419052362442017,1.606855869293213,-0.22638650238513947
0.8750499486923218,1.642716407775879,-0.22670555114746094
0.9141013622283936,1.6885387897491455,-0.22812329232692719
0.9486667513847351,1.7235065698623657,-0.22762437164783478
0.9855643510818481,1.7615227699279785,-0.22732514142990112
1.0303272008895874,1.8128464221954346,-0.2284184992313385
1.0738372802734375,1.8603359460830688,-0.22868987917900085
1.132309079170227,1.9305325746536255,-0.2311273217201233
1.1799577474594116,1.9799721240997314,-0.23053857684135437
1.2276747226715088,2.029250383377075,-0.22967950999736786
1.2886680364608765,2.097684621810913,-0.23039790987968445
1.3283064365386963,2.128927230834961,-0.22651226818561554
1.3594233989715576,2.146998882293701,-0.22101637721061707
1.3764588832855225,2.1416139602661133,-0.2127903401851654
1.3895752429962158,2.129335880279541,-0.20370285212993622
1.3912522792816162,2.101085901260376,-0.19318632781505585
1.746415376663208,2.6001884937286377,-0.22930248081684113
1.7648550271987915,2.5886895656585693,-0.2179427593946457
1.9490842819213867,2.817746162414551,-0.22570759057998657
1.9163174629211426,2.7322585582733154,-0.20773693919181824
1.9560946226119995,2.7480807304382324,-0.19685691595077515
1.4380934238433838,1.9925278425216675,-0.13391463458538055
1.458349347114563,1.992903232574463,-0.12483088672161102
1.4770104885101318,1.9894607067108154,-0.11493939906358719
1.5470179319381714,2.1733784675598145,0.35613152384757996
2.2850983142852783,3.2613942623138428,0.546136736869812
1.5166471004486084,2.200908899307251,0.37625059485435486
1.5288649797439575,2.2519843578338623,0.39196768403053284
1.520473599433899,2.2747678756713867,0.4028293788433075
1.5022304058074951,2.2853357791900635,0.4113706648349762
1.4805481433868408,2.288778305053711,0.4183316230773926
1.4929674863815308,2.3435933589935303,0.4344802796840668
1.5955860614776611,2.5465407371520996,0.47842931747436523
3.053854465484619,4.957359790802002,0.9434624910354614
3.0296623706817627,4.996405124664307,0.9621241688728333
3.000795602798462,5.028842926025391,0.9797301888465881
2.961848497390747,5.049060821533203,0.9941555857658386
2.951310157775879,5.119143486022949,1.0184663534164429
2.9214882850646973,5.151211261749268,1.0347418785095215
2.9087870121002197,5.2130231857299805,1.0570030212402344
2.887467384338379,5.266022205352783,1.07731294631958
2.857849597930908,5.305678367614746,1.0945765972137451
2.83426570892334,5.354823112487793,1.1137025356292725
2.8100745677948,5.39965295791626,1.13169527053833
2.7905731201171875,5.454641819000244,1.1519618034362793
2.7689595222473145,5.514676570892334,1.1727370023727417
2.7269294261932373,5.533042907714844,1.1846474409103394
1.234645962715149,2.550811529159546,0.5496866106987
1.2065684795379639,2.537663221359253,0.5503059029579163
1.1786596775054932,2.5242996215820312,0.5508039593696594
1.1628459692001343,2.5390167236328125,0.5570724010467529
1.1590793132781982,2.5817081928253174,0.5696166157722473
2.584458589553833,5.868278980255127,1.3016595840454102
2.5684845447540283,5.943929195404053,1.3253017663955688
2.5441501140594482,6.001952171325684,1.3451886177062988
2.509882688522339,6.043158531188965,1.3605687618255615
2.4841675758361816,6.109355926513672,1.3817083835601807
2.447512626647949,6.1466169357299805,1.3962875604629517
2.413684844970703,6.18656587600708,1.4113438129425049
2.3916804790496826,6.258426666259766,1.4338301420211792
2.3667335510253906,6.326989650726318,1.4553472995758057
2.3323583602905273,6.378363609313965,1.472488284111023
2.294292449951172,6.4185075759887695,1.487079381942749
2.265646457672119,6.4832916259765625,1.507399082183838
2.2359044551849365,6.5440568923950195,1.5268317461013794
2.2103140354156494,6.619132995605469,1.5497593879699707
2.1664416790008545,6.647741794586182,1.5613620281219482
2.105180501937866,6.621610164642334,1.559635877609253
2.0409576892852783,6.5840559005737305,1.5552477836608887
1.979628324508667,6.549285888671875,1.5514259338378906
1.9206762313842773,6.517467975616455,1.548253059387207
1.8612159490585327,6.481503963470459,1.5441099405288696
1.8017117977142334,6.449282646179199,1.5402973890304565
1.7460390329360962,6.427623748779297,1.5385181903839111
1.6936143636703491,6.416563034057617,1.5393321514129639
0.8267455697059631,3.224574089050293,0.7753214240074158
1.5852208137512207,6.3668951988220215,1.534326195716858
0.7961974740028381,3.297358274459839,0.7964715957641602
1.4806807041168213,6.326805114746094,1.5313953161239624
1.420868992805481,6.273097991943359,1.5209249258041382
1.374102234840393,6.274571895599365,1.5238834619522095
1.3126583099365234,6.205018997192383,1.5096218585968018
1.2624397277832031,6.183281421661377,1.507007122039795
1.2140318155288696,6.164759635925293,1.505183219909668
1.1638902425765991,6.134664535522461,1.5005748271942139
1.1153788566589355,6.115773677825928,1.497754693031311
1.0639574527740479,6.077813625335693,1.4902737140655518
1.0185672044754028,6.077011585235596,1.4920014142990112
0.9704462885856628,6.049437046051025,1.4871562719345093
0.9225373268127441,6.017696380615234,1.4813207387924194
0.8739500045776367,5.978091716766357,1.4735969305038452
0.8304243087768555,5.972063064575195,1.4738028049468994
0.7804246544837952,5.924625396728516,1.463244080543518
0.6404829025268555,5.142588138580322,1.271140217781067
0.5899852514266968,5.025912761688232,1.2433768510818481
0.5674226880073547,5.142516136169434,1.2733709812164307
0.5280641317367554,5.111888885498047,1.2669873237609863
0.39108505845069885,4.061752796173096,1.0077095031738281
0.3668108582496643,4.117029666900635,1.022001028060913
0.34062838554382324,4.153280258178711,1.0314135551452637
0.3111204206943512,4.151551246643066,1.0314481258392334
0.2814953327178955,4.1458234786987305,1.0305372476577759
0.2552088797092438,4.189067840576172,1.0418494939804077
0.4166489541530609,7.741302490234375,1.9264694452285767
0.36141958832740784,7.713272571563721,1.9207165241241455
0.30652016401290894,7.688936710357666,1.9147425889968872
0.25199589133262634,7.668023586273193,1.9096336364746094
0.19767427444458008,7.639145374298096,1.9026329517364502
0.1427372843027115,7.5985283851623535,1.8928040266036987
0.08996081352233887,7.60678243637085,1.8952350616455078
0.03687126561999321,7.554024696350098,1.8825528621673584
-0.015624521300196648,7.527464866638184,1.8763487339019775
-0.06761708855628967,7.4970221519470215,1.8681159019470215
-0.12016749382019043,7.466207504272461,1.859876036643982
-0.17165876924991608,7.450201988220215,1.8554292917251587
-0.22236545383930206,7.414897441864014,1.8462680578231812
-0.2744092643260956,7.428493499755859,1.8493729829788208
-0.32632017135620117,7.434149742126465,1.8505898714065552
-0.27456381916999817,5.398855686187744,1.3436355590820312
-0.31162118911743164,5.381993293762207,1.3385034799575806
-0.34732764959335327,5.357344627380371,1.3315211534500122
-0.38325127959251404,5.34002161026001,1.326428771018982
-0.4197370111942291,5.3300018310546875,1.323214054107666
-0.4432060420513153,5.168600082397461,1.2825006246566772
-0.4278688132762909,4.606803894042969,1.1425727605819702
-0.45826736092567444,4.5889997482299805,1.1373538970947266
-0.48785722255706787,4.5673418045043945,1.1308048963546753
-0.5184033513069153,4.556802749633789,1.1270709037780762
-0.5506999492645264,4.561117649078369,1.127062439918518
-0.578162670135498,4.51994514465332,1.1158473491668701
-0.610634446144104,4.523794174194336,1.1158255338668823
-0.6389175653457642,4.4973530769348145,1.1083896160125732
-0.6671050786972046,4.474647521972656,1.1014373302459717
-0.6966053247451782,4.463095188140869,1.097036361694336
-0.7265457510948181,4.451265335083008,1.092596411705017
-0.752067506313324,4.416842460632324,1.082698106765747
-0.7841904759407043,4.419597148895264,1.0819536447525024
-0.8108209371566772,4.39224910736084,1.0738989114761353
-0.8292883634567261,4.323692321777344,1.0558446645736694
-0.7254295349121094,3.6479756832122803,0.8891988396644592
-0.7477149963378906,3.6286206245422363,0.8828480839729309
-0.9230685234069824,4.330299377441406,1.0516955852508545
-0.9562967419624329,4.339437961578369,1.0520631074905396
-0.9831415414810181,4.318632125854492,1.0452090501785278
-1.0132702589035034,4.312451362609863,1.041948914527893
-1.0399433374404907,4.291311264038086,1.0347998142242432
-1.0691336393356323,4.285068035125732,1.0309160947799683
-1.0963466167449951,4.271263122558594,1.025268793106079
-1.1216200590133667,4.249887943267822,1.017852544784546
-1.1493490934371948,4.235537052154541,1.0121238231658936
-1.1774929761886597,4.220860481262207,1.0063327550888062
-1.2017663717269897,4.195157527923584,0.9980089664459229
-1.2334585189819336,4.198939800262451,0.9960692524909973
-1.2586658000946045,4.180597305297852,0.9889270663261414
-1.278108835220337,4.143877983093262,0.9775055646896362
-1.3051527738571167,4.128554821014404,0.9710908532142639
-1.334080457687378,4.120391368865967,0.9664429426193237
-1.3677552938461304,4.126499176025391,0.9651805758476257
-1.3934667110443115,4.111027717590332,0.9583885669708252
-1.4112788438796997,4.073869705200195,0.9464804530143738
-1.4388363361358643,4.065419673919678,0.9413084387779236
-1.4598151445388794,4.034836292266846,0.9309271574020386
-1.493504524230957,4.040010452270508,0.9288680553436279
-1.5273783206939697,4.044898986816406,0.9267614483833313
-1.5494409799575806,4.021453857421875,0.9177045822143555
-1.5737953186035156,4.005118370056152,0.9101911187171936
-1.6042027473449707,4.0026373863220215,0.9057961702346802
-1.624997854232788,3.9749746322631836,0.8956900238990784
-1.6501328945159912,3.957702159881592,0.8879610300064087
-1.678067684173584,3.947317361831665,0.8818151354789734
-1.6985838413238525,3.923330307006836,0.872075617313385
-1.7193316221237183,3.899040937423706,0.8622604012489319
-1.7552486658096313,3.909672975540161,0.8602436780929565
-1.7860958576202393,3.905629873275757,0.854830801486969
-1.8007889986038208,3.866600513458252,0.8418272733688354
-1.8241227865219116,3.848712921142578,0.833203136920929
-1.853684663772583,3.84468674659729,0.827256441116333
-1.886230707168579,3.8474977016448975,0.8228724598884583
-1.9030507802963257,3.8151402473449707,0.8107678294181824
-1.9371492862701416,3.81681752204895,0.8058928847312927
-1.9637889862060547,3.804847002029419,0.7979848384857178
-1.9785616397857666,3.772892475128174,0.7855371236801147
-1.9934324026107788,3.7406723499298096,0.7730305790901184
-2.019723415374756,3.728299140930176,0.7645136117935181
-1.7012649774551392,3.0889742374420166,0.6283982396125793
-1.726494550704956,3.085247755050659,0.6224477887153625
-1.7394683361053467,3.061763286590576,0.6122861504554749
-0.8310826420783997,1.4406428337097168,0.28549253940582275
-0.8491565585136414,1.4486969709396362,0.28433263301849365
-0.8634520173072815,1.4499449729919434,0.2818104326725006
-0.865221381187439,1.43166184425354,0.2753552794456482
-0.8867945671081543,1.44636070728302,0.27520477771759033
-0.892942488193512,1.4342936277389526,0.2697458863258362
-0.8950014710426331,1.4155796766281128,0.26304182410240173
-0.9047080278396606,1.4101899862289429,0.25875124335289
-0.8971632122993469,1.3790708780288696,0.24973128736019135
-0.9066871404647827,1.3736305236816406,0.2452789545059204
-0.9038697481155396,1.3484917879104614,0.23714962601661682
-2.386902093887329,3.5113086700439453,0.607839047908783
-2.4164981842041016,3.507209300994873,0.5972765684127808
-1.2351038455963135,1.7667043209075928,0.2954634428024292
-1.3552969694137573,1.9104969501495361,0.3134803771972656
-1.3032759428024292,2.067620038986206,-0.2103368192911148
-1.279832363128662,2.0630710124969482,-0.21719516813755035
-1.229864478111267,2.0153017044067383,-0.2192680537700653
-1.1410914659500122,1.9000128507614136,-0.21317172050476074
-0.8356945514678955,1.4379175901412964,-0.17080260813236237
-0.8483828902244568,1.4837809801101685,-0.180947408080101
-0.9652999639511108,1.7159262895584106,-0.214590921998024
-0.9128554463386536,1.6510505676269531,-0.21164081990718842
-0.9080915451049805,1.6706150770187378,-0.21920441091060638
-0.8669057488441467,1.6215593814849854,-0.21749363839626312
-0.8353078961372375,1.5892932415008545,-0.21775999665260315
-0.8022435903549194,1.5533345937728882,-0.21727867424488068
-0.7645175457000732,1.506622314453125,-0.2150275707244873
-0.7641111016273499,1.5321459770202637,-0.22289136052131653
-0.7427085638046265,1.5160952806472778,-0.22466416656970978
-0.7080816030502319,1.4719523191452026,-0.2220885455608368
-0.6925833225250244,1.4657942056655884,-0.22499729692935944
-0.6723500490188599,1.448952317237854,-0.22618421912193298
-0.6455759406089783,1.418013095855713,-0.22502225637435913
-0.6320974826812744,1.4149361848831177,-0.2281159609556198
-0.6142374277114868,1.4010475873947144,-0.22934791445732117
0.6008495092391968,1.38143789768219,-0.22687183320522308
0.6168547868728638,1.3919304609298706,-0.22524021565914154
0.6506105065345764,1.4409935474395752,-0.22967171669006348
0.6639774441719055,1.4440642595291138,-0.226588174700737
0.692072868347168,1.4785999059677124,-0.22830639779567719
0.7126739621162415,1.4952356815338135,-0.22700771689414978
0.7368194460868835,1.5186690092086792,-0.22666388750076294
0.773155927658081,1.5662468671798706,-0.2296818196773529
0.794437050819397,1.5823155641555786,-0.22788217663764954
0.8161970376968384,1.5980688333511353,-0.22585326433181763
0.8543750643730164,1.6445274353027344,-0.2279505580663681
0.893160879611969,1.6906157732009888,-0.22959865629673004
0.9158433079719543,1.7056362628936768,-0.22691373527050018
0.9633017182350159,1.7645368576049805,-0.2296925038099289
1.0021666288375854,1.8059418201446533,-0.22986790537834167
1.0355267524719238,1.836988091468811,-0.22846809029579163
1.0929203033447266,1.9079210758209229,-0.2315308004617691
1.1338502168655396,1.947906494140625,-0.2304352968931198
1.1809794902801514,1.9976675510406494,-0.23017828166484833
1.232593059539795,2.0537102222442627,-0.23027706146240234
1.2936291694641113,2.1221683025360107,-0.23110553622245789
1.325215220451355,2.1401450634002686,-0.22594287991523743
1.35829496383667,2.1616106033325195,-0.2210887223482132
1.3774183988571167,2.1595425605773926,-0.2135428935289383
1.3821645975112915,2.134169578552246,-0.20353224873542786
1.3837336301803589,2.1060256958007812,-0.19340001046657562
1.8002967834472656,2.700035572052002,-0.23800256848335266
1.7823415994644165,2.6332671642303467,-0.22207900881767273
1.8927114009857178,2.7570548057556152,-0.22195559740066528
1.91130530834198,2.7451226711273193,-0.21020321547985077
1.9173083305358887,2.7132568359375,-0.19642101228237152
1.4312533140182495,1.997302532196045,-0.13604697585105896
1.447115421295166,1.9912843704223633,-0.12687836587429047
1.4748520851135254,2.000593662261963,-0.11823387444019318
1.5826033353805542,2.2402706146240234,0.3538871109485626
1.5646058320999146,2.251343011856079,0.3635179102420807
1.5394892692565918,2.248439311981201,0.37012672424316406
1.539194941520691,2.2846012115478516,0.38318097591400146
1.5122790336608887,2.2825183868408203,0.3896183371543884
1.4997894763946533,2.298638105392456,0.3985602557659149
1.512239694595337,2.353671073913574,0.4143122732639313
1.598845362663269,2.530689001083374,0.4517936706542969
1.595245122909546,2.5679094791412354,0.4647901654243469
3.0366477966308594,4.964913845062256,0.9098710417747498
3.003948926925659,4.991087436676025,0.9256916046142578
2.972846746444702,5.024938583374023,0.9425020217895508
2.967442274093628,5.101437568664551,0.9672799706459045
2.933967351913452,5.127057075500488,0.982157289981842
2.8967227935791016,5.14563512802124,0.9954645037651062
2.8850300312042236,5.215792655944824,1.0182379484176636
2.852198362350464,5.248795509338379,1.033930778503418
2.839876890182495,5.3142170906066895,1.0555472373962402
2.8064913749694824,5.342476844787598,1.0700641870498657
2.805327892303467,5.436056137084961,1.0971379280090332
2.776013135910034,5.47885799407959,1.1138989925384521
2.7625317573547363,5.552036285400391,1.1368343830108643
1.2366552352905273,2.5292694568634033,0.5214020013809204
1.2183140516281128,2.537081003189087,0.5266030430793762
1.1846349239349365,2.5138378143310547,0.5249285697937012
1.1737542152404785,2.5390923023223877,0.5333451628684998
1.1581875085830688,2.5536692142486572,0.5395156145095825
1.146234154701233,2.5748937129974365,0.5470370650291443
2.5765678882598877,5.898197650909424,1.2600468397140503
2.5518383979797363,5.961012840270996,1.2799566984176636
2.5250422954559326,6.020187854766846,1.2989078760147095
2.4904587268829346,6.061450004577637,1.3141027688980103
2.4675657749176025,6.126593112945557,1.3343186378479004
2.4368433952331543,6.17386531829834,1.3507903814315796
2.410949468612671,6.239436149597168,1.3711496591567993
2.377032518386841,6.287330150604248,1.387022614479065
2.346449375152588,6.345812797546387,1.405379295349121
2.315072774887085,6.400154113769531,1.4228190183639526
2.290266513824463,6.472086429595947,1.4442224502563477
2.255006790161133,6.51890230178833,1.4602655172348022
2.227304458618164,6.591178894042969,1.481299877166748
2.1921732425689697,6.645442485809326,1.4981261491775513
2.14115309715271,6.652256965637207,1.5043582916259766
2.0767579078674316,6.61091423034668,1.4995909929275513
2.015990734100342,6.580077648162842,1.4972553253173828
1.9511405229568481,6.530226230621338,1.4905104637145996
1.890163540840149,6.494984149932861,1.4862412214279175
1.8367184400558472,6.485048294067383,1.4876034259796143
1.7795352935791016,6.459960460662842,1.4855290651321411
1.7170305252075195,6.408349514007568,1.4772857427597046
0.8443073034286499,3.2427005767822266,0.7494040727615356
1.614176630973816,6.381107807159424,1.478403925895691
0.810166597366333,3.301084518432617,0.7663809061050415
1.4970077276229858,6.2936692237854,1.463863730430603
1.284157633781433,5.575539588928223,1.2993038892745972
1.399627447128296,6.282502174377441,1.466914176940918
1.346825122833252,6.250062465667725,1.4621673822402954
1.283679485321045,6.165021896362305,1.4451249837875366
1.241694688796997,6.180351257324219,1.4512686729431152
1.1903547048568726,6.150786876678467,1.4462910890579224
1.1400493383407593,6.128437519073486,1.443101406097412
1.0930492877960205,6.116783618927002,1.4424452781677246
1.0355349779129028,6.03715181350708,1.4257533550262451
0.9976958632469177,6.069651126861572,1.4355918169021606
0.948818564414978,6.034274101257324,1.4294400215148926
0.8974915146827698,5.987616062164307,1.4197922945022583
0.8534103035926819,5.9819016456604,1.4197801351547241
0.8079240918159485,5.964561939239502,1.4170721769332886
