X,Y,Z
-0.7898727059364319,3.8973681926727295,-0.17537285387516022
-0.7612489461898804,3.895069122314453,-0.17588494718074799
-0.68141108751297,3.62027907371521,-0.16405580937862396
-0.6456341743469238,3.567326545715332,-0.16216570138931274
-0.6327193975448608,3.644885778427124,-0.16615061461925507
-0.6364759206771851,3.826295852661133,-0.1749013513326645
-0.6061246991157532,3.807483673095703,-0.1745222508907318
-0.5755136013031006,3.784572124481201,-0.1739567667245865
-0.5446105599403381,3.7575738430023193,-0.17314355075359344
-0.5134549736976624,3.7304234504699707,-0.1722491830587387
-0.4902493953704834,3.7571325302124023,-0.17384332418441772
-0.4578836262226105,3.7100830078125,-0.17202675342559814
-0.4275496304035187,3.674395799636841,-0.170736625790596
-0.40533724427223206,3.7082948684692383,-0.17264463007450104
-0.37300610542297363,3.648916721343994,-0.1701214611530304
-0.34771713614463806,3.6592352390289307,-0.17085711658000946
-0.31981825828552246,3.634342670440674,-0.16994991898536682
-0.2948687970638275,3.640350341796875,-0.17049358785152435
-0.26868119835853577,3.6306228637695312,-0.17028596997261047
-0.24018889665603638,3.585681915283203,-0.16830216348171234
-0.2151508331298828,3.595079183578491,-0.1688782423734665
-0.18924666941165924,3.5808966159820557,-0.16835202276706696
-0.165403813123703,3.605504274368286,-0.1696576327085495
-0.1415310651063919,3.637749671936035,-0.1713331788778305
-0.11441010981798172,3.584045648574829,-0.16883119940757751
-0.08956046402454376,3.608168601989746,-0.1699969619512558
-0.06351415812969208,3.5579850673675537,-0.16766931116580963
-0.03861818090081215,3.5427310466766357,-0.16699495911598206
-0.014108489267528057,3.562420129776001,-0.16797582805156708
0.010640286840498447,3.558532476425171,-0.16774852573871613
0.03622811660170555,3.6012914180755615,-0.169688418507576
0.06049690395593643,3.55804181098938,-0.16758522391319275
0.08525940775871277,3.5575385093688965,-0.16750411689281464
0.1097765639424324,3.549062728881836,-0.16705584526062012
0.13382118940353394,3.532625675201416,-0.16616694629192352
0.15991747379302979,3.566704273223877,-0.16758960485458374
0.18550267815589905,3.5732905864715576,-0.16772353649139404
0.20919282734394073,3.5524492263793945,-0.1665814369916916
0.23414090275764465,3.5548133850097656,-0.16653630137443542
0.257396399974823,3.533656120300293,-0.16535712778568268
0.28125089406967163,3.5240259170532227,-0.16462929546833038
0.30806800723075867,3.5453011989593506,-0.16534779965877533
0.33447888493537903,3.562520742416382,-0.1658858060836792
0.36000052094459534,3.5678935050964355,-0.1658778041601181
0.3872707486152649,3.5886034965515137,-0.16657507419586182
0.4129020571708679,3.5936243534088135,-0.16641975939273834
0.4324566721916199,3.5441794395446777,-0.1637473851442337
0.4599820077419281,3.5643441677093506,-0.16430698335170746
0.4847458600997925,3.5610849857330322,-0.16379082202911377
0.5117313861846924,3.5730996131896973,-0.16398310661315918
0.5398075580596924,3.5926733016967773,-0.16440661251544952
0.5649678111076355,3.5888330936431885,-0.16374525427818298
0.5942164659500122,3.6118223667144775,-0.16431854665279388
0.6245994567871094,3.638401508331299,-0.1650530844926834
0.643047034740448,3.595580577850342,-0.16264761984348297
0.6820847392082214,3.667830228805542,-0.16534632444381714
0.6969307661056519,3.6094460487365723,-0.16213545203208923
0.7383402585983276,3.6848583221435547,-0.16492636501789093
0.765537679195404,3.687312602996826,-0.16445082426071167
0.7911651730537415,3.6819353103637695,-0.16363275051116943
0.8181846141815186,3.6840620040893555,-0.16306111216545105
0.8451371788978577,3.6860220432281494,-0.16245585680007935
0.8861782550811768,3.7446250915527344,-0.16432633996009827
0.9039257168769836,3.704277753829956,-0.16185928881168365
0.9334930181503296,3.7130789756774902,-0.16155211627483368
0.9658036828041077,3.7330780029296875,-0.1616373211145401
1.0013258457183838,3.764155149459839,-0.16216504573822021
1.0554012060165405,3.858761787414551,-0.1653885394334793
1.0759025812149048,3.8288261890411377,-0.16326771676540375
1.1024980545043945,3.8213016986846924,-0.1621163934469223
1.1396360397338867,3.8511648178100586,-0.16245175898075104
1.171510934829712,3.8620405197143555,-0.16196087002754211
1.2054210901260376,3.876178503036499,-0.16158002614974976
1.252523422241211,3.930969476699829,-0.16288375854492188
1.2822595834732056,3.929638385772705,-0.16184796392917633
1.352182149887085,4.050483703613281,-0.1656976044178009
1.3620407581329346,3.9895389080047607,-0.16209515929222107
1.4049675464630127,4.0243330001831055,-0.1623762845993042
1.4413187503814697,4.036398410797119,-0.1616988331079483
1.491833209991455,4.088777542114258,-0.1626075655221939
1.5303633213043213,4.1079206466674805,-0.16210681200027466
1.5844820737838745,4.166864395141602,-0.16315379738807678
1.6289962530136108,4.195829391479492,-0.16296344995498657
1.6831867694854736,4.245926856994629,-0.1635439395904541
1.757344126701355,4.346663475036621,-0.1659807711839676
1.7896052598953247,4.3420000076293945,-0.16433671116828918
1.854071021080017,4.41249942779541,-0.16549266874790192
1.120656967163086,2.61607027053833,-0.09720669686794281
1.1451728343963623,2.6225268840789795,-0.0964961126446724
1.1484506130218506,2.5827317237854004,-0.09406930208206177
1.1625741720199585,2.5678815841674805,-0.09256676584482193
1.18040132522583,2.559781789779663,-0.09128198027610779
1.1815632581710815,2.5162241458892822,-0.08875008672475815
1.1986050605773926,2.508197069168091,-0.08742973953485489
1.2084826231002808,2.486144781112671,-0.08564744144678116
1.222224473953247,2.470754861831665,-0.08406766504049301
1.2200634479522705,2.4238791465759277,-0.08143679052591324
1.2362309694290161,2.4157185554504395,-0.08008437603712082
1.237849235534668,2.379779100418091,-0.07782214879989624
1.2581735849380493,2.377981185913086,-0.07662946730852127
1.2598730325698853,2.3417139053344727,-0.07435041666030884
1.2697113752365112,2.323096990585327,-0.07262527197599411
1.281209111213684,2.3078911304473877,-0.07101662456989288
1.2818974256515503,2.2717514038085938,-0.0687207356095314
1.3055814504623413,2.276292324066162,-0.06763903796672821
1.308721899986267,2.247459650039673,-0.06557269394397736
1.3118212223052979,2.218517780303955,-0.06350472569465637
1.3272119760513306,2.209388017654419,-0.061971601098775864
1.3541350364685059,2.2205238342285156,-0.0609869509935379
1.3605858087539673,2.198270082473755,-0.059053726494312286
1.3798854351043701,2.195481538772583,-0.05759332701563835
1.3780274391174316,2.1597204208374023,-0.05527102202177048
1.3919614553451538,2.1508071422576904,-0.05364849790930748
1.406478762626648,2.1413838863372803,-0.051950812339782715
1.4105767011642456,2.115297555923462,-0.0497950054705143
1.4240909814834595,2.1062629222869873,-0.0480685755610466
1.424980878829956,2.0773463249206543,-0.045827146619558334
1.4167324304580688,2.0356128215789795,-0.04329712688922882
1.443056344985962,2.0458202362060547,-0.04188377037644386
1.4709293842315674,2.054802417755127,-0.040242571383714676
1.4567903280258179,2.0072567462921143,-0.037516865879297256
1.4743742942810059,2.004120111465454,-0.035585757344961166
2.0959415435791016,2.952194929122925,0.06240741163492203
2.0818259716033936,2.981177806854248,0.06559189409017563
2.5894925594329834,3.764960289001465,0.08578173816204071
3.1328086853027344,4.628172397613525,0.10899687558412552
3.136493444442749,4.710275173187256,0.11438140273094177
3.099295139312744,4.725405693054199,0.1178986057639122
3.087721109390259,4.784094333648682,0.12248720973730087
1.6304830312728882,2.568392753601074,0.06739436089992523
1.6412140130996704,2.62619948387146,0.07047677040100098
1.6098644733428955,2.618016004562378,0.07175858318805695
2.9459140300750732,4.872330188751221,0.13628685474395752
2.819730043411255,4.738460540771484,0.13501891493797302
2.7232680320739746,4.650210380554199,0.13488459587097168
2.7346601486206055,4.751878261566162,0.14021310210227966
2.6865768432617188,4.74776029586792,0.14235849678516388
2.46728777885437,4.4319281578063965,0.13490696251392365
2.4597890377044678,4.493973731994629,0.13879215717315674
2.3839001655578613,4.432893753051758,0.1388288289308548
2.3771650791168213,4.498356342315674,0.1427861601114273
2.477189064025879,4.767669200897217,0.1532655507326126
2.4356400966644287,4.771420478820801,0.1552380472421646
2.367205858230591,4.722822189331055,0.15543979406356812
2.3024826049804688,4.676424980163574,0.15561535954475403
1.2272967100143433,2.537837505340576,0.08536756783723831
1.205808162689209,2.539436101913452,0.08629216253757477
1.1938034296035767,2.562302589416504,0.08792005479335785
1.1753748655319214,2.5707693099975586,0.0890478640794754
1.1574255228042603,2.5788626670837402,0.09014279395341873
1.1565889120101929,2.6261956691741943,0.09261412918567657
2.0653207302093506,4.785403251647949,0.17016775906085968
2.0425355434417725,4.82903528213501,0.17311729490756989
2.0207998752593994,4.87193489074707,0.1760036051273346
2.003056764602661,4.9255805015563965,0.17930248379707336
1.9794063568115234,4.968700885772705,0.18216724693775177
2.034990072250366,5.219479560852051,0.19269883632659912
2.003176689147949,5.2484211921691895,0.19507785141468048
1.9843734502792358,5.309704780578613,0.1986483782529831
1.9634273052215576,5.367327690124512,0.20211541652679443
1.9352946281433105,5.410650730133057,0.20492026209831238
1.8775346279144287,5.373040199279785,0.20467178523540497
1.8759799003601074,5.493285655975342,0.2104194164276123
1.8501133918762207,5.543156623840332,0.21348920464515686
1.9433724880218506,5.9603729248046875,0.2308085858821869
1.902936339378357,5.981536865234375,0.23271143436431885
1.8661667108535767,6.017571926116943,0.23522962629795074
1.84281325340271,6.094062805175781,0.23932117223739624
1.8168730735778809,6.162851810455322,0.24312815070152283
1.7761082649230957,6.182783126831055,0.24502937495708466
1.7497738599777222,6.259158611297607,0.24902836978435516
1.7254549264907837,6.346784591674805,0.2535009980201721
1.6886502504348755,6.392958164215088,0.25635573267936707
1.6498998403549194,6.427191734313965,0.25871962308883667
0.8185955286026001,3.2836198806762695,0.13268953561782837
1.5420176982879639,6.377540111541748,0.2585608661174774
0.7897076606750488,3.3708620071411133,0.13708807528018951
1.4322373867034912,6.318967342376709,0.2578047215938568
1.369811773300171,6.244862079620361,0.2555725574493408
1.3279215097427368,6.261835098266602,0.25707054138183594
1.2691439390182495,6.1982879638671875,0.25518059730529785
1.215332269668579,6.157313346862793,0.25409838557243347
1.1650437116622925,6.1352057456970215,0.2538105845451355
1.1220974922180176,6.143166542053223,0.2547570765018463
1.0705045461654663,6.100820064544678,0.2536220848560333
1.0215582847595215,6.0695929527282715,0.2529517114162445
0.9823827743530273,6.099745750427246,0.25467318296432495
0.9361658096313477,6.091183185577393,0.25479307770729065
0.8746050000190735,5.970154285430908,0.2502003312110901
0.8341094255447388,5.983797550201416,0.2512490749359131
0.7903948426246643,5.97395133972168,0.25132304430007935
0.7481696009635925,5.9754252433776855,0.2517986595630646
0.7024319767951965,5.949514389038086,0.25101837515830994
0.18913845717906952,1.7067890167236328,0.07210623472929001
0.17561033368110657,1.6925333738327026,0.07159865647554398
0.16459475457668304,1.7014762163162231,0.07207507640123367
0.15592189133167267,1.7375555038452148,0.07370687276124954
0.13960355520248413,1.688034176826477,0.07166478782892227
0.13198810815811157,1.7473565340042114,0.07423774152994156
0.11521513760089874,1.6820424795150757,0.07151784002780914
0.10399661958217621,1.6905897855758667,0.07193958759307861
0.09264793246984482,1.6990629434585571,0.07236230373382568
0.08156710863113403,1.7152559757232666,0.07310990989208221
0.06936930865049362,1.71579110622406,0.0731457769870758
0.05802508443593979,1.7357351779937744,0.0740126296877861
0.0471627451479435,1.7829121351242065,0.07604499161243439
0.14858579635620117,7.620526313781738,0.32513561844825745
0.09610302001237869,7.6603922843933105,0.3269568085670471
0.04162374883890152,7.606241703033447,0.3246590197086334
-0.01134661864489317,7.598546504974365,0.32421332597732544
-0.06403321772813797,7.578775882720947,0.32326868176460266
-0.11618977785110474,7.546935081481934,0.3218255639076233
-0.16790713369846344,7.514737129211426,0.32038331031799316
-0.2191431224346161,7.478282451629639,0.31877559423446655
-0.27185767889022827,7.476564884185791,0.31847935914993286
-0.32328861951828003,7.466720104217529,0.31779104471206665
-0.3768247663974762,7.499393939971924,0.3189263641834259
-0.3105275630950928,5.427639961242676,0.23064692318439484
-0.34726834297180176,5.409781455993652,0.22972525656223297
-0.37547624111175537,5.267061710357666,0.22350852191448212
-0.40305182337760925,5.151522636413574,0.2183096557855606
-0.4340178370475769,5.094188690185547,0.21559733152389526
-0.434481143951416,4.714109897613525,0.19925926625728607
-0.4591122567653656,4.629436492919922,0.19544050097465515
-0.4910121262073517,4.618328094482422,0.1947373002767563
-0.5203152298927307,4.5915703773498535,0.19333553314208984
-0.549997866153717,4.5724077224731445,0.1921665221452713
-0.5804718136787415,4.560792446136475,0.1913250833749771
-0.6109452843666077,4.548955917358398,0.1904831975698471
-0.6393027305603027,4.517488479614258,0.18882302939891815
-0.6706912517547607,4.5129570960998535,0.18830613791942596
-0.7005942463874817,4.500537872314453,0.18736368417739868
-0.7301967740058899,4.487948894500732,0.18638303875923157
-0.7583963871002197,4.467462539672852,0.18508489429950714
-0.7893258929252625,4.46212911605835,0.1844211369752884
-0.8165350556373596,4.43344783782959,0.18279577791690826
-0.8413323163986206,4.397050380706787,0.18085633218288422
-0.7300198078155518,3.6791462898254395,0.15087781846523285
-0.7527486681938171,3.6626367568969727,0.14975835382938385
-0.7787073254585266,3.6612231731414795,0.14926102757453918
-0.9430024027824402,4.284624099731445,0.174153670668602
-0.9813973307609558,4.316061973571777,0.17492160201072693
-1.0145230293273926,4.324469566345215,0.17466922104358673
-1.0402488708496094,4.302329063415527,0.1731419414281845
-1.0676467418670654,4.287604331970215,0.17192359268665314
-1.083316683769226,4.223290920257568,0.16871260106563568
-1.1216539144515991,4.2496514320373535,0.16914398968219757
-1.1530706882476807,4.249362468719482,0.16848650574684143
-1.1776851415634155,4.226441383361816,0.16685472428798676
-1.2085193395614624,4.225889205932617,0.16611404716968536
-1.2303482294082642,4.191157341003418,0.16401997208595276
-1.2616156339645386,4.190046787261963,0.16325949132442474
-1.2860561609268188,4.1663126945495605,0.1616256684064865
-1.3117927312850952,4.150137901306152,0.16018693149089813
-1.3421285152435303,4.148678302764893,0.15932303667068481
-1.361072301864624,4.1096625328063965,0.15700455009937286
-1.3946114778518677,4.114938259124756,0.15638768672943115
-1.4206537008285522,4.097802639007568,0.15492410957813263
-1.4378917217254639,4.058716297149658,0.15255069732666016
-1.4678168296813965,4.056342124938965,0.15155227482318878
-1.4926384687423706,4.038999080657959,0.14999231696128845
-1.5156667232513428,4.0137763023376465,0.14811427891254425
-1.549172282218933,4.017752647399902,0.14733698964118958
-1.5761826038360596,4.007284164428711,0.14595454931259155
-1.5971858501434326,3.982189416885376,0.14403823018074036
-1.6198248863220215,3.9604341983795166,0.14223970472812653
-1.6477572917938232,3.948946475982666,0.1407816857099533
-1.6750794649124146,3.937485456466675,0.13934241235256195
-1.705933690071106,3.9370381832122803,0.13820938766002655
-1.7210947275161743,3.9006335735321045,0.1358242928981781
-1.747843861579895,3.8887746334075928,0.13427311182022095
-1.7656131982803345,3.8550429344177246,0.13194304704666138
-1.7885767221450806,3.8358824253082275,0.1301160305738449
-1.814077615737915,3.8239431381225586,0.12850172817707062
-1.83964204788208,3.81176495552063,0.1268782764673233
-1.8763699531555176,3.8199939727783203,0.12588925659656525
-1.8788354396820068,3.7578201293945312,0.12257033586502075
-1.910610556602478,3.7593495845794678,0.12128476798534393
-1.9317349195480347,3.73980712890625,0.11932214349508286
-1.953909158706665,3.719508647918701,0.11727920919656754
-1.9797863960266113,3.705857276916504,0.11544254422187805
-2.0230441093444824,3.7269699573516846,0.11463376134634018
-1.708526372909546,3.097912073135376,0.09402881562709808
-1.7220449447631836,3.0725741386413574,0.09198205173015594
-1.7510464191436768,3.0741777420043945,0.09072841703891754
-0.7917854189872742,1.369055986404419,0.03980597108602524
-0.782881498336792,1.3335894346237183,0.038184698671102524
-0.7882115244865417,1.3213825225830078,0.03720176964998245
-0.8782921433448792,1.4495097398757935,0.040115050971508026
-0.8917497992515564,1.450469732284546,0.039427418261766434
-0.905418872833252,1.4512149095535278,0.038716599345207214
-0.9029707908630371,1.4251006841659546,0.03725558891892433
-1.1350092887878418,1.6415776014328003,0.03697727993130684
-1.3119949102401733,1.8705456256866455,0.04083612561225891
-1.3534139394760132,1.9370743036270142,-0.03334090858697891
-1.3261780738830566,1.9274135828018188,-0.03460569679737091
-1.2648144960403442,1.8981553316116333,-0.03677111119031906
-1.3372777700424194,2.037506580352783,-0.040765468031167984
-1.2650974988937378,1.9586385488510132,-0.04041174799203873
-0.8925055861473083,1.4501779079437256,-0.03244909644126892
-0.86146479845047,1.4233473539352417,-0.03263149410486221
-0.817575216293335,1.3722397089004517,-0.032159507274627686
-0.8196284770965576,1.39822518825531,-0.03346972167491913
-0.7564408779144287,1.3129688501358032,-0.03208290785551071
-0.8472292423248291,1.494964361190796,-0.03722820430994034
-1.1125413179397583,1.9954023361206055,-0.050601016730070114
-1.638343334197998,2.989823579788208,-0.07713661342859268
-1.642350196838379,3.0498239994049072,-0.08001057803630829
-1.591465711593628,3.006120204925537,-0.080124132335186
-1.6405128240585327,3.1523396968841553,-0.08529908210039139
-1.6067254543304443,3.143360137939453,-0.08628809452056885
-1.5736128091812134,3.133828639984131,-0.08722592890262604
-1.5621694326400757,3.165656566619873,-0.08928101509809494
-1.5427312850952148,3.1838138103485107,-0.09096430242061615
-1.516220211982727,3.1878368854522705,-0.09219717979431152
-1.4967321157455444,3.205612897872925,-0.0938136950135231
-1.474371314048767,3.21591854095459,-0.09519189596176147
-1.4548249244689941,3.2333333492279053,-0.09676240384578705
-1.4376742839813232,3.258035182952881,-0.09851691126823425
-1.4107917547225952,3.2612178325653076,-0.09963442385196686
-1.3957202434539795,3.28887677192688,-0.1014605388045311
-1.365215539932251,3.280480146408081,-0.1021704375743866
-1.6069167852401733,3.9409961700439453,-0.12383865565061569
-1.5756268501281738,3.9451565742492676,-0.12506583333015442
-1.5533254146575928,3.970720052719116,-0.126963272690773
-1.5312693119049072,3.995962381362915,-0.1288442611694336
-1.5055383443832397,4.0140252113342285,-0.13043411076068878
-1.488824486732483,4.057662487030029,-0.1328478306531906
-1.4706376791000366,4.097446918487549,-0.1351439654827118
-1.4492765665054321,4.129841327667236,-0.13721901178359985
-1.417710542678833,4.132485389709473,-0.13827650249004364
-1.3880729675292969,4.14249324798584,-0.13950860500335693
-1.3643999099731445,4.1708526611328125,-0.1413709819316864
-1.3353171348571777,4.180213928222656,-0.14257435500621796
-1.3103677034378052,4.20442008972168,-0.14430798590183258
-1.2829910516738892,4.220977306365967,-0.14570890367031097
-1.255173921585083,4.237439155578613,-0.14706537127494812
-1.2272591590881348,4.253696918487549,-0.14842309057712555
-1.1976420879364014,4.262092590332031,-0.1495000272989273
-1.169991135597229,4.277822971343994,-0.15084384381771088
-1.1411875486373901,4.293641090393066,-0.15212500095367432
-1.1126275062561035,4.309160232543945,-0.15336616337299347
-1.082192301750183,4.316869735717773,-0.15433409810066223
-1.0558431148529053,4.339428424835205,-0.1558326631784439
-1.0256084203720093,4.3466386795043945,-0.15679091215133667
-0.9943548440933228,4.353863716125488,-0.1576562374830246
-0.9660436511039734,4.372197151184082,-0.15890714526176453
-0.9352692365646362,4.3788533210754395,-0.1597394049167633
-0.9126837849617004,4.4234538078308105,-0.16196215152740479
-0.8804148435592651,4.421998023986816,-0.16250978410243988
-0.8486952185630798,4.428169250488281,-0.1632283627986908
-0.8131861686706543,4.41098690032959,-0.16306692361831665
-0.7787994146347046,4.397341728210449,-0.16303740441799164
-0.7429556250572205,4.371840953826904,-0.16256658732891083
-0.7099748253822327,4.36147403717041,-0.16266199946403503
-0.6751701235771179,4.343274116516113,-0.16237680613994598
-0.6405693888664246,4.3208699226379395,-0.16190943121910095
-0.6102123856544495,4.3252410888671875,-0.16245010495185852
-0.5770270824432373,4.3061442375183105,-0.1621113270521164
-0.5451200604438782,4.294539928436279,-0.16205905377864838
-0.5104345679283142,4.259472370147705,-0.16102808713912964
-0.48088568449020386,4.270751476287842,-0.1617143303155899
-0.4497378170490265,4.262353897094727,-0.16165830194950104
-0.42275041341781616,4.292557239532471,-0.16307346522808075
-0.3935866951942444,4.303154945373535,-0.16375388205051422
-0.360920786857605,4.274667739868164,-0.16288498044013977
-0.3277333676815033,4.242096424102783,-0.1617969423532486
-0.2985757291316986,4.2520647048950195,-0.16233572363853455
-0.2689968943595886,4.254029273986816,-0.16257606446743011
-0.23940514028072357,4.2557878494262695,-0.1628163754940033
-0.215768501162529,4.378200531005859,-0.16764812171459198
-0.16823294758796692,3.9896254539489746,-0.15281566977500916
-0.13643521070480347,3.8775691986083984,-0.14857539534568787
-0.11218798160552979,3.9759676456451416,-0.15240611135959625
-0.08545302599668503,4.019575595855713,-0.15414611995220184
-0.06033303216099739,4.215217113494873,-0.16172821819782257
-0.030173923820257187,4.172604084014893,-0.16004471480846405
-0.0011266199871897697,4.1727142333984375,-0.16000905632972717
0.027830220758914948,4.164816379547119,-0.15967415273189545
0.056464314460754395,4.1411051750183105,-0.15874092280864716
0.0857343077659607,4.164029598236084,-0.1596030443906784
0.11382222175598145,4.132122993469238,-0.15826533734798431
0.1412336379289627,4.080509662628174,-0.15614154934883118
0.1699102520942688,4.087236404418945,-0.15626160800457
0.1971733570098877,4.062571048736572,-0.15518952906131744
0.22781690955162048,4.103979110717773,-0.15664823353290558
0.25412681698799133,4.067244052886963,-0.15507856011390686
0.28496405482292175,4.09651517868042,-0.1559676080942154
0.31033748388290405,4.055534362792969,-0.15419398248195648
0.3378294110298157,4.045514106750488,-0.15360677242279053
0.1579866260290146,1.7455216646194458,-0.06619086861610413
0.17083902657032013,1.7521600723266602,-0.06634733080863953
0.421499103307724,4.029843807220459,-0.15226902067661285
0.4519044756889343,4.050131320953369,-0.15272119641304016
0.49145567417144775,4.143826961517334,-0.15593834221363068
0.5173920392990112,4.117081165313721,-0.15462329983711243
0.5352376699447632,4.032135963439941,-0.1511380970478058
0.5716836452484131,4.0862836837768555,-0.15274862945079803
0.5975708961486816,4.066817283630371,-0.15161623060703278
0.6387757062911987,4.1474833488464355,-0.1542157530784607
0.6589199900627136,4.089005947113037,-0.15164367854595184
0.6873515248298645,4.084343433380127,-0.15108001232147217
0.7208256125450134,4.110302925109863,-0.151559516787529
0.7467561364173889,4.089824676513672,-0.15029945969581604
0.7916470766067505,4.172820568084717,-0.1528482288122177
0.8251959085464478,4.190216541290283,-0.1529828906059265
0.8613677024841309,4.2188215255737305,-0.1535274088382721
0.8799561262130737,4.163155555725098,-0.1509351134300232
0.9248348474502563,4.229403018951416,-0.15271903574466705
0.9702290296554565,4.295326232910156,-0.15448690950870514
0.9760963916778564,4.18586540222168,-0.14995235204696655
1.014306902885437,4.216963768005371,-0.15046891570091248
1.0394837856292725,4.194774627685547,-0.1490119993686676
1.1023938655853271,4.319880962371826,-0.152714341878891
1.1428064107894897,4.353814601898193,-0.15318302810192108
1.177140235900879,4.360870361328125,-0.15269094705581665
1.1960103511810303,4.31121826171875,-0.1502242386341095
1.2726576328277588,4.468145847320557,-0.1548784226179123
1.309097170829773,4.477987289428711,-0.15435874462127686
1.3251012563705444,4.420357704162598,-0.1515386402606964
1.3753427267074585,4.474506855010986,-0.1525394767522812
1.4228440523147583,4.517009258270264,-0.15312957763671875
1.462050437927246,4.533239364624023,-0.15273405611515045
1.5129109621047974,4.582396984100342,-0.15339544415473938
1.5467612743377686,4.579369068145752,-0.15231096744537354
1.5849169492721558,4.587007999420166,-0.15156878530979156
1.6401894092559814,4.642184734344482,-0.15238381922245026
1.0047870874404907,2.7837612628936768,-0.09070779383182526
1.00871741771698,2.7366394996643066,-0.08851374685764313
1.0251291990280151,2.7222208976745605,-0.08736829459667206
1.0440397262573242,2.7150533199310303,-0.08646705001592636
1.0655317306518555,2.7151105403900146,-0.0857800617814064
1.0692873001098633,2.6716513633728027,-0.08369904011487961
1.0872999429702759,2.664400577545166,-0.08276420086622238
1.1091691255569458,2.663862466812134,-0.08200416713953018
1.1154754161834717,2.627354145050049,-0.08016051352024078
1.1393855810165405,2.6341304779052734,-0.07960506528615952
1.1507588624954224,2.6121532917022705,-0.07817848026752472
1.1542619466781616,2.5721652507781982,-0.07621413469314575
1.1773048639297485,2.574617385864258,-0.07549310475587845
1.1898680925369263,2.5559496879577637,-0.07414856553077698
1.180145025253296,2.4915213584899902,-0.07148279249668121
1.2003775835037231,2.490539073944092,-0.07064439356327057
1.2073373794555664,2.4611318111419678,-0.06898634880781174
1.212231159210205,2.4282407760620117,-0.0672217458486557
1.228315830230713,2.4201741218566895,-0.0661422535777092
1.2338001728057861,2.3910763263702393,-0.06448781490325928
1.2504035234451294,2.3824656009674072,-0.06336575746536255
1.2556477785110474,2.35321044921875,-0.061699870973825455
1.2674301862716675,2.33803391456604,-0.060401786118745804
1.279625415802002,2.322497844696045,-0.0590696856379509
1.2862268686294556,2.2965235710144043,-0.05746781453490257
1.294042706489563,2.2742013931274414,-0.055961303412914276
1.3089792728424072,2.2656657695770264,-0.05479123070836067
1.3282968997955322,2.2634847164154053,-0.053742922842502594
1.3362388610839844,2.2406654357910156,-0.05217162147164345
1.33878755569458,2.2118256092071533,-0.05047927051782608
1.361411452293396,2.216355562210083,-0.0495460145175457
1.3643478155136108,2.187006711959839,-0.047799207270145416
1.379027247428894,2.1778085231781006,-0.04649877920746803
1.3806407451629639,2.149012565612793,-0.044766418635845184
1.3996055126190186,2.1460700035095215,-0.04353295639157295
1.3947858810424805,2.1072046756744385,-0.041565489023923874
1.40825355052948,2.098254919052124,-0.04020014777779579
1.4180901050567627,2.082202196121216,-0.03863092139363289
1.432363748550415,2.072436571121216,-0.03712967038154602
1.4409924745559692,2.056941270828247,-0.035545799881219864
1.46867835521698,2.0661139488220215,-0.03426991030573845
1.482096552848816,2.0565359592437744,-0.03266496956348419
1.4722964763641357,2.015414237976074,-0.030537448823451996
1.4999905824661255,2.0241594314575195,-0.02905943989753723
2.120429515838623,2.9637975692749023,0.047865692526102066
2.097177267074585,2.9802565574645996,0.05027761310338974
2.0804030895233154,3.0014617443084717,0.05258000269532204
2.5934081077575684,3.8005073070526123,0.06894984841346741
3.150301456451416,4.692212104797363,0.0879737138748169
3.1369028091430664,4.743322372436523,0.09156882017850876
3.1009135246276855,4.766868591308594,0.09465067833662033
3.090657949447632,4.829204082489014,0.09840292483568192
1.630577802658081,2.5871410369873047,0.05396585538983345
1.6239545345306396,2.618886709213257,0.05585680156946182
1.5962152481079102,2.6175734996795654,0.057031065225601196
2.833591938018799,4.721837043762207,0.10492952167987823
2.7698850631713867,4.6915283203125,0.10622336715459824
2.7601568698883057,4.755998134613037,0.10962887108325958
2.7454512119293213,4.809469699859619,0.11272946745157242
2.468989849090576,4.39598274230957,0.10469381511211395
1.3831840753555298,2.506293535232544,0.06061582267284393
2.414551258087158,4.45269250869751,0.10928703099489212
2.4018123149871826,4.5038371086120605,0.11205705255270004
2.4284186363220215,4.631085395812988,0.11677076667547226
2.45331072807312,4.763336658477783,0.12161476910114288
2.4000463485717773,4.74662446975708,0.12271091341972351
2.3443515300750732,4.717706203460693,0.12337008118629456
1.2097172737121582,2.4774625301361084,0.06552276015281677
1.1595218181610107,2.4192984104156494,0.0646536573767662
1.1900030374526978,2.530165195465088,0.06831412762403488
1.1787956953048706,2.5525972843170166,0.06959325820207596
1.1751770973205566,2.59287691116333,0.07138272374868393
1.1596709489822388,2.6083738803863525,0.07245299220085144
1.1406408548355103,2.6167280673980713,0.07331721484661102
1.1112654209136963,2.5996127128601074,0.07345052063465118
2.0368235111236572,4.857999324798584,0.13838084042072296
2.013833999633789,4.901320934295654,0.1407373696565628
1.9913697242736816,4.948352336883545,0.1431276947259903
1.9755276441574097,5.013461112976074,0.14606472849845886
2.0151171684265137,5.220115661621094,0.15314175188541412
1.9814997911453247,5.241275310516357,0.15482480823993683
1.9543663263320923,5.284728527069092,0.15712565183639526
1.9308730363845825,5.339014530181885,0.15970873832702637
1.9082773923873901,5.396815299987793,0.1624135822057724
1.8578628301620483,5.3730387687683105,0.16264835000038147
1.8591333627700806,5.500484943389893,0.16748251020908356
1.9243227243423462,5.832697868347168,0.17854882776737213
1.9170584678649902,5.95412015914917,0.18319861590862274
1.8793213367462158,5.9824700355529785,0.1850040853023529
1.8571089506149292,6.058820724487305,0.18829424679279327
1.8305696249008179,6.123926162719727,0.19126178324222565
1.8032969236373901,6.192996978759766,0.19425641000270844
1.7677903175354004,6.239717960357666,0.19655761122703552
1.733820915222168,6.289713382720947,0.19896170496940613
1.7112765312194824,6.380775451660156,0.20267286896705627
1.6707425117492676,6.407610893249512,0.20436719059944153
0.8261330723762512,3.262598752975464,0.10443497449159622
1.5751526355743408,6.415626525878906,0.20607295632362366
0.7981762290000916,3.3538544178009033,0.10809627920389175
1.4716061353683472,6.380010604858398,0.20632369816303253
1.4042023420333862,6.287181377410889,0.20401312410831451
1.3493493795394897,6.247234344482422,0.203343465924263
1.3066272735595703,6.268246173858643,0.20458076894283295
1.2536717653274536,6.235223770141602,0.20405279099941254
1.195895791053772,6.17099142074585,0.20249603688716888
1.1414604187011719,6.117731094360352,0.20129427313804626
1.095432996749878,6.1062822341918945,0.20146167278289795
1.0488299131393433,6.0985918045043945,0.20160527527332306
1.0006177425384521,6.075014591217041,0.2012239396572113
0.9627428650856018,6.112730503082275,0.20288066565990448
0.9009987115859985,5.991860866546631,0.19927342236042023
0.8626354932785034,6.021148681640625,0.20066210627555847
0.8175300359725952,6.011661052703857,0.2006903886795044
0.7657294273376465,5.943678379058838,0.19870565831661224
0.72577303647995,5.964405536651611,0.19969366490840912
0.5783355832099915,5.046180248260498,0.16920608282089233
0.5519744157791138,5.131585121154785,0.17233677208423615
0.5194147229194641,5.166360855102539,0.17377591133117676
0.16143369674682617,1.7297890186309814,0.058232493698596954
0.149978905916214,1.7386540174484253,0.05858232080936432
0.13840775191783905,1.7474430799484253,0.05893293395638466
0.12626178562641144,1.7483596801757812,0.05902068316936493
0.11461803317070007,1.7569833993911743,0.05937173590064049
0.10351227223873138,1.7811344861984253,0.06023188307881355
0.08768050372600555,1.7155307531356812,0.05803312361240387
0.07603912055492401,1.7239004373550415,0.058338917791843414
0.06475383788347244,1.7438935041427612,0.05904122069478035
0.05285791680216789,1.7521047592163086,0.05934789031744003
0.040840160101652145,1.7680448293685913,0.059920135885477066
0.12323407828807831,7.639153003692627,0.25887349247932434
0.06994496285915375,7.624211311340332,0.2583158016204834
0.016904311254620552,7.624514102935791,0.2582872807979584
-0.03593362495303154,7.581504821777344,0.25680410861968994
-0.0892968475818634,7.557638645172119,0.2559819221496582
-0.14127236604690552,7.525610446929932,0.25486820936203003
-0.19293497502803802,7.501038551330566,0.25385046005249023
-0.24439062178134918,7.480015277862549,0.2529660761356354
-0.2960273027420044,7.470343589782715,0.25247839093208313
-0.34881314635276794,7.487614154815674,0.2529132664203644
-0.2910200357437134,5.42270565032959,0.18306505680084229
-0.3295336365699768,5.436153888702393,0.18336224555969238
-0.36604562401771545,5.418176174163818,0.1825350970029831
-0.3857910633087158,5.178038120269775,0.17424218356609344
-0.4064538776874542,4.988473415374756,0.1676752120256424
-0.4403764307498932,4.969925880432129,0.16686847805976868
-0.44332489371299744,4.636414051055908,0.15551011264324188
-0.473325252532959,4.613837242126465,0.15449535846710205
-0.5034141540527344,4.594954490661621,0.1535918116569519
-0.5323613882064819,4.568120956420898,0.15243206918239594
-0.5627172589302063,4.548759937286377,0.15152466297149658
-0.5943218469619751,4.544751167297363,0.15114131569862366
-0.626926064491272,4.548264026641846,0.15099017322063446
-0.6547935009002686,4.520683765411377,0.14972878992557526
-0.6852426528930664,4.51223611831665,0.14911024272441864
-0.7120069265365601,4.4764838218688965,0.14759165048599243
-0.7443616986274719,4.479149341583252,0.14735235273838043
-0.7727872729301453,4.458500385284424,0.14635370671749115
-0.8006482720375061,4.437731742858887,0.14528630673885345
-0.8295429944992065,4.424496650695801,0.14443734288215637
-0.8516244292259216,4.376574516296387,0.14246681332588196
-0.7402687668800354,3.666307210922241,0.11900095641613007
-0.7641107439994812,3.653451681137085,0.11824962496757507
-0.815796434879303,3.770205020904541,0.1216718927025795
-0.9692216515541077,4.336123466491699,0.13944537937641144
-0.9899702668190002,4.291396617889404,0.1375272125005722
-1.0181382894515991,4.276797294616699,0.13657386600971222
-1.0552582740783691,4.299981117248535,0.13683438301086426
-1.0707801580429077,4.235782146453857,0.13432304561138153
-1.0976779460906982,4.220847129821777,0.13331261277198792
-1.133364200592041,4.23972749710083,0.13335472345352173
-1.1647651195526123,4.239332675933838,0.1327812820672989
-1.1909894943237305,4.21989631652832,0.13161684572696686
-1.2137783765792847,4.189037799835205,0.13010622560977936
-1.242443323135376,4.180652141571045,0.1292567253112793
-1.2684533596038818,4.164698600769043,0.1281365305185318
-1.294782042503357,4.148436546325684,0.1270044595003128
-1.3187148571014404,4.124524116516113,0.12564438581466675
-1.3473109006881714,4.115299224853516,0.12473844736814499
-1.3755251169204712,4.105982780456543,0.12380314618349075
-1.4056687355041504,4.104046821594238,0.1230395957827568
-1.4281431436538696,4.079765319824219,0.12161208689212799
-1.4567668437957764,4.069662570953369,0.12058616429567337
-1.4877235889434814,4.066795349121094,0.11978629976511002
-1.5128889083862305,4.049195766448975,0.11852734535932541
-1.5289307832717896,4.009782791137695,0.11658928543329239
-1.5586353540420532,4.006742477416992,0.11571933329105377
-1.5896958112716675,4.002957820892334,0.11479182541370392
-1.617449164390564,3.991856336593628,0.11367020010948181
-1.6341372728347778,3.9555275440216064,0.1118033155798912
-1.660522699356079,3.944556713104248,0.1106298565864563
-1.6838500499725342,3.926191568374634,0.1092524453997612
-1.7053114175796509,3.8999099731445312,0.10761760920286179
-1.7355265617370605,3.8951432704925537,0.10659977048635483
-1.7518640756607056,3.8621432781219482,0.10476531833410263
-1.7807657718658447,3.8575403690338135,0.10370032489299774
-1.803717017173767,3.8382694721221924,0.10222088545560837
-1.8139926195144653,3.7902109622955322,0.0999540388584137
-1.8433018922805786,3.7847678661346436,0.09881898760795593
-1.8718174695968628,3.779499053955078,0.09765700995922089
-1.8935377597808838,3.7599563598632812,0.09612151980400085
-1.9196486473083496,3.7467284202575684,0.09471234679222107
-1.9527347087860107,3.747250556945801,0.09364773333072662
-1.6834969520568848,3.178492307662964,0.07845915108919144
-1.687743067741394,3.1364121437072754,0.07647118717432022
-1.7020537853240967,3.110905647277832,0.0748499184846878
-1.723638892173767,3.0990285873413086,0.07356356084346771
-1.7323960065841675,3.067289113998413,0.07178659737110138
-0.7870491147041321,1.3719967603683472,0.03164069727063179
-0.7788750529289246,1.3361345529556274,0.030336089432239532
-0.7800573706626892,1.3173346519470215,0.029432790353894234
-0.842920184135437,1.402634859085083,0.030813291668891907
-0.8908754587173462,1.460361123085022,0.031518708914518356
-0.8970786929130554,1.4473925828933716,0.03064156323671341
-0.906670331954956,1.4414188861846924,0.029920807108283043
-0.8949463963508606,1.402626395225525,0.02852928638458252
-2.38564395904541,3.5261075496673584,0.0650782585144043
-1.532075047492981,2.2314035892486572,0.040021948516368866
-1.3877592086791992,1.9940662384033203,0.03471693396568298
-1.3673818111419678,1.9368242025375366,0.03262753784656525
-1.3247250318527222,1.799113392829895,0.026950716972351074
-1.2480231523513794,1.7725638151168823,-0.0233197920024395
-1.6140241622924805,2.3268656730651855,-0.031979963183403015
-1.2174869775772095,1.784193754196167,-0.025554655119776726
-1.224366545677185,1.821974515914917,-0.027067912742495537
-1.3038357496261597,1.9708353281021118,-0.030297214165329933
-0.8751891851425171,1.433440923690796,-0.0253160260617733
-0.8566968441009521,1.4263625144958496,-0.025779183954000473
-0.7924405336380005,1.3418786525726318,-0.024785203859210014
-0.7868460416793823,1.354197382926941,-0.025521529838442802
-0.8084412813186646,1.4138671159744263,-0.02716432511806488
-0.9338759779930115,1.6615077257156372,-0.032510288059711456
-1.6013908386230469,2.8991150856018066,-0.05775134265422821
-1.6464107036590576,3.0302929878234863,-0.061368394643068314
-1.6063839197158813,3.0074684619903564,-0.061885200440883636
-1.6060066223144531,3.0606727600097656,-0.06395430862903595
-1.6181403398513794,3.1379804611206055,-0.0665351003408432
-1.5958623886108398,3.1493430137634277,-0.06773478537797928
-1.5697697401046753,3.153681993484497,-0.06873462349176407
-1.5501357316970825,3.1720502376556396,-0.07002498209476471
-1.5276646614074707,3.182908773422241,-0.07112737745046616
-1.5054817199707031,3.193436622619629,-0.07221198827028275
-1.4859107732772827,3.211174249649048,-0.07343751937150955
-1.4621621370315552,3.2220325469970703,-0.07450872659683228
-1.442496657371521,3.239412784576416,-0.07570244371891022
-1.4199179410934448,3.2493491172790527,-0.07671436667442322
-1.396907091140747,3.259284496307373,-0.0777013897895813
-1.3763803243637085,3.276456356048584,-0.07883281260728836
-1.3570122718811035,3.2971749305725098,-0.08006232231855392
-1.3296724557876587,3.295642137527466,-0.08072459697723389
-1.3095101118087769,3.3120830059051514,-0.08182434737682343
-1.2856801748275757,3.3213839530944824,-0.08270581066608429
-1.26314115524292,3.3341755867004395,-0.08367990702390671
-1.2394475936889648,3.3430335521698,-0.08455154299736023
-1.22152841091156,3.366223096847534,-0.08577872067689896
-1.1950790882110596,3.367396354675293,-0.08641162514686584
-1.1786386966705322,3.397975444793701,-0.08778120577335358
-1.1519907712936401,3.3988356590270996,-0.08838532865047455
-1.1278443336486816,3.4069032669067383,-0.08918008208274841
-1.104062795639038,3.4146640300750732,-0.08996100723743439
-1.0842993259429932,3.437354326248169,-0.09107615053653717
-1.052797555923462,3.4226083755493164,-0.09120028465986252
-1.0612279176712036,3.5383810997009277,-0.0948111042380333
-1.221762776374817,4.179081916809082,-0.11259599775075912
-1.185606598854065,4.16510534286499,-0.1128312274813652
-1.1559288501739502,4.173418045043945,-0.11359719187021255
-1.1383789777755737,4.226766109466553,-0.11560063809156418
-1.1108266115188599,4.242143154144287,-0.1165674701333046
-1.0813360214233398,4.249734878540039,-0.11732430011034012
-1.0651415586471558,4.314158916473389,-0.11963948607444763
-1.0363975763320923,4.329165935516357,-0.12051541358232498
-1.0039653778076172,4.3287672996521,-0.12096848338842392
-0.9805274605751038,4.366139888763428,-0.12247972935438156
-0.9542834758758545,4.391913890838623,-0.12367451190948486
-0.9245759844779968,4.406225204467773,-0.12453428655862808
-0.8949118852615356,4.420297622680664,-0.12532295286655426
-0.8650947213172913,4.434170722961426,-0.12611360847949982
-0.8341611623764038,4.440077781677246,-0.12667857110500336
-0.8088609576225281,4.476487159729004,-0.12812115252017975
-0.7784299850463867,4.4897894859313965,-0.12889133393764496
-0.7468263506889343,4.495141506195068,-0.12934421002864838
-0.7169836163520813,4.51184606552124,-0.130131334066391
-0.6889870166778564,4.539890766143799,-0.1312514990568161
-0.6562446355819702,4.536835670471191,-0.1314791738986969
-0.6261647343635559,4.556838035583496,-0.13237842917442322
-0.5950971841812134,4.568864345550537,-0.1329451948404312
-0.5648455023765564,4.588429927825928,-0.13373902440071106
-0.5345165133476257,4.6077752113342285,-0.13453340530395508
-0.5041982531547546,4.626892566680908,-0.13532736897468567
-0.47324419021606445,4.64192533493042,-0.1360098123550415
-0.4508836269378662,4.7578959465026855,-0.13957364857196808
-0.43397030234336853,4.947629451751709,-0.14529918134212494
-0.40060997009277344,4.966104030609131,-0.1460089385509491
-0.3683435618877411,4.999915599822998,-0.14717744290828705
-0.3358856737613678,5.037413120269775,-0.14846393465995789
-0.2956681549549103,4.965611934661865,-0.14646196365356445
-0.26176562905311584,4.983150482177734,-0.1470472514629364
-0.22443625330924988,4.930247783660889,-0.14556048810482025
-0.19014611840248108,4.931685924530029,-0.1456838995218277
-0.1535491794347763,4.858734607696533,-0.14361542463302612
-0.1199624240398407,4.890923023223877,-0.1446266770362854
-0.08605971932411194,4.899446964263916,-0.14486277103424072
-0.05204419046640396,4.907735824584961,-0.14509887993335724
-0.01790599152445793,4.900169849395752,-0.1448732614517212
0.01619572937488556,4.90017557144165,-0.14487849175930023
0.04987403005361557,4.8023295402526855,-0.14199769496917725
0.08428820222616196,4.860429763793945,-0.1436167061328888
0.11804483085870743,4.8597307205200195,-0.14350292086601257
0.15184086561203003,4.858795166015625,-0.14338897168636322
0.18592780828475952,4.8654279708862305,-0.14350518584251404
0.21852825582027435,4.836716651916504,-0.1425861418247223
0.22250941395759583,4.25797176361084,-0.12539246678352356
0.24766893684864044,4.182273864746094,-0.12300455570220947
0.27716514468193054,4.188255310058594,-0.12302754074335098
0.3076883554458618,4.205705165863037,-0.12339196354150772
0.3381944000720978,4.21903657913208,-0.12364012748003006
0.42535531520843506,4.873927116394043,-0.14262990653514862
0.16814392805099487,1.7843060493469238,-0.0521194264292717
0.488750159740448,4.8287553787231445,-0.140793114900589
0.5142828226089478,4.751498699188232,-0.1382955014705658
0.5517328977584839,4.786612510681152,-0.13907703757286072
0.5917140245437622,4.832988739013672,-0.14017347991466522
0.6290159821510315,4.859788417816162,-0.14059467613697052
0.6693547368049622,4.905646800994873,-0.14156801998615265
0.6893703937530518,4.804291725158691,-0.13830208778381348
0.7297463417053223,4.845728397369385,-0.13915477693080902
0.768875002861023,4.871314525604248,-0.13954798877239227
0.8043133020401001,4.877477645874023,-0.1393086463212967
0.8391034007072449,4.879554271697998,-0.13894161581993103
0.8740917444229126,4.881358623504639,-0.1385704129934311
0.9166020154953003,4.921242713928223,-0.1392783671617508
0.9545173645019531,4.933933258056641,-0.13921785354614258
0.9891095757484436,4.9271345138549805,-0.1385364979505539
1.0244500637054443,4.927905082702637,-0.13804444670677185
1.0935063362121582,5.084939956665039,-0.1419185996055603
1.1119269132614136,5.000990390777588,-0.13905654847621918
1.1466686725616455,4.993159770965576,-0.13832636177539825
1.190704584121704,5.023003101348877,-0.13857533037662506
1.234257698059082,5.052708148956299,-0.13877709209918976
1.270695686340332,5.05174446105957,-0.13813664019107819
1.3087290525436401,5.054150581359863,-0.137582466006279
1.3438860177993774,5.044939994812012,-0.1367165446281433
1.3791877031326294,5.035428524017334,-0.1357893943786621
1.4325145483016968,5.093598365783691,-0.13664329051971436
0.8608337044715881,2.98271107673645,-0.07959919422864914
0.8937526345252991,3.017854690551758,-0.08010945469141006
0.9056894183158875,2.981675148010254,-0.07872764021158218
0.920701801776886,2.956646680831909,-0.07761294394731522
0.9360288977622986,2.935455799102783,-0.07659012824296951
0.9608526229858398,2.943876266479492,-0.07634233683347702
0.968927800655365,2.90010142326355,-0.0747385174036026
0.9814939498901367,2.871138572692871,-0.07352959364652634
0.9920237064361572,2.8385932445526123,-0.07220802456140518
1.0089077949523926,2.8243610858917236,-0.07133941352367401
1.0228062868118286,2.8027522563934326,-0.07029591500759125
1.0340887308120728,2.7736332416534424,-0.06906454265117645
1.056129813194275,2.7736916542053223,-0.06856544315814972
1.0635017156600952,2.737400770187378,-0.06713062524795532
1.0750681161880493,2.7119033336639404,-0.06596358865499496
1.0848915576934814,2.6827471256256104,-0.06471803039312363
1.1034882068634033,2.6751692295074463,-0.06399495154619217
1.109658122062683,2.638772964477539,-0.06257163733243942
1.11808180809021,2.60975980758667,-0.061312999576330185
1.1453272104263306,2.6235239505767822,-0.06104854866862297
1.1508692502975464,2.5869574546813965,-0.05960841104388237
1.17204749584198,2.586027145385742,-0.05899748206138611
1.1811089515686035,2.5604300498962402,-0.057809848338365555
1.184902548789978,2.524221658706665,-0.05639607459306717
1.192520260810852,2.4947023391723633,-0.05511455610394478
1.1978938579559326,2.4617762565612793,-0.053778275847435
1.2109516859054565,2.4466848373413086,-0.052817776799201965
1.2236894369125366,2.4316153526306152,-0.051856592297554016
1.229615330696106,2.402346611022949,-0.05058446526527405
1.2462339401245117,2.393785238265991,-0.049747832119464874
1.2588720321655273,2.3783466815948486,-0.048739541321992874
1.2708195447921753,2.3631365299224854,-0.0477447435259819
1.266350507736206,2.316706895828247,-0.04610864818096161
1.3070915937423706,2.3522446155548096,-0.046092379838228226
1.3111791610717773,2.3231141567230225,-0.04479606822133064
1.3091850280761719,2.2838258743286133,-0.0433075986802578
1.3249638080596924,2.2747256755828857,-0.04237670451402664
1.3287262916564941,2.245358943939209,-0.041070740669965744
1.3313071727752686,2.2165541648864746,-0.03977936506271362
1.3460241556167603,2.2076644897460938,-0.038840364664793015
1.3533294200897217,2.184854745864868,-0.03761652857065201
