X,Y,Z
-1.5129326581954956,3.1905760765075684,-0.03139985725283623
-1.4807935953140259,3.1797797679901123,-0.0316179059445858
-1.9701114892959595,4.309071063995361,-0.04328220710158348
-1.9387626647949219,4.323261260986328,-0.043844833970069885
-1.8947651386260986,4.308603286743164,-0.044113997370004654
-1.8764898777008057,4.350640296936035,-0.044957082718610764
-1.8522945642471313,4.3779616355896,-0.04564550518989563
-1.8207355737686157,4.391174793243408,-0.04617097228765488
-1.6081651449203491,3.9590797424316406,-0.041974522173404694
-1.5526539087295532,3.9014055728912354,-0.04169821739196777
-1.532087802886963,3.9304919242858887,-0.04234695062041283
-1.507075309753418,3.9485082626342773,-0.0428638830780983
-1.4895813465118408,3.9885098934173584,-0.043609458953142166
-1.4661953449249268,4.013799667358398,-0.04420020803809166
-1.4381910562515259,4.023913860321045,-0.0446171872317791
-1.4198952913284302,4.0635175704956055,-0.045371390879154205
-1.388318657875061,4.066155433654785,-0.04568891599774361
-1.3627684116363525,4.087139129638672,-0.046210743486881256
-1.3385095596313477,4.111577987670898,-0.04677277430891991
-1.305168867111206,4.105886936187744,-0.04698791727423668
-0.9752449989318848,3.1450326442718506,-0.03620937839150429
-0.9482420682907104,3.1369571685791016,-0.03630751743912697
-0.8364613652229309,2.840139389038086,-0.033045850694179535
-0.7937885522842407,2.767120122909546,-0.03236458823084831
-0.7661069631576538,2.742478370666504,-0.03224185109138489
-0.7438433766365051,2.7364563941955566,-0.032332975417375565
-0.7290065884590149,2.760648250579834,-0.0327608659863472
-0.7112925052642822,2.7733283042907715,-0.03305274620652199
-0.6917694211006165,2.7782599925994873,-0.03325272724032402
-1.2760649919509888,5.281246662139893,-0.0634782612323761
-0.7304954528808594,3.118488311767578,-0.03763943910598755
-0.7097127437591553,3.1312918663024902,-0.03793643042445183
-0.6883441209793091,3.140054941177368,-0.038184426724910736
-0.6654667258262634,3.1409878730773926,-0.0383378230035305
-0.6506670117378235,3.1799747943878174,-0.038957495242357254
-0.6331137418746948,3.207404851913452,-0.0394396036863327
-0.607154130935669,3.1965160369873047,-0.03942602872848511
-1.0217702388763428,5.594537734985352,-0.06921336054801941
-0.5789442658424377,3.300926685333252,-0.04096268489956856
-0.5481818318367004,3.2586514949798584,-0.040561966598033905
-0.5354588627815247,3.324080467224121,-0.04150431603193283
-0.5152420997619629,3.350985527038574,-0.041944969445466995
-0.49164754152297974,3.3545267581939697,-0.04208698123693466
-0.47177156805992126,3.384986162185669,-0.04256973788142204
-0.4523199200630188,3.4191606044769287,-0.04310169816017151
-0.4304743707180023,3.4377241134643555,-0.04344034194946289
-0.4096173346042633,3.4678032398223877,-0.04391173645853996
-0.3865267336368561,3.486171245574951,-0.04422352463006973
-0.36607325077056885,3.5276482105255127,-0.044830456376075745
-0.34484735131263733,3.5651040077209473,-0.04538963362574577
-0.32143914699554443,3.5829761028289795,-0.04570263624191284
-0.3003491759300232,3.6318376064300537,-0.046407558023929596
-0.2738908529281616,3.6260933876037598,-0.04638202115893364
-0.24236814677715302,3.5382943153381348,-0.045307040214538574
-0.21763330698013306,3.5399010181427,-0.04537781700491905
-0.19663527607917786,3.6076297760009766,-0.04629911109805107
-0.1793069690465927,3.7727739810943604,-0.04847641661763191
-0.1550293266773224,3.836395740509033,-0.049327924847602844
-0.12822799384593964,3.8373844623565674,-0.04936855658888817
-0.10276168584823608,3.8889453411102295,-0.05006261542439461
-0.07619810849428177,3.9129960536956787,-0.05040538311004639
-0.05023466795682907,4.011070728302002,-0.05170522257685661
-0.021991651505231857,4.026948928833008,-0.05193144828081131
0.006017867010086775,4.038722038269043,-0.0520760715007782
0.03461860865354538,4.101075172424316,-0.05287531018257141
0.06366562843322754,4.135885238647461,-0.05332188680768013
0.09328548610210419,4.174392223358154,-0.05381869524717331
0.12344370782375336,4.212685585021973,-0.05431538075208664
0.15179553627967834,4.172674655914307,-0.05376960337162018
0.1793743222951889,4.140304088592529,-0.05332312732934952
0.2145523577928543,4.26769495010376,-0.05493617057800293
0.2437751740217209,4.25830078125,-0.05479023978114128
0.2733382284641266,4.256506443023682,-0.05474480241537094
0.30281496047973633,4.246679782867432,-0.05457131564617157
0.3309619128704071,4.228909015655518,-0.05427369475364685
0.362817645072937,4.2576584815979,-0.05457555502653122
0.4081176817417145,4.426176071166992,-0.056668248027563095
0.44544529914855957,4.4893083572387695,-0.057410676032304764
0.4804377257823944,4.517124652862549,-0.05769753456115723
0.5133445858955383,4.529229640960693,-0.05775170400738716
0.5641300082206726,4.688462257385254,-0.05968090519309044
0.6221569180488586,4.885937690734863,-0.06209172308444977
0.6441506743431091,4.792459487915039,-0.06080489978194237
0.6829256415367126,4.822596549987793,-0.06108902394771576
0.726504921913147,4.887317180633545,-0.06177546828985214
0.7667019367218018,4.9246625900268555,-0.06210213527083397
0.7979905009269714,4.903863906860352,-0.06169788911938667
0.8293896913528442,4.882806777954102,-0.06129271537065506
0.862667441368103,4.873073577880859,-0.06103282794356346
0.8940656781196594,4.851527214050293,-0.0606054961681366
0.9243534207344055,4.829945087432861,-0.060155197978019714
0.9544311761856079,4.808166980743408,-0.05970620736479759
0.982897162437439,4.778507709503174,-0.05916241928935051
1.0177234411239624,4.779202461242676,-0.05899669975042343
1.0497121810913086,4.764283180236816,-0.05862895026803017
1.0787702798843384,4.741770267486572,-0.058128971606492996
1.1084200143814087,4.722894668579102,-0.05767784267663956
1.1353588104248047,4.692386627197266,-0.05708721652626991
1.1679751873016357,4.684378623962402,-0.05677158385515213
1.1972326040267944,4.660861015319824,-0.056267593055963516
1.2269731760025024,4.645044803619385,-0.05582832545042038
1.2545475959777832,4.621490478515625,-0.055299531668424606
1.2798805236816406,4.5902180671691895,-0.054682034999132156
1.3117340803146362,4.581221103668213,-0.05433029681444168
1.3429826498031616,4.568090915679932,-0.05392811447381973
1.3694988489151,4.543900489807129,-0.0533614344894886
1.3979614973068237,4.5270538330078125,-0.052882056683301926
1.4240953922271729,4.502521514892578,-0.05231497436761856
1.4457560777664185,4.4627814292907715,-0.05157088115811348
1.4797626733779907,4.459857940673828,-0.05125133693218231
1.5073951482772827,4.442350387573242,-0.050731536000967026
1.5310301780700684,4.413599014282227,-0.0500858798623085
1.283099889755249,3.6188933849334717,-0.04080576077103615
1.305535078048706,3.6025564670562744,-0.040357209742069244
1.5975955724716187,4.315062046051025,-0.04801889508962631
1.632596492767334,4.318654537200928,-0.047702014446258545
1.6587992906570435,4.300290584564209,-0.04715006425976753
1.6882761716842651,4.288808822631836,-0.04666925221681595
1.7181211709976196,4.2769455909729,-0.04618110880255699
1.7474374771118164,4.265057563781738,-0.045677755028009415
1.7735276222229004,4.245815277099609,-0.04506901279091835
1.798977255821228,4.226611137390137,-0.044470515102148056
1.8236415386199951,4.203263282775879,-0.04381898418068886
1.852806806564331,4.190494537353516,-0.04328090324997902
1.874469518661499,4.163726806640625,-0.04257862642407417
1.8994548320770264,4.143801212310791,-0.04194065183401108
1.9243791103363037,4.123672008514404,-0.04130212962627411
1.9496679306030273,4.103133678436279,-0.04065443202853203
1.9706988334655762,4.075732707977295,-0.03992648795247078
1.9942800998687744,4.055547714233398,-0.039259329438209534
2.0219807624816895,4.04181432723999,-0.038643091917037964
2.053532361984253,4.034648895263672,-0.03808358311653137
2.073866128921509,4.006656169891357,-0.03732217475771904
2.096635103225708,3.985969305038452,-0.03661941736936569
2.123119354248047,3.9719316959381104,-0.03597604110836983
2.150662660598755,3.957092046737671,-0.03530449792742729
2.1723897457122803,3.9318292140960693,-0.034524064511060715
2.1981587409973145,3.9174866676330566,-0.03383424133062363
2.2261924743652344,3.9061269760131836,-0.03316178917884827
2.253312349319458,3.8905515670776367,-0.03243027627468109
2.2695369720458984,3.858473300933838,-0.03155333176255226
2.299135208129883,3.8500187397003174,-0.03085297904908657
2.3252017498016357,3.834338665008545,-0.030081836506724358
2.3435633182525635,3.8048107624053955,-0.029190851375460625
2.368163585662842,3.7895541191101074,-0.028401585295796394
2.3970799446105957,3.7805893421173096,-0.027652347460389137
2.4110467433929443,3.7438571453094482,-0.02664884552359581
2.4442625045776367,3.740940809249878,-0.025884849950671196
2.4682066440582275,3.7251923084259033,-0.025022657588124275
2.493892192840576,3.7080516815185547,-0.024093661457300186
2.5139942169189453,3.6850054264068604,-0.02312522381544113
2.5288448333740234,3.6558525562286377,-0.02211044356226921
2.563076972961426,3.651047706604004,-0.021183131262660027
2.586672782897949,3.6343750953674316,-0.020159970968961716
2.605409860610962,3.6113429069519043,-0.01907138153910637
2.6254894733428955,3.587100028991699,-0.01790553703904152
2.179910659790039,2.9401605129241943,-0.013811778277158737
2.5920488834381104,3.630476236343384,0.0298119205981493
2.570895195007324,3.655031681060791,0.031141294166445732
2.534623384475708,3.6612789630889893,0.032298702746629715
2.50730562210083,3.6800291538238525,0.03352886438369751
2.490152597427368,3.710479259490967,0.03480379283428192
2.4617443084716797,3.7293765544891357,0.03595443442463875
2.4341726303100586,3.747419834136963,0.03706567361950874
2.407727003097534,3.764455795288086,0.03811661899089813
2.375135898590088,3.7758657932281494,0.039113663136959076
2.35184907913208,3.7995944023132324,0.04020603373646736
2.317206859588623,3.8025240898132324,0.04104665294289589
2.2882940769195557,3.8199822902679443,0.042038269340991974
2.2640583515167236,3.8434553146362305,0.04307348653674126
2.2333717346191406,3.852329969406128,0.0439036563038826
2.2056188583374023,3.868276357650757,0.04480666294693947
2.176928997039795,3.884483575820923,0.045708104968070984
2.156252861022949,3.9138364791870117,0.04675450548529625
2.132664203643799,3.935616970062256,0.047688987106084824
2.111154794692993,3.9648962020874023,0.04870162159204483
2.0782346725463867,3.9734256267547607,0.049461185932159424
2.05387020111084,3.9948503971099854,0.05035212263464928
2.0308151245117188,4.019742488861084,0.051297590136528015
2.0082972049713135,4.048478126525879,0.052250951528549194
1.992287039756775,4.091155052185059,0.05339261516928673
1.9702664613723755,4.11912202835083,0.054326657205820084
1.9498260021209717,4.150414943695068,0.055307403206825256
1.9426213502883911,4.214072227478027,0.05670757219195366
1.9354509115219116,4.281740665435791,0.0581844262778759
1.9177404642105103,4.323897838592529,0.05930298566818237
1.8907490968704224,4.3442792892456055,0.060120198875665665
1.8597702980041504,4.357621192932129,0.06082336604595184
1.8386731147766113,4.396206855773926,0.06186762452125549
1.8123866319656372,4.42398738861084,0.06277217715978622
1.7874374389648438,4.450957775115967,0.06364572048187256
1.7563953399658203,4.463289260864258,0.06431343406438828
1.726998209953308,4.483108997344971,0.06505264341831207
1.697368860244751,4.502750873565674,0.06579465419054031
1.332505464553833,3.6133275032043457,0.05316450819373131
1.3033642768859863,3.6114790439605713,0.05349219962954521
1.2752940654754639,3.61319637298584,0.05386261269450188
1.5842489004135132,4.593358039855957,0.06888727098703384
1.551184058189392,4.604619979858398,0.06947238743305206
1.524419903755188,4.634104251861572,0.07033417373895645
1.4968823194503784,4.659476280212402,0.0711304247379303
1.4662165641784668,4.677395343780518,0.07178985327482224
1.4395238161087036,4.710181713104248,0.07265499979257584
1.3990588188171387,4.697904109954834,0.0728287398815155
1.3749560117721558,4.737551689147949,0.0738021731376648
1.3392815589904785,4.739634990692139,0.07420077174901962
1.3152096271514893,4.782830715179443,0.0752154067158699
1.2891833782196045,4.8222551345825195,0.07615334540605545
1.2528430223464966,4.823746204376221,0.07649757713079453
1.2305794954299927,4.877818584442139,0.07767581194639206
1.1960303783416748,4.886397361755371,0.07814060151576996
1.1617344617843628,4.894657611846924,0.07857926189899445
1.1348633766174316,4.937026500701904,0.07953891158103943
1.1015137434005737,4.95257043838501,0.08007276803255081
1.0716532468795776,4.983083724975586,0.08085141330957413
1.0395517349243164,5.005829811096191,0.08151251822710037
1.0045939683914185,5.012956142425537,0.08191166818141937
0.9742885231971741,5.046775817871094,0.0826973170042038
0.9691802859306335,5.2186689376831055,0.08575890213251114
0.3396286368370056,1.903274416923523,0.0313667431473732
0.8941286206245422,5.224113464355469,0.08634768426418304
1.8167204856872559,11.077071189880371,0.18362239003181458
1.7226042747497559,10.985355377197266,0.18252980709075928
1.6121877431869507,10.77703857421875,0.1794658899307251
1.513604998588562,10.629590034484863,0.17741042375564575
1.4225366115570068,10.523926734924316,0.17605292797088623
1.3264957666397095,10.3553466796875,0.17363256216049194
1.2484817504882812,10.317825317382812,0.17336036264896393
1.1599717140197754,10.186641693115234,0.17142035067081451
0.19819121062755585,1.8563755750656128,0.03128854185342789
0.9937130808830261,9.968711853027344,0.16829217970371246
0.39514806866645813,4.2702107429504395,0.07221157103776932
0.3667233884334564,4.288422584533691,0.07264317572116852
0.33364638686180115,4.2519450187683105,0.072105273604393
0.30380555987358093,4.25417947769165,0.07221809774637222
0.2764585018157959,4.295180797576904,0.07299329340457916
0.24606524407863617,4.297027111053467,0.07310809940099716
0.21384842693805695,4.251821994781494,0.0724235251545906
0.17970618605613708,4.147850513458252,0.07072099298238754
0.14922061562538147,4.106067657470703,0.07003787159919739
0.12165944278240204,4.142141819000244,0.07068610936403275
0.09281247109174728,4.166327953338623,0.07113607972860336
0.0638011172413826,4.166872501373291,0.07118541747331619
0.03456619009375572,4.135970115661621,0.07070059329271317
0.005670244339853525,4.077525615692139,0.06970718502998352
-0.024073097854852676,4.323520183563232,0.07390449941158295
-0.049121689051389694,3.881934642791748,0.06635212153196335
-0.07659224420785904,3.9049289226531982,0.0667443796992302
-0.10244213044643402,3.8574516773223877,0.06593529880046844
-0.1288428157567978,3.8449366092681885,0.06572094559669495
-0.15197114646434784,3.758099317550659,0.06419290602207184
-0.1756034940481186,3.706240653991699,0.06326691061258316
-0.19452720880508423,3.5723135471343994,0.06094426289200783
-0.21746255457401276,3.5396878719329834,0.06035495176911354
-0.24261951446533203,3.5458829402923584,0.060430724173784256
-0.2692625820636749,3.5713789463043213,0.0608145110309124
-0.2936331629753113,3.5655405521392822,0.060645733028650284
-0.31594768166542053,3.5322651863098145,0.06001267209649086
-0.33743610978126526,3.498889684677124,0.05938297510147095
-0.36494114995002747,3.527543544769287,0.05980883166193962
-0.3851403594017029,3.486104965209961,0.05904928222298622
-0.410955011844635,3.498889446258545,0.05916132032871246
-0.43642646074295044,3.5036780834198,0.05913616716861725
-0.4595102071762085,3.492849588394165,0.05885211005806923
-0.4815932810306549,3.474104642868042,0.05843730643391609
-0.5006557703018188,3.435892343521118,0.05769915133714676
-0.5149239301681519,3.3705828189849854,0.056494176387786865
-0.5316417217254639,3.3244876861572266,0.05559203401207924
-0.5441532731056213,3.2591254711151123,0.05437644198536873
-0.5646519064903259,3.2437469959259033,0.05399928241968155
-0.583027184009552,3.216684579849243,0.05343066528439522
-0.5945437550544739,3.1549806594848633,0.05229215323925018
-0.6161448955535889,3.150836944580078,0.05206535384058952
-0.6365318298339844,3.1388156414031982,0.05170651897788048
-0.6869260668754578,3.2719883918762207,0.05373809486627579
-0.7204245924949646,3.3167576789855957,0.054308827966451645
-0.7323341369628906,3.2621333599090576,0.05325467139482498
-0.7476800680160522,3.226588487625122,0.05249609053134918
-0.7673082947731018,3.2099359035491943,0.052029747515916824
-0.688300609588623,2.7950501441955566,0.045139212161302567
-0.7076114416122437,2.7902278900146484,0.044895097613334656
-0.7230193018913269,2.7701354026794434,0.0444076769053936
-0.7380630970001221,2.7499964237213135,0.043914470821619034
-0.7570480108261108,2.744835138320923,0.04363645240664482
-0.7799104452133179,2.754672050476074,0.043601393699645996
-0.8140608072280884,2.8017666339874268,0.04415111988782883
-0.94284987449646,3.162867307662964,0.04961944371461868
-0.9647442698478699,3.1562626361846924,0.04929221794009209
-0.9992899894714355,3.1905529499053955,0.049561478197574615
-1.0709301233291626,3.3399391174316406,0.05160945653915405
-1.1059024333953857,3.369661808013916,0.05179212987422943
-1.1367685794830322,3.3841118812561035,0.05173270404338837
-1.1716746091842651,3.409383535385132,0.05183534324169159
-1.1920465230941772,3.394042491912842,0.05128179118037224
-1.225887656211853,3.415191173553467,0.05127381905913353
-1.2572412490844727,3.4287524223327637,0.05115143209695816
-1.2865023612976074,3.4345762729644775,0.05090690031647682
-1.3256045579910278,3.465721607208252,0.05103093013167381
-1.3545373678207397,3.471299648284912,0.05074959993362427
-1.3753610849380493,3.454702615737915,0.05013905093073845
-2.2674779891967773,5.583990097045898,0.08044717460870743
-2.322697401046753,5.607792854309082,0.08018400520086288
-2.3641204833984375,5.5989484786987305,0.07942654937505722
-2.3875904083251953,5.550746917724609,0.07807213068008423
-2.422142267227173,5.5272417068481445,0.07706164568662643
-2.557588577270508,5.727869987487793,0.07913916558027267
-2.553791046142578,5.613918781280518,0.07685557752847672
-3.0478355884552,6.581937313079834,0.08922354876995087
-1.5150270462036133,3.21537446975708,0.043148189783096313
-1.5270408391952515,3.1837220191955566,0.0422729067504406
-1.5422354936599731,3.159019947052002,0.04149448871612549
-1.5601915121078491,3.1414783000946045,0.0408044308423996
-1.580898642539978,3.1311168670654297,0.04019336774945259
-1.605215072631836,3.127511978149414,0.03966715931892395
-1.6485862731933594,3.157848358154297,0.039543330669403076
-1.7200758457183838,3.239403009414673,0.04002666100859642
-1.7895573377609253,3.317410945892334,0.04042539373040199
-1.1750212907791138,2.1443448066711426,0.02576383948326111
-1.1937049627304077,2.1429531574249268,0.025357883423566818
-1.9434549808502197,3.433201551437378,0.03999417647719383
-1.935114860534668,3.3660178184509277,0.0385621078312397
-1.9888124465942383,3.4071459770202637,0.03837765008211136
-2.0084714889526367,3.386523962020874,0.03745570033788681
-1.2493665218353271,2.0746216773986816,0.02251150831580162
-1.254651665687561,2.0531466007232666,0.021834447979927063
-2.119274139404297,3.415266752243042,0.03553570806980133
-2.309556484222412,3.6648402214050293,0.037272971123456955
-2.3205456733703613,3.6301167011260986,0.036045141518116
-2.3376944065093994,3.605149030685425,0.034912921488285065
-2.3669607639312744,3.595369815826416,0.03386881574988365
-2.3908708095550537,3.5795249938964844,0.03274129703640938
-2.40922474861145,3.557776689529419,0.031573906540870667
-2.4206035137176514,3.5216522216796875,0.030199114233255386
-2.4390130043029785,3.4994192123413086,0.028935028240084648
-2.526590585708618,3.576359748840332,0.028441140428185463
-2.572331190109253,3.5869648456573486,0.027253737673163414
-2.6361582279205322,3.6276159286499023,0.026273319497704506
-2.7039859294891357,3.669959545135498,0.02518773451447487
-2.789124011993408,3.9024815559387207,-0.03789181262254715
-2.4590423107147217,3.4948716163635254,-0.03538433089852333
-2.428196668624878,3.5068583488464355,-0.03690420091152191
-2.689819097518921,3.9431886672973633,-0.042935438454151154
-2.6487600803375244,3.947369337081909,-0.044403012841939926
-2.603012800216675,3.9402694702148438,-0.04565276578068733
-2.5914721488952637,3.985177755355835,-0.04748199135065079
-2.5655858516693115,4.011150360107422,-0.04907466098666191
-2.1020054817199707,3.3384594917297363,-0.041846245527267456
-2.0741472244262695,3.3466365337371826,-0.042921144515275955
-1.2725178003311157,2.087942123413086,-0.027374595403671265
-2.0163979530334473,3.3635122776031494,-0.045029621571302414
-1.9849787950515747,3.364006519317627,-0.0459185466170311
-1.9893712997436523,3.4293019771575928,-0.04768739640712738
-1.94676673412323,3.413240432739258,-0.04832233861088753
-1.196584939956665,2.13232159614563,-0.03069484792649746
-1.1526634693145752,2.08970308303833,-0.030581042170524597
-1.8966000080108643,3.499190330505371,-0.05202048644423485
-1.7448883056640625,3.2747488021850586,-0.04941515251994133
-1.64230215549469,3.134566307067871,-0.047980692237615585
-1.601606011390686,3.111675977706909,-0.04828142374753952
-1.5748363733291626,3.116546630859375,-0.04901310056447983
-1.552869439125061,3.127537488937378,-0.04980521276593208
-1.5447686910629272,3.1663382053375244,-0.05104133114218712
-1.5217359066009521,3.177459239959717,-0.05181153118610382
-1.4985206127166748,3.1884610652923584,-0.05258084088563919
-2.0439164638519287,4.429523468017578,-0.07383541762828827
-2.0222017765045166,4.465200901031494,-0.07522817701101303
-1.9963600635528564,4.493897914886475,-0.07646601647138596
-1.9700138568878174,4.522538185119629,-0.07770359516143799
-1.937915325164795,4.5363688468933105,-0.0786772295832634
-1.919895052909851,4.582144260406494,-0.08020046353340149
-1.6019476652145386,3.9021618366241455,-0.06890816986560822
-1.5635614395141602,3.888234853744507,-0.06923848390579224
-1.5442495346069336,3.9211277961730957,-0.07040176540613174
-1.5211434364318848,3.942697286605835,-0.07135340571403503
-1.5018869638442993,3.9751198291778564,-0.07250626385211945
-1.4754854440689087,3.9933104515075684,-0.07337271422147751
-1.4493904113769531,4.011148452758789,-0.07422953099012375
-1.4237420558929443,4.0285964012146,-0.07507333159446716
-1.4033540487289429,4.060532569885254,-0.07618849724531174
-1.377220869064331,4.077703475952148,-0.07700945436954498
-1.3475522994995117,4.087591648101807,-0.07767657935619354
-1.319492220878601,4.100825786590576,-0.07840397953987122
-0.9725403189659119,3.0964081287384033,-0.059552207589149475
-0.9577942490577698,3.125509262084961,-0.06046834588050842
-0.9266459345817566,3.1022815704345703,-0.06034718453884125
-0.7953687310218811,2.733802556991577,-0.053459953516721725
-0.7755462527275085,2.7394840717315674,-0.05385793745517731
-0.7554748058319092,2.7410285472869873,-0.05416491627693176
-0.7394417524337769,2.757521867752075,-0.05477101355791092
-0.7150228023529053,2.743772506713867,-0.054740604013204575
-0.7060953974723816,2.7904129028320312,-0.05591196194291115
-1.3720065355300903,5.590826511383057,-0.11251804232597351
-1.320373773574829,5.547042369842529,-0.11211497336626053
-1.3545727729797363,5.871950149536133,-0.11919207870960236
-1.3189764022827148,5.908050060272217,-0.12037601321935654
-1.274568796157837,5.905790328979492,-0.12077204138040543
-1.2225091457366943,5.8689093589782715,-0.12046803534030914
-1.1770787239074707,5.85427713394165,-0.12060626596212387
-0.6176086068153381,3.18611741065979,-0.06587965041399002
-0.6052383184432983,3.2441201210021973,-0.06728830188512802
-0.5809655785560608,3.2406139373779297,-0.06741350889205933
-0.5649895668029785,3.287029266357422,-0.06858617812395096
-0.5407940745353699,3.283174514770508,-0.06870970875024796
-0.5276517868041992,3.348578929901123,-0.07028914988040924
-0.5047577619552612,3.3560502529144287,-0.07062755525112152
-0.4855380058288574,3.39044451713562,-0.07151150703430176
-0.4654165804386139,3.424793243408203,-0.07240402698516846
-0.4479912221431732,3.478306770324707,-0.07370474189519882
-0.42380374670028687,3.4813318252563477,-0.0739409476518631
-0.4039471745491028,3.5229992866516113,-0.07498559355735779
-0.38254231214523315,3.5568089485168457,-0.07582847774028778
-0.3568120002746582,3.551628589630127,-0.07584448903799057
-0.3355259299278259,3.596846580505371,-0.07694371789693832
-0.31388822197914124,3.637995481491089,-0.0779595673084259
-0.291386216878891,3.6751224994659424,-0.07889577001333237
-0.256659597158432,3.552422523498535,-0.0763399749994278
-0.2303057760000229,3.5307443141937256,-0.0759553611278534
-0.20565275847911835,3.5400869846343994,-0.07624296098947525
-0.19516496360301971,3.818347930908203,-0.08233128488063812
-0.16931168735027313,3.8352158069610596,-0.08279460668563843
-0.14332669973373413,3.8558130264282227,-0.083293616771698
-0.11833168566226959,3.9191741943359375,-0.08469461649656296
-0.09049499034881592,3.919914722442627,-0.08474770933389664
-0.06418707966804504,3.979020833969116,-0.08606661856174469
-0.03702588379383087,4.034041404724121,-0.0873025581240654
-0.009005017578601837,4.04591703414917,-0.08759067952632904
0.01912812516093254,4.053692817687988,-0.08774518221616745
0.04845511540770531,4.108127117156982,-0.08891358226537704
0.07797235250473022,4.158452033996582,-0.08999734371900558
0.10744999349117279,4.181234359741211,-0.09048932790756226
0.13677732646465302,4.188192844390869,-0.09064321964979172
0.21230724453926086,5.361732482910156,-0.11597058922052383
0.2467256635427475,5.301618576049805,-0.11459634453058243
0.22706487774848938,4.235118389129639,-0.09148777276277542
0.2598266899585724,4.288012981414795,-0.09257923811674118
0.2875024080276489,4.254934787750244,-0.09181874990463257
0.31410714983940125,4.213895320892334,-0.09084786474704742
0.3438871502876282,4.219409942626953,-0.09084490686655045
0.37905484437942505,4.2791337966918945,-0.09200958907604218
0.49349647760391235,5.162782669067383,-0.11087047308683395
0.5202730894088745,5.069870471954346,-0.10874318331480026
0.497586727142334,4.538174152374268,-0.09721270203590393
0.5347570776939392,4.5850677490234375,-0.09802974760532379
0.5741558074951172,4.639339923858643,-0.09900140762329102
0.6396523714065552,4.890842437744141,-0.10417727380990982
0.692795991897583,5.025566101074219,-0.1068546250462532
0.7265998125076294,5.012903690338135,-0.1063980758190155
0.7575410008430481,4.984629154205322,-0.10554642975330353
0.7880898118019104,4.952218532562256,-0.10459745675325394
0.8195592164993286,4.931280136108398,-0.10390248894691467
0.8484240174293518,4.894698143005371,-0.10288286954164505
0.8838023543357849,4.896378993988037,-0.10267332941293716
0.9124478697776794,4.863317966461182,-0.10169367492198944
0.9412738084793091,4.833960056304932,-0.10076375305652618
0.9733522534370422,4.819644451141357,-0.1001492366194725
1.0035479068756104,4.7974982261657715,-0.09937956184148788
1.0335693359375,4.775147438049316,-0.09861160814762115
1.0648258924484253,4.760281085968018,-0.09797530621290207
1.0929381847381592,4.733876705169678,-0.0970587506890297
1.1222277879714966,4.710972309112549,-0.09621452540159225
1.152906894683838,4.695526599884033,-0.09553143382072449
1.1778875589370728,4.657112121582031,-0.0943862572312355
1.210097312927246,4.648858070373535,-0.09383971244096756
1.2397407293319702,4.632967472076416,-0.09308565407991409
1.2677128314971924,4.609203815460205,-0.09217225760221481
1.2941546440124512,4.581573009490967,-0.09119182825088501
1.3259912729263306,4.57247257232666,-0.09058260917663574
1.3531404733657837,4.5482282638549805,-0.08966266363859177
1.3771700859069824,4.516530513763428,-0.0885477140545845
1.4106824398040771,4.514372825622559,-0.08800917118787766
1.4345920085906982,4.4822468757629395,-0.08689398318529129
1.463293194770813,4.464753150939941,-0.08606508374214172
1.4915592670440674,4.447165489196777,-0.08522040396928787
1.5165408849716187,4.422210216522217,-0.08419736474752426
1.2621999979019165,3.6009950637817383,-0.06811914592981339
1.2927192449569702,3.606764316558838,-0.06776934117078781
1.3204864263534546,3.605022668838501,-0.06728270649909973
1.617440104484558,4.323873996734619,-0.08012663573026657
1.6437726020812988,4.305586814880371,-0.07919098436832428
1.6699318885803223,4.287141799926758,-0.07825804501771927
1.7088615894317627,4.297017574310303,-0.07781485468149185
1.722533941268921,4.245240688323975,-0.07627207785844803
1.7585409879684448,4.251608371734619,-0.07573720067739487
1.7809498310089111,4.225337028503418,-0.07461601495742798
1.805047631263733,4.202364921569824,-0.07355064898729324
1.8285083770751953,4.17517614364624,-0.07239216566085815
1.86826753616333,4.187508583068848,-0.07191191613674164
1.8849467039108276,4.150033473968506,-0.07054288685321808
1.9126811027526855,4.137340068817139,-0.06960262358188629
1.9346847534179688,4.109851837158203,-0.06839276850223541
1.963640809059143,4.096112251281738,-0.06740321218967438
1.9805047512054443,4.06194543838501,-0.0660601407289505
2.0074119567871094,4.048731327056885,-0.06506481021642685
2.0352325439453125,4.034834861755371,-0.06403224915266037
2.0597033500671387,4.013636112213135,-0.06287911534309387
2.0828440189361572,3.9928841590881348,-0.0617060624063015
2.12070894241333,3.999464988708496,-0.06093333661556244
2.140601396560669,3.97113037109375,-0.05961771681904793
2.1606311798095703,3.9424781799316406,-0.05829237028956413
2.190479278564453,3.9349329471588135,-0.0572497583925724
2.2105259895324707,3.9102673530578613,-0.055956583470106125
2.233950138092041,3.8879427909851074,-0.054642725735902786
2.2646989822387695,3.879178047180176,-0.05352514237165451
2.282034158706665,3.850872039794922,-0.0521148182451725
2.3114066123962402,3.8424501419067383,-0.0509682223200798
2.3380489349365234,3.8263139724731445,-0.04966429993510246
2.3517072200775146,3.7903990745544434,-0.048079900443553925
2.376220941543579,3.7750959396362305,-0.04677523672580719
2.414515495300293,3.7785778045654297,-0.045641567558050156
2.4317708015441895,3.748903274536133,-0.044080592691898346
2.4557905197143555,3.733229160308838,-0.04267358034849167
2.476793050765991,3.7099554538726807,-0.04111073538661003
2.5066187381744385,3.699326515197754,-0.039658840745687485
2.530097246170044,3.6833245754241943,-0.038125764578580856
2.541220188140869,3.6471474170684814,-0.03632586821913719
2.5613412857055664,3.6234982013702393,-0.034602660685777664
2.598097324371338,3.6261215209960938,-0.033097486943006516
2.6090598106384277,3.5893235206604004,-0.031126515939831734
2.6506412029266357,3.5976321697235107,-0.029512137174606323
2.5792882442474365,3.6393826007843018,0.04614454135298729
2.5532004833221436,3.6577064990997314,0.04809578135609627
2.498399257659912,3.6386117935180664,0.04952976107597351
2.4853715896606445,3.6758224964141846,0.05160640552639961
2.458118438720703,3.694077730178833,0.05338137224316597
2.4215798377990723,3.6994471549987793,0.05494607612490654
2.3957459926605225,3.71620512008667,0.056562189012765884
2.3682751655578613,3.7337472438812256,0.058176636695861816
2.3479413986206055,3.7649664878845215,0.060020267963409424
2.3298885822296143,3.7944867610931396,0.061726897954940796
2.2943601608276367,3.7978081703186035,0.06299921870231628
2.273905038833618,3.828249216079712,0.06471412628889084
2.2624244689941406,3.87125563621521,0.06659775227308273
2.2269890308380127,3.8737127780914307,0.06778578460216522
2.215444564819336,3.920729637145996,0.06970296800136566
2.209329605102539,3.9778530597686768,0.07181168347597122
2.2096939086914062,4.044515609741211,0.07406257092952728
2.1993374824523926,4.0945210456848145,0.07602183520793915
2.1849489212036133,4.141976833343506,0.07795323431491852
2.1621944904327393,4.171480178833008,0.07952186465263367
2.1437394618988037,4.2072882652282715,0.08118733763694763
2.1101903915405273,4.215456008911133,0.08230601996183395
2.082704782485962,4.237784385681152,0.08368358761072159
2.058335542678833,4.267001628875732,0.08520827442407608
2.0252723693847656,4.274127960205078,0.08624803274869919
1.9982861280441284,4.295403480529785,0.08755970001220703
1.9701582193374634,4.31694221496582,0.0888475850224495
1.9387322664260864,4.331122875213623,0.08998742699623108
1.9116965532302856,4.3516340255737305,0.0912284404039383
1.877777338027954,4.357850551605225,0.09218786656856537
1.8567684888839722,4.396512985229492,0.0937567800283432
1.820359468460083,4.399013042449951,0.09456164389848709
1.796574354171753,4.429838180541992,0.09596208482980728
1.76858651638031,4.4494709968566895,0.09711798280477524
1.7421692609786987,4.476625919342041,0.09843379259109497
1.709800362586975,4.489067554473877,0.09939031302928925
1.6664330959320068,4.47199821472168,0.09969417005777359
1.3181169033050537,3.613924264907837,0.08109738677740097
1.2929327487945557,3.6229941844940186,0.08183572441339493
1.264045000076294,3.6248865127563477,0.08238060027360916
1.5779829025268555,4.631975173950195,0.10587940365076065
1.552243947982788,4.665346145629883,0.10725667327642441
1.5402429103851318,4.739160537719727,0.10956443101167679
1.5072489976882935,4.749736785888672,0.11042286455631256
1.4842969179153442,4.797834873199463,0.11211604624986649
1.4544439315795898,4.823267936706543,0.11326924711465836
1.4200726747512817,4.833480358123779,0.11406968533992767
1.3864517211914062,4.843213081359863,0.11485103517770767
1.362157940864563,4.886579990386963,0.11644014716148376
1.3142162561416626,4.847092151641846,0.11598803102970123
1.2710816860198975,4.826265335083008,0.11596996337175369
1.2386554479599,4.8427348136901855,0.11684267967939377
1.2143462896347046,4.8891191482543945,0.11843688786029816
1.1812163591384888,4.901229381561279,0.1192106083035469
1.1502056121826172,4.92462682723999,0.12021399289369583
1.1163164377212524,4.9404120445251465,0.12101247161626816
1.0845284461975098,4.9634623527526855,0.12199006974697113
1.0562559366226196,5.001475811004639,0.12333869934082031
1.0198899507522583,5.00103235244751,0.12374463677406311
0.9878688454627991,5.023362159729004,0.12469092011451721
0.9712374210357666,5.133938789367676,0.1277802735567093
0.34235766530036926,1.8826096057891846,0.04698311910033226
0.3291208744049072,1.8849642276763916,0.04716925695538521
1.860598087310791,11.111380577087402,0.278805136680603
1.7609663009643555,10.985224723815918,0.2763981223106384
1.659803032875061,10.850847244262695,0.2735919952392578
1.558990240097046,10.696105003356934,0.2702421247959137
1.4653701782226562,10.575288772583008,0.26774659752845764
1.3729102611541748,10.441956520080566,0.26492583751678467
1.2829594612121582,10.31171989440918,0.26218047738075256
1.196748971939087,10.200186729431152,0.2598186731338501
1.1092824935913086,10.076492309570312,0.25703299045562744
1.0360090732574463,10.060722351074219,0.25700145959854126
0.9593998789787292,10.001614570617676,0.2558695077896118
0.3811114728450775,4.286376953125,0.1098240315914154
0.34811171889305115,4.249997615814209,0.10906197875738144
0.31725141406059265,4.244576930999756,0.10902655124664307
0.2891525328159332,4.270063400268555,0.10977828502655029
0.26067060232162476,4.295365810394287,0.11053188890218735
0.2307615578174591,4.297072887420654,0.11068365722894669
0.2021171599626541,4.325875759124756,0.11153946816921234
0.17084041237831116,4.311588287353516,0.11126706004142761
0.13757771253585815,4.215101718902588,0.10881421715021133
0.10683044791221619,4.165210723876953,0.10756823420524597
0.07748343795537949,4.150235652923584,0.10722848027944565
0.04870630428195,4.158481597900391,0.10749366134405136
0.01963423192501068,4.232914447784424,0.10947705060243607
-0.03701724857091904,3.9945871829986572,0.10329781472682953
-0.06544331461191177,4.03327751159668,0.10428357869386673
-0.093464694917202,4.032726287841797,0.10425961762666702
-0.11783593893051147,3.9109814167022705,0.10110757499933243
-0.14212800562381744,3.820300340652466,0.09876268357038498
-0.1696183979511261,3.8426337242126465,0.09926918148994446
-0.18507346510887146,3.622976779937744,0.0935322716832161
-0.20541225373744965,3.5397439002990723,0.09132691472768784
-0.229522243142128,3.5304386615753174,0.09103450179100037
-0.2556473910808563,3.5443060398101807,0.09134307503700256
-0.28485509753227234,3.600841760635376,0.09272725135087967
-0.3070574998855591,3.567666530609131,0.09175838530063629
-0.32990026473999023,3.546022415161133,0.09109208732843399
-0.3489951491355896,3.489259958267212,0.08953007310628891
-0.3736814856529236,3.4867069721221924,0.08936271071434021
-0.39214733242988586,3.4335925579071045,0.08790706098079681
-0.4111236333847046,3.392045497894287,0.08670098334550858
-0.4314778447151184,3.3659017086029053,0.08587928116321564
-0.45410773158073425,3.3589887619018555,0.08555353432893753
-0.46902015805244446,3.2938461303710938,0.08374783396720886
-0.49074411392211914,3.2827887535095215,0.08332684636116028
-0.5134846568107605,3.2793147563934326,0.08308948576450348
-0.5372520089149475,3.28342604637146,0.08299516886472702
-0.562382698059082,3.295069932937622,0.0830940380692482
-0.5836918950080872,3.2834367752075195,0.08260858058929443
-0.6054595112800598,3.2715580463409424,0.08211685717105865
-0.6266849637031555,3.259613037109375,0.08163173496723175
-0.6490398645401001,3.255244255065918,0.08129415661096573
-0.6641440987586975,3.2163257598876953,0.0800800696015358
-0.677931547164917,3.1735355854034424,0.07877872884273529
-0.6808856129646301,3.080989360809326,0.07624813914299011
-0.7126820087432861,3.1218841075897217,0.07703035324811935
-0.7252901196479797,3.0788815021514893,0.07572976499795914
-0.7195290923118591,2.9638266563415527,0.07263202220201492
-0.6980029344558716,2.792175769805908,0.06817591190338135
-0.7097050547599792,2.7569851875305176,0.06706594675779343
-0.7308731079101562,2.7595386505126953,0.06688044965267181
-0.7479814291000366,2.7468655109405518,0.0663294717669487
-0.7687247395515442,2.749253749847412,0.06609861552715302
-0.7895112037658691,2.751493215560913,0.06586311012506485
-0.9144747853279114,3.105595588684082,0.07400766015052795
-0.957530677318573,3.170194625854492,0.07520943880081177
-0.9760876297950745,3.152279853820801,0.07445134967565536
-1.0353403091430664,3.2646842002868652,0.07671792805194855
-1.0598325729370117,3.2650415897369385,0.0763244777917862
-1.0847468376159668,3.2650938034057617,0.07591891288757324
-1.1124250888824463,3.272284984588623,0.07567659020423889
-1.1325879096984863,3.257106304168701,0.07491914182901382
-1.1494718790054321,3.2346267700195312,0.07396037131547928
-1.1898585557937622,3.2782301902770996,0.07449132204055786
-1.2240973711013794,3.3031246662139893,0.07458852231502533
-1.2584649324417114,3.3236289024353027,0.07455761730670929
-1.28999924659729,3.33666729927063,0.07436301559209824
-1.3254200220108032,3.3605849742889404,0.07436467707157135
-1.359580636024475,3.3806264400482178,0.07425913959741592
-2.2994332313537598,5.608169078826904,0.1222749873995781
-2.348074436187744,5.613415718078613,0.12142916768789291
-2.3778789043426514,5.5754170417785645,0.11966924369335175
-2.4072678089141846,5.5415358543396,0.11794009804725647
-2.467939615249634,5.57893180847168,0.11772487312555313
-2.5186891555786133,5.59052038192749,0.11693651974201202
-3.0388376712799072,6.619678974151611,0.13719139993190765
-1.5080513954162598,3.226886749267578,0.06624674052000046
-1.5193604230880737,3.195667028427124,0.06495268642902374
-1.5303219556808472,3.1644399166107178,0.06366999447345734
-1.5523372888565063,3.153716564178467,0.06277430057525635
-1.5711427927017212,3.1356735229492188,0.06172395497560501
-1.595414638519287,3.13218092918396,0.06093811243772507
-1.634074091911316,3.1562511920928955,0.06068161875009537
-1.6684296131134033,3.169174909591675,0.06017337739467621
-1.7751785516738892,3.315932273864746,0.062156323343515396
-1.8157329559326172,3.338449001312256,0.06173105537891388
-1.1976078748703003,2.1673800945281982,0.039509955793619156
-1.1932536363601685,2.125110626220703,0.038168247789144516
-1.928180456161499,3.3786849975585938,0.05975303426384926
-1.97384774684906,3.4065113067626953,0.059270236641168594
-1.9604077339172363,3.332970142364502,0.05702684074640274
-1.2423138618469238,2.078681230545044,0.03491814061999321
-1.2565698623657227,2.0701076984405518,0.03412654995918274
-2.040093421936035,3.3124186992645264,0.05353742837905884
-2.477968215942383,3.964676856994629,0.06276915967464447
-2.3694512844085693,3.733006715774536,0.05778907239437103
-2.3669674396514893,3.674349069595337,0.05554136261343956
-2.3606150150299072,3.6133110523223877,0.053307872265577316
-2.3790102005004883,3.587198495864868,0.05151533707976341
-2.3941853046417236,3.558295726776123,0.049665480852127075
-2.416720151901245,3.5430521965026855,0.047989580780267715
-2.4279191493988037,3.5069446563720703,0.045904140919446945
-2.451077938079834,3.49082088470459,0.04408145323395729
-2.5159506797790527,3.5358715057373047,0.04299600049853325
-2.5974607467651367,3.5976171493530273,0.041878752410411835
-2.6962838172912598,3.6851649284362793,0.04095151647925377
-2.7782881259918213,3.7460689544677734,0.03952314332127571
-2.632449150085449,3.7117760181427,-0.05040867626667023
-2.4374594688415527,3.4907469749450684,-0.04942997917532921
-2.508286952972412,3.6507179737091064,-0.05375275760889053
-2.734131097793579,4.040354251861572,-0.061600036919116974
-2.7165369987487793,4.080351829528809,-0.06426869332790375
-2.691030502319336,4.106524467468262,-0.06665162742137909
-2.6705708503723145,4.138430118560791,-0.06905385851860046
-2.1139798164367676,3.3306639194488525,-0.05707715079188347
-2.0811803340911865,3.3328216075897217,-0.05856950581073761
-1.2764322757720947,2.07623028755188,-0.037338435649871826
-1.269016146659851,2.0990309715270996,-0.03858711197972298
-1.9923434257507324,3.350287675857544,-0.06288959830999374
-1.9847017526626587,3.391045331954956,-0.06490836292505264
-1.9593946933746338,3.4057013988494873,-0.06644340604543686
-1.1842690706253052,2.094233751296997,-0.04160819575190544
-1.1924434900283813,2.1433677673339844,-0.04330121725797653
-1.9103026390075684,3.491380453109741,-0.0716872438788414
-1.8346943855285645,3.4123971462249756,-0.07116609811782837
-1.705581784248352,3.2289209365844727,-0.06837839633226395
-1.6164345741271973,3.112461566925049,-0.06685753166675568
-1.5870167016983032,3.1100106239318848,-0.06772719323635101
-1.5676980018615723,3.128507375717163,-0.06903786957263947
-1.5452979803085327,3.1396067142486572,-0.07016915082931519
-1.5298179388046265,3.1645138263702393,-0.07160866260528564
-1.5138576030731201,3.189455986022949,-0.07302042096853256
-1.4807559251785278,3.1791024208068848,-0.07360966503620148
-2.1123812198638916,4.620950698852539,-0.10817129909992218
-2.080158233642578,4.635510444641113,-0.1096624881029129
-2.053516149520874,4.664412498474121,-0.11147401481866837
-2.009798288345337,4.657871246337891,-0.1124313697218895
-1.9641714096069336,4.643356800079346,-0.11316031962633133
-1.6026170253753662,3.863294839859009,-0.09502051770687103
-1.5754941701889038,3.8744068145751953,-0.09615590423345566
-1.5475356578826904,3.885631561279297,-0.09724664688110352
-1.5303491353988647,3.925955057144165,-0.09909126162528992
-1.507041573524475,3.9474761486053467,-0.10043594986200333
-1.490502119064331,3.987093687057495,-0.10224952548742294
-1.4620903730392456,3.9975736141204834,-0.10327372699975967
-1.438661813735962,4.022632122039795,-0.10466138273477554
-1.4121071100234985,4.04027795791626,-0.10587244480848312
-1.3814488649368286,4.0425848960876465,-0.10665800422430038
-1.3605930805206299,4.07433557510376,-0.10822132974863052
-1.3338104486465454,4.091372013092041,-0.10934784263372421
-1.310404896736145,4.1193976402282715,-0.11077792942523956
-0.9684969782829285,3.121652364730835,-0.08446425199508667
-0.9535683989524841,3.1507134437561035,-0.08576008677482605
-0.83090740442276,2.816479206085205,-0.07709905505180359
-0.7925223112106323,2.758500576019287,-0.07590819150209427
-0.7665719985961914,2.7414891719818115,-0.07583608478307724
-0.7442842721939087,2.7354702949523926,-0.07606073468923569
-0.7298237085342407,2.7595489025115967,-0.07713295519351959
-0.7103307247161865,2.7646164894104004,-0.07763965427875519
-0.6840219497680664,2.743067502975464,-0.07736720144748688
-1.461988091468811,6.046049118041992,-0.17126686871051788
-1.4519082307815552,6.1929216384887695,-0.1761748492717743
-1.433132290840149,6.313434600830078,-0.18038317561149597
-1.3888037204742432,6.323305606842041,-0.18136820197105408
-1.3440659046173096,6.332939147949219,-0.18229660391807556
-1.2914248704910278,6.3040032386779785,-0.18211990594863892
-1.2443621158599854,6.297515392303467,-0.18258680403232574
-1.191726803779602,6.26394510269165,-0.18228064477443695
-1.1394178867340088,6.22601842880249,-0.18176522850990295
-1.0826541185379028,6.160806655883789,-0.18037445843219757
-0.9632441401481628,5.717782974243164,-0.1678876280784607
-0.9425979256629944,5.84384298324585,-0.17208516597747803
-0.9362890720367432,6.07803201675415,-0.17951247096061707
-0.6884220838546753,4.68595027923584,-0.13876669108867645
-0.6657487154006958,4.764131546020508,-0.14138111472129822
-0.6322157382965088,4.768683433532715,-0.14182251691818237
-0.431198388338089,3.4363815784454346,-0.10242293775081635
-0.4160199761390686,3.512958526611328,-0.10493769496679306
-0.38855355978012085,3.4925222396850586,-0.10455876588821411
-0.3624679148197174,3.479616403579712,-0.10433792322874069
-0.3467372953891754,3.571448802947998,-0.10726667940616608
-0.3273865282535553,3.635996103286743,-0.10938801616430283
-0.30502548813819885,3.6731951236724854,-0.11069583147764206
-0.27905765175819397,3.6752512454986572,-0.1109551191329956
-0.24266478419303894,3.521294355392456,-0.10642386227846146
-0.21902847290039062,3.538486957550049,-0.10705152899026871
-0.20094162225723267,3.6607820987701416,-0.11086849868297577
-0.18328207731246948,3.825887680053711,-0.11599639803171158
-0.1569603532552719,3.8465912342071533,-0.11676034331321716
-0.13226769864559174,3.9100234508514404,-0.11877187341451645
-0.10557806491851807,3.9342682361602783,-0.11955264955759048
-0.07894348353147507,3.9778480529785156,-0.12092762440443039
-0.05196826532483101,4.032956600189209,-0.1226600632071495
-0.023667611181735992,4.076169490814209,-0.12403923273086548
0.004646284971386194,4.068425178527832,-0.123850017786026
0.03288359194993973,4.060486793518066,-0.12357652932405472
0.08217845112085342,5.461698055267334,-0.1661861389875412
0.09216676652431488,4.188455104827881,-0.1274239420890808
0.15645800530910492,5.401487350463867,-0.1643090844154358
0.19411814212799072,5.38463830947876,-0.1637858897447586
0.2294692099094391,5.336356163024902,-0.1621929556131363
0.21018877625465393,4.207659721374512,-0.12778280675411224
0.2455870807170868,4.315252780914307,-0.13094927370548248
0.27232328057289124,4.262792110443115,-0.12926355004310608
0.300232470035553,4.229608535766602,-0.12816891074180603
0.329514741897583,4.227434158325195,-0.1279621422290802
0.3620097041130066,4.263969898223877,-0.12888363003730774
0.4736013412475586,5.155642032623291,-0.15561966598033905
0.5101121068000793,5.160014629364014,-0.15554197132587433
0.4803307354450226,4.531164646148682,-0.1364048272371292
0.5183410048484802,4.585928916931152,-0.13785134255886078
0.5555438995361328,4.6287760734558105,-0.1388559490442276
0.6002504229545593,4.725554466247559,-0.1414761245250702
0.6728640794754028,5.019286155700684,-0.1499752551317215
0.7072486281394958,5.006683826446533,-0.14930489659309387
0.7397031784057617,4.986215591430664,-0.14841392636299133
0.7697429060935974,4.954024791717529,-0.14706596732139587
