X,Y,Z
1.983676552772522,5.314532279968262,0.28216639161109924
1.959986925125122,5.364739418029785,0.2865801453590393
1.9301702976226807,5.400272369384766,0.2901979088783264
1.8930741548538208,5.421528339385986,0.29292312264442444
1.885414481163025,5.527219772338867,0.3002277612686157
1.8502421379089355,5.55130672454834,0.3031032681465149
1.9044888019561768,5.849562644958496,0.3210349977016449
1.8977292776107788,5.9704437255859375,0.3293032646179199
1.8759982585906982,6.054820537567139,0.33543938398361206
1.8437728881835938,6.105347156524658,0.3397180140018463
1.8062576055526733,6.136763572692871,0.3429354727268219
1.776426911354065,6.1940531730651855,0.34761351346969604
1.7531919479370117,6.277528285980225,0.3537968695163727
1.7143994569778442,6.312377452850342,0.3570188283920288
1.687415599822998,6.396204471588135,0.3630685806274414
1.6498719453811646,6.438096523284912,0.366743266582489
0.8184893131256104,3.2890069484710693,0.18801641464233398
1.5334126949310303,6.35030460357666,0.3643026053905487
0.7881905436515808,3.3684310913085938,0.19382822513580322
1.4224560260772705,6.283941268920898,0.3626521825790405
1.3693745136260986,6.255710601806641,0.3620717227458954
1.3241238594055176,6.257380485534668,0.3632107675075531
1.270387887954712,6.216681480407715,0.36189699172973633
1.2253628969192505,6.217677116394043,0.3629392683506012
1.1681269407272339,6.161141395568848,0.3604377806186676
1.1188410520553589,6.138498306274414,0.3599107265472412
1.0756728649139404,6.146136283874512,0.36116641759872437
1.0206680297851562,6.080318450927734,0.3581044673919678
0.9795665144920349,6.094902515411377,0.3597876727581024
0.9312920570373535,6.07084321975708,0.35901370644569397
0.8861565589904785,6.061776161193848,0.3590523898601532
0.8364240527153015,6.017604351043701,0.3570225238800049
0.7847735285758972,5.949779033660889,0.35358789563179016
0.7467260956764221,5.982127666473389,0.3561183512210846
0.5924022793769836,5.030582904815674,0.2999819815158844
0.5572631359100342,5.042409896850586,0.30099785327911377
0.53708416223526,5.193556308746338,0.3103492259979248
0.3997010886669159,4.1491899490356445,0.24821573495864868
0.36282816529273987,4.062516212463379,0.24330876767635345
0.3454539179801941,4.1970438957214355,0.2516644299030304
0.31564760208129883,4.199367523193359,0.2520509958267212
0.284344881772995,4.174230098724365,0.2506730258464813
0.25559189915657043,4.183887481689453,0.251396119594574
0.22869768738746643,4.228382587432861,0.2542262077331543
0.36722835898399353,7.79368257522583,0.4688950777053833
0.31117352843284607,7.772678852081299,0.4679686427116394
0.2558899521827698,7.739567756652832,0.4661198854446411
0.201116681098938,7.709973335266113,0.4643596410751343
0.14661945402622223,7.672196388244629,0.46212878823280334
0.09268872439861298,7.630136013031006,0.45966169238090515
0.038566336035728455,7.614997386932373,0.45883992314338684
-0.014368568547070026,7.576083183288574,0.4566056430339813
-0.06690103560686111,7.564113140106201,0.4557363986968994
-0.11915308982133865,7.5400872230529785,0.45408767461776733
-0.17071916162967682,7.500107765197754,0.4515016973018646
-0.22235409915447235,7.483165264129639,0.4503258466720581
-0.27452582120895386,7.461938381195068,0.4489123821258545
-0.3263565003871918,7.459865570068359,0.44867581129074097
-0.27611616253852844,5.448037624359131,0.3273587226867676
-0.31245073676109314,5.422666072845459,0.3255300223827362
-0.34895002841949463,5.4048357009887695,0.3241717517375946
-0.3854207396507263,5.378927707672119,0.3223411440849304
-0.4221721589565277,5.368370532989502,0.3214520812034607
-0.4576956629753113,5.345919132232666,0.3198261260986328
-0.23110178112983704,2.4966135025024414,0.14914481341838837
-0.2540804445743561,2.5531845092773438,0.15230852365493774
-0.27035999298095703,2.5358455181121826,0.15106262266635895
-0.28796815872192383,2.5339252948760986,0.15074624121189117
-0.3013576865196228,2.4970405101776123,0.1483597308397293
-0.3166181445121765,2.4794483184814453,0.14708665013313293
-0.33572596311569214,2.4926981925964355,0.14758388698101044
-0.6449564695358276,4.548205852508545,0.2687593102455139
-0.6711994409561157,4.508972644805908,0.26593923568725586
-0.7025614380836487,4.504238128662109,0.2651669979095459
-0.7313345074653625,4.4838972091674805,0.263491153717041
-0.7608862519264221,4.471118450164795,0.26213791966438293
-0.7915118932723999,4.465854644775391,0.2611774504184723
-0.8155497908592224,4.421934604644775,0.25796324014663696
-0.8432894945144653,4.400902271270752,0.25610727071762085
-0.7285982966423035,3.6644041538238525,0.21273168921470642
-0.7563875317573547,3.670762300491333,0.21258410811424255
-0.7790061235427856,3.6541223526000977,0.2109643518924713
-0.9521448612213135,4.319000720977783,0.24857105314731598
-0.9851726293563843,4.327652931213379,0.24830883741378784
-1.0169942378997803,4.328365325927734,0.24758829176425934
-1.0433210134506226,4.306110382080078,0.24556821584701538
-1.0671550035476685,4.276220798492432,0.2430388629436493
-1.085970163345337,4.227273464202881,0.2393479347229004
-1.12162184715271,4.246273517608643,0.239533469080925
-1.152949333190918,4.246034622192383,0.23862315714359283
-1.1803323030471802,4.230480670928955,0.2368575930595398
-1.209640622138977,4.222269535064697,0.23550285398960114
-1.2386528253555298,4.213933944702148,0.233986958861351
-1.2547688484191895,4.164452075958252,0.2302238643169403
-1.2855333089828491,4.163306713104248,0.229140967130661
-1.3144043684005737,4.154365539550781,0.22762314975261688
-1.3480608463287354,4.160055637359619,0.22691302001476288
-1.3669031858444214,4.121126174926758,0.22363394498825073
-1.3971459865570068,4.1193013191223145,0.22236913442611694
-1.4199031591415405,4.095089912414551,0.21990196406841278
-1.4457588195800781,4.077847957611084,0.2177940011024475
-1.471478819847107,4.060430526733398,0.21569004654884338
-1.4963698387145996,4.0430989265441895,0.21351905167102814
-1.5267459154129028,4.040166854858398,0.21204639971256256
-1.5511575937271118,4.0225911140441895,0.20983299612998962
-1.573329210281372,3.997302532196045,0.20719663798809052
-1.6039491891860962,3.993621826171875,0.2056928128004074
-1.6279609203338623,3.9755635261535645,0.20336441695690155
-1.6414068937301636,3.9321072101593018,0.19968675076961517
-1.6617189645767212,3.9067113399505615,0.1969667226076126
-1.6857908964157104,3.8879833221435547,0.1945495754480362
-1.7159907817840576,3.88338565826416,0.19284895062446594
-1.7515833377838135,3.8932571411132812,0.19175602495670319
-1.7860352993011475,3.899153709411621,0.19041748344898224
-1.8043372631072998,3.86930775642395,0.1873309314250946
-1.8245303630828857,3.842662811279297,0.18438807129859924
-1.8576290607452393,3.8442258834838867,0.1827777922153473
-1.876155138015747,3.817943572998047,0.17976930737495422
-1.8983843326568604,3.7983267307281494,0.17705875635147095
-1.9070980548858643,3.7503392696380615,0.17299692332744598
-1.9367550611495972,3.7440130710601807,0.17087887227535248
-1.9542464017868042,3.7173967361450195,0.16775497794151306
-1.9860490560531616,3.718325614929199,0.16587182879447937
-2.026447057723999,3.7321527004241943,0.1644669771194458
-1.7094299793243408,3.095911741256714,0.1346944123506546
-1.729978084564209,3.0845749378204346,0.1324300765991211
-0.8383530974388123,1.472196102142334,0.062348004430532455
-0.848418116569519,1.4664667844772339,0.061206281185150146
-0.8665408492088318,1.4740222692489624,0.06059694662690163
-0.860392689704895,1.4414139986038208,0.05831129848957062
-0.8818948268890381,1.4558634757995605,0.05794826149940491
-0.8960375785827637,1.4564270973205566,0.05695787072181702
-0.8977460265159607,1.437042474746704,0.05518494173884392
-0.9111526608467102,1.4378806352615356,0.05417401343584061
-0.8469298481941223,1.3168052434921265,0.04860252887010574
-0.9099268317222595,1.3736915588378906,0.048485495150089264
-2.38622784614563,3.5524685382843018,0.12242109328508377
-1.4326304197311401,2.0714828968048096,0.0675775334239006
-1.47047758102417,2.0975427627563477,0.06645726412534714
-1.3022440671920776,1.862962007522583,-0.04529007524251938
-1.2929834127426147,1.8788342475891113,-0.04772303253412247
-1.3399593830108643,1.979103922843933,-0.05238742381334305
-1.280622959136963,1.9201127290725708,-0.052693065255880356
-1.2512019872665405,1.9067414999008179,-0.05415119603276253
-1.4195106029510498,2.1978421211242676,-0.0644235908985138
-1.1987594366073608,1.8847205638885498,-0.05688295140862465
-0.7972002029418945,1.315804123878479,-0.04295078292489052
-0.7674983143806458,1.2880586385726929,-0.04302757978439331
-0.860771656036377,1.5182228088378906,-0.05399440601468086
-1.1536178588867188,2.070174217224121,-0.07503465563058853
-1.677553415298462,3.0607903003692627,-0.11291828751564026
-2.0192904472351074,3.745887041091919,-0.14057590067386627
-2.0223658084869385,3.81938099861145,-0.14571300148963928
-1.9837955236434937,3.813061475753784,-0.147772878408432
-1.9537068605422974,3.8196911811828613,-0.1502280831336975
-1.9109981060028076,3.801847457885742,-0.15168426930904388
-1.8988642692565918,3.847036123275757,-0.15559357404708862
-1.8622328042984009,3.8431155681610107,-0.15754061937332153
-1.8387950658798218,3.8629283905029297,-0.16036570072174072
-1.8164211511611938,3.886324882507324,-0.1633264273405075
-1.7800850868225098,3.8815367221832275,-0.16504323482513428
-1.5584304332733154,3.4633865356445312,-0.148952454328537
-1.5248030424118042,3.452646017074585,-0.15012496709823608
-1.5357364416122437,3.54575252532959,-0.15585602819919586
-1.6717610359191895,3.9374802112579346,-0.17483219504356384
-1.4154973030090332,3.401581048965454,-0.15254618227481842
-1.3726190328598022,3.364288806915283,-0.1523181051015854
-1.3564140796661377,3.3917949199676514,-0.15501882135868073
-1.330210566520691,3.3978829383850098,-0.15666836500167847
-1.3239281177520752,3.4546403884887695,-0.1606558859348297
-1.5121468305587769,4.030096530914307,-0.18898044526576996
-1.4193751811981201,3.8646349906921387,-0.18271508812904358
-1.4024418592453003,3.9039106369018555,-0.18600328266620636
-1.3816429376602173,3.9360525608062744,-0.18894848227500916
-1.3410155773162842,3.9087588787078857,-0.18900488317012787
-1.2778346538543701,3.810610294342041,-0.18556691706180573
-1.1771990060806274,3.5931270122528076,-0.17620189487934113
-1.1670258045196533,3.6496622562408447,-0.1800905168056488
-1.1324493885040283,3.631861925125122,-0.1803450584411621
-1.1194909811019897,3.680687427520752,-0.18388408422470093
-1.0816506147384644,3.647165536880493,-0.18331144750118256
-1.0516923666000366,3.6396021842956543,-0.18398220837116241
-1.0099475383758545,3.590580463409424,-0.18246875703334808
-0.9936968088150024,3.6314616203308105,-0.18552619218826294
-0.9589529633522034,3.6043996810913086,-0.18511828780174255
-0.9201786518096924,3.558037519454956,-0.1836887001991272
-0.8846547603607178,3.5227439403533936,-0.18271900713443756
-0.8596999645233154,3.528858184814453,-0.1838422566652298
-0.822210431098938,3.4816272258758545,-0.18218137323856354
-0.7940402030944824,3.4720962047576904,-0.1824895292520523
-0.7588724493980408,3.4279708862304688,-0.1809598207473755
-0.734715461730957,3.4331793785095215,-0.18191403150558472
-0.704099178314209,3.4076788425445557,-0.18121328949928284
-0.6785728335380554,3.4048502445220947,-0.1817166954278946
-0.6434141397476196,3.352057456970215,-0.17955395579338074
-0.6214861273765564,3.3640787601470947,-0.1808508187532425
-0.5950477719306946,3.35296893119812,-0.1807858794927597
-0.5661633610725403,3.3262767791748047,-0.1798594892024994
-0.5359184145927429,3.287777900695801,-0.17828965187072754
-0.5186476707458496,3.329989433288574,-0.18110953271389008
-0.4897518455982208,3.294893264770508,-0.17972443997859955
-0.47101742029190063,3.3291099071502686,-0.181992769241333
-0.44451990723609924,3.3091094493865967,-0.18128135800361633
-0.4203539192676544,3.3043715953826904,-0.18141046166419983
-0.3917698562145233,3.2607152462005615,-0.17940276861190796
-0.2815582752227783,2.4921019077301025,-0.13742268085479736
-0.34379488229751587,3.246457576751709,-0.1793098896741867
-0.3195207118988037,3.2332379817962646,-0.17884224653244019
-0.2982997000217438,3.250910520553589,-0.18009215593338013
-0.2737284302711487,3.229564905166626,-0.17918650805950165
-0.2503025531768799,3.223619222640991,-0.17914609611034393
-0.22837582230567932,3.233051300048828,-0.1798582524061203
-0.2028527706861496,3.1878442764282227,-0.17748188972473145
-0.18036864697933197,3.185276746749878,-0.17748606204986572
-0.15917670726776123,3.205919027328491,-0.1787922978401184
-0.1346466988325119,3.164090156555176,-0.17662496864795685
-0.11288202553987503,3.1727383136749268,-0.17720770835876465
-0.09097244590520859,3.181241273880005,-0.1777217537164688
-0.06827540695667267,3.158398389816284,-0.17649301886558533
-0.04632953181862831,3.15879225730896,-0.17657078802585602
-0.02404162473976612,3.1668365001678467,-0.17708614468574524
-0.0020203625317662954,3.1435248851776123,-0.175801619887352
0.01997644454240799,3.166867733001709,-0.17703025043010712
0.041573721915483475,3.13545823097229,-0.17520681023597717
0.06268452852964401,3.100003242492676,-0.17316703498363495
0.08457569032907486,3.111192226409912,-0.17374169826507568
0.10791941732168198,3.149501323699951,-0.1758115142583847
0.12946921586990356,3.140895128250122,-0.1751389354467392
0.15052931010723114,3.1243507862091064,-0.17403355240821838
0.17397122085094452,3.1543960571289062,-0.17553065717220306
0.19638706743717194,3.1609086990356445,-0.175724595785141
0.2182236611843109,3.1516706943511963,-0.1750485599040985
0.24003204703330994,3.1501057147979736,-0.17467045783996582
0.26247575879096985,3.1561636924743652,-0.17472271621227264
0.285071462392807,3.1620566844940186,-0.17477211356163025
0.30555495619773865,3.1444895267486572,-0.17353321611881256
0.3286004364490509,3.150029420852661,-0.1735743135213852
0.3520791530609131,3.1632182598114014,-0.17391787469387054
0.3730117976665497,3.1529922485351562,-0.17295780777931213
0.3957599401473999,3.158109188079834,-0.1728476583957672
0.41922104358673096,3.166914224624634,-0.17294326424598694
0.44699373841285706,3.2025320529937744,-0.17449863255023956
0.4724717438220978,3.2225635051727295,-0.17511358857154846
0.49700409173965454,3.2346949577331543,-0.17526379227638245
0.5168028473854065,3.2158260345458984,-0.17374193668365479
0.5404651761054993,3.2198822498321533,-0.1734631061553955
0.5628640055656433,3.2160797119140625,-0.17276813089847565
0.5882577896118164,3.2274363040924072,-0.17279724776744843
0.6125873327255249,3.2348625659942627,-0.1725795865058899
0.6333420872688293,3.2229573726654053,-0.17133641242980957
0.665088951587677,3.2643883228302,-0.17292359471321106
0.6926387548446655,3.2826249599456787,-0.17327673733234406
0.7139856219291687,3.270113468170166,-0.171914204955101
0.7398455739021301,3.2804110050201416,-0.17171218991279602
0.76853346824646,3.301905632019043,-0.1720949411392212
0.8024189472198486,3.3420538902282715,-0.1734316498041153
0.8275278806686401,3.344017505645752,-0.17278322577476501
0.8595842123031616,3.372227668762207,-0.17338970303535461
0.880642831325531,3.3587844371795654,-0.1718241423368454
0.9026578664779663,3.348954677581787,-0.17045123875141144
0.9353331923484802,3.376487970352173,-0.1709674447774887
0.9695320725440979,3.4074721336364746,-0.17164693772792816
0.9910667538642883,3.39320969581604,-0.1699407547712326
1.0220482349395752,3.4125943183898926,-0.16991062462329865
1.0569173097610474,3.4428608417510986,-0.1704055368900299
1.098449468612671,3.491312026977539,-0.1717664897441864
1.1442688703536987,3.5505011081695557,-0.17362892627716064
1.172501802444458,3.5536839962005615,-0.17259003221988678
1.201643466949463,3.5604894161224365,-0.1717459261417389
1.2261550426483154,3.552198886871338,-0.17016151547431946
1.2586028575897217,3.5657477378845215,-0.16961432993412018
1.2990351915359497,3.601118326187134,-0.17005591094493866
1.3381961584091187,3.6326136589050293,-0.17021413147449493
1.3796762228012085,3.667224884033203,-0.1704704612493515
1.4233564138412476,3.704979181289673,-0.17083291709423065
1.4875762462615967,3.793168544769287,-0.1734744757413864
1.5263776779174805,3.815668821334839,-0.1729857176542282
1.5506356954574585,3.8017516136169434,-0.17081190645694733
1.6025962829589844,3.852198839187622,-0.17146337032318115
1.670546531677246,3.9380486011505127,-0.17363430559635162
1.132289171218872,2.618882894515991,-0.11434942483901978
1.156181812286377,2.625556468963623,-0.11347085982561111
1.1611075401306152,2.589262008666992,-0.11074299365282059
1.1761740446090698,2.5739388465881348,-0.10887670516967773
1.185807228088379,2.5480685234069824,-0.10659893602132797
1.2061587572097778,2.5472042560577393,-0.10532988607883453
1.1994624137878418,2.489903450012207,-0.10175101459026337
1.204649806022644,2.4570648670196533,-0.0991707295179367
1.2185157537460327,2.4415597915649414,-0.09728436917066574
1.231253743171692,2.4264729022979736,-0.09540031105279922
1.2366278171539307,2.397475242614746,-0.09298425912857056
1.253175973892212,2.3889310359954834,-0.0913262590765953
1.2550603151321411,2.352663993835449,-0.08862049877643585
1.2855312824249268,2.3718037605285645,-0.08796662092208862
1.2826265096664429,2.3289644718170166,-0.08499740809202194
1.2930971384048462,2.309816598892212,-0.082874596118927
1.297400712966919,2.280550479888916,-0.08040720224380493
1.3084856271743774,2.265255928039551,-0.07842529565095901
1.323635458946228,2.256498336791992,-0.07665213942527771
1.3275485038757324,2.227030038833618,-0.0741128921508789
1.3464654684066772,2.2248375415802,-0.07250508666038513
1.3527761697769165,2.202755928039551,-0.07024763524532318
1.3513978719711304,2.1669323444366455,-0.06749653071165085
1.374578833580017,2.170872211456299,-0.06597849726676941
1.3846399784088135,2.1552505493164062,-0.06382695585489273
1.3991718292236328,2.1459035873413086,-0.061827268451452255
1.4139739274978638,2.136237859725952,-0.05976999178528786
1.4276387691497803,2.1271865367889404,-0.057720936834812164
1.4418561458587646,2.1176326274871826,-0.05557956174015999
1.4454736709594727,2.091529607772827,-0.05291788652539253
1.4362962245941162,2.050391674041748,-0.04994835704565048
1.4501852989196777,2.04064679145813,-0.04763814061880112
1.449985384941101,2.0120275020599365,-0.0448651947081089
1.4627670049667358,2.002805709838867,-0.04251520335674286
1.4813047647476196,1.998918056488037,-0.040070272982120514
3.173914909362793,4.437647342681885,0.1128530278801918
2.195478916168213,3.120577096939087,0.08262956887483597
2.1775336265563965,3.1425411701202393,0.08620563894510269
2.159024477005005,3.1646533012390137,0.08970462530851364
2.1261050701141357,3.167973279953003,0.09262972325086594
2.10823130607605,3.1891732215881348,0.09583742916584015
3.116791009902954,4.792477607727051,0.1478935033082962
3.0974209308624268,4.842006683349609,0.15316610038280487
1.6421308517456055,2.6067633628845215,0.08430781215429306
1.6231979131698608,2.6185226440429688,0.0865035206079483
1.6542466878890991,2.713947057723999,0.0914994552731514
1.8777754306793213,3.1308155059814453,0.10756474733352661
1.8556537628173828,3.143894672393799,0.109957754611969
1.8320982456207275,3.1575963497161865,0.11231961101293564
1.8051944971084595,3.163984537124634,0.11437413841485977
2.471074342727661,4.402054309844971,0.16155412793159485
2.3990840911865234,4.348177433013916,0.1619444489479065
2.4206740856170654,4.465303897857666,0.16863712668418884
2.3851075172424316,4.475447654724121,0.1712527871131897
2.464430809020996,4.702767848968506,0.18223384022712708
2.4553587436676025,4.768955230712891,0.18702727556228638
2.394888401031494,4.7383341789245605,0.1880304366350174
2.352482318878174,4.737637519836426,0.19008608162403107
1.2444463968276978,2.5505623817443848,0.103431835770607
1.2210763692855835,2.5487961769104004,0.10441359132528305
1.202376365661621,2.5576140880584717,0.10579860210418701
1.1856458187103271,2.569655656814575,0.10730224847793579
1.1673942804336548,2.5779428482055664,0.10864504426717758
1.1555736064910889,2.6003026962280273,0.11055488884449005
1.1287987232208252,2.5907087326049805,0.11105158179998398
2.0619208812713623,4.827886581420898,0.2086331695318222
2.0402820110321045,4.870844841003418,0.21211741864681244
2.0190279483795166,4.917588233947754,0.21582601964473724
1.9895941019058228,4.946306228637695,0.21862666308879852
1.9808712005615234,5.029497146606445,0.223821759223938
2.0150511264801025,5.225518226623535,0.2341051995754242
2.000652313232422,5.297753810882568,0.23888538777828217
1.9725321531295776,5.337323188781738,0.24225518107414246
1.947320580482483,5.387996196746826,0.24595291912555695
1.9031736850738525,5.387102127075195,0.24730870127677917
1.875134825706482,5.429874897003174,0.2506600618362427
1.8697212934494019,5.53884744644165,0.2570875287055969
1.8548108339309692,5.626004219055176,0.2625763416290283
1.9147496223449707,5.951140403747559,0.27907270193099976
1.8789095878601074,5.98700475692749,0.28209418058395386
1.862829566001892,6.085860729217529,0.28809839487075806
1.8304331302642822,6.132250785827637,0.2916404604911804
1.8007502555847168,6.189722061157227,0.2957409620285034
1.7578145265579224,6.210077285766602,0.29789337515830994
1.7413636445999146,6.323971271514893,0.3045305013656616
1.7196942567825317,6.422765254974365,0.3104817271232605
1.6690510511398315,6.411838054656982,0.3111341893672943
0.8274978995323181,3.272132396697998,0.15938815474510193
1.5530884265899658,6.3323259353637695,0.30949172377586365
0.7986485362052917,3.3594789505004883,0.16470623016357422
1.4628098011016846,6.353641510009766,0.3124816417694092
1.4024258852005005,6.291239261627197,0.31037405133247375
1.3536731004714966,6.277891635894775,0.31068697571754456
1.3057081699371338,6.272034168243408,0.31131505966186523
1.238153100013733,6.166317939758301,0.3068116307258606
1.1899467706680298,6.1519012451171875,0.3068496584892273
1.1396254301071167,6.121682167053223,0.30609890818595886
1.1038872003555298,6.167808532714844,0.3091742992401123
1.044996976852417,6.086972236633301,0.3059079945087433
1.0077096223831177,6.128796577453613,0.3085865378379822
0.9498615264892578,6.043216705322266,0.30482473969459534
0.9013728499412537,6.0111470222473145,0.30376529693603516
0.8595467805862427,6.017225742340088,0.3046363592147827
0.8049102425575256,5.9341936111450195,0.3010118901729584
0.763486921787262,5.939624786376953,0.30180734395980835
0.7179180979728699,5.913834095001221,0.30086588859558105
0.5762000679969788,5.042722225189209,0.2568749487400055
0.5537455081939697,5.166858196258545,0.2635442018508911
0.5212895274162292,5.205492973327637,0.2658731937408447
0.3818089962005615,4.1058478355407715,0.21000613272190094
0.35243484377861023,4.100625514984131,0.20993539690971375
0.33074143528938293,4.19243049621582,0.21478204429149628
0.3007894456386566,4.186849594116211,0.2146529257297516
0.27084681391716003,4.177151203155518,0.21432152390480042
0.2437436282634735,4.2217912673950195,0.2167927324771881
0.39490222930908203,7.780509948730469,0.399882972240448
0.34019556641578674,7.775273323059082,0.3996954560279846
0.2845591604709625,7.74236536026001,0.3980787396430969
0.22928336262702942,7.705161094665527,0.39625975489616394
0.174356609582901,7.683177471160889,0.3952433168888092
0.12053641676902771,7.656890392303467,0.39402204751968384
0.06697812676429749,7.618526935577393,0.39214712381362915
0.014063207432627678,7.6188130378723145,0.39203396439552307
-0.0387297160923481,7.5797224044799805,0.3899138867855072
-0.0918593555688858,7.544157981872559,0.3879937529563904
-0.14403136074543,7.527741432189941,0.38707926869392395
-0.1953689306974411,7.487565517425537,0.3849622905254364
-0.24614280462265015,7.45095157623291,0.38292545080184937
-0.29842111468315125,7.464678764343262,0.3833125829696655
-0.3514501452445984,7.489729404449463,0.38429778814315796
-0.29389840364456177,5.441963195800781,0.27901771664619446
-0.3307824730873108,5.424227714538574,0.27791649103164673
-0.36643004417419434,5.3906707763671875,0.2760193943977356
-0.4037582278251648,5.388026237487793,0.27558255195617676
-0.4397139549255371,5.369580268859863,0.27427735924720764
-0.47647255659103394,5.354720115661621,0.2731638252735138
-0.24337132275104523,2.5358550548553467,0.12920404970645905
-0.25936925411224365,2.518594264984131,0.12817224860191345
-0.2785266935825348,2.532259464263916,0.1287207007408142
-0.2941228747367859,2.514801025390625,0.1276072859764099
-0.3088120222091675,2.489471197128296,0.1260920763015747
-0.32084256410598755,2.4486243724823,0.12380640208721161
-0.6255366802215576,4.529422283172607,0.22861957550048828
-0.6553659439086914,4.513406753540039,0.22742702066898346
-0.6843217611312866,4.493354320526123,0.22600646317005157
-0.7168778777122498,4.496216773986816,0.22561217844486237
-0.7464628219604492,4.483528137207031,0.22445659339427948
-0.7747031450271606,4.462934494018555,0.2229163497686386
-0.8000922203063965,4.426776885986328,0.22061172127723694
-0.8265010118484497,4.398143768310547,0.21869802474975586
-0.8514432907104492,4.365602970123291,0.2165021449327469
-0.7432792782783508,3.675095796585083,0.18171173334121704
-0.7667162418365479,3.662344217300415,0.18055365979671478
-0.9333217740058899,4.3090596199035645,0.21181385219097137
-0.9683662056922913,4.325358867645264,0.21199652552604675
-1.000164270401001,4.326173305511475,0.2114146649837494
-1.028306245803833,4.31160306930542,0.20993800461292267
-1.053909420967102,4.289398670196533,0.20811687409877777
-1.0727590322494507,4.240516185760498,0.20501576364040375
-1.1041229963302612,4.240575313568115,0.20428752899169922
-1.138567566871643,4.251710891723633,0.2040981948375702
-1.166015625,4.236229419708252,0.2025294303894043
-1.192543625831604,4.22078800201416,0.20093664526939392
-1.22000253200531,4.208929538726807,0.19952590763568878
-1.2447082996368408,4.185466766357422,0.19755779206752777
-1.276053547859192,4.184236526489258,0.19664788246154785
-1.3006656169891357,4.160362243652344,0.1946234107017517
-1.3287338018417358,4.151547431945801,0.19324058294296265
-1.3543130159378052,4.135125637054443,0.19151420891284943
-1.3852763175964355,4.133153915405273,0.19044582545757294
-1.4139649868011475,4.123493194580078,0.1890229731798172
-1.432104229927063,4.084224224090576,0.18623808026313782
-1.4600191116333008,4.074399471282959,0.18468470871448517
-1.4900950193405151,4.071877956390381,0.1834869533777237
-1.517959475517273,4.061643123626709,0.18192879855632782
-1.5377861261367798,4.02919340133667,0.17937514185905457
-1.565581202507019,4.018545627593994,0.1777888685464859
-1.5929076671600342,4.007867336273193,0.17609038949012756
-1.613835096359253,3.9827191829681396,0.1737893968820572
-1.6306802034378052,3.9463796615600586,0.17099057137966156
-1.6581007242202759,3.935011625289917,0.16927213966846466
-1.6665701866149902,3.880582332611084,0.16569088399410248
-1.6897237300872803,3.862114429473877,0.1635735034942627
-1.740836262702942,3.907893419265747,0.1641910970211029
-1.7711471319198608,3.9029033184051514,0.16260626912117004
-1.7819421291351318,3.8551034927368164,0.15924949944019318
-1.8112396001815796,3.85013484954834,0.157609760761261
-1.8338725566864014,3.8308334350585938,0.15532949566841125
-1.8597744703292847,3.818406105041504,0.15333613753318787
-1.88284432888031,3.7984533309936523,0.1510089486837387
-1.905400037765503,3.7785284519195557,0.1486758589744568
-1.926723837852478,3.7590105533599854,0.14631059765815735
-1.6684085130691528,3.202657461166382,0.12328530848026276
-1.9506312608718872,3.6806795597076416,0.1399988830089569
-2.000234603881836,3.711798906326294,0.1395028829574585
-1.722750186920166,3.1472957134246826,0.11679099500179291
-1.7186930179595947,3.0916390419006348,0.11325228959321976
-1.7400990724563599,3.07971453666687,0.11125660687685013
-0.8322944641113281,1.4490653276443481,0.051595836877822876
-0.8417261242866516,1.443640947341919,0.050635963678359985
-0.7974640727043152,1.3474100828170776,0.04653880372643471
-0.8651779294013977,1.4388983249664307,0.04887445643544197
-0.8871926069259644,1.4529868364334106,0.04850965738296509
-0.8802751898765564,1.4206031560897827,0.04656485840678215
-0.9022216200828552,1.4345566034317017,0.046130888164043427
-0.8995635509490967,1.408539056777954,0.044377949088811874
-2.3639609813690186,3.4927780628204346,0.10020606964826584
-1.5001180171966553,2.186513662338257,0.061079613864421844
-1.4081681966781616,1.9987406730651855,-0.04063686728477478
-1.2036700248718262,1.7365965843200684,-0.036985669285058975
-1.2310760021209717,1.8030349016189575,-0.03998233750462532
-1.2874428033828735,1.915763258934021,-0.04413340985774994
-1.214988350868225,1.8372914791107178,-0.04385528713464737
-1.2019495964050293,1.8458075523376465,-0.04550914466381073
-1.1566134691238403,1.8053131103515625,-0.04587244987487793
-0.9035524725914001,1.4798625707626343,-0.040698226541280746
-0.8301584124565125,1.3827495574951172,-0.0389537550508976
-0.8046431541442871,1.3615562915802002,-0.039198946207761765
-0.7963410019874573,1.3934217691421509,-0.04179057478904724
-0.9587523937225342,1.7053006887435913,-0.05210693180561066
-1.641803503036499,2.9696435928344727,-0.09241906553506851
-1.6422326564788818,3.022778272628784,-0.09570640325546265
-2.061699151992798,3.86118745803833,-0.12429177761077881
-1.9984792470932007,3.806220531463623,-0.12444615364074707
-1.6221990585327148,3.1436517238616943,-0.10433818399906158
-1.605875849723816,3.1694750785827637,-0.10674448311328888
-1.8825243711471558,3.7819647789001465,-0.1291390359401703
-1.5576144456863403,3.1846532821655273,-0.11019568890333176
-1.8390717506408691,3.829139232635498,-0.1341903805732727
-1.8045097589492798,3.8282151222229004,-0.1358150988817215
-1.7773338556289673,3.8408336639404297,-0.13787856698036194
-1.7630689144134521,3.8816583156585693,-0.14096838235855103
-1.7561334371566772,3.940358877182007,-0.14466717839241028
-1.7245069742202759,3.945709705352783,-0.1463872194290161
-1.7056725025177002,3.9793131351470947,-0.14914309978485107
-1.6749135255813599,3.983816385269165,-0.15079092979431152
-1.6493204832077026,4.002852916717529,-0.15298600494861603
-1.6233733892440796,4.021796703338623,-0.15509414672851562
-1.5859135389328003,4.01146936416626,-0.15606904029846191
-1.5608019828796387,4.029611110687256,-0.1581142246723175
-1.5493601560592651,4.084094047546387,-0.1616099774837494
-1.5114203691482544,4.073246479034424,-0.16245096921920776
-1.4901483058929443,4.105933666229248,-0.1650107502937317
-1.4613103866577148,4.1162190437316895,-0.1666572540998459
-1.4390002489089966,4.144670486450195,-0.16904444992542267
-1.4034720659255981,4.136166095733643,-0.16987380385398865
-1.3782497644424438,4.161025524139404,-0.17202796041965485
-1.3485885858535767,4.170670509338379,-0.17354172468185425
-1.3077951669692993,4.142667770385742,-0.17346209287643433
-1.2812461853027344,4.159063339233398,-0.1752420961856842
-1.2405015230178833,4.130603313446045,-0.17502804100513458
-1.2066764831542969,4.124290466308594,-0.1757250726222992
-1.1653130054473877,4.091489315032959,-0.17529605329036713
-1.13058340549469,4.076870918273926,-0.1756102293729782
-1.0909957885742188,4.043137550354004,-0.17508703470230103
-1.0444716215133667,3.982771635055542,-0.17327295243740082
-1.0335354804992676,4.058106899261475,-0.17737151682376862
-0.9755308628082275,3.947876453399658,-0.17336298525333405
-0.9407361149787903,3.9241652488708496,-0.17311273515224457
-0.9256583452224731,3.9838154315948486,-0.17652343213558197
-0.893997848033905,3.9749984741210938,-0.17679978907108307
-0.8608500361442566,3.9583070278167725,-0.17672835290431976
-0.8238697052001953,3.9222726821899414,-0.1757935881614685
-0.7856939435005188,3.874325752258301,-0.17430320382118225
-0.7586144208908081,3.8796799182891846,-0.17517217993736267
-0.7146121263504028,3.796696662902832,-0.1719386726617813
-0.6482301354408264,3.5827255249023438,-0.16273920238018036
-0.6341177225112915,3.6525683403015137,-0.16642259061336517
-0.6317787766456604,3.79543137550354,-0.1734587401151657
-0.6022727489471436,3.780437469482422,-0.17327375710010529
-0.5721452832221985,3.7614059448242188,-0.17280213534832
-0.5412296056747437,3.7344107627868652,-0.17196686565876007
-0.5114878416061401,3.7149407863616943,-0.17148545384407043
-0.48564383387565613,3.71838116645813,-0.17205852270126343
-0.4583129584789276,3.7100279331207275,-0.1720731258392334
-0.4268730878829956,3.6666197776794434,-0.17033448815345764
-0.4036976993083954,3.692777156829834,-0.17183426022529602
-0.37233784794807434,3.641141891479492,-0.169718936085701
-0.34724161028862,3.6514406204223633,-0.17049972712993622
-0.31939896941185,3.6265432834625244,-0.16963845491409302
-0.2908235192298889,3.589787483215332,-0.16808518767356873
-0.2668071985244751,3.607290744781494,-0.16907842457294464
-0.24370092153549194,3.6401994228363037,-0.17080363631248474
-0.21471929550170898,3.587287425994873,-0.1685112714767456
-0.18815048038959503,3.5575077533721924,-0.16730600595474243
-0.1637539565563202,3.5665197372436523,-0.1678132563829422
-0.13858380913734436,3.5597715377807617,-0.16755934059619904
-0.11342345923185349,3.5489447116851807,-0.16712109744548798
-0.08881068974733353,3.5691566467285156,-0.16815409064292908
-0.06399267911911011,3.5696823596954346,-0.1682668924331665
-0.03932642564177513,3.585646390914917,-0.1690274029970169
-0.014195378869771957,3.5429141521453857,-0.16696952283382416
0.010490832850337029,3.562438488006592,-0.16785411536693573
0.03594376891851425,3.5856869220733643,-0.16892150044441223
0.0603049211204052,3.550239324569702,-0.1672324389219284
0.0852498710155487,3.561441421508789,-0.16769640147686005
0.10891812294721603,3.525670289993286,-0.16586993634700775
0.13427484035491943,3.548232316970825,-0.1667965203523636
0.1589345633983612,3.5472214221954346,-0.16662198305130005
0.18279290199279785,3.522637367248535,-0.16534702479839325
0.20935533940792084,3.556346893310547,-0.16679581999778748
0.23167186975479126,3.519784450531006,-0.1648382991552353
0.25547483563423157,3.510327100753784,-0.16416099667549133
0.2810508608818054,3.5240442752838135,-0.16457456350326538
0.3066670000553131,3.5297563076019287,-0.16461613774299622
0.3319293260574341,3.53532338142395,-0.16466209292411804
0.35478338599205017,3.517436981201172,-0.1634911745786667
0.382837176322937,3.549839973449707,-0.16465634107589722
0.40340518951416016,3.512234926223755,-0.1625811904668808
0.4310931861400604,3.5325536727905273,-0.1631891429424286
0.4546757936477661,3.5217480659484863,-0.16237127780914307
0.4816165864467621,3.5378823280334473,-0.16270360350608826
0.5093364119529724,3.5576789379119873,-0.16317670047283173
0.5350653529167175,3.5618200302124023,-0.16293515264987946
0.5626626014709473,3.573395013809204,-0.16302888095378876
0.5862315893173218,3.5617220401763916,-0.16207611560821533
0.6180678606033325,3.599928379058838,-0.16331441700458527
0.6441690921783447,3.603311777114868,-0.16292528808116913
0.6667802333831787,3.587322473526001,-0.16166846454143524
0.6917366981506348,3.582627296447754,-0.16092327237129211
0.7240045666694641,3.6121082305908203,-0.16170655190944672
0.7441760301589966,3.5841314792633057,-0.15986725687980652
0.7736691236495972,3.601872682571411,-0.16001948714256287
0.8127433061599731,3.661285400390625,-0.16201511025428772
0.8381651043891907,3.6555893421173096,-0.1611178070306778
0.8802065849304199,3.717963218688965,-0.16320432722568512
0.8947193026542664,3.666351079940796,-0.1602334976196289
0.9273515939712524,3.6904795169830322,-0.16052183508872986
0.9594096541404724,3.710545539855957,-0.16062822937965393
0.9852089285850525,3.703824996948242,-0.1595638543367386
1.0392118692398071,3.798447847366333,-0.16283859312534332
1.0579497814178467,3.7649500370025635,-0.1605595201253891
1.104143500328064,3.828953266143799,-0.16238965094089508
1.1391459703445435,3.8513107299804688,-0.16243508458137512
1.1784234046936035,3.8844153881073,-0.16290710866451263
1.1989641189575195,3.8536593914031982,-0.16068899631500244
1.2348061800003052,3.8751659393310547,-0.16058728098869324
1.270833134651184,3.896416187286377,-0.1604374498128891
1.3086342811584473,3.9209933280944824,-0.16040797531604767
1.3724470138549805,4.018980979919434,-0.16333681344985962
1.4145493507385254,4.049925327301025,-0.16350781917572021
1.425376057624817,3.9923505783081055,-0.1599804162979126
1.4777919054031372,4.052346229553223,-0.16118474304676056
1.5138614177703857,4.064078330993652,-0.16042843461036682
1.5948386192321777,4.192158222198486,-0.1642126888036728
1.632117509841919,4.2029900550842285,-0.16332197189331055
1.6494128704071045,4.1627302169799805,-0.16036094725131989
1.7316328287124634,4.285473346710205,-0.16367262601852417
1.7584168910980225,4.2661824226379395,-0.1614850014448166
1.8228342533111572,4.336698055267334,-0.16267886757850647
1.1127393245697021,2.59822678565979,-0.09653899073600769
1.141394019126892,2.615657091140747,-0.09622937440872192
1.1498380899429321,2.5863873958587646,-0.09419862926006317
1.1710487604141235,2.5854732990264893,-0.09319797158241272
1.1739470958709717,2.545560836791992,-0.0907767117023468
1.1942840814590454,2.544757127761841,-0.08973850309848785
1.191645622253418,2.4942142963409424,-0.08693253993988037
1.2055469751358032,2.4788901805877686,-0.0853722095489502
1.222481369972229,2.470628261566162,-0.08404826372861862
1.231857419013977,2.4485416412353516,-0.08223595470190048
1.239415168762207,2.422861337661743,-0.08030720055103302
1.2562370300292969,2.4142279624938965,-0.07891901582479477
1.2657177448272705,2.391660451889038,-0.07705561816692352
1.2593203783035278,2.342010974884033,-0.07434786111116409
1.2788188457489014,2.3403689861297607,-0.07316289842128754
1.3102316856384277,2.3587732315063477,-0.07255478948354721
1.30123770236969,2.3056750297546387,-0.06974158436059952
1.3127775192260742,2.2901711463928223,-0.06805628538131714
1.316532015800476,2.2609870433807373,-0.06596417725086212
1.3242300748825073,2.238400936126709,-0.06406167149543762
1.3389371633529663,2.229677677154541,-0.06254791468381882
1.3453726768493652,2.2075698375701904,-0.06066158786416054
1.3692001104354858,2.2113101482391357,-0.059383224695920944
1.3716440200805664,2.182210683822632,-0.0572502464056015
1.3941726684570312,2.1864781379699707,-0.05599500611424446
1.4048374891281128,2.1703853607177734,-0.05414387583732605
1.415360927581787,2.1542398929595947,-0.05227397382259369
1.414240837097168,2.122241258621216,-0.05000332370400429
1.4154402017593384,2.0932538509368896,-0.04778238385915756
1.416380763053894,2.064300775527954,-0.04555073752999306
1.4294534921646118,2.0553088188171387,-0.04376748576760292
1.4479421377182007,2.051933526992798,-0.04198155924677849
1.4571613073349,2.0358381271362305,-0.039878055453300476
1.4747369289398193,2.03283953666687,-0.038031309843063354
1.4888463020324707,2.0225675106048584,-0.03588392958045006
3.172584056854248,4.472596168518066,0.09469795972108841
2.1941545009613037,3.1409189701080322,0.06912422180175781
2.171175718307495,3.156783103942871,0.0719805359840393
2.129117727279663,3.1475839614868164,0.0742345079779625
2.1114752292633057,3.1687755584716797,0.07694307714700699
2.0879135131835938,3.1842870712280273,0.07949426770210266
3.095062732696533,4.797945499420166,0.12294817715883255
1.6313178539276123,2.567863702774048,0.06737169623374939
1.6369032859802246,2.619682550430298,0.07032330334186554
1.6008714437484741,2.6052064895629883,0.07145725935697556
1.839404582977295,3.04058575630188,0.0850396379828453
1.8675144910812378,3.137516498565674,0.08941534161567688
1.8459877967834473,3.1546969413757324,0.09153570234775543
1.8132528066635132,3.151061534881592,0.09300702810287476
1.8047254085540771,3.187347173690796,0.09559773653745651
2.447781801223755,4.3980937004089355,0.1339220255613327
2.409404754638672,4.40580940246582,0.1361493468284607
2.4026947021484375,4.467121601104736,0.139929860830307
2.3909671306610107,4.521976470947266,0.14357607066631317
2.483532190322876,4.781973361968994,0.15373095870018005
2.4270851612091064,4.7582502365112305,0.15484333038330078
2.3710832595825195,4.729613780975342,0.15567810833454132
2.3173305988311768,4.703930377960205,0.1565815508365631
1.2319936752319336,2.5485761165618896,0.08574043214321136
1.2115979194641113,2.5539743900299072,0.08681153506040573
1.1937342882156372,2.5623340606689453,0.08794406801462173
1.1807634830474854,2.581183910369873,0.0894407331943512
1.1589436531066895,2.5824596881866455,0.09028751403093338
1.1526769399642944,2.6193859577178955,0.09237883985042572
2.060199499130249,4.774855136871338,0.16984236240386963
2.049745798110962,4.842939376831055,0.1736770123243332
2.027531623840332,4.886045455932617,0.17660491168498993
2.0023927688598633,4.925848960876465,0.17933736741542816
1.9839608669281006,4.983693599700928,0.18275563418865204
2.037916898727417,5.2267165184021,0.19301587343215942
2.0070278644561768,5.255305767059326,0.19540587067604065
1.9872627258300781,5.316958904266357,0.1989600509405136
1.9541752338409424,5.345771789550781,0.20126135647296906
1.9316105842590332,5.403675079345703,0.2046714574098587
1.8778284788131714,5.372935771942139,0.20472115278244019
1.887073278427124,5.522493362426758,0.2116505354642868
1.8537427186965942,5.554288864135742,0.2139797955751419
1.9419450759887695,5.960838317871094,0.2308076024055481
1.899474859237671,5.974442005157471,0.23249730467796326
1.8640602827072144,6.010046482086182,0.2350534349679947
1.8481508493423462,6.108753681182861,0.24009087681770325
1.8234212398529053,6.185333251953125,0.244149312376976
1.7769979238510132,6.190647602081299,0.24538102746009827
1.7549740076065063,6.282018661499023,0.2500428259372711
1.7327280044555664,6.373116493225098,0.2547093331813812
1.6915167570114136,6.400267124176025,0.25686728954315186
1.6500723361968994,6.4271416664123535,0.2588767111301422
0.80966717004776,3.249640464782715,0.13132847845554352
1.540902018547058,6.377807140350342,0.2586160898208618
0.7878636121749878,3.363274097442627,0.13683085143566132
1.4279301166534424,6.295924663543701,0.2570134997367859
1.3720771074295044,6.2523512840271,0.25603002309799194
1.3309247493743896,6.277156352996826,0.257735937833786
1.2746226787567139,6.229038238525391,0.2564558684825897
1.219601035118103,6.180335998535156,0.25514325499534607
1.164070725440979,6.127438068389893,0.25366511940956116
1.1185846328735352,6.119992256164551,0.25405895709991455
1.0792914628982544,6.15078592300415,0.25585734844207764
1.0286349058151245,6.115894794464111,0.2549225091934204
0.9767246246337891,6.069026470184326,0.2534922957420349
0.9337701797485352,6.07574987411499,0.25430920720100403
0.8819126486778259,6.016409397125244,0.25235795974731445
0.8430390357971191,6.045594692230225,0.2540408968925476
0.7922458648681641,5.989450931549072,0.2520359754562378
0.7481584548950195,5.9793596267700195,0.25197628140449524
0.6093353033065796,5.162726402282715,0.21788598597049713
0.5650128126144409,5.0970683097839355,0.2154485583305359
0.5396222472190857,5.197902202606201,0.22005493938922882
0.4024326205253601,4.160459041595459,0.17630672454833984
0.367655873298645,4.100974082946777,0.17394453287124634
0.34461361169815063,4.173455715179443,0.17718902230262756
0.31713059544563293,4.203019618988037,0.1786254495382309
0.28659167885780334,4.185641765594482,0.17807260155677795
0.257434606552124,4.187525272369385,0.1783183217048645
0.23005282878875732,4.224290370941162,0.17994539439678192
0.3694572448730469,7.784962177276611,0.33175137639045715
0.3127361536026001,7.752282619476318,0.33050617575645447
0.25785690546035767,7.723053455352783,0.32941949367523193
0.20373456180095673,7.709043502807617,0.3289971947669983
0.1496932953596115,7.686857223510742,0.32810577750205994
0.09560152143239975,7.644787788391113,0.32625287771224976
0.04129968211054802,7.621858596801758,0.32523250579833984
-0.011675863526761532,7.59074068069458,0.32387956976890564
-0.06430669128894806,7.578769683837891,0.3233594298362732
-0.1163502037525177,7.53911828994751,0.3216738700866699
-0.1682984083890915,7.522532939910889,0.32078617811203003
-0.21977531909942627,7.4977898597717285,0.31951606273651123
-0.27230939269065857,7.48436164855957,0.3187408447265625
-0.3232658803462982,7.458907604217529,0.31747326254844666
-0.269828736782074,5.363372325897217,0.22815987467765808
-0.3108481168746948,5.427616596221924,0.23076659440994263
-0.3479044735431671,5.4175615310668945,0.2300596684217453
-0.3773784935474396,5.2943196296691895,0.22455951571464539
-0.40614765882492065,5.190429210662842,0.21990574896335602
-0.4368601441383362,5.125281810760498,0.21691127121448517
-0.437343031167984,4.741279602050781,0.20045198500156403
-0.459343284368515,4.6294121742248535,0.19547367095947266
-0.4901326298713684,4.610574722290039,0.19434569776058197
-0.5200944542884827,4.591599941253662,0.19322946667671204
-0.5509752035140991,4.580154895782471,0.19243864715099335
-0.5808258056640625,4.560747146606445,0.19132329523563385
-0.6093934178352356,4.53341007232666,0.18988703191280365
-0.6400905251502991,4.5213189125061035,0.18898694217205048
-0.670594334602356,4.512975215911865,0.18822145462036133
-0.6991693377494812,4.492862224578857,0.1869763433933258
-0.7291010022163391,4.480218887329102,0.18604853749275208
-0.7575833201408386,4.459681510925293,0.18480390310287476
-0.7898774743080139,4.462028503417969,0.1844978779554367
-0.8166782855987549,4.433422088623047,0.182791069149971
-0.837439239025116,4.377928256988525,0.1800021082162857
-0.728504478931427,3.671489953994751,0.1505398452281952
-0.7539763450622559,3.6663691997528076,0.14991606771945953
-0.7794123291969299,3.661072015762329,0.14929229021072388
-0.9434551000595093,4.284524440765381,0.1741587370634079
-0.9829884171485901,4.323709011077881,0.1751565933227539
-1.014227032661438,4.3245415687561035,0.174600750207901
-1.0441330671310425,4.317453861236572,0.173723503947258
-1.0684473514556885,4.287405014038086,0.17193135619163513
-1.087890386581421,4.238234519958496,0.1693565398454666
-1.125612735748291,4.2647552490234375,0.16972528398036957
-1.1504625082015991,4.241982936859131,0.1681370586156845
-1.1816105842590332,4.241556644439697,0.16743715107440948
-1.2013463973999023,4.199520111083984,0.16509874165058136
-1.2331514358520508,4.198468208312988,0.1643723100423813
-1.2593278884887695,4.182582378387451,0.16298025846481323
-1.2806488275527954,4.151641845703125,0.16099990904331207
-1.3112006187438965,4.150325775146484,0.1601734310388565
-1.3376147747039795,4.133727073669434,0.15874750912189484
-1.3643386363983154,4.116804599761963,0.1573067307472229
-1.3922914266586304,4.107481002807617,0.15610581636428833
-1.4199483394622803,4.098049163818359,0.15487366914749146
-1.4371881484985352,4.058966159820557,0.15253205597400665
-1.4653923511505127,4.048916339874268,0.15126952528953552
-1.5043586492538452,4.067962646484375,0.15109500288963318
-1.52143394947052,4.028289794921875,0.1486630141735077
-1.5484477281570435,4.018033027648926,0.1473097801208496
-1.5783828496932983,4.014808654785156,0.14621441066265106
-1.600459098815918,3.9892897605895996,0.1442856639623642
-1.6252144575119019,3.97088360786438,0.1426265984773636
-1.6509474515914917,3.9560768604278564,0.14101973176002502
-1.678892970085144,3.9485933780670166,0.1396799087524414
-1.7056074142456055,3.9371800422668457,0.13819223642349243
-1.7281748056411743,3.9145798683166504,0.13629454374313354
-1.7456111907958984,3.8812170028686523,0.1340305507183075
-1.775048851966858,3.876487970352173,0.13266369700431824
