X,Y,Z
0.621708333492279,3.105815887451172,-0.1678580790758133
0.6488621234893799,3.1281940937042236,-0.16846498847007751
0.6681960821151733,3.1121981143951416,-0.16700977087020874
0.6973069906234741,3.1418259143829346,-0.16794759035110474
0.7223492860794067,3.1522257328033447,-0.16778255999088287
0.7425586581230164,3.1395623683929443,-0.16638372838497162
0.773610532283783,3.172276735305786,-0.1673944890499115
0.7956738471984863,3.166867733001709,-0.16639208793640137
0.8214030265808105,3.176469326019287,-0.16611219942569733
0.8390653133392334,3.155764102935791,-0.16419067978858948
0.8805650472640991,3.221407890319824,-0.16673782467842102
0.9114149808883667,3.2453079223632812,-0.16710509359836578
0.9231816530227661,3.201456069946289,-0.1639937460422516
0.9573219418525696,3.2362587451934814,-0.16483856737613678
0.9929529428482056,3.2745277881622314,-0.16580069065093994
1.013425588607788,3.2601470947265625,-0.1640722006559372
1.0361145734786987,3.253075122833252,-0.16272179782390594
1.005488395690918,3.0826337337493896,-0.15325820446014404
1.0215378999710083,3.0609707832336426,-0.15115101635456085
1.179706335067749,3.456547975540161,-0.1695103943347931
1.1893144845962524,3.4079012870788574,-0.1659558117389679
1.22390878200531,3.4288737773895264,-0.1657690554857254
1.2569503784179688,3.44606876373291,-0.16538231074810028
1.2679927349090576,3.4046497344970703,-0.16210737824440002
1.3145861625671387,3.4580798149108887,-0.16334503889083862
1.3540918827056885,3.488973617553711,-0.16345369815826416
1.3873951435089111,3.5011496543884277,-0.1626419723033905
1.4316669702529907,3.5423686504364014,-0.1631024330854416
1.4688947200775146,3.565202474594116,-0.16265417635440826
1.5113544464111328,3.598353385925293,-0.1626317948102951
1.5809202194213867,3.691884994506836,-0.1652534455060959
1.1383402347564697,2.6076765060424805,-0.11554624140262604
1.1494884490966797,2.58577299118042,-0.11337878555059433
1.165297269821167,2.5744707584381104,-0.11168435215950012
1.1798958778381348,2.5592877864837646,-0.1097954660654068
1.2092779874801636,2.5758211612701416,-0.1092618927359581
1.2301404476165771,2.5746490955352783,-0.10788073390722275
1.2353785037994385,2.5418617725372314,-0.1052120253443718
1.985013723373413,4.013405799865723,-0.16399598121643066
1.2266881465911865,2.4374234676361084,-0.09829781949520111
1.2109326124191284,2.3666880130767822,-0.09413111209869385
1.241058111190796,2.3863542079925537,-0.09357888251543045
1.272417664527893,2.405240297317505,-0.0928916484117508
1.2743316888809204,2.3688879013061523,-0.09009040147066116
1.2899785041809082,2.3604705333709717,-0.08833093196153641
1.2980033159255981,2.338286876678467,-0.086064912378788
1.306544303894043,2.3156774044036865,-0.08373367786407471
1.3227078914642334,2.3065502643585205,-0.08186440169811249
1.3162188529968262,2.260761260986328,-0.07872026413679123
1.3353520631790161,2.2586536407470703,-0.07708601653575897
1.3389626741409302,2.2292957305908203,-0.0744803175330162
1.3497263193130493,2.213717222213745,-0.07234063744544983
1.3602831363677979,2.1981306076049805,-0.07017453014850616
1.3671784400939941,2.1754868030548096,-0.0677281841635704
1.390372395515442,2.1793506145477295,-0.06609426438808441
1.3853827714920044,2.140842914581299,-0.06317566335201263
1.4106414318084717,2.1477456092834473,-0.06152299419045448
1.4060792922973633,2.1086812019348145,-0.05849175900220871
1.4305107593536377,2.1158552169799805,-0.056776393204927444
1.449225902557373,2.1126201152801514,-0.05465555936098099
1.4345167875289917,2.0611319541931152,-0.051265012472867966
1.4655696153640747,2.077579975128174,-0.04957004263997078
1.466421127319336,2.0482869148254395,-0.046564411371946335
1.4476127624511719,1.9944963455200195,-0.04308793693780899
1.474403738975525,2.0039966106414795,-0.04092225432395935
2.1122655868530273,2.978116273880005,0.09365434944629669
2.0919013023376465,2.99709415435791,0.0976681262254715
2.0554521083831787,2.9889752864837646,0.10051829367876053
2.04520845413208,3.024193286895752,0.1048484668135643
2.029653787612915,3.048616409301758,0.10861241072416306
3.1256532669067383,4.767136096954346,0.17417050898075104
3.0935027599334717,4.797168254852295,0.17951960861682892
1.6423580646514893,2.587606430053711,0.0989946573972702
1.623974323272705,2.5990853309631348,0.1015494242310524
1.596174716949463,2.5978410243988037,0.10351397097110748
2.9360499382019043,4.857938766479492,0.1972130984067917
2.7803704738616943,4.673454761505127,0.1930326372385025
2.79561448097229,4.777604579925537,0.20062173902988434
1.3640193939208984,2.372211217880249,0.10123945027589798
2.477266788482666,4.3794941902160645,0.18967776000499725
2.450453281402588,4.403338432312012,0.1934497058391571
2.4327590465545654,4.448610305786133,0.1980983316898346
2.4034178256988525,4.473240852355957,0.20184524357318878
2.386111259460449,4.517688751220703,0.2064111828804016
2.4749045372009277,4.766224384307861,0.2204045057296753
2.4183034896850586,4.742523193359375,0.22179898619651794
2.3500282764434814,4.693785667419434,0.22197315096855164
2.3103859424591064,4.695887565612793,0.22438311576843262
1.2514492273330688,2.58966064453125,0.12503480911254883
1.2074620723724365,2.545741558074951,0.12408863008022308
1.1887990236282349,2.5544321537017822,0.1256820559501648
1.1788636445999146,2.58042311668396,0.12809844315052032
1.1608811616897583,2.588487148284912,0.12962380051612854
1.1550042629241943,2.625180721282959,0.13255608081817627
2.071746587753296,4.804958820343018,0.2445874959230423
2.046229362487793,4.841172695159912,0.2483551800251007
2.0273921489715576,4.891221523284912,0.252806156873703
2.003549337387085,4.930395126342773,0.2567308247089386
1.9822211265563965,4.98089599609375,0.2611067295074463
2.028942584991455,5.209754943847656,0.2749505043029785
2.008633613586426,5.2676215171813965,0.2798023819923401
1.9841930866241455,5.314239025115967,0.28406402468681335
1.9602934122085571,5.364522933959961,0.28853094577789307
1.9294265508651733,5.4004364013671875,0.2920836806297302
1.8922799825668335,5.421698570251465,0.29489806294441223
1.885529637336731,5.527069568634033,0.3022639751434326
1.853158950805664,5.558443546295166,0.30561205744743347
1.891432523727417,5.808562278747559,0.3210390508174896
1.89926278591156,5.978019714355469,0.3319457471370697
1.8728123903274536,6.0475077629089355,0.33740121126174927
1.8414254188537598,6.097769260406494,0.34176772832870483
1.813287377357483,6.158946990966797,0.3467645049095154
1.7854148149490356,6.223785400390625,0.3519996106624603
1.7523846626281738,6.277606010437012,0.35640788078308105
1.7136253118515015,6.312431335449219,0.3597680330276489
1.6850426197052002,6.388598442077637,0.3655330538749695
1.6463714838027954,6.42271614074707,0.36888137459754944
0.8149285316467285,3.2737250328063965,0.18874181807041168
1.542291522026062,6.38810920715332,0.36950060725212097
0.7861462831497192,3.3608059883117676,0.1949993073940277
1.4220041036605835,6.2838640213012695,0.36576366424560547
1.3732645511627197,6.270644187927246,0.36612388491630554
1.3247780799865723,6.257051944732666,0.3664718270301819
1.2754958868026733,6.239329814910889,0.3664960563182831
1.2168532609939575,6.175445556640625,0.36362311244010925
1.163550615310669,6.138003349304199,0.36232325434684753
1.1162394285202026,6.122920989990234,0.36232680082321167
1.0661917924880981,6.088210105895996,0.3611694574356079
1.0186197757720947,6.064639091491699,0.36067962646484375
0.9746477007865906,6.063895225524902,0.36134567856788635
0.9286362528800964,6.055267333984375,0.36151033639907837
0.8818866610527039,6.034604549407959,0.3609578013420105
0.8311793804168701,5.978750705718994,0.3582993149757385
0.7895729541778564,5.984325885772705,0.35933053493499756
0.7497314214706421,6.0051069259643555,0.36125388741493225
0.6034905314445496,5.127252101898193,0.30883699655532837
0.19476477801799774,1.7634354829788208,0.10636213421821594
0.18559899926185608,1.7957730293273926,0.10845993459224701
0.17011679708957672,1.7659567594528198,0.10680773854255676
0.15854503214359283,1.77484929561615,0.10749971866607666
0.1455192118883133,1.7681289911270142,0.10721587389707565
0.13232916593551636,1.7613359689712524,0.1068880558013916
0.11232110112905502,1.649397611618042,0.10017714649438858
0.10628098249435425,1.7396451234817505,0.10574985295534134
0.09229905158281326,1.7052924633026123,0.10375583916902542
0.0811874121427536,1.7214632034301758,0.10483979433774948
0.07006238400936127,1.7492622137069702,0.10658375918865204
0.060182079672813416,1.8198491334915161,0.11091345548629761
0.04647323861718178,1.7812440395355225,0.10859404504299164
0.14589257538318634,7.628963947296143,0.46526750922203064
0.09320662915706635,7.653171539306641,0.4669318199157715
0.03882182762026787,7.606837272644043,0.46431830525398254
-0.01406282838433981,7.5913310050964355,0.46330440044403076
-0.06673288345336914,7.575459957122803,0.46225032210350037
-0.11867617815732956,7.5319366455078125,0.45953184366226196
-0.17035964131355286,7.499751091003418,0.4575277864933014
-0.22194808721542358,7.4789042472839355,0.4562377631664276
-0.2739317715167999,7.4537787437438965,0.45468613505363464
-0.32593512535095215,7.459518909454346,0.45470380783081055
-0.2734609544277191,5.401051998138428,0.3290027678012848
-0.3122396171092987,5.422402381896973,0.33009305596351624
-0.34993016719818115,5.420121192932129,0.3297591507434845
-0.3860311806201935,5.386417388916016,0.32752758264541626
-0.4234062731266022,5.383633136749268,0.3271319270133972
-0.45891478657722473,5.3611907958984375,0.32537350058555603
-0.4359155595302582,4.709541320800781,0.285491019487381
-0.4588695466518402,4.609440326690674,0.279108464717865
-0.49055996537208557,4.598363399505615,0.27813151478767395
-0.5216104388237,4.5871262550354,0.27716416120529175
-0.5532528162002563,4.583454132080078,0.2765629291534424
-0.5817708373069763,4.556379795074463,0.2744487524032593
-0.6130656003952026,4.5523176193237305,0.2737360894680023
-0.6428642272949219,4.532495498657227,0.2720799148082733
-0.6715265512466431,4.508670330047607,0.27020469307899475
-0.7004449963569641,4.488525390625,0.26856714487075806
-0.731342613697052,4.483645915985107,0.2677059471607208
-0.7607418298721313,4.470894813537598,0.26633790135383606
-0.7859615087509155,4.434905529022217,0.2636023163795471
-0.8172016739845276,4.429310321807861,0.2626743018627167
-0.8412753939628601,4.389124393463135,0.2597220540046692
-0.7294367551803589,3.668001890182495,0.21656988561153412
-0.7536001205444336,3.6591861248016357,0.2154371440410614
-0.7768996357917786,3.6463892459869385,0.2140810638666153
-0.948322057723999,4.303621292114258,0.25195014476776123
-0.9920231103897095,4.3578410148620605,0.25441116094589233
-1.0169391632080078,4.328124523162842,0.25197702646255493
-1.0448312759399414,4.313520431518555,0.25034183263778687
-1.0665926933288574,4.276115894317627,0.24730965495109558
-1.085462212562561,4.2271599769592285,0.2436213493347168
-1.1235885620117188,4.253575801849365,0.24429135024547577
-1.1510872840881348,4.238209247589111,0.24256227910518646
-1.1825395822525024,4.237714767456055,0.24168764054775238
-1.2090709209442139,4.222190856933594,0.23979713022708893
-1.2348096370697021,4.202624797821045,0.23767642676830292
-1.2590192556381226,4.179226875305176,0.23536312580108643
-1.2880280017852783,4.170461177825928,0.23387280106544495
-1.3170137405395508,4.161482334136963,0.2323804348707199
-1.342873454093933,4.145098686218262,0.2303640991449356
-1.3713091611862183,4.135871887207031,0.22869011759757996
-1.396771788597107,4.119195461273193,0.2266334444284439
-1.4151310920715332,4.0799994468688965,0.22332897782325745
-1.443481206893921,4.070147514343262,0.2216484248638153
-1.468578577041626,4.052957057952881,0.21949699521064758
-1.4876290559768677,4.021152496337891,0.21650588512420654
-1.5136919021606445,4.007342338562012,0.2144789695739746
-1.5457313060760498,4.007740020751953,0.2131977081298828
-1.570737361907959,3.989720344543457,0.21094422042369843
-1.6036866903305054,3.9935154914855957,0.2097683548927307
-1.6229914426803589,3.964742422103882,0.20681710541248322
-1.6499844789505005,3.953691005706787,0.20477968454360962
-1.6774555444717407,3.9422218799591064,0.2027001976966858
-1.7048139572143555,3.930574417114258,0.20062315464019775
-1.7249951362609863,3.9048118591308594,0.19774924218654633
-1.762138843536377,3.9182703495025635,0.19683028757572174
-1.7776285409927368,3.8813557624816895,0.1933387964963913
-1.791379451751709,3.8407211303710938,0.18967305123806
-1.8213045597076416,3.835374355316162,0.18775954842567444
-1.8568086624145508,3.844447135925293,0.1864309459924698
-1.8684536218643188,3.80416202545166,0.1827181577682495
-1.89508056640625,3.7910871505737305,0.18022961914539337
-1.9073184728622437,3.7500665187835693,0.17644494771957397
-1.9271502494812012,3.7268543243408203,0.173453226685524
-1.957139492034912,3.7245430946350098,0.17140476405620575
-1.9823278188705444,3.7113170623779297,0.16880373656749725
-2.023041009902954,3.7249767780303955,0.16736160218715668
-1.701600193977356,3.082285165786743,0.13670112192630768
-1.7293851375579834,3.0847957134246826,0.1350041925907135
-0.8421947956085205,1.478941559791565,0.06383215636014938
-0.8564147353172302,1.4798309803009033,0.06293738633394241
-0.8584849238395691,1.4605976343154907,0.06117557734251022
-0.8681585788726807,1.4549193382263184,0.059957101941108704
-0.8779758214950562,1.4490671157836914,0.05871560052037239
-0.8880239129066467,1.4429826736450195,0.057439591735601425
-0.897447943687439,1.4371912479400635,0.05614951252937317
-0.8983256816864014,1.4182407855987549,0.054348789155483246
-0.8851013779640198,1.3757843971252441,0.05158425122499466
-0.9136190414428711,1.399226188659668,0.05130667984485626
-0.9354884028434753,1.4129345417022705,0.05061589181423187
-2.4017460346221924,3.574913740158081,0.12485276162624359
-1.5386661291122437,2.226010322570801,0.07350914180278778
-1.2173259258270264,1.7361079454421997,0.05555345490574837
-2.5487098693847656,3.438652276992798,0.09409239143133163
-1.3650633096694946,1.9522674083709717,-0.055220041424036026
-1.2530604600906372,1.8207671642303467,-0.053762223571538925
-1.1692405939102173,1.726614236831665,-0.05305915325880051
-1.3023827075958252,1.9522879123687744,-0.06214050203561783
-1.2919188737869263,1.9684969186782837,-0.06479760259389877
-1.2120691537857056,1.8759703636169434,-0.06367982178926468
-1.2952122688293457,2.035943031311035,-0.07112469524145126
-0.8294481039047241,1.3917875289916992,-0.05374167859554291
-0.8319282531738281,1.4669424295425415,-0.0602605976164341
-2.1079039573669434,3.7812931537628174,-0.15829741954803467
-1.6892552375793457,3.0803921222686768,-0.131228968501091
-2.0436089038848877,3.789548397064209,-0.16420632600784302
-2.0079941749572754,3.790731906890869,-0.16700907051563263
-1.9915803670883179,3.825657844543457,-0.17120656371116638
-1.9524213075637817,3.8149807453155518,-0.17329604923725128
-1.9251067638397217,3.82869291305542,-0.17644280195236206
-1.8833121061325073,3.8144891262054443,-0.1782587170600891
-1.8693572282791138,3.8559298515319824,-0.18265844881534576
-1.857527256011963,3.900439500808716,-0.1871671974658966
-1.8047491312026978,3.860474109649658,-0.18755222856998444
-1.5928032398223877,3.4725310802459717,-0.17074349522590637
-1.5553959608078003,3.45511531829834,-0.17185676097869873
-1.548600435256958,3.5050208568573,-0.17630673944950104
-1.457983136177063,3.3656582832336426,-0.17115461826324463
-1.4107329845428467,3.3221218585968018,-0.17070168256759644
-1.3871006965637207,3.3319430351257324,-0.17293968796730042
-1.363850712776184,3.3414130210876465,-0.17513510584831238
-1.3590574264526367,3.397939682006836,-0.17978429794311523
-1.3540639877319336,3.4585421085357666,-0.1846608817577362
-1.3418991565704346,3.5007944107055664,-0.18856671452522278
-1.3311455249786377,3.5464835166931152,-0.19266173243522644
-1.2956013679504395,3.5262763500213623,-0.1931825876235962
-1.2755796909332275,3.550043821334839,-0.19598928093910217
-1.2147669792175293,3.459761619567871,-0.19249987602233887
-1.176622748374939,3.427478313446045,-0.192125603556633
-1.1353751420974731,3.38370418548584,-0.19107189774513245
-1.1005786657333374,3.358158588409424,-0.19094575941562653
-1.0695074796676636,3.3435235023498535,-0.1913677603006363
-1.0430755615234375,3.343595266342163,-0.19264449179172516
-1.0027521848678589,3.294707775115967,-0.19104334712028503
-0.9664890766143799,3.256643295288086,-0.19004178047180176
-0.9455525279045105,3.270817995071411,-0.19195343554019928
-0.9085597395896912,3.228562116622925,-0.19054223597049713
-0.8755710124969482,3.197162628173828,-0.18974024057388306
-0.8488777875900269,3.188128709793091,-0.19026760756969452
-0.8265424966812134,3.1939103603363037,-0.19163331389427185
-0.795323371887207,3.165576696395874,-0.19083839654922485
-0.767318069934845,3.148329496383667,-0.19070518016815186
-0.7399421334266663,3.130765914916992,-0.1905350536108017
-0.7082089185714722,3.0940356254577637,-0.18920117616653442
-0.6882265210151672,3.1064610481262207,-0.19079120457172394
-0.6581176519393921,3.0730502605438232,-0.18947620689868927
-0.6316733956336975,3.0546457767486572,-0.18908119201660156
-0.6073088049888611,3.043619155883789,-0.189133882522583
-0.582054078578949,3.028637409210205,-0.18895354866981506
-0.5636150240898132,3.047926902770996,-0.19083048403263092
-0.5352843999862671,3.013385772705078,-0.18927325308322906
-0.5113980174064636,3.001659870147705,-0.18914763629436493
-0.48676010966300964,2.982002019882202,-0.1885145753622055
-0.4644625186920166,2.977612257003784,-0.18886034190654755
-0.4396555721759796,2.953742504119873,-0.18786635994911194
-0.4167361855506897,2.9412732124328613,-0.1875300109386444
-0.3950529992580414,2.9363558292388916,-0.18768075108528137
-0.37065666913986206,2.908057689666748,-0.18633657693862915
-0.3471395969390869,2.883434295654297,-0.18522757291793823
-0.32658499479293823,2.8857994079589844,-0.1857777088880539
-0.2997452914714813,2.8259661197662354,-0.18224795162677765
-0.2779853641986847,2.8085741996765137,-0.18145495653152466
-0.2570391893386841,2.7948811054229736,-0.18090225756168365
-0.23896190524101257,2.8121047019958496,-0.18235905468463898
-0.21992932260036469,2.825362205505371,-0.18349991738796234
-0.19884511828422546,2.807365894317627,-0.1825362890958786
-0.17998383939266205,2.8203368186950684,-0.1835947483778
-0.1603129655122757,2.8215036392211914,-0.18389438092708588
-0.14044059813022614,2.8186402320861816,-0.18393994867801666
-0.12043382227420807,2.8195505142211914,-0.1841777265071869
-0.10043733566999435,2.81252384185791,-0.18380683660507202
-0.07965005934238434,2.7741849422454834,-0.18139703571796417
-0.061027318239212036,2.8058393001556396,-0.18357202410697937
-0.041185762733221054,2.782801628112793,-0.18217773735523224
-0.0216195210814476,2.7986085414886475,-0.18328790366649628
-0.0021565337665379047,2.7908971309661865,-0.1827530413866043
0.017150012776255608,2.7752552032470703,-0.18170788884162903
0.03664844110608101,2.7906603813171387,-0.1827044039964676
0.05526597425341606,2.751368522644043,-0.18012867867946625
0.07438696920871735,2.7509212493896484,-0.18008004128932953
0.09381885826587677,2.750338554382324,-0.1799030750989914
0.11383764445781708,2.7730016708374023,-0.18125689029693604
0.13310323655605316,2.7721550464630127,-0.1810813546180725
0.15195924043655396,2.7633893489837646,-0.1803974062204361
0.17117838561534882,2.762277364730835,-0.180214524269104
0.19063539803028107,2.7610254287719727,-0.17986860871315002
0.20917361974716187,2.7518863677978516,-0.1790226399898529
0.22697392106056213,2.734851837158203,-0.17767341434955597
0.2480660080909729,2.7565255165100098,-0.17884652316570282
0.2642011344432831,2.7237181663513184,-0.1764940768480301
0.28052303194999695,2.69468355178833,-0.1742524653673172
0.29998722672462463,2.7004618644714355,-0.17427076399326324
0.3205067813396454,2.713836908340454,-0.17478370666503906
0.3345441520214081,2.6728906631469727,-0.1718076765537262
0.358224481344223,2.709178924560547,-0.17380498349666595
0.38638585805892944,2.772275924682617,-0.17738030850887299
0.40098491311073303,2.738726854324341,-0.17476177215576172
0.42580854892730713,2.7744667530059814,-0.17657117545604706
0.44822582602500916,2.790719985961914,-0.17713499069213867
0.4644153118133545,2.7683496475219727,-0.17525634169578552
0.4848451018333435,2.7728097438812256,-0.1749652922153473
0.5077535510063171,2.7885749340057373,-0.17535382509231567
0.5328140258789062,2.815697193145752,-0.17646253108978271
0.5493780374526978,2.7966716289520264,-0.17468063533306122
0.5781533122062683,2.8386809825897217,-0.17671310901641846
0.5976617932319641,2.8346972465515137,-0.17575952410697937
0.6215928792953491,2.849565029144287,-0.17594166100025177
0.6369431018829346,2.8262522220611572,-0.1737837791442871
0.6610547304153442,2.840792179107666,-0.1739538013935089
0.6862854957580566,2.8589303493499756,-0.17434290051460266
0.7133762836456299,2.8845062255859375,-0.17505212128162384
0.739237368106842,2.9022088050842285,-0.17524850368499756
0.7612529993057251,2.904646158218384,-0.1745297908782959
0.7885583639144897,2.9257051944732666,-0.17492195963859558
0.8109899163246155,2.9277331829071045,-0.17416583001613617
0.8373674154281616,2.944711685180664,-0.17417490482330322
0.855638325214386,2.931410074234009,-0.1723780483007431
0.8848551511764526,2.9553873538970947,-0.17277875542640686
0.9134222865104675,2.975334405899048,-0.17292705178260803
0.9386637210845947,2.9839091300964355,-0.17237134277820587
0.9708918333053589,3.014669418334961,-0.17299693822860718
0.9844319820404053,2.985731363296509,-0.17017745971679688
0.9927006959915161,2.9419422149658203,-0.16653867065906525
1.0068196058273315,2.9166011810302734,-0.1639711856842041
1.0293995141983032,2.91707181930542,-0.16279733180999756
1.0306687355041504,2.8587260246276855,-0.15832534432411194
1.094711184501648,2.9724929332733154,-0.16335321962833405
1.1968114376068115,3.180177927017212,-0.17335927486419678
1.2188929319381714,3.1718802452087402,-0.17151978611946106
1.2431726455688477,3.1709301471710205,-0.1699715554714203
1.284853219985962,3.2132766246795654,-0.17072631418704987
1.3291569948196411,3.2586069107055664,-0.17156147956848145
1.361185908317566,3.2708399295806885,-0.17058910429477692
1.4002236127853394,3.3011035919189453,-0.17049160599708557
1.1345210075378418,2.625494956970215,-0.13423335552215576
1.1492716073989868,2.6106374263763428,-0.1320950984954834
1.1610230207443237,2.588425636291504,-0.12957559525966644
1.175869345664978,2.5732290744781494,-0.12737420201301575
1.1931123733520508,2.56537127494812,-0.125517800450325
1.2170895338058472,2.5714550018310547,-0.12433173507452011
1.241734266281128,2.577077865600586,-0.12306728214025497
1.7732946872711182,3.6162586212158203,-0.1705157309770584
1.8222211599349976,3.6531519889831543,-0.16992802917957306
1.9173039197921753,3.7802135944366455,-0.17345361411571503
1.9543070793151855,3.787729263305664,-0.17131030559539795
1.3819336891174316,2.6337060928344727,-0.11737022548913956
1.381038784980774,2.5901198387145996,-0.11365775018930435
1.3704768419265747,2.529419183731079,-0.10924294590950012
1.329954981803894,2.4137625694274902,-0.102474644780159
1.325438141822815,2.3672420978546143,-0.09876469522714615
1.3043659925460815,2.2940564155578613,-0.09399519860744476
1.315962314605713,2.2784981727600098,-0.09159968793392181
1.3396674394607544,2.282853364944458,-0.08995694667100906
1.3431285619735718,2.2536797523498535,-0.08694196492433548
1.349784255027771,2.2315514087677,-0.08425284922122955
1.357041597366333,2.208922863006592,-0.08146519958972931
1.3762295246124268,2.206312417984009,-0.07940895110368729
1.3821991682052612,2.1841988563537598,-0.07664132863283157
1.3930060863494873,2.1681301593780518,-0.07398846000432968
1.3951777219772339,2.138896942138672,-0.07089539617300034
1.4067893028259277,2.1266767978668213,-0.06836678087711334
1.4123046398162842,2.104311943054199,-0.06544851511716843
1.4356606006622314,2.107454299926758,-0.06323768198490143
1.4448983669281006,2.091723918914795,-0.06041034311056137
1.4589629173278809,2.0820159912109375,-0.057681094855070114
1.4594380855560303,2.0530765056610107,-0.05436183139681816
1.463236927986145,2.0312204360961914,-0.05126136168837547
1.472630500793457,2.0148279666900635,-0.04808488488197327
1.4668574333190918,1.9803543090820312,-0.04450350999832153
2.2033987045288086,3.08535099029541,0.11069730669260025
2.10306715965271,2.988802671432495,0.11104505509138107
2.073796033859253,2.9947874546051025,0.11501232534646988
2.0514004230499268,3.0100107192993164,0.11916325241327286
2.0303685665130615,3.0240819454193115,0.12304219603538513
2.0115880966186523,3.0458083152770996,0.12719681859016418
3.101361036300659,4.772465229034424,0.20425492525100708
3.1079158782958984,4.856251239776611,0.21253854036331177
1.6363706588745117,2.599924087524414,0.1162208691239357
1.613066554069519,2.6051394939422607,0.11879786103963852
3.0130438804626465,4.942404270172119,0.22955504059791565
2.9882569313049316,4.984511375427246,0.2356831431388855
2.9805545806884766,5.056952953338623,0.24320143461227417
2.9371469020843506,5.064015865325928,0.2473616600036621
2.839564561843872,4.9758453369140625,0.24676001071929932
2.7355215549468994,4.877547740936279,0.2453707903623581
2.6820435523986816,4.8668670654296875,0.2482994943857193
2.6257126331329346,4.844076633453369,0.2503441274166107
2.563746213912964,4.810719013214111,0.25175055861473083
2.5027573108673096,4.780943870544434,0.25318002700805664
2.4446563720703125,4.753737926483154,0.2546570599079132
2.38450026512146,4.718512058258057,0.25557973980903625
2.333806037902832,4.700072765350342,0.2572895586490631
1.2273836135864258,2.518019199371338,0.13921454548835754
1.2207130193710327,2.551464080810547,0.14244791865348816
1.2012240886688232,2.5562872886657715,0.14403778314590454
1.183361291885376,2.564504384994507,0.14582405984401703
1.1643258333206177,2.5731029510498047,0.14757350087165833
1.1565439701080322,2.606412887573242,0.15072789788246155
1.1271401643753052,2.589413642883301,0.15094240009784698
2.057257652282715,4.8175811767578125,0.28301993012428284
2.038086414337158,4.867860794067383,0.28811490535736084
2.015263557434082,4.915140151977539,0.2929792106151581
1.985297441482544,4.943962574005127,0.2967386543750763
1.992235541343689,5.062748908996582,0.305874764919281
2.0102384090423584,5.214607238769531,0.31712040305137634
1.9977729320526123,5.294320583343506,0.32394352555274963
1.9709373712539673,5.341622829437256,0.3287939429283142
1.9484305381774902,5.399477958679199,0.33429232239723206
1.9029788970947266,5.390689849853516,0.33563241362571716
1.8946930170059204,5.488409042358398,0.34363970160484314
1.8717578649520874,5.549633979797363,0.3492419123649597
1.838352084159851,5.585262775421143,0.35322698950767517
1.9080514907836914,5.939643383026123,0.37745988368988037
1.878356695175171,5.989809513092041,0.38244354724884033
1.858267903327942,6.073416709899902,0.3896158039569855
1.8297361135482788,6.13482141494751,0.39525091648101807
1.8052805662155151,6.215017795562744,0.4020323157310486
1.7630999088287354,6.239109039306641,0.4052533805370331
1.7278237342834473,6.281167507171631,0.40960007905960083
1.7072224617004395,6.379507541656494,0.4176647961139679
1.6663388013839722,6.406269073486328,0.42099541425704956
0.824571430683136,3.2656311988830566,0.21531128883361816
1.5599616765975952,6.372530937194824,0.42157483100891113
0.8012189269065857,3.3755500316619873,0.2240455001592636
1.4670658111572266,6.3782806396484375,0.4247412085533142
1.3946492671966553,6.2626471519470215,0.418425053358078
1.3484987020492554,6.264654636383057,0.4196826219558716
1.3015615940093994,6.266494274139404,0.42093339562416077
1.2394492626190186,6.187554836273193,0.4167410433292389
1.188226580619812,6.1538214683532715,0.4155690371990204
1.1396710872650146,6.131174564361572,0.41515281796455383
1.0905472040176392,6.104367733001709,0.41434943675994873
1.0472488403320312,6.115806579589844,0.41596662998199463
1.000728726387024,6.103753089904785,0.4159921109676361
0.9470694661140442,6.041219711303711,0.412575900554657
0.8952696323394775,5.982039928436279,0.4093826413154602
0.8547893166542053,5.9957451820373535,0.4111887812614441
0.8067812919616699,5.962993621826172,0.4096205532550812
0.7573654651641846,5.910472869873047,0.40660521388053894
0.6352348327636719,5.2501349449157715,0.3617211878299713
0.5677608251571655,4.983331203460693,0.34386542439460754
0.18513096868991852,1.7321197986602783,0.11971015483140945
0.17617397010326385,1.7643685340881348,0.12213623523712158
0.16069601476192474,1.7345247268676758,0.1201818585395813
0.15183819830417633,1.7744247913360596,0.12306158244609833
0.14120802283287048,1.798743724822998,0.12487086653709412
0.12757550179958344,1.7841216325759888,0.12398231774568558
0.10988830029964447,1.7032884359359741,0.11849146336317062
0.09734994173049927,1.696232795715332,0.11811761558055878
0.08803437650203705,1.7474603652954102,0.12173429876565933
0.07851351797580719,1.8103171586990356,0.12617048621177673
0.06629528105258942,1.8224971294403076,0.1270831823348999
0.05259197950363159,1.787851333618164,0.12473565340042114
0.040464192628860474,1.8115465641021729,0.1264655441045761
0.1179163008928299,7.667919635772705,0.5355042219161987
0.06409884989261627,7.610104560852051,0.5314277410507202
0.011076506227254868,7.594778537750244,0.5303444862365723
-0.04165177047252655,7.579084873199463,0.5292611122131348
-0.09486516565084457,7.551325798034668,0.5273614525794983
-0.14661221206188202,7.519318580627441,0.5251895785331726
-0.19835905730724335,7.502551555633545,0.5239113569259644
-0.24917788803577423,7.465972900390625,0.5210681557655334
-0.30052196979522705,7.456310749053955,0.520130455493927
-0.3529999852180481,7.469642162322998,0.5208207964897156
-0.29506585001945496,5.428056716918945,0.3783121407032013
-0.33230993151664734,5.418116092681885,0.3774818778038025
-0.369343638420105,5.407938003540039,0.3764748275279999
-0.4049413204193115,5.38198184967041,0.37428075075149536
-0.44152945280075073,5.371323108673096,0.3731701374053955
-0.47147074341773987,5.278838157653809,0.3663919270038605
-0.4446253478527069,4.616039276123047,0.32010018825531006
-0.4758916199207306,4.605118751525879,0.3190702497959137
-0.5051267743110657,4.578527927398682,0.31677910685539246
-0.5375387668609619,4.582734107971191,0.31658312678337097
-0.5667825937271118,4.555698871612549,0.31423673033714294
-0.5973414778709412,4.543982028961182,0.312970906496048
-0.6256262063980103,4.5166192054748535,0.3106454610824585
-0.6569745540618896,4.512215614318848,0.30991578102111816
-0.6848961114883423,4.4884161949157715,0.30764663219451904
-0.7161669731140137,4.483598709106445,0.3066815435886383
-0.7456333637237549,4.470955848693848,0.3052065968513489
-0.7779846787452698,4.47341775894165,0.3047703802585602
-0.8035058379173279,4.437285900115967,0.3017217218875885
-0.8298726677894592,4.40870475769043,0.2991509735584259
-0.8457878232002258,4.33032751083374,0.2930649518966675
-0.7435604929924011,3.6711747646331787,0.24780337512493134
-0.7663769125938416,3.6545987129211426,0.2460528314113617
-0.9289588928222656,4.281582355499268,0.28752899169921875
-0.9706421494483948,4.328347682952881,0.28993654251098633
-1.0055477619171143,4.344468593597412,0.29015862941741943
-1.0301882028579712,4.314743995666504,0.28722912073135376
-1.0576168298721313,4.300166130065918,0.2853461503982544
-1.0854673385620117,4.285271644592285,0.2834410071372986
-1.109350562095642,4.255076885223389,0.2805401384830475
-1.1388270854949951,4.247375965118408,0.27912580966949463
-1.1639900207519531,4.224482536315918,0.27652010321617126
-1.1926270723342896,4.216590881347656,0.27493250370025635
-1.2159727811813354,4.189728260040283,0.2721180319786072
-1.247221827507019,4.1887736320495605,0.2709861695766449
-1.2739230394363403,4.172682762145996,0.26888948678970337
-1.3028072118759155,4.163868427276611,0.2671237289905548
-1.330791711807251,4.155123233795166,0.265335351228714
-1.3490411043167114,4.116535663604736,0.2616603970527649
-1.3826333284378052,4.121945858001709,0.2607581317424774
-1.4112657308578491,4.11234712600708,0.25891613960266113
-1.426574945449829,4.065879821777344,0.2546981871128082
-1.4596328735351562,4.070830821990967,0.25358131527900696
-1.4816348552703857,4.046391487121582,0.25066882371902466
-1.512308955192566,4.043483257293701,0.24906639754772186
-1.5293446779251099,4.003818035125732,0.24520710110664368
-1.5653798580169678,4.0151214599609375,0.24443300068378448
-1.5869808197021484,3.989985466003418,0.24130500853061676
-1.616637945175171,3.9866135120391846,0.23953483998775482
-1.6381150484085083,3.961094617843628,0.23640485107898712
-1.6686424016952515,3.9569356441497803,0.23455020785331726
-1.69100022315979,3.9348373413085938,0.23158565163612366
-1.7082188129425049,3.902000904083252,0.22788815200328827
-1.7452470064163208,3.9156339168548584,0.22694499790668488
-1.745058536529541,3.843147039413452,0.2209557443857193
-1.7947399616241455,3.8805971145629883,0.2213008999824524
-1.8009538650512695,3.8261873722076416,0.21630547940731049
-1.836877703666687,3.835191488265991,0.21482881903648376
-1.8559147119522095,3.8088126182556152,0.21137624979019165
-1.8719961643218994,3.774974822998047,0.20747756958007812
-1.9015167951583862,3.7690839767456055,0.20511098206043243
-1.922785758972168,3.749663829803467,0.20191621780395508
-1.951093316078186,3.7439653873443604,0.1994691789150238
-1.973838210105896,3.7233541011810303,0.19608592987060547
-2.003417491912842,3.716546058654785,0.19347240030765533
-1.7055141925811768,3.1147031784057617,0.16015157103538513
-1.7145205736160278,3.0831222534179688,0.1565367579460144
-0.8294539451599121,1.4677387475967407,0.07352100312709808
-0.8243082165718079,1.434802770614624,0.0708589255809784
-0.8533990979194641,1.4631216526031494,0.07120149582624435
-0.8708798885345459,1.4710211753845215,0.0705118477344513
-0.873003363609314,1.4516417980194092,0.06845182925462723
-0.8871476650238037,1.4522638320922852,0.06733165681362152
-0.8884760141372681,1.4331815242767334,0.0652487501502037
-0.9020618796348572,1.4339675903320312,0.06407880783081055
-0.8952096104621887,1.4014054536819458,0.061371978372335434
-0.8854178190231323,1.3659939765930176,0.05857640877366066
-0.8769832849502563,1.33426833152771,0.05598003789782524
-0.9534809589385986,1.4288297891616821,0.05848871171474457
-1.2174392938613892,1.7736058235168457,0.06890140473842621
-1.1692079305648804,1.678881049156189,0.06331280618906021
-1.3575358390808105,1.9572677612304688,-0.06320299953222275
-1.3430471420288086,1.9671385288238525,-0.06622391194105148
-1.1918954849243164,1.7723188400268555,-0.061949752271175385
-1.3033438920974731,1.970100998878479,-0.07137778401374817
-1.1973719596862793,1.8387380838394165,-0.06884603202342987
-1.2221778631210327,1.9062858819961548,-0.07356731593608856
-1.0954045057296753,1.736971139907837,-0.06899997591972351
-1.461899757385254,2.354905128479004,-0.09605623781681061
-0.8216184377670288,1.4365915060043335,-0.06566637009382248
-2.121657371520996,3.772815704345703,-0.1758633852005005
-1.7113288640975952,3.094304323196411,-0.1469593495130539
-2.0470240116119385,3.764655113220215,-0.18199436366558075
-2.028475761413574,3.7966301441192627,-0.18671871721744537
-2.0088305473327637,3.8245162963867188,-0.1911555826663971
-1.9588305950164795,3.7931737899780273,-0.19257453083992004
-1.9396146535873413,3.8247368335723877,-0.19714555144309998
-1.8890475034713745,3.7931904792785645,-0.1983928233385086
-1.8453752994537354,3.771056652069092,-0.1999588906764984
-1.6093616485595703,3.3476390838623047,-0.1799105554819107
-1.505069375038147,3.189725875854492,-0.17361664772033691
-1.5097793340682983,3.2605831623077393,-0.17970256507396698
-1.5851092338562012,3.48769211769104,-0.19454427063465118
-1.4606420993804932,3.2740445137023926,-0.18476058542728424
-1.3978941440582275,3.1950018405914307,-0.18228793144226074
-1.4025142192840576,3.269373893737793,-0.18856029212474823
-1.384183645248413,3.2897298336029053,-0.1917107254266739
-1.3756794929504395,3.335376262664795,-0.19640429317951202
-1.3458322286605835,3.330564022064209,-0.19801194965839386
-1.3088933229446411,3.3073861598968506,-0.19849655032157898
-1.2659114599227905,3.2654409408569336,-0.19777114689350128
-1.222395896911621,3.2193405628204346,-0.1967305988073349
-1.1883043050765991,3.1986825466156006,-0.197163388133049
-1.1454094648361206,3.1519947052001953,-0.1958734393119812
-1.1178040504455566,3.145211935043335,-0.19702433049678802
-1.0932819843292236,3.145437479019165,-0.19858688116073608
-1.0549310445785522,3.104891538619995,-0.19753725826740265
-1.0323375463485718,3.1123554706573486,-0.19943629205226898
-0.9980570673942566,3.0824406147003174,-0.19891010224819183
-0.9588732123374939,3.033458948135376,-0.19709068536758423
-0.9308133125305176,3.0176005363464355,-0.19739539921283722
-0.9049804210662842,3.0090584754943848,-0.19808049499988556
-0.8714953064918518,2.9741623401641846,-0.19695638120174408
-0.8457963466644287,2.965254783630371,-0.197554811835289
-0.8167778849601746,2.9409234523773193,-0.19707974791526794
-0.7881395816802979,2.9163339138031006,-0.19657354056835175
-0.765461266040802,2.9142160415649414,-0.19744154810905457
-0.7360914945602417,2.8854899406433105,-0.19649620354175568
-0.7005170583724976,2.8300364017486572,-0.19371239840984344
-0.6845102310180664,2.849897623062134,-0.19605056941509247
-0.6549163460731506,2.8127546310424805,-0.19443701207637787
-0.6350862383842468,2.8172199726104736,-0.1955714225769043
-0.6119046211242676,2.8063137531280518,-0.19564397633075714
-0.5822693705558777,2.764758586883545,-0.19358037412166595
-0.5606393218040466,2.7572195529937744,-0.19387392699718475
-0.5398025512695312,2.753359794616699,-0.19436801970005035
-0.5217881798744202,2.7646965980529785,-0.19584107398986816
-0.4939015805721283,2.7222366333007812,-0.19350369274616241
-0.47191953659057617,2.7102482318878174,-0.19332927465438843
-0.4504804313182831,2.698029041290283,-0.19312790036201477
-0.4309845268726349,2.697207450866699,-0.1936693787574768
-0.409658282995224,2.684711217880249,-0.1932956725358963
-0.3829226493835449,2.6334917545318604,-0.1901298463344574
-0.36430561542510986,2.636079788208008,-0.19085007905960083
-0.3439657390117645,2.623041868209839,-0.19043603539466858
-0.3251863420009613,2.6214654445648193,-0.19077470898628235
-0.30501845479011536,2.608159065246582,-0.19019010663032532
-0.2850527763366699,2.5946998596191406,-0.18959906697273254
-0.26460665464401245,2.5733280181884766,-0.18843069672584534
-0.24490083754062653,2.559584379196167,-0.18783120810985565
-0.22566039860248566,2.545675754547119,-0.1871315985918045
-0.2097446471452713,2.570463180541992,-0.18920816481113434
-0.18914805352687836,2.5368759632110596,-0.18699589371681213
-0.17332179844379425,2.565312623977661,-0.1893625259399414
-0.15467317402362823,2.5586719512939453,-0.18915607035160065
-0.13537359237670898,2.532437324523926,-0.18742094933986664
-0.11931031197309494,2.568329095840454,-0.1902085840702057
-0.10031721740961075,2.5418362617492676,-0.18838545680046082
-0.08235432952642441,2.5346720218658447,-0.1880018711090088
-0.06470032036304474,2.5468599796295166,-0.18906572461128235
-0.046444498002529144,2.5199761390686035,-0.18716289103031158
-0.029067711904644966,2.5358173847198486,-0.18834827840328217
-0.011345000937581062,2.528165340423584,-0.18779787421226501
0.006183450110256672,2.512599229812622,-0.18666836619377136
0.023804454132914543,2.4969091415405273,-0.18553903698921204
0.041534341871738434,2.5200557708740234,-0.18724434077739716
0.05903243273496628,2.519716501235962,-0.18710975348949432
0.07629126310348511,2.5114684104919434,-0.18639720976352692
0.09375124424695969,2.510887384414673,-0.18626289069652557
0.11155164986848831,2.51796817779541,-0.18670569360256195
0.12935125827789307,2.517130136489868,-0.18652118742465973
0.14633898437023163,2.5084171295166016,-0.18564818799495697
0.16422751545906067,2.515139579772949,-0.18592648208141327
0.1816990077495575,2.5139596462249756,-0.18562838435173035
0.19735899567604065,2.489353895187378,-0.18361084163188934
0.15258491039276123,1.7659968137741089,-0.13009151816368103
0.2329252064228058,2.4941627979278564,-0.18338075280189514
0.25329962372779846,2.52353572845459,-0.1851942539215088
0.27166277170181274,2.529496192932129,-0.18529193103313446
0.28923511505126953,2.5275816917419434,-0.18482066690921783
0.304235577583313,2.502310276031494,-0.182618647813797
0.3145308196544647,2.4460976123809814,-0.17805945873260498
0.3287771940231323,2.424610137939453,-0.17605018615722656
0.34834998846054077,2.4415996074676514,-0.1768403798341751
0.36766138672828674,2.454571008682251,-0.17734017968177795
0.3946938216686249,2.513542652130127,-0.18112339079380035
0.41076377034187317,2.5031256675720215,-0.17978939414024353
0.4299962818622589,2.511810302734375,-0.1798350214958191
0.4501391053199768,2.5241692066192627,-0.1801433116197586
0.46909603476524353,2.528698205947876,-0.1798948347568512
0.48514673113822937,2.5177900791168213,-0.17852742969989777
0.5027521848678589,2.514401435852051,-0.17757286131381989
0.5263352394104004,2.541483163833618,-0.17878326773643494
0.5422998666763306,2.5302209854125977,-0.17729243636131287
0.5514736175537109,2.488401174545288,-0.17367815971374512
0.5878245830535889,2.5681700706481934,-0.17850586771965027
0.6137963533401489,2.59822154045105,-0.17973299324512482
0.631608247756958,2.594027280807495,-0.17860287427902222
0.6496304869651794,2.589651346206665,-0.1774575263261795
0.6735138297080994,2.6077823638916016,-0.17785367369651794
0.7015438079833984,2.6408164501190186,-0.17919130623340607
0.7230262160301208,2.647230625152588,-0.17861634492874146
0.7558837532997131,2.6948494911193848,-0.18082410097122192
0.7789549231529236,2.7045936584472656,-0.18045686185359955
0.7999659180641174,2.7066762447357178,-0.17957991361618042
0.8264345526695251,2.7273364067077637,-0.17984126508235931
0.8545899987220764,2.7514233589172363,-0.1802510768175125
0.8829168677330017,2.7753140926361084,-0.18064363300800323
0.90224289894104,2.7691943645477295,-0.17906096577644348
0.9301366806030273,2.7888383865356445,-0.1791425496339798
0.9591744542121887,2.8120734691619873,-0.1793101727962494
0.9885709881782532,2.8350422382354736,-0.17944133281707764
1.0006201267242432,2.806098699569702,-0.17624887824058533
1.0281366109848022,2.8211612701416016,-0.17584295570850372
1.0652257204055786,2.8616397380828857,-0.17694176733493805
1.0901230573654175,2.869060516357422,-0.1759057641029358
1.1335866451263428,2.9235124588012695,-0.17771461606025696
1.171508550643921,2.959045171737671,-0.1782619059085846
1.1950123310089111,2.958170175552368,-0.176625058054924
1.2402406930923462,3.0114617347717285,-0.17807507514953613
1.2741485834121704,3.035512685775757,-0.17774690687656403
1.2751350402832031,2.9801533222198486,-0.17274722456932068
1.1402167081832886,2.613643169403076,-0.14992018043994904
1.1516454219818115,2.5916783809661865,-0.14706198871135712
1.1642149686813354,2.573333263397217,-0.14440087974071503
1.178534746170044,2.5583348274230957,-0.14191600680351257
1.2112785577774048,2.58195161819458,-0.14153073728084564
1.2359893321990967,2.587641477584839,-0.14007461071014404
1.580736517906189,3.253208875656128,-0.1738525927066803
1.6322284936904907,3.3019936084747314,-0.17413775622844696
1.7200802564620972,3.419670581817627,-0.17787237465381622
1.7878766059875488,3.494828224182129,-0.17921511828899384
1.3682563304901123,2.6312875747680664,-0.13295084238052368
1.410093069076538,2.666759967803955,-0.1326564997434616
1.4471348524093628,2.69136381149292,-0.13174331188201904
1.4504257440567017,2.6541943550109863,-0.12777651846408844
1.4547327756881714,2.620758533477783,-0.12401099503040314
1.4208171367645264,2.519104480743408,-0.11705722659826279
1.3745439052581787,2.397367477416992,-0.10927393287420273
1.3649108409881592,2.3444442749023438,-0.10476821660995483
1.3386049270629883,2.264951229095459,-0.09917198866605759
1.3423014879226685,2.235598087310791,-0.09573817253112793
1.3494445085525513,2.2131330966949463,-0.09262757748365402
1.3682715892791748,2.2108380794525146,-0.09031201899051666
1.3832570314407349,2.2015998363494873,-0.08766718208789825
1.371260166168213,2.149230718612671,-0.08329632133245468
1.3915631771087646,2.1502082347869873,-0.08100634813308716
1.399424433708191,2.1312031745910645,-0.07790693640708923
1.414483904838562,2.121342658996582,-0.07500464469194412
1.4238290786743164,2.105760097503662,-0.07193946838378906
1.4377548694610596,2.096374988555908,-0.06901571154594421
1.4344292879104614,2.0608010292053223,-0.0651392713189125
1.4564722776412964,2.064520835876465,-0.0625167191028595
1.470552921295166,2.054611921310425,-0.059251755475997925
1.46133291721344,2.0132105350494385,-0.055069684982299805
1.4694229364395142,1.9977132081985474,-0.05161251127719879
2.111518144607544,2.977534055709839,0.12408041208982468
2.088566541671753,2.9934651851654053,0.12912017107009888
2.0631048679351807,3.0013999938964844,0.13342992961406708
2.0399065017700195,3.017005681991577,0.13808512687683105
2.021723985671997,3.0383975505828857,0.14278407394886017
2.006927490234375,3.062005043029785,0.1473768949508667
3.096282482147217,4.802209377288818,0.23646745085716248
1.6453038454055786,2.593601703643799,0.1304888129234314
1.630918025970459,2.611713409423828,0.13407249748706818
1.5911223888397217,2.590294361114502,0.13550983369350433
3.0118203163146973,4.987076282501221,0.2657029926776886
2.9849660396575928,5.021066665649414,0.27194544672966003
2.9493372440338135,5.041776657104492,0.2774580419063568
2.854529619216919,4.965651988983154,0.2775191068649292
2.795275926589966,4.94524621963501,0.28041166067123413
2.7284204959869385,4.906411647796631,0.28203439712524414
2.6536612510681152,4.853801250457764,0.28268444538116455
2.5989978313446045,4.838778495788574,0.28536272048950195
2.5289437770843506,4.791839599609375,0.28604021668434143
2.4756946563720703,4.771019458770752,0.28805917501449585
2.4094784259796143,4.7258710861206055,0.28846028447151184
2.355334997177124,4.704906463623047,0.29019612073898315
2.307579517364502,4.693521976470947,0.2924278974533081
1.2328861951828003,2.553212881088257,0.16064809262752533
1.2180906534194946,2.5688095092773438,0.1631506383419037
1.184369683265686,2.5457451343536377,0.16311559081077576
1.1770391464233398,2.5790512561798096,0.16669103503227234
1.155835747718811,2.5799572467803955,0.1681230664253235
1.1472316980361938,2.609248161315918,0.171420618891716
2.075467824935913,4.816047668457031,0.3188285231590271
2.052459716796875,4.859553813934326,0.3240726590156555
2.0237016677856445,4.888263702392578,0.32831868529319763
1.9969274997711182,4.9200897216796875,0.3327508270740509
1.9797312021255493,4.977198600769043,0.3389107882976532
2.0235304832458496,5.198537826538086,0.3562089800834656
2.0052032470703125,5.263857364654541,0.36290600895881653
1.9857412576675415,5.325130462646484,0.36932218074798584
1.9619735479354858,5.375230312347412,0.37498870491981506
1.926816701889038,5.39599609375,0.37858256697654724
1.9064055681228638,5.464991569519043,0.385416179895401
1.876983880996704,5.507911205291748,0.39042744040489197
1.9033459424972534,5.716790199279785,0.40725764632225037
1.926128625869751,5.922429084777832,0.42399072647094727
1.8963581323623657,5.972714424133301,0.4296647906303406
1.8744932413101196,6.0569586753845215,0.4376184046268463
1.8421688079833984,6.107377529144287,0.4431508481502533
