X,Y,Z
1.4644750356674194,1.9753429889678955,-0.09770520031452179
2.313333034515381,3.244631767272949,0.39002278447151184
2.320936441421509,3.309175968170166,0.4080598056316376
2.3045737743377686,3.3380424976348877,0.42132553458213806
2.3264575004577637,3.420520782470703,0.44105949997901917
2.3080804347991943,3.450199604034424,0.4539130628108978
2.260371446609497,3.433838367462158,0.4603438079357147
3.081838846206665,4.754695892333984,0.6486675143241882
1.6292524337768555,2.5548551082611084,0.35428449511528015
1.6216683387756348,2.5861730575561523,0.36430975794792175
3.049339532852173,4.939486503601074,0.7057539820671082
3.0019545555114746,4.9394121170043945,0.7155444025993347
2.989004373550415,5.004199981689453,0.7344765663146973
2.9821689128875732,5.078474521636963,0.7547674775123596
2.938275098800659,5.084375381469727,0.7643740773200989
2.922877311706543,5.1405534744262695,0.7815760970115662
2.8911380767822266,5.1744866371154785,0.7949959635734558
2.8733649253845215,5.2356390953063965,0.8128511309623718
2.8564207553863525,5.291664123535156,0.8293636441230774
2.8261191844940186,5.323750019073486,0.842241108417511
2.809535503387451,5.387640476226807,0.8597427606582642
2.775897741317749,5.420769214630127,0.8723450303077698
2.765267848968506,5.49821138381958,0.8920853734016418
2.7400410175323486,5.543731689453125,0.9064844846725464
1.233630657196045,2.5409858226776123,0.41862770915031433
1.2179290056228638,2.5563976764678955,0.42409747838974
1.1807796955108643,2.526230573654175,0.42199674248695374
1.1675994396209717,2.5444211959838867,0.42782312631607056
1.165109634399414,2.587265729904175,0.43789854645729065
1.1495342254638672,2.6019880771636963,0.4430924952030182
2.562413454055786,5.917206287384033,1.0133732557296753
2.5304758548736572,5.962977886199951,1.0270036458969116
2.507413387298584,6.025614261627197,1.043401837348938
2.472938299179077,6.063361167907715,1.0556652545928955
2.4539520740509033,6.140275001525879,1.0745548009872437
2.4171550273895264,6.178314685821533,1.0862287282943726
2.3868167400360107,6.2341227531433105,1.1011348962783813
2.3638274669647217,6.3073906898498535,1.1191200017929077
2.335867166519165,6.369781494140625,1.1353232860565186
2.3040385246276855,6.4209208488464355,1.1495541334152222
2.268693447113037,6.468955993652344,1.16257643699646
2.2389252185821533,6.5350494384765625,1.1788874864578247
2.2023355960845947,6.582726955413818,1.191983699798584
2.174470901489258,6.655529022216797,1.2096656560897827
2.1230947971343994,6.654669284820557,1.2139726877212524
2.0587782859802246,6.613192558288574,1.2106155157089233
2.001891851425171,6.597353458404541,1.2113473415374756
1.9355276823043823,6.547842502593994,1.205909252166748
1.871656894683838,6.5012712478637695,1.20095956325531
1.813940405845642,6.472601890563965,1.1993060111999512
1.7604979276657104,6.454396724700928,1.1995524168014526
1.7068544626235962,6.435978412628174,1.1993812322616577
0.8350368142127991,3.2421984672546387,0.6056457161903381
1.5916792154312134,6.368542671203613,1.1925371885299683
0.8054158091545105,3.3239235877990723,0.6239579916000366
1.485284447669983,6.321362495422363,1.1895101070404053
1.431675672531128,6.289501667022705,1.1864347457885742
1.3682670593261719,6.212350845336914,1.1744226217269897
1.3309900760650635,6.255066394805908,1.1846545934677124
1.2723400592803955,6.199884414672852,1.1764323711395264
1.2269538640975952,6.200481414794922,1.1787681579589844
1.1742550134658813,6.159163475036621,1.1731457710266113
1.125723958015442,6.136293411254883,1.171061635017395
1.0686171054840088,6.063998222351074,1.159327507019043
1.0183902978897095,6.033158779144287,1.1549696922302246
0.9754522442817688,6.039708614349365,1.1577949523925781
0.9297486543655396,6.026958465576172,1.156966209411621
0.8855024576187134,6.017574310302734,1.1568055152893066
0.8414320349693298,6.007867813110352,1.1566306352615356
0.7927634119987488,5.967502593994141,1.150623083114624
0.7491858601570129,5.961150646209717,1.1503856182098389
0.5951094031333923,5.021119594573975,0.9698510766029358
0.5638989806175232,5.063002109527588,0.9788685441017151
0.5412272214889526,5.188587188720703,1.0041382312774658
0.39963993430137634,4.107710838317871,0.7957751750946045
0.3688262701034546,4.091076850891113,0.7934192419052124
0.347521036863327,4.1812663078308105,0.8114870190620422
0.31700602173805237,4.16815185546875,0.8093115091323853
0.28664493560791016,4.154819965362549,0.8071314096450806
0.25947442650794983,4.18718957901001,0.8138688802719116
0.4252404272556305,7.749597549438477,1.5072132349014282
0.3702811002731323,7.72910213470459,1.5041961669921875
0.3153652548789978,7.704408168792725,1.500343918800354
0.26109322905540466,7.691007137298584,1.4977943897247314
0.2066100388765335,7.661893844604492,1.492256999015808
0.15158726274967194,7.6324143409729,1.486723780632019
0.09818348288536072,7.614031791687012,1.48341965675354
0.04506146162748337,7.583774566650391,1.477871060371399
-0.007619569543749094,7.537811756134033,1.469329595565796
-0.059920743107795715,7.526097774505615,1.466971755027771
-0.11270380020141602,7.494928359985352,1.4604166746139526
-0.16453449428081512,7.478739261627197,1.4568625688552856
-0.21561627089977264,7.446864604949951,1.4503257274627686
-0.26727887988090515,7.445298671722412,1.4497638940811157
-0.3184376358985901,7.431881904602051,1.446964144706726
-0.2697387933731079,5.415181636810303,1.0542333126068115
-0.3073630630970001,5.405717372894287,1.051602840423584
-0.3432155251502991,5.380722999572754,1.0460141897201538
-0.3796100616455078,5.366962909698486,1.0426626205444336
-0.4156551957130432,5.349123477935791,1.0385699272155762
-0.4495895802974701,5.308107852935791,1.0300322771072388
-0.42401087284088135,4.6175384521484375,0.8955637216567993
-0.45670217275619507,4.622370719909668,0.8957933783531189
-0.48527759313583374,4.588904857635498,0.8883205652236938
-0.5125547647476196,4.547638416290283,0.8793940544128418
-0.5457203388214111,4.559531211853027,0.8807925581932068
-0.5746364593505859,4.529214859008789,0.8740578293800354
-0.6061592698097229,4.52540397644043,0.8725016117095947
-0.6376060843467712,4.521380424499512,0.8709477782249451
-0.6652586460113525,4.494529724121094,0.864442765712738
-0.6937432885169983,4.475094795227051,0.8594093918800354
-0.7237153053283691,4.462981700897217,0.8558089733123779
-0.7520732283592224,4.443127632141113,0.8507800102233887
-0.7796217799186707,4.419295310974121,0.8450355529785156
-0.8102923035621643,4.414179801940918,0.842917799949646
-0.836329460144043,4.386336803436279,0.8361630439758301
-0.7202647924423218,3.64269757270813,0.6930354833602905
-0.7485982179641724,3.653089761734009,0.6936482191085815
-0.7689424753189087,3.625732183456421,0.6871393918991089
-0.9489212036132812,4.326092720031738,0.8183172345161438
-0.980754554271698,4.327374458312988,0.8170421123504639
-1.008947491645813,4.313532829284668,0.8127910494804382
-1.040589690208435,4.314529895782471,0.8109336495399475
-1.0625249147415161,4.278110980987549,0.8021265268325806
-1.0936660766601562,4.278791904449463,0.8003139495849609
-1.1186577081680298,4.253067970275879,0.7935640215873718
-1.1463544368743896,4.238330841064453,0.7889145612716675
-1.174268126487732,4.223331451416016,0.7841484546661377
-1.2008570432662964,4.208547115325928,0.7790200710296631
-1.2250943183898926,4.186220645904541,0.7725474238395691
-1.2535475492477417,4.178478717803955,0.7688066959381104
-1.280465006828308,4.162965297698975,0.7636139988899231
-1.3054262399673462,4.139784812927246,0.7570240497589111
-1.3365086317062378,4.138655662536621,0.7544671297073364
-1.3596230745315552,4.115687370300293,0.7475234270095825
-1.3837188482284546,4.096235275268555,0.7412694692611694
-1.4178311824798584,4.105703830718994,0.7402624487876892
-1.4401336908340454,4.0783162117004395,0.7325659394264221
-1.4691483974456787,4.068760395050049,0.7280742526054382
-1.4892122745513916,4.037647247314453,0.7196364402770996
-1.5000354051589966,3.9851231575012207,0.7071418166160583
-1.5351277589797974,3.9973654747009277,0.7061845064163208
-1.5653647184371948,3.994767665863037,0.7025530338287354
-1.599614143371582,3.9986894130706787,0.6999567151069641
-1.627667784690857,3.9882328510284424,0.6949242949485779
-1.6487690210342407,3.9637787342071533,0.6871210336685181
-1.6783380508422852,3.960664749145508,0.6829530000686646
-1.7049511671066284,3.9502146244049072,0.6775344014167786
-1.72694730758667,3.924773693084717,0.6693636775016785
-1.7513195276260376,3.9064598083496094,0.6625310182571411
-1.784577488899231,3.9093446731567383,0.6591081619262695
-1.8009110689163208,3.877324342727661,0.6495720148086548
-1.8267602920532227,3.866212844848633,0.6435955166816711
-1.8575406074523926,3.8611528873443604,0.6383851766586304
-1.8813362121582031,3.842054843902588,0.6309177875518799
-1.8975591659545898,3.8092293739318848,0.6210963726043701
-1.9194074869155884,3.790675401687622,0.6133819818496704
-1.9481656551361084,3.785740375518799,0.6078985929489136
-1.9746330976486206,3.773113965988159,0.6009616255760193
-2.001697540283203,3.7599568367004395,0.5938429236412048
-2.018099784851074,3.730318069458008,0.5840392708778381
-1.7016624212265015,3.097209930419922,0.4805099666118622
-1.7167493104934692,3.076521635055542,0.47285327315330505
-0.8329625725746155,1.4686273336410522,0.22347618639469147
-0.8435153365135193,1.4630674123764038,0.22034087777137756
-0.8531507253646851,1.4579460620880127,0.21716803312301636
-0.8548370599746704,1.4394278526306152,0.21203115582466125
-0.8809335827827454,1.4604382514953613,0.21255084872245789
-0.8832038640975952,1.4414079189300537,0.20719324052333832
-0.8929542303085327,1.4358952045440674,0.2036483734846115
-0.89407879114151,1.4173749685287476,0.19831247627735138
-0.8956003189086914,1.3985310792922974,0.19281315803527832
-0.9055262207984924,1.3926359415054321,0.18908633291721344
-0.8975212574005127,1.361263394355774,0.18184591829776764
-0.9453922510147095,1.4138821363449097,0.18568238615989685
-2.390852212905884,3.5223336219787598,0.4539731740951538
-1.3661847114562988,1.983970046043396,0.25075986981391907
-1.323349952697754,1.896207332611084,0.23480844497680664
-1.4394093751907349,2.3196821212768555,-0.21298064291477203
-1.3600486516952515,2.226109743118286,-0.2106490135192871
-1.373378038406372,2.2856106758117676,-0.22275897860527039
-1.2851916551589966,2.1743576526641846,-0.2178729623556137
-0.826877772808075,1.4450727701187134,-0.15232740342617035
-1.1422059535980225,2.0303127765655518,-0.21923699975013733
-1.1048529148101807,1.997078537940979,-0.22064237296581268
-1.0590299367904663,1.9462140798568726,-0.2197435349225998
-1.0208420753479004,1.9087870121002197,-0.22008520364761353
-0.9689659476280212,1.8433283567428589,-0.21687419712543488
-0.9523228406906128,1.8426549434661865,-0.22099563479423523
-0.8878061175346375,1.748570442199707,-0.21371538937091827
-0.8611106872558594,1.7266652584075928,-0.21488060057163239
-0.8367851376533508,1.7078258991241455,-0.21623274683952332
-0.829712450504303,1.723647952079773,-0.22191952168941498
-0.789030909538269,1.6694296598434448,-0.21842657029628754
-0.7735791206359863,1.6675533056259155,-0.22164161503314972
-0.7502748966217041,1.6478469371795654,-0.2224005162715912
-0.7164574265480042,1.6030349731445312,-0.21956485509872437
-0.6986218094825745,1.593461513519287,-0.22134852409362793
-0.6702278852462769,1.5588124990463257,-0.21955722570419312
-0.662204921245575,1.5701457262039185,-0.22411780059337616
-0.6390511989593506,1.5457279682159424,-0.2235952764749527
-0.6249872446060181,1.5426254272460938,-0.22593635320663452
-0.6052884459495544,1.5250126123428345,-0.2261120080947876
-0.5734720230102539,1.474679708480835,-0.22125808894634247
-0.5657981634140015,1.485446810722351,-0.2254999279975891
-0.549526572227478,1.4745765924453735,-0.22637905180454254
-0.5309844613075256,1.4562287330627441,-0.2260132133960724
-0.5116130709648132,1.4340046644210815,-0.22493590414524078
-0.4938528537750244,1.4152394533157349,-0.22433407604694366
-0.4887343943119049,1.432916283607483,-0.22938188910484314
0.5116775035858154,1.4096792936325073,-0.2193388193845749
0.51891028881073,1.3992234468460083,-0.21541716158390045
0.5465002655982971,1.4430047273635864,-0.21974797546863556
0.5537128448486328,1.4324158430099487,-0.215659961104393
0.5695409178733826,1.443306803703308,-0.2147492915391922
0.5941591858863831,1.4756124019622803,-0.21696269512176514
0.6177504658699036,1.504095435142517,-0.21847578883171082
0.6341208815574646,1.5145536661148071,-0.21721480786800385
0.6507057547569275,1.5248427391052246,-0.21587595343589783
0.6802103519439697,1.5632504224777222,-0.21831977367401123
0.6974894404411316,1.573087215423584,-0.21670643985271454
0.7195218205451965,1.5934600830078125,-0.21639348566532135
0.7370395660400391,1.60302734375,-0.21453776955604553
0.7582120895385742,1.619369387626648,-0.2134721279144287
0.7914701700210571,1.6599578857421875,-0.21540239453315735
0.8231822848320007,1.6969037055969238,-0.21668843924999237
0.8503744006156921,1.7230232954025269,-0.21642234921455383
0.8730304837226868,1.7383129596710205,-0.2146080732345581
0.9063945412635803,1.7741990089416504,-0.21519170701503754
0.9346774220466614,1.799508810043335,-0.21429435908794403
0.9691600203514099,1.834649920463562,-0.21429815888404846
1.0096849203109741,1.879684329032898,-0.21526043117046356
1.0543087720870972,1.9312483072280884,-0.2166971117258072
1.0938106775283813,1.972226858139038,-0.21669334173202515
1.140071153640747,2.0227129459381104,-0.21734829246997833
1.1700825691223145,2.0420749187469482,-0.21432575583457947
1.232831597328186,2.118774890899658,-0.21710027754306793
1.2888435125350952,2.1812946796417236,-0.21800613403320312
1.3102357387542725,2.182793378829956,-0.2124246060848236
1.3455007076263428,2.2075977325439453,-0.20899651944637299
1.3523449897766113,2.1857478618621826,-0.20099326968193054
1.3717492818832397,2.1834561824798584,-0.19466587901115417
1.3744165897369385,2.154716730117798,-0.18595942854881287
1.4056925773620605,2.172262668609619,-0.18122601509094238
1.7822096347808838,2.71366810798645,-0.2182675004005432
1.8470444679260254,2.7696738243103027,-0.21404308080673218
1.8565821647644043,2.7452011108398438,-0.2035873383283615
1.8576821088790894,2.7074151039123535,-0.19196927547454834
1.881073236465454,2.7014222145080566,-0.1823904663324356
1.3992751836776733,1.982237458229065,-0.12706151604652405
1.4472023248672485,2.020458459854126,-0.1220502257347107
1.4517823457717896,1.99838387966156,-0.11322158575057983
1.45773184299469,1.9799691438674927,-0.1046609953045845
2.3360681533813477,3.3058319091796875,0.4262685775756836
2.3078460693359375,3.314574718475342,0.4374341368675232
2.310220956802368,3.3726820945739746,0.4549454152584076
2.2773141860961914,3.37935733795166,0.46539968252182007
2.2895545959472656,3.4490244388580322,0.48387232422828674
2.246117353439331,3.438941717147827,0.4909980893135071
1.6679884195327759,2.596888542175293,0.3770902752876282
1.63489830493927,2.584733486175537,0.38102269172668457
1.6034328937530518,2.575936794281006,0.38541895151138306
3.023221492767334,4.939877986907959,0.7493420243263245
3.0038795471191406,4.990395545959473,0.7669959664344788
2.968190908432007,5.009785175323486,0.7794360518455505
2.946962833404541,5.056247711181641,0.7959625720977783
2.943887948989868,5.1409735679626465,0.8184870481491089
2.9091646671295166,5.16766881942749,0.8315474987030029
2.891065835952759,5.220223903656006,0.8484532237052917
2.8663265705108643,5.2628278732299805,0.8637425303459167
2.837244749069214,5.303046226501465,0.8782632350921631
2.819626569747925,5.367354869842529,0.8970516920089722
2.792161226272583,5.406031131744385,0.9110415577888489
2.7677319049835205,5.451465606689453,0.9262917637825012
2.763437509536743,5.542645454406738,0.9489730000495911
2.7149105072021484,5.547634124755859,0.9568257927894592
1.2214018106460571,2.542970895767212,0.44179046154022217
1.1885994672775269,2.5193636417388916,0.44068190455436707
1.1788911819458008,2.544433116912842,0.4480934143066406
1.1695399284362793,2.573453426361084,0.4559517502784729
1.14406156539917,2.567270278930664,0.45759525895118713
2.5626022815704346,5.863041400909424,1.051160216331482
2.5461981296539307,5.9398956298828125,1.0710967779159546
2.517587661743164,5.988081455230713,1.085910677909851
2.4939846992492676,6.054768085479736,1.1035032272338867
2.4649558067321777,6.110789775848389,1.1192257404327393
2.431638240814209,6.155702590942383,1.1329559087753296
2.4013452529907227,6.207335472106934,1.147944688796997
2.3725783824920654,6.262150287628174,1.1635502576828003
2.343465805053711,6.320907115936279,1.17949640750885
2.314103841781616,6.383511543273926,1.195938229560852
2.2826614379882812,6.4423675537109375,1.2118101119995117
2.245095729827881,6.48261833190918,1.2242047786712646
2.223037004470825,6.565981388092041,1.2447503805160522
2.1913673877716064,6.623798847198486,1.260587453842163
2.1503143310546875,6.660184383392334,1.2715563774108887
2.0903778076171875,6.637664794921875,1.2713366746902466
2.022371768951416,6.5890984535217285,1.2661869525909424
1.957428216934204,6.539304256439209,1.2605947256088257
1.909348726272583,6.544265270233154,1.2655833959579468
1.8526487350463867,6.519428253173828,1.2646375894546509
1.788141131401062,6.468643665313721,1.257972240447998
1.7314363718032837,6.443237781524658,1.256258487701416
1.6737422943115234,6.413760662078857,1.253811240196228
0.8214999437332153,3.240037202835083,0.6350122690200806
1.5673197507858276,6.3674235343933105,1.2511950731277466
0.791952908039093,3.317396640777588,0.6534767150878906
1.462010145187378,6.323654651641846,1.2480995655059814
1.4032111167907715,6.277144908905029,1.2414435148239136
1.3519301414489746,6.256153583526611,1.239803433418274
1.3034054040908813,6.2421088218688965,1.2395339012145996
1.2483936548233032,6.193857192993164,1.2324963808059692
1.2006378173828125,6.179049491882324,1.232078194618225
1.152216911315918,6.168091297149658,1.2316980361938477
1.0987497568130493,6.122671127319336,1.2244449853897095
1.0349370241165161,6.012609481811523,1.204275369644165
1.0029189586639404,6.079549312591553,1.219562292098999
0.9444657564163208,5.983557224273682,1.2022044658660889
0.9094308614730835,6.03871488571167,1.2152953147888184
0.8597550988197327,5.995173931121826,1.2078862190246582
0.815247654914856,5.985456466674805,1.207148551940918
0.768537700176239,5.9564104080200195,1.2025604248046875
0.6182667016983032,5.071578025817871,1.0250418186187744
0.5803284645080566,5.052541255950928,1.0223520994186401
0.5609199404716492,5.208423614501953,1.0551594495773315
0.5141767859458923,5.108996391296387,1.036035418510437
0.3805248737335205,4.0676751136779785,0.8253390789031982
0.3574758470058441,4.134898662567139,0.8394981026649475
0.3320797383785248,4.182899475097656,0.8498084545135498
0.29966649413108826,4.146755695343018,0.8430721759796143
0.2712912857532501,4.1561784744262695,0.8456260561943054
0.2445814460515976,4.195976734161377,0.8544088006019592
0.3975283205509186,7.752713680267334,1.5790828466415405
0.3422294557094574,7.732197284698486,1.5752190351486206
0.28606680035591125,7.703669548034668,1.5698049068450928
0.23127081990242004,7.6708807945251465,1.5635885000228882
0.17747607827186584,7.649180889129639,1.5597018003463745
0.12368272244930267,7.607970237731934,1.5519070625305176
0.07056256383657455,7.577920436859131,1.5461888313293457
0.016882477328181267,7.555318832397461,1.5412453413009644
-0.035484641790390015,7.524684906005859,1.5347466468811035
-0.08755909651517868,7.5051727294921875,1.5305917263031006
-0.13957779109477997,7.4967803955078125,1.528779149055481
-0.19070129096508026,7.457417964935303,1.5207250118255615
-0.24115996062755585,7.413882255554199,1.5118931531906128
-0.29477444291114807,7.446608066558838,1.517988920211792
-0.24921271204948425,5.356933116912842,1.091386079788208
-0.2889622449874878,5.404956817626953,1.1005936861038208
-0.325988233089447,5.39536714553833,1.0981171131134033
-0.3614124059677124,5.362603187561035,1.0909793376922607
-0.39849144220352173,5.348648548126221,1.0877174139022827
-0.4343867301940918,5.330684661865234,1.0836515426635742
-0.4580260217189789,5.179152011871338,1.0518101453781128
-0.4380909502506256,4.593014717102051,0.93189936876297
-0.4697427749633789,4.5901713371276855,0.9304915070533752
-0.5021588802337646,4.587030410766602,0.9290487766265869
-0.5304871797561646,4.553285121917725,0.9214704632759094
-0.5630667209625244,4.557374477386475,0.9215973615646362
-0.5915482044219971,4.530939102172852,0.9152687191963196
-0.6189702153205872,4.500616073608398,0.9078989624977112
-0.6503950953483582,4.496592998504639,0.9058634042739868
-0.6778926253318787,4.4696855545043945,0.8992844820022583
-0.7114084362983704,4.480398654937744,0.9003069996833801
-0.738834023475647,4.453060626983643,0.8937287330627441
-0.7671539187431335,4.4331207275390625,0.8886706233024597
-0.7947587370872498,4.413195610046387,0.8830738663673401
-0.8247765898704529,4.4043073654174805,0.8797065019607544
-0.7159567475318909,3.6840810775756836,0.7345759272575378
-0.7369422316551208,3.656911611557007,0.7279092073440552
-0.7561384439468384,3.6220927238464355,0.7197669744491577
-0.9287285208702087,4.299365043640137,0.8529512286186218
-0.9670519232749939,4.330803394317627,0.8573904037475586
-0.9930890202522278,4.309784412384033,0.8512963652610779
-1.0259783267974854,4.318465709686279,0.8511086702346802
-1.053883671760559,4.304466247558594,0.846466600894928
-1.076384425163269,4.267872333526611,0.8374148607254028
-1.106692910194397,4.260751247406006,0.8341662883758545
-1.1380441188812256,4.261097431182861,0.8322070837020874
-1.1619176864624023,4.235475063323975,0.8248794674873352
-1.188572883605957,4.2208147048950195,0.819742739200592
-1.2132148742675781,4.198534965515137,0.8131549954414368
-1.2452139854431152,4.197915077209473,0.8107234835624695
-1.2677910327911377,4.167797565460205,0.8026837706565857
-1.2919858694076538,4.145022869110107,0.7959293127059937
-1.3199787139892578,4.137010097503662,0.79167640209198
-1.350348949432373,4.136098861694336,0.7888100147247314
-1.379087209701538,4.12744140625,0.7844261527061462
-1.4005157947540283,4.096684455871582,0.7758750319480896
-1.4253875017166138,4.076709270477295,0.7694253325462341
-1.453506588935852,4.067633152008057,0.764840841293335
-1.4782758951187134,4.05141544342041,0.7586517930030823
-1.494832158088684,4.0134053230285645,0.7484443187713623
-1.520203948020935,3.9965574741363525,0.7421258687973022
-1.5593854188919067,4.015413284301758,0.7424522638320923
-1.5818792581558228,3.990969657897949,0.7347978353500366
-1.6118754148483276,3.988234519958496,0.7307968735694885
-1.635737419128418,3.9711697101593018,0.7240743637084961
-1.6628683805465698,3.960888147354126,0.7185684442520142
-1.6875684261322021,3.943068265914917,0.711646318435669
-1.7152162790298462,3.9321377277374268,0.7060043215751648
-1.7455321550369263,3.928245782852173,0.7015079259872437
-1.7590490579605103,3.889453172683716,0.690483808517456
-1.7887338399887085,3.885467529296875,0.6856158375740051
-1.815584659576416,3.8740882873535156,0.6794024109840393
-1.8495601415634155,3.876204252243042,0.6754865050315857
-1.8801281452178955,3.8711681365966797,0.6702859997749329
-1.8786228895187378,3.804287910461426,0.6540247201919556
-1.9183038473129272,3.820195436477661,0.6519827246665955
-1.9446512460708618,3.8080291748046875,0.6450679302215576
-1.978715181350708,3.8090643882751465,0.640278697013855
-1.9909112453460693,3.768976926803589,0.6285418272018433
-2.0086357593536377,3.7432444095611572,0.6189365386962891
-2.037231683731079,3.737778663635254,0.6127131581306458
-1.7113584280014038,3.0885138511657715,0.5015857219696045
-1.7331500053405762,3.0773861408233643,0.4951162338256836
-0.845314621925354,1.4778753519058228,0.23543418943881989
-0.8550352454185486,1.472784161567688,0.23221361637115479
-0.861030101776123,1.4608246088027954,0.22787189483642578
-0.8636502027511597,1.4417974948883057,0.22229038178920746
-0.8817785382270813,1.4494837522506714,0.22084148228168488
-0.875041663646698,1.4177980422973633,0.21330952644348145
-0.8886051177978516,1.419022560119629,0.21074225008487701
-0.9028525352478027,1.41975998878479,0.20790232717990875
-0.9002746343612671,1.394344449043274,0.20118369162082672
-0.9008567929267883,1.3760067224502563,0.1955161690711975
-0.918668806552887,1.3834019899368286,0.19342246651649475
-2.384197235107422,3.5368154048919678,0.48592281341552734
-2.3839001655578613,3.486875057220459,0.4703437089920044
-1.2785797119140625,1.8448278903961182,0.24405241012573242
-1.3675508499145508,1.944608211517334,0.251777708530426
-1.2394369840621948,1.7744841575622559,-0.12284164130687714
-1.447516679763794,2.31436824798584,-0.21582277119159698
-1.3473353385925293,2.1879384517669678,-0.21057310700416565
-1.3974863290786743,2.3070907592773438,-0.2288733273744583
-1.2470883131027222,2.0925326347351074,-0.2136140763759613
-0.8317040801048279,1.441990852355957,-0.155231773853302
-0.8363691568374634,1.4746637344360352,-0.16275182366371155
-1.0910648107528687,1.9553245306015015,-0.22087103128433228
-1.0451542139053345,1.9045524597167969,-0.22003154456615448
-0.9941694140434265,1.8431671857833862,-0.2176247239112854
-0.9751759767532349,1.8394628763198853,-0.22180438041687012
-0.9172440767288208,1.7596060037612915,-0.21642522513866425
-0.876070499420166,1.7103514671325684,-0.21443647146224976
-0.8635143637657166,1.7161215543746948,-0.21921320259571075
-0.8478894829750061,1.714648723602295,-0.22292765974998474
-0.8032582998275757,1.6538363695144653,-0.21882636845111847
-0.7794868350028992,1.6345689296722412,-0.21990631520748138
-0.754480242729187,1.6115039587020874,-0.22034373879432678
-0.7300850749015808,1.5880767107009888,-0.22054718434810638
-0.718709409236908,1.5926953554153442,-0.22456812858581543
-0.6898824572563171,1.558349847793579,-0.22295618057250977
-0.672286331653595,1.5485910177230835,-0.2247917205095291
-0.6491571068763733,1.5242815017700195,-0.22433730959892273
-0.632269024848938,1.5140659809112549,-0.22584141790866852
-0.6110381484031677,1.4930076599121094,-0.22560173273086548
-0.585939884185791,1.4609240293502808,-0.22355860471725464
-0.5697720646858215,1.4501830339431763,-0.2247077375650406
-0.559443473815918,1.4536939859390259,-0.2279498130083084
-0.534008264541626,1.4173983335494995,-0.22481904923915863
-0.5265554785728455,1.4279311895370483,-0.22905321419239044
-0.5085954666137695,1.409327507019043,-0.22857318818569183
0.5260075330734253,1.4037714004516602,-0.22329649329185486
0.5413784384727478,1.414960503578186,-0.22253699600696564
0.5569920539855957,1.4259850978851318,-0.22169484198093414
0.5641099214553833,1.4153518676757812,-0.2174212634563446
0.5870486497879028,1.444136619567871,-0.21910716593265533
0.6062182188034058,1.461869716644287,-0.21895655989646912
0.62859708070755,1.4865715503692627,-0.21978679299354553
0.6420609354972839,1.4897557497024536,-0.21733342111110687
0.6663662195205688,1.517707109451294,-0.21837398409843445
0.6896117329597473,1.5418272018432617,-0.2187216728925705
0.7103492617607117,1.5585163831710815,-0.2178272157907486
0.7326711416244507,1.578651785850525,-0.21734493970870972
0.7535018920898438,1.595128059387207,-0.21622194349765778
0.7713514566421509,1.6043540239334106,-0.21401453018188477
0.7980316877365112,1.6307679414749146,-0.21396753191947937
0.8407067656517029,1.6881617307662964,-0.217685267329216
0.8645655512809753,1.7071540355682373,-0.21629825234413147
0.8907269835472107,1.7292481660842896,-0.21512213349342346
0.9246068000793457,1.76474928855896,-0.21541137993335724
0.9532210826873779,1.7897636890411377,-0.2142239660024643
1.0006022453308105,1.8487083911895752,-0.21686503291130066
1.0400826930999756,1.8897768259048462,-0.2169327735900879
1.089463710784912,1.947471261024475,-0.21869996190071106
1.1219086647033691,1.9744489192962646,-0.21673482656478882
1.1607191562652588,2.0111234188079834,-0.2156006395816803
1.2083919048309326,2.0605549812316895,-0.2154173105955124
1.268668532371521,2.1295578479766846,-0.21681329607963562
1.31526517868042,2.1748807430267334,-0.21553558111190796
1.34065842628479,2.182882070541382,-0.21016141772270203
1.3601150512695312,2.1806726455688477,-0.2036738395690918
1.362213373184204,2.15240740776062,-0.19479307532310486
1.3772461414337158,2.143474578857422,-0.18745262920856476
1.3924107551574707,2.1342949867248535,-0.18001124262809753
1.783086895942688,2.694289445877075,-0.21879728138446808
1.8556571006774902,2.7637939453125,-0.21554435789585114
1.815841555595398,2.6644186973571777,-0.1987985521554947
1.8715009689331055,2.707353353500366,-0.19263410568237305
1.8852665424346924,2.688983678817749,-0.18184863030910492
1.4315272569656372,2.0120198726654053,-0.12858730554580688
1.4536799192428589,2.0158491134643555,-0.12128818780183792
1.4720656871795654,2.0126407146453857,-0.11306595802307129
1.4764419794082642,1.9905073642730713,-0.10356369614601135
2.3389413356781006,3.2825307846069336,0.441400408744812
2.2930092811584473,3.270442485809326,0.4504947364330292
2.2872323989868164,3.315260648727417,0.46701836585998535
2.30914044380188,3.3973374366760254,0.4882720708847046
2.2958154678344727,3.4326822757720947,0.5028155446052551
1.4890495538711548,2.2636640071868896,0.33766305446624756
1.5209718942642212,2.348194122314453,0.356078565120697
1.5744465589523315,2.469297409057617,0.3803100287914276
1.6270941495895386,2.5952181816101074,0.40563759207725525
1.579215407371521,2.560011625289917,0.4057009220123291
3.017300844192505,4.9682536125183105,0.797644853591919
2.987339735031128,5.002192974090576,0.8132335543632507
2.9721200466156006,5.062995433807373,0.8329320549964905
2.9521796703338623,5.112786293029785,0.85053950548172
2.923196315765381,5.145145893096924,0.865101158618927
2.8924612998962402,5.178154468536377,0.8795024752616882
2.8724584579467773,5.235722064971924,0.8980377316474915
2.8481497764587402,5.282102108001709,0.9144025444984436
2.837726593017578,5.35139799118042,0.934528112411499
2.8028643131256104,5.376479625701904,0.9469574689865112
2.7832963466644287,5.436784267425537,0.9651280045509338
2.7605252265930176,5.493926048278809,0.9830329418182373
2.745065450668335,5.560066223144531,1.0021880865097046
1.2366681098937988,2.549429178237915,0.46286287903785706
1.2014799118041992,2.522733449935913,0.4611535668373108
1.1890459060668945,2.544823169708252,0.4681769013404846
1.1699485778808594,2.552835464477539,0.47264933586120605
1.1610407829284668,2.5814590454101562,0.4808669686317444
1.1458677053451538,2.5958547592163086,0.48644232749938965
2.564486026763916,5.9236884117126465,1.1162734031677246
2.5339653491973877,5.97273063659668,1.1314045190811157
2.501375436782837,6.018063068389893,1.1459546089172363
2.4724206924438477,6.069865703582764,1.1616919040679932
2.4452035427093506,6.124765872955322,1.1780281066894531
2.4182677268981934,6.183343410491943,1.1949989795684814
2.3905162811279297,6.24606990814209,1.2122501134872437
2.3552305698394775,6.290693283081055,1.2261155843734741
2.326270341873169,6.353064060211182,1.2435407638549805
2.302255392074585,6.425562381744385,1.2628891468048096
2.2659008502960205,6.4653801918029785,1.2759437561035156
2.2341041564941406,6.523674011230469,1.2920721769332886
2.2095515727996826,6.607524394989014,1.313158631324768
2.173469305038452,6.662398815155029,1.328715205192566
2.1160335540771484,6.643193244934082,1.3293263912200928
2.055694341659546,6.612489223480225,1.3276376724243164
1.9947749376296997,6.577609539031982,1.3251140117645264
1.9362398386001587,6.553841590881348,1.3239303827285767
1.8749351501464844,6.51854133605957,1.3204165697097778
1.8124500513076782,6.479213237762451,1.3161600828170776
1.7599552869796753,6.464667797088623,1.3167836666107178
1.7028477191925049,6.431187629699707,1.3135756254196167
0.8336441516876221,3.2394402027130127,0.6634981036186218
1.588137149810791,6.359594345092773,1.3053001165390015
0.8018704652786255,3.3134517669677734,0.6815631985664368
1.4790992736816406,6.309087753295898,1.3005845546722412
1.4298356771469116,6.295903205871582,1.3006712198257446
1.3800748586654663,6.278590202331543,1.299942135810852
1.3066831827163696,6.148571968078613,1.2758700847625732
1.272894024848938,6.209553241729736,1.2907018661499023
1.2270545959472656,6.2101874351501465,1.2929118871688843
1.16904616355896,6.146585941314697,1.2817907333374023
1.124531626701355,6.146342754364014,1.2838789224624634
1.071010708808899,6.092992305755615,1.274902105331421
1.0219964981079102,6.065726280212402,1.2714513540267944
0.9755825996398926,6.049468517303467,1.2697983980178833
0.9326987266540527,6.055656909942627,1.2725224494934082
0.8824872970581055,6.012360095977783,1.264902114868164
0.8347944617271423,5.979994773864746,1.259613275527954
0.7893388867378235,5.962456703186035,1.257505178451538
0.6560208201408386,5.235101699829102,1.1055229902267456
0.5934339761734009,5.018891334533691,1.0611815452575684
0.5694214105606079,5.125211715698242,1.0844017267227173
0.5355777740478516,5.151589393615723,1.0907809734344482
0.396443247795105,4.09349250793457,0.8674184083938599
0.3670877516269684,4.092128753662109,0.8678507804870605
0.343957781791687,4.159073829650879,0.8828104734420776
0.31621143221855164,4.1763434410095215,0.8872822523117065
0.2843971252441406,4.140138149261475,0.880074679851532
0.25771674513816833,4.1800312995910645,0.8888316750526428
0.4217410683631897,7.737524509429932,1.6458916664123535
0.3680313527584076,7.747658729553223,1.648720622062683
0.31230321526527405,7.703963756561279,1.640167236328125
0.25793036818504333,7.678962707519531,1.6356643438339233
0.2039327770471573,7.6574015617370605,1.6319690942764282
0.14923401176929474,7.635709285736084,1.6272099018096924
0.09553981572389603,7.598341941833496,1.619161605834961
0.04243789613246918,7.572061061859131,1.61355459690094
-0.010221103206276894,7.556872367858887,1.610389232635498
-0.062476225197315216,7.51839542388916,1.602338194847107
-0.11524006724357605,7.4910054206848145,1.5967305898666382
-0.1669749766588211,7.474803447723389,1.593201756477356
-0.21775281429290771,7.435480117797852,1.5841012001037598
-0.26929014921188354,7.433995723724365,1.5831432342529297
-0.3215627074241638,7.447420120239258,1.5854343175888062
-0.2709120213985443,5.403598308563232,1.1499812602996826
-0.3091164529323578,5.401699066162109,1.1492706537246704
-0.34564095735549927,5.384317398071289,1.145328164100647
-0.3817601501941681,5.366814613342285,1.1408590078353882
-0.4175754189491272,5.349124431610107,1.1361626386642456
-0.45284125208854675,5.327386379241943,1.1306663751602173
-0.42512333393096924,4.616494655609131,0.9790592789649963
-0.45646923780441284,4.606087684631348,0.9761791229248047
-0.4852706491947174,4.57266092300415,0.9684727787971497
-0.5170413851737976,4.569454193115234,0.9671702980995178
-0.5466240644454956,4.551007270812988,0.9620724320411682
-0.5765442848205566,4.532303333282471,0.9569528102874756
-0.6066818237304688,4.521047115325928,0.9534782767295837
-0.6380178928375244,4.517130374908447,0.951589822769165
-0.6666254997253418,4.4940667152404785,0.9457145929336548
-0.6931300759315491,4.459489822387695,0.9374748468399048
-0.7268947958946228,4.470080852508545,0.9384183287620544
-0.7523699402809143,4.435346603393555,0.9296114444732666
-0.7840096950531006,4.438149929046631,0.9287256598472595
-0.8082662224769592,4.399306774139404,0.9191701412200928
-0.8374884724617004,4.386567115783691,0.9151053428649902
-0.7266895174980164,3.667851209640503,0.7640331983566284
-0.752629280090332,3.66306471824646,0.761881411075592
-0.922480046749115,4.339874744415283,0.9007546901702881
-0.9504023194313049,4.326638698577881,0.8961564302444458
-0.9815742373466492,4.3281569480896,0.8946560621261597
-1.0116817951202393,4.32186222076416,0.8915423154830933
-1.0387662649154663,4.300327777862549,0.885298490524292
-1.0669299364089966,4.286172389984131,0.8806572556495667
-1.090621829032898,4.257201194763184,0.8725745677947998
-1.1215202808380127,4.257838249206543,0.8704450130462646
-1.1454681158065796,4.232354164123535,0.8630214333534241
-1.1772552728652954,4.232347011566162,0.8607674837112427
-1.2004923820495605,4.202655792236328,0.8525398969650269
-1.2276865243911743,4.187555313110352,0.8473291993141174
-1.2563968896865845,4.179838180541992,0.8433409929275513
-1.2801791429519653,4.15741491317749,0.8361667990684509
-1.3088018894195557,4.149353504180908,0.8318852782249451
-1.3326127529144287,4.1264967918396,0.8246902823448181
-1.3639094829559326,4.125211238861084,0.8218035101890564
-1.3878697156906128,4.101869583129883,0.8145679831504822
-1.413472294807434,4.085904598236084,0.8085389733314514
-1.4384901523590088,4.069969654083252,0.8022964000701904
-1.465105652809143,4.057343006134033,0.7967013716697693
-1.4904863834381104,4.040863513946533,0.7903733849525452
-1.5133997201919556,4.0168890953063965,0.7825897932052612
-1.541608452796936,4.007115840911865,0.777618408203125
-1.563215970993042,3.9832472801208496,0.7695537805557251
-1.5962108373641968,3.9877731800079346,0.7668108940124512
-1.6230285167694092,3.977972984313965,0.7614012360572815
-1.6538053750991821,3.9746878147125244,0.7571278214454651
-1.6787534952163696,3.956935167312622,0.750115692615509
-1.7032365798950195,3.9391584396362305,0.7430503368377686
-1.7300764322280884,3.9286046028137207,0.7368922829627991
-1.7437798976898193,3.889936923980713,0.7255964279174805
-1.752875566482544,3.8404653072357178,0.712289571762085
-1.7977924346923828,3.8675930500030518,0.7131150960922241
-1.8349671363830566,3.876859664916992,0.7106127142906189
-1.8581255674362183,3.8585033416748047,0.7025421261787415
-1.883885145187378,3.847212314605713,0.6958297491073608
-1.903160810470581,3.8217203617095947,0.6865130662918091
-1.9301669597625732,3.809422016143799,0.6794307827949524
-1.9500497579574585,3.7831876277923584,0.6699085831642151
-1.9825764894485474,3.784980535507202,0.6649659276008606
-1.9973185062408447,3.75232195854187,0.6538482308387756
-2.010077476501465,3.716111898422241,0.6421605348587036
-1.699548602104187,3.0903964042663574,0.5293748378753662
-1.7212843894958496,3.079464912414551,0.5228081345558167
-0.8355714678764343,1.4723588228225708,0.24756203591823578
-0.8416417837142944,1.4605321884155273,0.24314522743225098
-0.8558117151260376,1.4618136882781982,0.24082016944885254
-0.8661937713623047,1.4562569856643677,0.23734153807163239
-0.8799901008605957,1.457586407661438,0.23486334085464478
-0.881488561630249,1.4391292333602905,0.22917118668556213
-0.8874900937080383,1.4269254207611084,0.22434288263320923
-0.8976855874061584,1.4211362600326538,0.22049246728420258
-0.907315194606781,1.4156091213226318,0.21659763157367706
-0.8996965885162354,1.384223461151123,0.20874789357185364
-0.8964508175849915,1.359155535697937,0.2017974555492401
-0.9494672417640686,1.4176627397537231,0.20699195563793182
-2.3839077949523926,3.5107667446136475,0.5037537813186646
-1.3269654512405396,1.899660348892212,0.2623404860496521
-1.359128475189209,2.189563512802124,-0.213668093085289
-1.3203829526901245,2.162370443344116,-0.21778957545757294
-1.258329153060913,2.09455943107605,-0.21737204492092133
-1.2077300548553467,2.0424675941467285,-0.2179664820432663
-0.8415645956993103,1.471400499343872,-0.16548240184783936
-1.0464894771575928,1.859564185142517,-0.21423053741455078
-1.032670259475708,1.8665810823440552,-0.2201857566833496
-1.0002869367599487,1.8393415212631226,-0.22191837430000305
-0.9358665347099304,1.7498695850372314,-0.21563993394374847
-0.9016737341880798,1.714619517326355,-0.2156801074743271
-0.892606258392334,1.7274538278579712,-0.221649169921875
-0.8604825735092163,1.6952898502349854,-0.22180521488189697
-0.8345807790756226,1.6729509830474854,-0.22291924059391022
-0.7969310879707336,1.6260485649108887,-0.22054700553417206
-0.7648624777793884,1.589289903640747,-0.21930193901062012
-0.7434741258621216,1.5731247663497925,-0.22070719301700592
-0.7241230010986328,1.5601990222930908,-0.22244495153427124
-0.6998038291931152,1.5366740226745605,-0.22258101403713226
-0.6854476928710938,1.5340646505355835,-0.2255920171737671
-0.6558252573013306,1.4958008527755737,-0.22320209443569183
-0.6375448107719421,1.4820747375488281,-0.22433605790138245
-0.620837390422821,1.4718109369277954,-0.22585368156433105
-0.5981589555740356,1.4471858739852905,-0.22512578964233398
-0.584969162940979,1.443681240081787,-0.22750839591026306
-0.5661826133728027,1.4256857633590698,-0.22755196690559387
-0.5545556545257568,1.42556893825531,-0.23031170666217804
0.5529823899269104,1.4016700983047485,-0.2244853526353836
0.5686275959014893,1.4126018285751343,-0.22345462441444397
0.5815451145172119,1.4162224531173706,-0.2212274968624115
0.5988951921463013,1.4304934740066528,-0.22054925560951233
0.6148983836174011,1.4410648345947266,-0.21921393275260925
0.6344696283340454,1.4584652185440063,-0.2187630832195282
0.6573405265808105,1.4827890396118164,-0.2192905694246292
0.6756449341773987,1.4963655471801758,-0.2180785834789276
0.6989486813545227,1.520357370376587,-0.2182668000459671
0.7194882035255432,1.5370241403579712,-0.21725638210773468
0.7455649971961975,1.563864827156067,-0.21749278903007507
0.7665828466415405,1.5801489353179932,-0.21615031361579895
0.7912095785140991,1.60321843624115,-0.21561802923679352
0.8216499090194702,1.6363245248794556,-0.21621251106262207
0.8614733815193176,1.6863491535186768,-0.21881318092346191
0.889188289642334,1.711981177330017,-0.21799717843532562
0.9228949546813965,1.7475453615188599,-0.2182018756866455
0.9555074572563171,1.779214859008789,-0.21766076982021332
0.9904045462608337,1.8139694929122925,-0.21729636192321777
1.0310839414596558,1.8587534427642822,-0.21787281334400177
1.066833734512329,1.8928536176681519,-0.21691623330116272
1.109440803527832,1.9363958835601807,-0.21660389006137848
1.1677803993225098,2.0066611766815186,-0.21901965141296387
1.2011585235595703,2.03285813331604,-0.2163124978542328
1.2794712781906128,2.1318297386169434,-0.22076953947544098
1.3147485256195068,2.1566925048828125,-0.2170962393283844
1.3295165300369263,2.148338794708252,-0.20986302196979523
1.3587812185287476,2.1629111766815186,-0.20478299260139465
1.3782981634140015,2.16048002243042,-0.19780634343624115
1.384473204612732,2.1386706829071045,-0.18907958269119263
1.3924859762191772,2.1201493740081787,-0.18066494166851044
1.792681097984314,2.6878340244293213,-0.21978892385959625
1.8392813205718994,2.7183806896209717,-0.21303124725818634
1.8154996633529663,2.645732879638672,-0.19818755984306335
1.8898446559906006,2.713629961013794,-0.19327795505523682
1.9124348163604736,2.708069324493408,-0.18283556401729584
1.4514963626861572,2.026578187942505,-0.12893426418304443
1.4657878875732422,2.016813278198242,-0.12006086856126785
1.4741851091384888,2.001505136489868,-0.11090099811553955
2.314286231994629,3.2767114639282227,0.47039297223091125
2.2949421405792236,3.297921895980835,0.4838902950286865
1.5355000495910645,2.242232322692871,0.33588525652885437
1.5281643867492676,2.2693517208099365,0.346823126077652
1.524625539779663,2.298499345779419,0.357449471950531
1.5158665180206299,2.3216114044189453,0.3671228885650635
1.5539551973342896,2.4202513694763184,0.38885223865509033
1.6186563968658447,2.5613608360290527,0.4175852835178375
1.5753958225250244,2.5324361324310303,0.41874244809150696
3.035168409347534,4.961115837097168,0.8310874700546265
2.9964261054992676,4.982227325439453,0.8452622294425964
2.984022617340088,5.041387557983398,0.865233302116394
2.965447187423706,5.0903544425964355,0.8835349082946777
2.9221363067626953,5.104166507720947,0.8954363465309143
2.909348726272583,5.171318531036377,0.9165419936180115
2.8754708766937256,5.196892261505127,0.9299153089523315
2.854935884475708,5.245616912841797,0.9473870992660522
2.8415355682373047,5.31206750869751,0.9678202867507935
2.8200104236602783,5.3693037033081055,0.9866009950637817
2.787041425704956,5.40172815322876,1.0006293058395386
2.7625489234924316,5.44683837890625,1.0167524814605713
2.7598867416381836,5.536650657653809,1.04141366481781
1.2507624626159668,2.556241750717163,0.484114408493042
1.214510440826416,2.530085325241089,0.4824712872505188
1.1927759647369385,2.531005859375,0.48580512404441833
1.1747753620147705,2.5385379791259766,0.49034640192985535
1.1566786766052246,2.545961380004883,0.4948614835739136
1.150161623954773,2.5817949771881104,0.5046218037605286
2.570924758911133,5.887085437774658,1.1570614576339722
2.5485477447509766,5.9534687995910645,1.176541805267334
2.516843557357788,5.994270324707031,1.1908265352249146
2.4919965267181396,6.0526509284973145,1.208733320236206
2.457458734512329,6.093985080718994,1.2225655317306519
2.4292633533477783,6.153074264526367,1.2399861812591553
2.398571014404297,6.20858907699585,1.2568743228912354
2.3710763454437256,6.26668119430542,1.2741131782531738
2.338817596435547,6.313885688781738,1.2892754077911377
2.309213161468506,6.372064113616943,1.3063987493515015
2.2816882133483887,6.441413402557373,1.3254207372665405
2.2536511421203613,6.514556407928467,1.345468521118164
2.218015670776367,6.561583995819092,1.360062599182129
2.1910462379455566,6.633639812469482,1.379895806312561
2.1478092670440674,6.658219814300537,1.3899794816970825
2.082427978515625,6.617245197296143,1.3856873512268066
2.0187110900878906,6.58343505859375,1.3827024698257446
1.9597307443618774,6.559842586517334,1.381814956665039
1.9015876054763794,6.53169584274292,1.3798667192459106
1.8411502838134766,6.491933822631836,1.3754465579986572
1.789510726928711,6.481174468994141,1.3771933317184448
1.72819185256958,6.4371724128723145,1.3711076974868774
1.6683536767959595,6.400365829467773,1.3664404153823853
0.820976197719574,3.2444541454315186,0.6942796111106873
1.5660425424575806,6.376614093780518,1.3676854372024536
0.7859073281288147,3.2991554737091064,0.7092704772949219
1.4567409753799438,6.309998989105225,1.3597760200500488
1.404334545135498,6.2895283699035645,1.358030080795288
1.3439220190048218,6.227517604827881,1.3469868898391724
1.2945330142974854,6.2136311531066895,1.3463901281356812
1.2468576431274414,6.202981948852539,1.3465094566345215
1.1934089660644531,6.158123970031738,1.339209794998169
1.148228406906128,6.158032417297363,1.3417354822158813
1.0921624898910522,6.093700885772705,1.3298912048339844
1.0365574359893799,6.029106140136719,1.3174375295639038
0.997363805770874,6.058247089385986,1.3255223035812378
0.9508926868438721,6.041840553283691,1.3236998319625854
0.9057686924934387,6.032643795013428,1.3235149383544922
0.859886646270752,6.011691093444824,1.3207738399505615
0.8127986788749695,5.979053020477295,1.3155090808868408
0.7657372355461121,5.946295738220215,1.309402585029602
0.6145054697990417,5.05330753326416,1.113702654838562
0.5779576301574707,5.049533367156982,1.1138627529144287
0.5521302819252014,5.147956371307373,1.1366506814956665
0.40935948491096497,4.0845746994018555,0.9027379751205444
0.3791353106498718,4.068012237548828,0.8999947905540466
0.35622119903564453,4.134901523590088,0.9155301451683044
0.3289637863636017,4.159924030303955,0.9214562773704529
0.2976030707359314,4.139143943786621,0.9172894954681396
0.26950302720069885,4.156163215637207,0.9215375781059265
0.24389319121837616,4.21485710144043,0.9350748062133789
0.39434492588043213,7.746938228607178,1.7197167873382568
0.3395422399044037,7.726273536682129,1.7162508964538574
0.28262239694595337,7.671151638031006,1.7043322324752808
0.2291266918182373,7.672832012176514,1.7048009634017944
0.17448531091213226,7.628393173217773,1.6951048374176025
