X,Y,Z
-0.6219192743301392,1.535508394241333,-0.22493648529052734
-0.5981616377830505,1.5070202350616455,-0.22347451746463776
-0.5819016695022583,1.4962979555130005,-0.22456064820289612
-0.5656644701957703,1.4854977130889893,-0.22550080716609955
-0.5439925193786621,1.4601292610168457,-0.22418688237667084
-0.5310006141662598,1.4562194347381592,-0.22603563964366913
-0.5181318521499634,1.4521853923797607,-0.22784188389778137
-0.4886910617351532,1.400675892829895,-0.22200916707515717
-0.478680819272995,1.4037001132965088,-0.2247014343738556
0.5243148803710938,1.4137117862701416,-0.21765659749507904
0.5368635058403015,1.4177136421203613,-0.21585148572921753
0.5564746260643005,1.439645528793335,-0.2167285829782486
0.5810049772262573,1.47206449508667,-0.2190086394548416
0.6000458002090454,1.4899321794509888,-0.2190714180469513
0.6133007407188416,1.4933748245239258,-0.2168620228767395
0.6340965032577515,1.5145680904388428,-0.21718494594097137
0.6478167176246643,1.5176607370376587,-0.2148100733757019
0.6803486347198486,1.5631933212280273,-0.21829724311828613
0.6989854574203491,1.5766713619232178,-0.2171381413936615
0.716240644454956,1.5864371061325073,-0.21541598439216614
0.730676531791687,1.5888885259628296,-0.21259836852550507
0.7616404294967651,1.626333236694336,-0.21437257528305054
0.7880436182022095,1.653001070022583,-0.21444988250732422
0.8231380581855774,1.6969282627105713,-0.21666376292705536
0.8505866527557373,1.722928524017334,-0.21634292602539062
0.8801380395889282,1.7521274089813232,-0.21628589928150177
0.9080310463905334,1.777726650238037,-0.21558798849582672
0.9345918893814087,1.7995535135269165,-0.2142922431230545
0.9729342460632324,1.8414506912231445,-0.21505233645439148
1.0207042694091797,1.9002379179000854,-0.2175944596529007
1.0541244745254517,1.9313485622406006,-0.21669939160346985
1.101448655128479,1.9857834577560425,-0.21812108159065247
1.12884521484375,2.0022614002227783,-0.21508735418319702
1.173758864402771,2.048938751220703,-0.21500031650066376
1.2287085056304932,2.112169027328491,-0.21642665565013885
1.285129189491272,2.1744608879089355,-0.21720948815345764
1.3143692016601562,2.1893999576568604,-0.21299614012241364
1.3412262201309204,2.201085329055786,-0.2083466649055481
1.356635332107544,2.1922647953033447,-0.2014634907245636
1.3555469512939453,2.156848430633545,-0.19216006994247437
1.3784607648849487,2.1613857746124268,-0.18645161390304565
1.397275686264038,2.159151077270508,-0.1800442785024643
1.801983118057251,2.7426655292510986,-0.2203979790210724
1.8554160594940186,2.7828378677368164,-0.21497783064842224
1.8520721197128296,2.738839626312256,-0.20308499038219452
1.8515194654464722,2.6974711418151855,-0.191069096326828
1.8807170391082764,2.7016732692718506,-0.18234802782535553
1.4464818239212036,2.0491907596588135,-0.13129794597625732
1.4339120388031006,2.001192092895508,-0.12075214087963104
1.4469523429870605,1.992247223854065,-0.11285019665956497
1.4696869850158691,1.9954124689102173,-0.1052350327372551
2.0454792976379395,2.8928327560424805,0.37274521589279175
2.2942144870758057,3.2956860065460205,0.4348108470439911
2.30279278755188,3.363621711730957,0.4538833796977997
2.293379545211792,3.401332378387451,0.4682033658027649
2.2853081226348877,3.4425480365753174,0.4828334450721741
2.289954900741577,3.507587432861328,0.5007891654968262
1.6099979877471924,2.505143880844116,0.36353832483291626
1.6314254999160767,2.57777738571167,0.37991446256637573
1.5947234630584717,2.5631103515625,0.38338011503219604
3.026449203491211,4.946972370147705,0.7504323720932007
3.00105619430542,4.98310661315918,0.7656332850456238
2.9886717796325684,5.042669773101807,0.7845096588134766
2.9458658695220947,5.056893348693848,0.7959230542182922
2.9354918003082275,5.127928733825684,0.816450834274292
2.910412073135376,5.167007923126221,0.8312904834747314
2.8772571086883545,5.192511558532715,0.8440132141113281
2.86173415184021,5.256542205810547,0.8625214695930481
2.83992338180542,5.31035852432251,0.8795238137245178
2.819193124771118,5.36326789855957,0.8961777687072754
2.811216354370117,5.439682960510254,0.9167457222938538
2.7745590209960938,5.465353965759277,0.9284608364105225
2.755675792694092,5.529266834259033,0.9465509057044983
1.253871202468872,2.5623514652252197,0.441935271024704
1.222018837928772,2.5426857471466064,0.44172486662864685
1.192463994026184,2.52606463432312,0.4419477880001068
1.18501615524292,2.5586130619049072,0.45048537850379944
1.156310796737671,2.5455732345581055,0.45100268721580505
1.1471800804138184,2.5743181705474854,0.45887503027915955
2.574540615081787,5.88726806640625,1.0556029081344604
2.544297218322754,5.932284832000732,1.0700434446334839
2.5228452682495117,6.002612590789795,1.0883561372756958
2.4930520057678223,6.055149555206299,1.1035176515579224
2.464695930480957,6.110878944396973,1.1193095445632935
2.4357683658599854,6.162353992462158,1.1342554092407227
2.406853199005127,6.217555046081543,1.1501100063323975
2.378108501434326,6.276534080505371,1.166137933731079
2.345355749130249,6.328446388244629,1.1806702613830566
2.315897226333618,6.39103889465332,1.1973233222961426
2.287503242492676,6.452907562255859,1.2137781381607056
2.253923177719116,6.503965377807617,1.2283930778503418
2.220280885696411,6.554701805114746,1.2428635358810425
2.1906392574310303,6.62410831451416,1.2602274417877197
2.1517701148986816,6.667816162109375,1.2728288173675537
2.087475538253784,6.6305131912231445,1.2699757814407349
2.0254323482513428,6.596186637878418,1.2676514387130737
1.9636927843093872,6.557426929473877,1.2644010782241821
1.9052660465240479,6.529425144195557,1.2628777027130127
1.8474940061569214,6.504976749420166,1.2615032196044922
1.7931729555130005,6.491164684295654,1.2622296810150146
1.728880524635315,6.435962677001953,1.2548742294311523
1.6762669086456299,6.421013832092285,1.2553720474243164
0.8217507600784302,3.2399439811706543,0.6351630091667175
1.564601182937622,6.35621452331543,1.2491177320480347
0.7941923141479492,3.328727960586548,0.6555140018463135
1.4559365510940552,6.301461696624756,1.2435448169708252
1.4044805765151978,6.284719944000244,1.2429317235946655
1.3507922887802124,6.248533248901367,1.2384154796600342
1.298462152481079,6.215668201446533,1.2345813512802124
1.2532669305801392,6.216303825378418,1.2371734380722046
1.1964467763900757,6.1604132652282715,1.227947473526001
1.1488879919052124,6.153155326843262,1.228487491607666
1.0895949602127075,6.073700428009033,1.2146003246307373
1.0472487211227417,6.080474853515625,1.2179511785507202
1.003544807434082,6.079400539398193,1.2197901010513306
0.9539867043495178,6.040162086486816,1.2139966487884521
0.9093078970909119,6.038785934448242,1.2150331735610962
0.8605552911758423,6.0028533935546875,1.2091444730758667
0.8170081377029419,6.0007004737854,1.2101094722747803
0.7686836123466492,5.95638370513916,1.2025997638702393
0.6158776879310608,5.048687934875488,1.0205883979797363
0.5833268165588379,5.075265407562256,1.027268648147583
0.5540643930435181,5.143682956695557,1.04206120967865
0.4097403883934021,4.072782516479492,0.8256540894508362
0.3810514211654663,4.075342655181885,0.8267607092857361
0.3587038815021515,4.150167942047119,0.8425778746604919
0.3322311043739319,4.182870388031006,0.8498948216438293
0.2993169128894806,4.139064311981201,0.8417168855667114
0.27197515964508057,4.163756847381592,0.847425103187561
0.24417543411254883,4.188374996185303,0.8526401519775391
0.397103488445282,7.745144844055176,1.5771584510803223
0.34180697798728943,7.724585056304932,1.5735034942626953
0.28614503145217896,7.699826240539551,1.5690728425979614
0.23170481622219086,7.6708173751831055,1.563836932182312
0.17794743180274963,7.649078369140625,1.560152530670166
0.1242341548204422,7.6194281578063965,1.5543338060379028
0.07093042135238647,7.593327522277832,1.5488213300704956
0.017099354416131973,7.555375099182129,1.5409663915634155
-0.03534381836652756,7.520873546600342,1.5338934659957886
-0.08735335618257523,7.49749231338501,1.5291626453399658
-0.1390395611524582,7.473752975463867,1.5244321823120117
-0.19020439684391022,7.442005634307861,1.5181410312652588
-0.24163539707660675,7.433061122894287,1.515567421913147
-0.29431602358818054,7.439043998718262,1.5160422325134277
-0.24778078496456146,5.3263726234436035,1.0850164890289307
-0.2882392108440399,5.3896613121032715,1.097482681274414
-0.32658591866493225,5.4029717445373535,1.0998185873031616
-0.3620413839817047,5.370175838470459,1.0928231477737427
-0.3984854221343994,5.348614692687988,1.0878872871398926
-0.4353545606136322,5.346043586730957,1.0863943099975586
-0.41799604892730713,4.72918176651001,0.9602245092391968
-0.4386056363582611,4.60067081451416,0.9333837032318115
-0.4698043465614319,4.590154647827148,0.9305421710014343
-0.4997848868370056,4.564141750335693,0.9245969653129578
-0.5297382473945618,4.545600891113281,0.920228123664856
-0.561971127986908,4.549805164337158,0.9199953675270081
-0.5907422304153442,4.527229309082031,0.9142670631408691
-0.6187078952789307,4.500674724578857,0.9077889919281006
-0.6514796614646912,4.504177093505859,0.9073941707611084
-0.6805271506309509,4.484764099121094,0.9024412035942078
-0.7093358635902405,4.46516227722168,0.8975008726119995
-0.737745463848114,4.445435523986816,0.8923954367637634
-0.7668113708496094,4.433231353759766,0.8884161710739136
-0.7944356799125671,4.4132819175720215,0.8829317688941956
-0.8252280950546265,4.408129692077637,0.8804262280464172
-0.7117781043052673,3.6614553928375244,0.7301063537597656
-0.7327418327331543,3.6342689990997314,0.7235361933708191
-0.7580243945121765,3.629490852355957,0.72147136926651
-0.930158257484436,4.3069281578063965,0.8543095588684082
-0.9683452248573303,4.338415145874023,0.8586655855178833
-0.9962062239646912,4.324829578399658,0.8541575074195862
-1.0243473052978516,4.310970783233643,0.8496164083480835
-1.0525771379470825,4.296873569488525,0.8450614809989929
-1.076857566833496,4.267716407775879,0.837600588798523
-1.1085532903671265,4.268203258514404,0.8355950117111206
-1.1305607557296753,4.235326290130615,0.8269274234771729
-1.1593232154846191,4.228242874145508,0.823344349861145
-1.1863162517547607,4.213477611541748,0.8182805776596069
-1.2114272117614746,4.191051959991455,0.8117498159408569
-1.2433664798736572,4.190422534942627,0.8094456195831299
-1.2766337394714355,4.197229862213135,0.8083513975143433
-1.2981377840042114,4.167291164398193,0.7999542355537415
-1.3193366527557373,4.137230396270752,0.7915938496589661
-1.347721815109253,4.128873348236084,0.7874016761779785
-1.3771090507507324,4.119993209838867,0.7830522656440735
-1.400954008102417,4.0965070724487305,0.7760204076766968
-1.429013729095459,4.087661266326904,0.7714921832084656
-1.4475187063217163,4.053456783294678,0.7619987726211548
-1.4748516082763672,4.044474124908447,0.7573006749153137
-1.4920613765716553,4.006223678588867,0.7471049427986145
-1.5343104600906372,4.032360553741455,0.7488523125648499
-1.5570095777511597,4.0080437660217285,0.7413021922111511
-1.5784716606140137,3.9840447902679443,0.7334375381469727
-1.6110413074493408,3.988574743270874,0.7307800650596619
-1.63498055934906,3.9714622497558594,0.724179208278656
-1.6693236827850342,3.9748923778533936,0.721143364906311
-1.6942051649093628,3.956972122192383,0.7143264412879944
-1.7246512174606323,3.953233242034912,0.7099208235740662
-1.7354390621185303,3.9074246883392334,0.6976943016052246
-1.7584306001663208,3.8897202014923096,0.6905551552772522
-1.7826241254806519,3.871298313140869,0.6831272840499878
-1.813262939453125,3.866658926010132,0.6781548857688904
-1.8470813035964966,3.868825674057007,0.6743319630622864
-1.866239070892334,3.843611240386963,0.6653352379798889
-1.8817193508148193,3.8113741874694824,0.6551944017410278
-1.9118459224700928,3.8061683177948,0.6495435833930969
-1.9526296854019165,3.8213133811950684,0.6473371386528015
-1.9685808420181274,3.7881922721862793,0.6369085311889648
-1.9900330305099487,3.769434928894043,0.6285761594772339
-2.0058066844940186,3.7403404712677,0.6185865998268127
-2.0206527709960938,3.707176923751831,0.6077486872673035
-1.709878921508789,3.0849015712738037,0.5011017918586731
-1.736770510673523,3.084214925765991,0.4962712824344635
-0.8411355018615723,1.4713444709777832,0.2344008982181549
-0.8509759902954102,1.4661823511123657,0.2312057465314865
-0.8613977432250977,1.4606177806854248,0.22780859470367432
-0.8599511384963989,1.434983730316162,0.2212730348110199
-0.8774468898773193,1.4430476427078247,0.21985170245170593
-0.8706708550453186,1.4113751649856567,0.2124103456735611
-0.893011212348938,1.425416350364685,0.21166890859603882
-0.890653133392334,1.3999477624893188,0.20505903661251068
-0.8957398533821106,1.38803231716156,0.20030063390731812
-0.9090754985809326,1.3891551494598389,0.19747331738471985
-0.9103938341140747,1.370274543762207,0.19155946373939514
-2.3822147846221924,3.5334677696228027,0.48550471663475037
-2.416013479232788,3.5354373455047607,0.47701501846313477
-1.247875452041626,1.799970030784607,0.23806297779083252
-1.2592369318008423,1.8034577369689941,-0.12498891353607178
-1.414820909500122,2.261336088180542,-0.21082258224487305
-1.3798102140426636,2.241093397140503,-0.2156955599784851
-1.2812323570251465,2.1491992473602295,-0.21935875713825226
-0.8159043192863464,1.4151735305786133,-0.1524273008108139
-0.8287568688392639,1.4611005783081055,-0.16125525534152985
-1.087330937385559,1.9485011100769043,-0.22013582289218903
-1.048611044883728,1.9115134477615356,-0.22089089453220367
-0.9885393381118774,1.8329551219940186,-0.21645936369895935
-0.9680103063583374,1.825675368309021,-0.220157653093338
-0.9099170565605164,1.7459040880203247,-0.21477074921131134
-0.875845193862915,1.7104573249816895,-0.21451328694820404
-0.8670735359191895,1.7230197191238403,-0.2201014906167984
-0.8393456339836121,1.6972254514694214,-0.22071179747581482
-0.7996429204940796,1.6469610929489136,-0.21795518696308136
-0.7809169292449951,1.6381711959838867,-0.22046607732772827
-0.761092483997345,1.6255275011062622,-0.2222837209701538
-0.7268853783607483,1.5810123682022095,-0.21960169076919556
-0.7154085636138916,1.585682988166809,-0.22357816994190216
-0.6804150938987732,1.5371226072311401,-0.21994036436080933
-0.6785542368888855,1.5627540349960327,-0.22686044871807098
-0.6552709937095642,1.5385032892227173,-0.22645841538906097
-0.6351585388183594,1.5212451219558716,-0.22691594064235687
-0.6139270663261414,1.5001816749572754,-0.22670884430408478
-0.5889213681221008,1.4680607318878174,-0.22466646134853363
-0.5726578831672668,1.4573544263839722,-0.22583992779254913
-0.5566201210021973,1.4464995861053467,-0.22680702805519104
-0.5435319542884827,1.4427120685577393,-0.22884365916252136
-0.5159464478492737,1.3989053964614868,-0.2244139462709427
-0.5034062266349792,1.3947746753692627,-0.22624285519123077
0.5387059450149536,1.407709002494812,-0.22138972580432892
0.5457742810249329,1.3971666097640991,-0.21719813346862793
0.5583545565605164,1.4010010957717896,-0.21516931056976318
0.595806896686554,1.4656347036361694,-0.2223389446735382
0.6122459769248962,1.476129174232483,-0.22107408940792084
0.6256259083747864,1.479425072669983,-0.21872004866600037
0.6496430039405823,1.507571816444397,-0.21989797055721283
0.6725839972496033,1.531899094581604,-0.22039107978343964
0.6929141283035278,1.5488439798355103,-0.21968050301074982
0.7104343175888062,1.55848228931427,-0.21779383718967438
0.7326239943504333,1.5786795616149902,-0.2173018604516983
0.7502204775810242,1.5881068706512451,-0.21523655951023102
0.7749009728431702,1.611261248588562,-0.2148921638727188
0.8049586415290833,1.6446596384048462,-0.21575583517551422
0.8337529301643372,1.6742892265319824,-0.2158576250076294
0.8681891560554504,1.7140284776687622,-0.21711471676826477
0.8945322036743164,1.736032485961914,-0.21590353548526764
0.926429033279419,1.7681846618652344,-0.21578630805015564
0.9677160978317261,1.8172540664672852,-0.21750250458717346
1.004438877105713,1.855475902557373,-0.21760104596614838
1.0440138578414917,1.8964905738830566,-0.21767443418502808
1.0854902267456055,1.9407861232757568,-0.21792520582675934
1.1351784467697144,1.9982125759124756,-0.21936604380607605
1.1725894212722778,2.03122615814209,-0.217686727643013
1.216312289237976,2.0739524364471436,-0.21680432558059692
1.2763508558273315,2.143094301223755,-0.21822375059127808
1.3152961730957031,2.174865245819092,-0.21550434827804565
1.3327598571777344,2.169464111328125,-0.208818256855011
1.3516347408294678,2.1676037311553955,-0.20244541764259338
1.374621033668518,2.172210693359375,-0.19658872485160828
1.3860015869140625,2.156381368637085,-0.18848064541816711
1.3773170709609985,2.111574649810791,-0.17809122800827026
1.7913200855255127,2.7075231075286865,-0.219992533326149
1.8733689785003662,2.7894716262817383,-0.21746192872524261
1.8112088441848755,2.6581361293792725,-0.19836647808551788
1.8666683435440063,2.701200485229492,-0.19234859943389893
1.8856812715530396,2.6887030601501465,-0.18169794976711273
1.4267330169677734,2.005854845046997,-0.12819285690784454
1.4536447525024414,2.0158746242523193,-0.12128487229347229
1.4677997827529907,2.0060970783233643,-0.11261473596096039
1.4714597463607788,1.9844789505004883,-0.10333720594644547
2.0751953125,2.9126124382019043,0.3916422426700592
2.312201499938965,3.2996139526367188,0.4547136723995209
2.2748827934265137,3.2955400943756104,0.4640033543109894
2.300468683242798,3.3844857215881348,0.486327201128006
2.295051097869873,3.433173179626465,0.5029549598693848
1.489637017250061,2.2633109092712402,0.3374393582344055
1.5130667686462402,2.3348546028137207,0.35405391454696655
1.582107424736023,2.4827804565429688,0.38238057494163513
1.6144094467163086,2.5757341384887695,0.4026440382003784
3.0496866703033447,4.9415154457092285,0.7830134034156799
3.009307384490967,4.955003261566162,0.7954853773117065
2.978184938430786,4.989616870880127,0.8111903667449951
2.964257001876831,5.049679279327393,0.8306959271430969
2.949432373046875,5.105474472045898,0.849233865737915
2.9157590866088867,5.1316070556640625,0.862739622592926
2.895164966583252,5.185502529144287,0.8806101679801941
2.8665964603424072,5.225723743438721,0.8962740302085876
2.853180170059204,5.288212299346924,0.9153007864952087
2.8226113319396973,5.320089817047119,0.9291354417800903
2.8018617630004883,5.3770294189453125,0.9468050003051758
2.7821121215820312,5.437368869781494,0.9652494192123413
2.764733076095581,5.500475883483887,0.9840968251228333
2.7393078804016113,5.545712947845459,0.999657928943634
1.2333455085754395,2.5424747467041016,0.4615841507911682
1.2076035737991333,2.5369014739990234,0.46364858746528625
1.1803810596466064,2.527597427368164,0.46501922607421875
1.1672731637954712,2.545604705810547,0.47125697135925293
1.1647289991378784,2.5882444381713867,0.4821803569793701
1.1459071636199951,2.5958425998687744,0.4864139258861542
2.563415050506592,5.924178600311279,1.1161309480667114
2.531339168548584,5.9696502685546875,1.1308103799819946
2.5052006244659424,6.0248308181762695,1.1471750736236572
2.476433038711548,6.07653284072876,1.1630808115005493
2.4514360427856445,6.1388349533081055,1.1808034181594849
2.422873020172119,6.198110103607178,1.19748055934906
2.389505624771118,6.246472358703613,1.2121715545654297
2.36077618598938,6.305046558380127,1.2288355827331543
2.3327088356018066,6.367083549499512,1.2463061809539795
2.298212766647339,6.410661220550537,1.2601933479309082
2.2705564498901367,6.48007869720459,1.278533935546875
2.2355570793151855,6.531342029571533,1.2932655811309814
2.2084431648254395,6.607897758483887,1.3131448030471802
2.170706033706665,6.651206970214844,1.3264436721801758
2.1122429370880127,6.628268718719482,1.3265180587768555
2.0540707111358643,6.604913711547852,1.326392650604248
1.9916257858276367,6.570623874664307,1.323259711265564
1.9330434799194336,6.546824932098389,1.3222607374191284
1.87412691116333,6.518775939941406,1.320405125617981
1.812131404876709,6.4753241539001465,1.3153964281082153
1.7567027807235718,6.449629306793213,1.3139383792877197
1.7034236192703247,6.430999755859375,1.3137519359588623
0.8390583992004395,3.2618348598480225,0.6678183078765869
1.5856859683990479,6.352365970611572,1.3034979104995728
0.8070850968360901,3.3358473777770996,0.6861019730567932
1.4816734790802002,6.316361427307129,1.302074670791626
1.4298239946365356,6.291950702667236,1.3000354766845703
1.3807660341262817,6.278385639190674,1.3001946210861206
1.3262602090835571,6.242333889007568,1.294905424118042
1.267670750617981,6.1872406005859375,1.2857362031936646
1.213739275932312,6.146515369415283,1.279536485671997
1.1743472814559937,6.172842025756836,1.287294626235962
1.1223138570785522,6.13115119934082,1.2809157371520996
1.070256233215332,6.08527946472168,1.2736868858337402
1.0264252424240112,6.092167854309082,1.2768323421478271
0.975247323513031,6.049592971801758,1.2694607973098755
0.926403284072876,6.017960548400879,1.2644290924072266
0.8824877738952637,6.0123610496521,1.2648965120315552
0.8384390473365784,6.002622127532959,1.2645366191864014
0.790878176689148,5.969902038574219,1.2594102621078491
0.7461732029914856,5.952014923095703,1.2570722103118896
0.5941733121871948,5.026576042175293,1.062441110610962
0.5700566172599792,5.132876873016357,1.0858020782470703
0.5397859215736389,5.19343900680542,1.099568486213684
0.3948749005794525,4.074434280395508,0.8634306192398071
0.3725469708442688,4.149165153503418,0.8801177144050598
0.3455667793750763,4.174221515655518,0.8863169550895691
0.31572920083999634,4.1687421798706055,0.8855332136154175
0.28548046946525574,4.155439853668213,0.8830552697181702
0.2572669982910156,4.172434329986572,0.8870595693588257
0.4227631092071533,7.752790451049805,1.649065613746643
0.36846235394477844,7.747611045837402,1.6488479375839233
0.3123945891857147,7.69624137878418,1.6388723850250244
0.2584187090396881,7.68654203414917,1.6375237703323364
0.20354069769382477,7.642261028289795,1.628072738647461
0.14892105758190155,7.62816858291626,1.625133752822876
0.09514771401882172,7.586933612823486,1.616490364074707
0.042454853653907776,7.587345600128174,1.6167972087860107
-0.010275117121636868,7.549188137054443,1.6089619398117065
-0.06259925663471222,7.525947093963623,1.6043810844421387
-0.11513497680425644,7.483382225036621,1.595022201538086
-0.16669954359531403,7.46729040145874,1.590994954109192
-0.21768543124198914,7.435564041137695,1.5837159156799316
-0.26865354180336,7.414944648742676,1.5788823366165161
-0.322226881980896,7.462689399719238,1.5886811017990112
-0.27170658111572266,5.418832302093506,1.1533663272857666
-0.30829644203186035,5.386378765106201,1.1462957859039307
-0.34549832344055176,5.384398937225342,1.1449872255325317
-0.3810614347457886,5.3592915534973145,1.138818621635437
-0.41742196679115295,5.3491926193237305,1.1358994245529175
-0.4509933888912201,5.3045549392700195,1.125702142715454
-0.4253675043582916,4.6164655685424805,0.9790909886360168
-0.4559072256088257,4.598426342010498,0.9747359156608582
-0.4853364825248718,4.5726399421691895,0.9685392379760742
-0.5167482495307922,4.5695672035217285,0.9667900204658508
-0.5463699698448181,4.551089286804199,0.9618290066719055
-0.5772427916526794,4.539943695068359,0.9584521055221558
-0.6063054800033569,4.517237663269043,0.952691912651062
-0.637703537940979,4.51328182220459,0.9509379863739014
-0.6657081246376038,4.486410617828369,0.9444061517715454
-0.6976876258850098,4.489760875701904,0.9437573552131653
-0.7252956032752991,4.462639808654785,0.9365968704223633
-0.7533401846885681,4.442965507507324,0.9310795664787292
-0.784009575843811,4.438151836395264,0.9287161231040955
-0.8121798038482666,4.4180216789245605,0.9231840372085571
-0.833595871925354,4.363890647888184,0.9106126427650452
-0.717992901802063,3.622730016708374,0.7547716498374939
-0.7523795962333679,3.66316556930542,0.7616428136825562
-0.9221765398979187,4.339972972869873,0.900593638420105
-0.9551623463630676,4.349123954772949,0.9007503390312195
-0.9803707003593445,4.3205766677856445,0.8931147456169128
-1.010514736175537,4.314244747161865,0.8901211023330688
-1.0375401973724365,4.2926926612854,0.8840082883834839
-1.064873218536377,4.278822422027588,0.8789674639701843
-1.0920907258987427,4.264771461486816,0.8739179968833923
-1.1230226755142212,4.265377044677734,0.871915876865387
-1.1486455202102661,4.243403911590576,0.8652966022491455
-1.1777348518371582,4.23219108581543,0.8608778119087219
-1.2072762250900269,4.224592208862305,0.8572738766670227
-1.2317819595336914,4.202342510223389,0.8502894639968872
-1.2558236122131348,4.1800384521484375,0.8432031869888306
-1.2818320989608765,4.164936542510986,0.837626039981842
-1.3134777545928955,4.163969993591309,0.8348267674446106
-1.3332000970840454,4.126297473907471,0.8247385025024414
-1.3668795824050903,4.132279872894287,0.8234289288520813
-1.3852574825286865,4.094658851623535,0.8130689859390259
-1.4128973484039307,4.086133003234863,0.8083872199058533
-1.4315693378448486,4.0520548820495605,0.7987011671066284
-1.4666755199432373,4.06086540222168,0.7973856925964355
-1.4951190948486328,4.051431179046631,0.792535126209259
-1.5194342136383057,4.031004905700684,0.7855811715126038
-1.5383951663970947,4.000127792358398,0.7761614918708801
-1.5624871253967285,3.98354172706604,0.7695083022117615
-1.601166844367981,4.002339839935303,0.7696478962898254
-1.6234726905822754,3.977795124053955,0.7613840699195862
-1.6514233350753784,3.9673280715942383,0.7558652758598328
-1.6789584159851074,3.9568257331848145,0.7502346634864807
-1.7085566520690918,3.953645706176758,0.7456397414207458
-1.735556960105896,3.943007230758667,0.7395939230918884
-1.7375019788742065,3.875864267349243,0.7230097055435181
-1.764835000038147,3.864642381668091,0.7168540358543396
-1.808303713798523,3.8881680965423584,0.7171483039855957
-1.8344213962554932,3.877124071121216,0.7105781435966492
-1.8641366958618164,3.872711658477783,0.705127477645874
-1.8802744150161743,3.840381145477295,0.6946486234664917
-1.9040359258651733,3.8212978839874268,0.6864379644393921
-1.9240938425064087,3.7951903343200684,0.6770315170288086
-1.9496358633041382,3.783414602279663,0.6698322296142578
-1.9748855829238892,3.7715790271759033,0.6625710725784302
-2.0155341625213623,3.7863643169403076,0.6597803831100464
-2.014730215072632,3.722395181655884,0.6432250738143921
-1.7039070129394531,3.0968050956726074,0.5306009650230408
-1.7243913412094116,3.086577892303467,0.5239760875701904
-0.8390448093414307,1.479261875152588,0.24877628684043884
-0.849513828754425,1.473846435546875,0.24536558985710144
-0.8482515811920166,1.4483102560043335,0.23864348232746124
-0.8739380240440369,1.4696485996246338,0.23954863846302032
-0.8676273226737976,1.4379165172576904,0.2317393273115158
-0.8814208507537842,1.4391640424728394,0.22921420633792877
-0.8959592580795288,1.4398983716964722,0.22639958560466766
-0.9058914184570312,1.4342695474624634,0.22257313132286072
-0.8985767960548401,1.4027880430221558,0.2146984040737152
-0.8911818265914917,1.3712615966796875,0.206840381026268
-0.9052402973175049,1.371932864189148,0.20372620224952698
-0.9492350220680237,1.4178097248077393,0.2070513814687729
-2.387378454208374,3.517740249633789,0.5050044655799866
-1.342367172241211,1.9494643211364746,0.27465417981147766
-1.3140084743499756,1.8803033828735352,0.2597027122974396
-1.4381487369537354,2.044804573059082,-0.14159375429153442
-1.3465217351913452,2.1698906421661377,-0.21180109679698944
-1.2425662279129028,2.067722797393799,-0.21454398334026337
-1.1976854801177979,2.0258123874664307,-0.2161751687526703
-0.8418058753013611,1.4712715148925781,-0.16540242731571198
-1.0504156351089478,1.86627995967865,-0.21496427059173584
-1.0325452089309692,1.8666480779647827,-0.22020386159420013
-0.996730625629425,1.8324387073516846,-0.2210388332605362
-0.9525291919708252,1.780596137046814,-0.21941296756267548
-0.897901713848114,1.707829236984253,-0.21482640504837036
-0.8853116631507874,1.7137420177459717,-0.21993020176887512
-0.8500493168830872,1.6744818687438965,-0.21906618773937225
-0.8241854310035706,1.6521267890930176,-0.22016102075576782
-0.7984122633934021,1.6296347379684448,-0.22106371819972992
-0.7680864334106445,1.5963354110717773,-0.22031526267528534
-0.7402029037475586,1.5660960674285889,-0.21974128484725952
-0.7208168506622314,1.5531898736953735,-0.22145521640777588
-0.7061153054237366,1.5508185625076294,-0.22464214265346527
-0.6949558854103088,1.55525803565979,-0.22871527075767517
-0.6683416366577148,1.5241174697875977,-0.22745400667190552
-0.6405392289161682,1.4892083406448364,-0.22542481124401093
-0.6177007555961609,1.4647327661514282,-0.22479712963104248
-0.5922531485557556,1.4328880310058594,-0.22292745113372803
-0.5820839405059814,1.4365012645721436,-0.22643117606639862
-0.5660784244537354,1.4257231950759888,-0.22757692635059357
-0.5487807393074036,1.4112282991409302,-0.22803717851638794
-0.535973310470581,1.4073487520217896,-0.23013900220394135
0.5888832807540894,1.4341098070144653,-0.2239963859319687
0.6048317551612854,1.4447829723358154,-0.22271811962127686
0.6119261384010315,1.4339268207550049,-0.2180933654308319
0.6345980167388916,1.458414077758789,-0.218732088804245
0.6589329838752747,1.4863231182098389,-0.21977537870407104
0.6947250366210938,1.5387392044067383,-0.22421693801879883
0.7054923176765442,1.5344078540802002,-0.22024548053741455
0.716367244720459,1.5299350023269653,-0.21622148156166077
0.7522657513618469,1.57785165309906,-0.21939313411712646
0.7631692290306091,1.5731909275054932,-0.2151646763086319
0.7947768568992615,1.6101157665252686,-0.21649204194545746
0.8218330144882202,1.6362383365631104,-0.2161681056022644
0.8578923344612122,1.679467797279358,-0.21788440644741058
0.889096736907959,1.7120285034179688,-0.21799826622009277
0.9267171025276184,1.7543184757232666,-0.21898019313812256
0.9519976377487183,1.772286295890808,-0.21679697930812836
0.9939373731613159,1.8208914995193481,-0.21812300384044647
1.0308836698532104,1.8588581085205078,-0.2179281860589981
1.0726994276046753,1.9029384851455688,-0.21803168952465057
1.1307283639907837,1.9734913110733032,-0.22073593735694885
1.1676260232925415,2.0067508220672607,-0.2190209925174713
1.2310093641281128,2.0830042362213135,-0.22156468033790588
1.2757960557937622,2.1249709129333496,-0.21996936202049255
1.318632960319519,2.1634440422058105,-0.21773283183574677
1.3376120328903198,2.1616406440734863,-0.21115969121456146
1.3632713556289673,2.1693005561828613,-0.20526240766048431
1.374069094657898,2.153942108154297,-0.19716209173202515
1.392714262008667,2.1518936157226562,-0.1902838498353958
1.3991918563842773,2.129741668701172,-0.1813575029373169
1.8056238889694214,2.707310438156128,-0.22136691212654114
1.827896237373352,2.702540397644043,-0.2119087427854538
1.8113516569137573,2.6391329765319824,-0.19756586849689484
1.898713231086731,2.726464033126831,-0.19416110217571259
1.9120842218399048,2.708311080932617,-0.1829226315021515
1.4518647193908691,2.0263264179229736,-0.1287393867969513
1.4655178785324097,2.017009973526001,-0.12005086243152618
1.4740848541259766,2.0015785694122314,-0.11091338098049164
2.3105344772338867,3.2699100971221924,0.46914437413215637
2.3083689212799072,3.316943407058716,0.4865841865539551
1.521826148033142,2.223391532897949,0.333093523979187
1.5200985670089722,2.256136894226074,0.34458309412002563
1.5293704271316528,2.304666042327881,0.3583453595638275
1.5152851343154907,2.3219871520996094,0.36714625358581543
1.553936243057251,2.420271873474121,0.3887998163700104
1.6357804536819458,2.5871829986572266,0.4217122793197632
1.5873303413391113,2.5523526668548584,0.4219616651535034
3.0298032760620117,4.955299377441406,0.8301758170127869
2.9891955852508545,4.96858024597168,0.8427298069000244
2.9693901538848877,5.014149188995361,0.860518753528595
2.951157808303833,5.067404270172119,0.8793594241142273
2.928623676300049,5.118235111236572,0.89788419008255
2.913607358932495,5.177816867828369,0.9175334572792053
2.884054660797119,5.209814548492432,0.9321635961532593
2.8585622310638428,5.252445697784424,0.9485131502151489
2.8475146293640137,5.32636833190918,0.9702793955802917
2.810310125350952,5.352611541748047,0.9835315942764282
2.7951879501342773,5.414914608001709,1.0029457807540894
2.7757785320281982,5.470366477966309,1.0212721824645996
2.765599250793457,5.551058292388916,1.043800711631775
1.2298539876937866,2.5150225162506104,0.47627049684524536
1.2144795656204224,2.530104160308838,0.4824506938457489
1.1899559497833252,2.523834228515625,0.4844251871109009
1.1784778833389282,2.5452985763549805,0.4917225241661072
1.15943443775177,2.553183078765869,0.4960995614528656
1.1528500318527222,2.589021921157837,0.5059676170349121
2.5742456912994385,5.894050121307373,1.1583161354064941
2.5498833656311035,5.9529290199279785,1.1763784885406494
2.5210654735565186,6.000817775726318,1.192299723625183
2.497096061706543,6.067234992980957,1.2112345695495605
2.4649465084075928,6.115842342376709,1.2266936302185059
2.4342215061187744,6.167632102966309,1.2428447008132935
2.407869338989258,6.229711055755615,1.261102318763733
2.374753952026367,6.273473739624023,1.275682806968689
2.34415602684021,6.328288555145264,1.2921422719955444
2.318528890609741,6.401383399963379,1.3120356798171997
2.2881107330322266,6.463556289672852,1.3298425674438477
2.251232147216797,6.507289886474609,1.3439222574234009
2.2262895107269287,6.583057403564453,1.36460542678833
2.191972017288208,6.633284091949463,1.3801367282867432
2.147272825241089,6.658451557159424,1.3896955251693726
2.08378005027771,6.624914169311523,1.3869158029556274
2.0178089141845703,6.583729267120361,1.3826173543930054
1.9561419486999512,6.544955253601074,1.378605604171753
1.9005404710769653,6.524016380310059,1.378359317779541
1.840171456336975,6.4842023849487305,1.3741319179534912
1.7861614227294922,6.470269680023193,1.3744627237319946
1.729447364807129,6.444824695587158,1.3723704814910889
1.6656749248504639,6.393176078796387,1.3647738695144653
1.6076353788375854,6.351616382598877,1.3591889142990112
1.5585414171218872,6.342982769012451,1.3606747388839722
0.7995894551277161,3.3548130989074707,0.7214558720588684
1.4634697437286377,6.33988094329834,1.3659753799438477
1.4029241800308228,6.285991191864014,1.356929063796997
1.3497868776321411,6.257551193237305,1.3533551692962646
1.2964015007019043,6.22104549407959,1.3480229377746582
1.243186354637146,6.180305004119873,1.3417797088623047
1.1927157640457153,6.150400638580322,1.3379223346710205
1.1435905694961548,6.131704330444336,1.3359819650650024
1.0985968112945557,6.1314287185668945,1.337722897529602
1.0458338260650635,6.085671901702881,1.3295934200286865
0.998530924320221,6.065800189971924,1.327143907546997
0.9515151381492615,6.041721820831299,1.3237966299057007
0.905198335647583,6.0249481201171875,1.3221365213394165
0.760345458984375,5.31254243850708,1.1674268245697021
0.8085655570030212,5.948906421661377,1.308432936668396
0.764560341835022,5.938816547393799,1.3074387311935425
0.617519736289978,5.0798726081848145,1.119444727897644
0.5846874713897705,5.1063666343688965,1.1264299154281616
0.5553446412086487,5.174435615539551,1.1426838636398315
0.4084765613079071,4.073104381561279,0.9004742503166199
0.38063523173332214,4.083204746246338,0.903322696685791
0.3594059348106384,4.172979831695557,0.9236482977867126
0.33001813292503357,4.175185203552246,0.9246469736099243
0.29804137349128723,4.1467742919921875,0.9189143776893616
0.2701677978038788,4.163754463195801,0.9232699871063232
0.4484289884567261,7.744287967681885,1.718401551246643
0.39491063356399536,7.754446506500244,1.721860647201538
0.3393394649028778,7.726384162902832,1.7157918214797974
0.2830010652542114,7.690335273742676,1.7080363035202026
0.22865375876426697,7.672913074493408,1.704495906829834
0.17422258853912354,7.62841796875,1.695019006729126
0.12102703005075455,7.621668338775635,1.694008231163025
0.06771615892648697,7.580230712890625,1.6853649616241455
0.014132875017821789,7.557583332061768,1.6805356740951538
-0.038186393678188324,7.519464015960693,1.671627163887024
-0.09010852128267288,7.484794616699219,1.663569688796997
-0.14211449027061462,7.484083652496338,1.6631420850753784
-0.19303908944129944,7.444891929626465,1.6542448997497559
-0.24476660788059235,7.443465709686279,1.6538193225860596
-0.2970481812953949,7.434025764465332,1.65169358253479
-0.25433653593063354,5.424522399902344,1.2046902179718018
-0.2898162007331848,5.384795665740967,1.1951320171356201
-0.32700875401496887,5.382908344268799,1.1940354108810425
-0.36276841163635254,5.357924461364746,1.187873363494873
-0.4006490409374237,5.355473518371582,1.186755657196045
-0.43446946144104004,5.310981750488281,1.1763933897018433
-0.417074590921402,4.696333408355713,1.0398526191711426
-0.44107675552368164,4.606365203857422,1.01890230178833
-0.46970266103744507,4.573208808898926,1.010585904121399
-0.5009140968322754,4.562577724456787,1.0072880983352661
-0.5334028005599976,4.566930770874023,1.0073579549789429
-0.5623815655708313,4.540738105773926,1.0007373094558716
-0.5930030941963196,4.529496669769287,0.9974657893180847
-0.6206793785095215,4.499220848083496,0.9898186326026917
-0.6537671089172363,4.5066046714782715,0.9900309443473816
-0.6817811131477356,4.48363733291626,0.9836523532867432
-0.7101613879203796,4.464256286621094,0.978114664554596
-0.7400145530700684,4.4521589279174805,0.9742071628570557
-0.7670738101005554,4.424817085266113,0.9670214653015137
-0.7978588938713074,4.419859409332275,0.9647807478904724
-0.828698456287384,4.414785861968994,0.9620092511177063
-0.7120897769927979,3.6559464931488037,0.79521644115448
-0.7385653853416443,3.6589999198913574,0.7944785356521606
-0.7591066956520081,3.6318938732147217,0.7872215509414673
-0.9314213991165161,4.3068718910217285,0.931923508644104
-0.971906840801239,4.345556259155273,0.938694953918457
-1.0002052783966064,4.331950664520264,0.9340004920959473
-1.0225402116775513,4.296043872833252,0.9241350889205933
-1.0517641305923462,4.289723873138428,0.9206883907318115
-1.0809956789016724,4.283191680908203,0.9172356724739075
-1.1113994121551514,4.2761735916137695,0.9136385917663574
-1.1303757429122925,4.228403568267822,0.9014341235160828
-1.164934515953064,4.2396087646484375,0.9018377661705017
-1.186415433883667,4.206683158874512,0.8923006653785706
-1.214949369430542,4.199388027191162,0.8882569670677185
-1.2417927980422974,4.184412479400635,0.8825883269309998
-1.2709813117980957,4.176515102386475,0.8784366250038147
-1.2979263067245483,4.16107177734375,0.87273770570755
-1.3200515508651733,4.130853176116943,0.863999605178833
-1.3504726886749268,4.130034446716309,0.8609133362770081
-1.3764821290969849,4.114346981048584,0.8546492457389832
-1.401833176612854,4.098643779754639,0.84848552942276
-1.4228496551513672,4.068024635314941,0.8392029404640198
-1.4475027322769165,4.048090934753418,0.8321763873100281
-1.475935459136963,4.0387959480285645,0.8273816704750061
-1.5099265575408936,4.04776668548584,0.8258072137832642
-1.5281519889831543,4.013284206390381,0.8153285980224609
-1.5608289241790771,4.0182342529296875,0.8129627704620361
-1.5834323167800903,3.9939754009246826,0.8045892119407654
-1.6028493642807007,3.962477922439575,0.7948328256607056
-1.6333154439926147,3.959442377090454,0.7906998991966248
-1.6574018001556396,3.9422829151153564,0.7832885384559631
-1.6929851770401,3.953402280807495,0.7815840244293213
-1.7170536518096924,3.935816526412964,0.7741445899009705
-1.7448948621749878,3.9247758388519287,0.767917811870575
-1.7726621627807617,3.9135305881500244,0.7616894245147705
-1.7739238739013672,3.8465654850006104,0.7442090511322021
-1.806302547454834,3.849743366241455,0.7403450608253479
-1.8389374017715454,3.852599620819092,0.7363967299461365
-1.8661338090896606,3.840822219848633,0.729467511177063
-1.9000787734985352,3.8426530361175537,0.7251425981521606
-1.9198236465454102,3.8169593811035156,0.7152573466300964
-1.9417451620101929,3.7985646724700928,0.7066832780838013
-1.9635965824127197,3.7799863815307617,0.6981056332588196
-1.9903159141540527,3.767408847808838,0.6903873085975647
-2.0096476078033447,3.7410387992858887,0.6801955699920654
-2.0312609672546387,3.7219929695129395,0.6710643172264099
-1.7120757102966309,3.0885603427886963,0.5519337058067322
-1.7367671728134155,3.0848209857940674,0.5463215708732605
-0.8400312066078186,1.4681060314178467,0.25752565264701843
-0.8503985404968262,1.4627245664596558,0.2540985345840454
-0.8404290676116943,1.4243921041488647,0.244851216673851
-0.8619259595870972,1.4391932487487793,0.2447260022163391
-0.8841386437416077,1.4535150527954102,0.24432338774204254
-0.8782597780227661,1.4214658737182617,0.23611631989479065
-0.8836551308631897,1.4096263647079468,0.23120808601379395
-0.9012297987937927,1.4174638986587524,0.22948947548866272
-0.8987268209457397,1.3921536207199097,0.22218063473701477
-0.9044421315193176,1.3798540830612183,0.21700450778007507
-0.9135722517967224,1.3744819164276123,0.21281291544437408
-0.909549355506897,1.3498402833938599,0.20567312836647034
-2.4358315467834473,3.5615625381469727,0.5330221652984619
-1.2471592426300049,1.7968662977218628,0.2638646960258484
-1.207436203956604,1.7166727781295776,0.247165247797966
-1.3787487745285034,2.204650402069092,-0.21772941946983337
-1.3503329753875732,2.1939854621887207,-0.22383292019367218
-1.2701324224472046,2.0962741374969482,-0.22048135101795197
-1.2046860456466675,2.0213606357574463,-0.21893154084682465
-0.8157086372375488,1.4142528772354126,-0.16173507273197174
-0.8533326387405396,1.5041062831878662,-0.17637743055820465
-1.0162731409072876,1.8219311237335205,-0.21890132129192352
-0.9863786697387695,1.797811508178711,-0.22099022567272186
-0.9273928999900818,1.7186932563781738,-0.21597954630851746
-0.9180942177772522,1.731767177581787,-0.22239162027835846
-0.883909285068512,1.6964335441589355,-0.22237524390220642
-0.8523353934288025,1.6640393733978271,-0.22244222462177277
-0.8193416595458984,1.6279301643371582,-0.22178640961647034
-0.7850378751754761,1.588059663772583,-0.22037474811077118
-0.7632366418838501,1.572190284729004,-0.22212785482406616
-0.7370388507843018,1.5454635620117188,-0.22211286425590515
-0.7159669399261475,1.529089093208313,-0.2234114706516266
-0.6950982809066772,1.5125312805175781,-0.22458258271217346
-0.6683986186981201,1.4815475940704346,-0.22340664267539978
-0.6562990546226501,1.4821056127548218,-0.22689886391162872
-0.6299766898155212,1.4508024454116821,-0.2254052758216858
-0.6073427200317383,1.4262686967849731,-0.22476868331432343
-0.5942177772521973,1.4228284358978271,-0.22733010351657867
-0.5767769813537598,1.408547043800354,-0.2281161993741989
-0.5637238025665283,1.40492844581604,-0.23047363758087158
-0.5420981645584106,1.3796967267990112,-0.22927430272102356
0.587045431137085,1.3884904384613037,-0.21984946727752686
0.619700014591217,1.4381792545318604,-0.22457748651504517
0.6328105926513672,1.4414948225021362,-0.22191593050956726
0.6492950916290283,1.4517033100128174,-0.220234215259552
0.6694082617759705,1.4686988592147827,-0.2194352000951767
0.6943222284317017,1.4961891174316406,-0.22008848190307617
0.7278708815574646,1.540954351425171,-0.22308136522769928
0.7353811264038086,1.5294097661972046,-0.21777841448783875
0.7615526914596558,1.556091547012329,-0.21785354614257812
0.7863539457321167,1.5790642499923706,-0.21715116500854492
0.8147640824317932,1.6088109016418457,-0.2172975391149521
0.8563486337661743,1.6622601747512817,-0.22031953930854797
0.8843339681625366,1.687726378440857,-0.21940243244171143
0.9214727282524109,1.7302197217941284,-0.22045616805553436
0.9481861591339111,1.7517930269241333,-0.21864254772663116
0.9889064431190491,1.7966269254684448,-0.21932193636894226
1.022331953048706,1.8276338577270508,-0.2181520313024521
1.065517544746399,1.8753471374511719,-0.21870896220207214
1.1271593570709229,1.9527355432510376,-0.22224384546279907
1.1665793657302856,1.9890064001083374,-0.2206437885761261
1.2142945528030396,2.038344383239746,-0.22008225321769714
1.2643784284591675,2.0906803607940674,-0.21960318088531494
1.3138443231582642,2.138761520385742,-0.21805799007415771
1.3472881317138672,2.16001296043396,-0.21351225674152374
1.3701627254486084,2.164768695831299,-0.2072124034166336
1.3770999908447266,2.1426215171813965,-0.1979801207780838
1.396409273147583,2.140120267868042,-0.19061103463172913
1.3827264308929443,2.0891964435577393,-0.17904731631278992
1.8099039793014526,2.6950080394744873,-0.22155176103115082
1.8069508075714111,2.6508026123046875,-0.20831403136253357
1.8934311866760254,2.738856792449951,-0.2050876021385193
1.898763656616211,2.707460403442383,-0.19238176941871643
1.9312467575073242,2.7139689922332764,-0.18203388154506683
1.444602131843567,2.0027987957000732,-0.12629306316375732
1.4676704406738281,2.005889892578125,-0.11786913871765137
1.467237114906311,1.9776548147201538,-0.10747655481100082
2.3394927978515625,3.284856081008911,0.4903068542480469
1.518807291984558,2.168315887451172,0.33119139075279236
1.5662667751312256,2.2708542346954346,0.3540918231010437
1.5453236103057861,2.274467706680298,0.36156168580055237
1.531429409980774,2.291822671890259,0.37097808718681335
1.5181214809417725,2.308617353439331,0.38008204102516174
1.5137526988983154,2.3378982543945312,0.3910779654979706
1.6391388177871704,2.573188304901123,0.43685439229011536
1.6024043560028076,2.5584092140197754,0.44057735800743103
3.045830249786377,4.9400553703308105,0.8617799282073975
3.002357006072998,4.94603967666626,0.8736882209777832
3.0031607151031494,5.033169746398926,0.8996761441230774
2.977717399597168,5.077087879180908,0.9179319143295288
2.944824695587158,5.102764129638672,0.9322915077209473
2.9195950031280518,5.141474723815918,0.9490593075752258
2.891827344894409,5.181288242340088,0.9655830264091492
2.8678548336029053,5.231764793395996,0.984248161315918
2.858700752258301,5.304601192474365,1.0067263841629028
2.8279950618743896,5.336195468902588,1.0213148593902588
2.8121438026428223,5.3987956047058105,1.0416940450668335
2.771108627319336,5.417734622955322,1.0532690286636353
2.772428512573242,5.522609710693359,1.0818681716918945
2.733137845993042,5.5400004386901855,1.092872142791748
1.2294327020645142,2.536342144012451,0.5038284659385681
1.2041418552398682,2.5304620265960693,0.5059155225753784
1.1850944757461548,2.53849196434021,0.5106436610221863
1.1661083698272705,2.546322822570801,0.5153412818908691
1.154003381729126,2.567762851715088,0.5227329730987549
2.5985116958618164,5.891144275665283,1.2061901092529297
2.5646398067474365,5.929039001464844,1.2204375267028809
2.5338687896728516,5.977797031402588,1.2366433143615723
2.5039780139923096,6.029932022094727,1.2536859512329102
2.4763081073760986,6.084954261779785,1.2712763547897339
2.447441816329956,6.135973930358887,1.2880454063415527
2.4147729873657227,6.179906845092773,1.3032505512237549
2.389641761779785,6.249427318572998,1.3232297897338867
2.360990524291992,6.311669826507568,1.3418184518814087
2.324968099594116,6.355804443359375,1.3566948175430298
2.2994608879089355,6.424319267272949,1.376680612564087
2.2667744159698486,6.474681854248047,1.3929202556610107
2.2410223484039307,6.55071496963501,1.4142311811447144
2.202749490737915,6.5942888259887695,1.4282779693603516
2.1689748764038086,6.656077861785889,1.446489930152893
2.1089019775390625,6.62956428527832,1.445368766784668
2.0429959297180176,6.580503463745117,1.439284086227417
1.99006986618042,6.571115970611572,1.4418888092041016
1.9297921657562256,6.539798259735107,1.4388928413391113
1.8643690347671509,6.489770889282227,1.4315541982650757
