X,Y,Z
0.366013765335083,4.108736991882324,1.0231409072875977
0.3402286171913147,4.148744106292725,1.03354811668396
0.3093661963939667,4.128100872039795,1.0288981199264526
0.2819903492927551,4.152610778808594,1.0355511903762817
0.2547154426574707,4.180707931518555,1.0431523323059082
0.4169711172580719,7.747392177581787,1.9343138933181763
0.36131012439727783,7.7117838859558105,1.926706314086914
0.3063810467720032,7.687442779541016,1.9207533597946167
0.2520785331726074,7.67409610748291,1.9175734519958496
0.19748161733150482,7.63763427734375,1.9087094068527222
0.14280283451080322,7.6121673583984375,1.902689814567566
0.08953763544559479,7.5825114250183105,1.8957064151763916
0.03669155389070511,7.552486419677734,1.8887181282043457
-0.01572435162961483,7.518340110778809,1.8806411027908325
-0.06783243268728256,7.503045558929443,1.8762370347976685
-0.12046773731708527,7.472219944000244,1.8680349588394165
-0.171605184674263,7.437256336212158,1.8589022159576416
-0.22305874526500702,7.428459167480469,1.8564019203186035
-0.27346962690353394,7.396585941314697,1.848225474357605
-0.32703012228012085,7.443880081176758,1.8599200248718262
-0.27518635988235474,5.409022808074951,1.3512299060821533
-0.3121221959590912,5.388367652893066,1.345167636871338
-0.3483889102935791,5.371278762817383,1.3400808572769165
-0.3832848072052002,5.338823318481445,1.3312324285507202
-0.4203832745552063,5.3363566398620605,1.3299247026443481
-0.446450412273407,5.205201148986816,1.2966246604919434
-0.4271864891052246,4.598199844360352,1.1449238061904907
-0.4563647210597992,4.5690813064575195,1.1369078159332275
-0.48860830068588257,4.573832035064697,1.1369398832321167
-0.5167046189308167,4.54066801071167,1.1276048421859741
-0.5497705936431885,4.552520751953125,1.1295080184936523
-0.5800327658653259,4.533936977386475,1.1238869428634644
-0.6105429530143738,4.522732257843018,1.1201716661453247
-0.6350550651550293,4.470001697540283,1.1062366962432861
-0.6686311960220337,4.484852313995361,1.1085861921310425
-0.6975950002670288,4.469544887542725,1.103264331817627
-0.726285457611084,4.4502272605896,1.096988558769226
-0.7543805241584778,4.430776596069336,1.0907596349716187
-0.7839265465736389,4.418564319610596,1.0863559246063232
-0.8119601011276245,4.398684024810791,1.0801266431808472
-0.8261638283729553,4.307759761810303,1.0565341711044312
-0.7274617552757263,3.6582868099212646,0.8956301212310791
-0.7505736947059631,3.6426453590393066,0.8901810646057129
-0.9180446863174438,4.306981086730957,1.05069100856781
-0.9544157385826111,4.3309855461120605,1.0547188520431519
-0.9846115112304688,4.325011253356934,1.051472544670105
-1.0130305290222168,4.311422824859619,1.0464293956756592
-1.039750337600708,4.290272235870361,1.0392918586730957
-1.0689678192138672,4.284024238586426,1.0354161262512207
-1.0924248695373535,4.255478382110596,1.0262149572372437
-1.117578148841858,4.234135627746582,1.0188108682632446
-1.1492186784744263,4.234494686126709,1.0166231393814087
-1.1773439645767212,4.219825267791748,1.0108388662338257
-1.206900954246521,4.212413311004639,1.0068860054016113
-1.2280149459838867,4.179618835449219,0.99624103307724
-1.2498242855072021,4.150366306304932,0.9865096211433411
-1.287014126777649,4.171962738037109,0.9889056086540222
-1.3096904754638672,4.142046928405762,0.9790183901786804
-1.3410452604293823,4.141115665435791,0.9760742783546448
-1.3628963232040405,4.110983371734619,0.9663006067276001
-1.388474941253662,4.095552921295166,0.9595394134521484
-1.416202425956726,4.087266445159912,0.9543346762657166
-1.4489294290542603,4.093186855316162,0.9524844884872437
-1.459661602973938,4.03386116027832,0.9353832006454468
-1.4960205554962158,4.046193599700928,0.9349785447120667
-1.5190900564193726,4.022511005401611,0.9262965321540833
-1.5547658205032349,4.034754276275635,0.9254395365715027
-1.5736044645309448,4.004180431365967,0.9146368503570557
-1.5982625484466553,3.9875383377075195,0.9070189595222473
-1.626172423362732,3.977626085281372,0.9009106159210205
-1.6527843475341797,3.9638938903808594,0.8939520716667175
-1.6823126077651978,3.9569995403289795,0.8885750770568848
-1.7044650316238403,3.9364917278289795,0.8795762658119202
-1.7314631938934326,3.9261984825134277,0.8728228807449341
-1.751823902130127,3.901855945587158,0.8630517721176147
-1.785783052444458,3.9048187732696533,0.8591781854629517
-1.8101609945297241,3.8866569995880127,0.8506911993026733
-1.8173047304153442,3.8340485095977783,0.83447265625
-1.8634312152862549,3.8646092414855957,0.8359909057617188
-1.8792033195495605,3.8329479694366455,0.824147641658783
-1.895797610282898,3.800710439682007,0.8120456337928772
-1.929770588874817,3.802457809448242,0.8071814179420471
-1.9634867906570435,3.8041272163391113,0.8021484613418579
-1.9746692180633545,3.765402317047119,0.7882227301597595
-1.993085503578186,3.7400169372558594,0.7770859599113464
-2.022919178009033,3.7344775199890137,0.7699601054191589
-1.6971758604049683,3.0817670822143555,0.6303528547286987
-1.7224245071411133,3.0780370235443115,0.6244124174118042
-0.8325068950653076,1.4654048681259155,0.2946659326553345
-0.8424616456031799,1.4604368209838867,0.29101499915122986
-0.8567754626274109,1.4617832899093628,0.28849032521247864
-0.8554137945175171,1.4365012645721436,0.28074121475219727
-0.8730924725532532,1.4446308612823486,0.2793887257575989
-0.8826659917831421,1.439566731452942,0.2754189074039459
-0.8683574795722961,1.3948079347610474,0.2637619972229004
-0.8948938846588135,1.4153876304626465,0.26443779468536377
-0.9046640396118164,1.4099687337875366,0.2601067125797272
-0.8929186463356018,1.372384786605835,0.24984057247638702
-0.8980960249900818,1.3605586290359497,0.24423372745513916
-0.9510961174964905,1.4189791679382324,0.25086352229118347
-2.3866069316864014,3.510960578918457,0.6109985113143921
-1.2902640104293823,1.8459233045578003,0.31032848358154297
-1.3071480989456177,2.0737788677215576,-0.21683454513549805
-1.2633635997772217,2.0360279083251953,-0.22032293677330017
-1.1750339269638062,1.925097107887268,-0.2152983844280243
-1.1446903944015503,1.9062368869781494,-0.2199467122554779
-0.8433966636657715,1.4508404731750488,-0.17720139026641846
-0.8442338705062866,1.4765735864639282,-0.18522152304649353
-0.9459617733955383,1.6814992427825928,-0.21627402305603027
-0.9015182852745056,1.6299439668655396,-0.21487824618816376
-0.8968260288238525,1.6494271755218506,-0.22261083126068115
-0.8556543588638306,1.6003520488739014,-0.22083929181098938
-0.8279458284378052,1.574784755706787,-0.22202588617801666
-0.802069365978241,1.5525445938110352,-0.22347915172576904
-0.7799522876739502,1.5369797945022583,-0.2258085310459137
-0.7533998489379883,1.5105793476104736,-0.22621570527553558
-0.7288702726364136,1.4874188899993896,-0.22693447768688202
-0.7045289278030396,1.4640891551971436,-0.22744707763195038
-0.6757256388664246,1.4299631118774414,-0.22606603801250458
-0.6557381749153137,1.4129959344863892,-0.22718825936317444
-0.6357276439666748,1.3959540128707886,-0.22822216153144836
-0.6208160519599915,1.3892607688903809,-0.23077204823493958
-0.6014866232872009,1.3717788457870483,-0.2314208596944809
0.6199922561645508,1.3731151819229126,-0.22588981688022614
0.6328062415122986,1.376452922821045,-0.22284546494483948
0.642433226108551,1.3726637363433838,-0.21863263845443726
0.684004545211792,1.4349915981292725,-0.2246491014957428
0.7161529064178467,1.4760465621948242,-0.22710217535495758
0.733279287815094,1.4856194257736206,-0.2245047688484192
0.7540930509567261,1.5019251108169556,-0.22282050549983978
0.7877050042152405,1.5420764684677124,-0.2244204729795456
0.8093187808990479,1.5578302145004272,-0.22228148579597473
0.8311610221862793,1.5733896493911743,-0.21989336609840393
0.873375415802002,1.626335859298706,-0.22253665328025818
0.9128774404525757,1.6718820333480835,-0.2237614542245865
0.9433987736701965,1.7001478672027588,-0.222412109375
0.9798977375030518,1.7383252382278442,-0.2221183180809021
1.0271410942077637,1.7926799058914185,-0.22334599494934082
1.0613937377929688,1.8230444192886353,-0.2213403582572937
1.119348168373108,1.8934648036956787,-0.22382000088691711
1.170399785041809,1.9498361349105835,-0.22414714097976685
1.208573341369629,1.9821226596832275,-0.2211567759513855
1.2778812646865845,2.0636496543884277,-0.22310316562652588
1.318799376487732,2.098583221435547,-0.21968261897563934
1.3503358364105225,2.116330623626709,-0.21394909918308258
1.3821748495101929,2.133740186691284,-0.20792178809642792
1.396513819694519,2.1252098083496094,-0.19929207861423492
1.389896273612976,2.083707094192505,-0.18730562925338745
1.782551646232605,2.632766008377075,-0.22629281878471375
1.7735767364501953,2.583233118057251,-0.21179413795471191
1.9829258918762207,2.846991539001465,-0.22165286540985107
1.9399628639221191,2.744765281677246,-0.20188677310943604
1.9628266096115112,2.7389895915985107,-0.1893986612558365
1.4518994092941284,1.997347116470337,-0.12892457842826843
1.4702941179275513,1.994179129600525,-0.11920410394668579
2.326937675476074,3.2993290424346924,0.5752342939376831
1.755753517150879,2.526623249053955,0.4491293132305145
1.5357414484024048,2.244720458984375,0.4064826965332031
1.521514892578125,2.2619924545288086,0.4170280992984772
1.4939911365509033,2.2555878162384033,0.4224904477596283
1.4881114959716797,2.2809853553771973,0.4337727725505829
1.4782848358154297,2.3041598796844482,0.44438305497169495
1.4951345920562744,2.369532346725464,0.46325087547302246
1.4817086458206177,2.385507583618164,0.47227007150650024
1.4641391038894653,2.394827365875244,0.4798378050327301
1.536507248878479,2.5564887523651123,0.5179968476295471
1.4795048236846924,2.503791332244873,0.5128747224807739
1.4459308385849,2.486360549926758,0.5144405961036682
1.4142204523086548,2.4721152782440186,0.5166609287261963
1.3874852657318115,2.4682071208953857,0.5205187797546387
1.3683141469955444,2.4774818420410156,0.5271628499031067
1.3466228246688843,2.4792797565460205,0.5319387912750244
2.843846559524536,5.323699951171875,1.1515296697616577
2.821380376815796,5.376167297363281,1.1719506978988647
2.7942323684692383,5.4220967292785645,1.190554141998291
2.7791855335235596,5.49157190322876,1.2144088745117188
2.755189895629883,5.539529323577881,1.2332478761672974
1.225760817527771,2.508124828338623,0.5621092915534973
1.2100379467010498,2.5230495929718018,0.5689736008644104
1.1844024658203125,2.517119884490967,0.57097327709198
1.1719616651535034,2.538649082183838,0.5791963338851929
1.1601812839508057,2.5597503185272217,0.5872274041175842
1.1419169902801514,2.5668325424194336,0.592093825340271
2.5685627460479736,5.8870463371276855,1.3648664951324463
2.54317307472229,5.949647426605225,1.3860528469085693
2.5162723064422607,6.008341312408447,1.4063925743103027
2.492187738418579,6.0696940422058105,1.4272146224975586
2.4662282466888428,6.127311706542969,1.4472790956497192
2.4295361042022705,6.160093784332275,1.461486577987671
2.4050233364105225,6.232898235321045,1.4845067262649536
2.368212938308716,6.273269176483154,1.4998648166656494
2.343534231185913,6.3453474044799805,1.5228708982467651
2.310323476791382,6.391806125640869,1.5397058725357056
2.2828497886657715,6.456051349639893,1.5609843730926514
2.251838445663452,6.517156600952148,1.581284523010254
2.2210309505462646,6.581969738006592,1.6018725633621216
2.1858184337615967,6.635796070098877,1.6199398040771484
2.135657548904419,6.642099857330322,1.6264277696609497
2.0694334506988525,6.593319416046143,1.6193546056747437
2.011017084121704,6.569620132446289,1.6185325384140015
1.9477035999298096,6.527336597442627,1.6125506162643433
1.8875110149383545,6.495816707611084,1.6086071729660034
1.837110161781311,6.496706485748291,1.6127480268478394
1.776360034942627,6.4567646980285645,1.6067451238632202
1.7162202596664429,6.412425994873047,1.5995854139328003
0.8399510383605957,3.2298097610473633,0.8076982498168945
1.6016473770141602,6.340956211090088,1.5894060134887695
0.8108882308006287,3.3100321292877197,0.8312021493911743
1.4880961179733276,6.268389701843262,1.577042579650879
1.4463207721710205,6.29238748550415,1.5861091613769531
1.3932512998580933,6.2641682624816895,1.5820503234863281
1.3422348499298096,6.239089012145996,1.5787742137908936
1.2908650636672974,6.209901332855225,1.5745010375976562
1.2323781251907349,6.147253036499023,1.5608460903167725
1.188432216644287,6.154865741729736,1.564919114112854
1.1339709758758545,6.110130310058594,1.5557833909988403
1.086219310760498,6.090847492218018,1.5531103610992432
1.0398584604263306,6.074873447418213,1.5513172149658203
0.9949991106987,6.066030979156494,1.5514063835144043
0.9448307752609253,6.023292541503906,1.5425784587860107
0.8968202471733093,5.999245643615723,1.5378497838974
0.8510497808456421,5.982226848602295,1.5349621772766113
0.805059015750885,5.961114406585693,1.531089186668396
0.7605928778648376,5.943333625793457,1.5281084775924683
0.6082929372787476,5.030995845794678,1.2949378490447998
0.5839100480079651,5.1285014152526855,1.3215278387069702
0.5513107776641846,5.169660568237305,1.3331806659698486
0.403186172246933,4.051064491271973,1.0452653169631958
0.3787948489189148,4.098694324493408,1.0581676959991455
0.35610270500183105,4.172549724578857,1.077909231185913
0.325850248336792,4.159521102905273,1.0752614736557007
0.2953011989593506,4.146305561065674,1.072625994682312
0.2678736448287964,4.170585632324219,1.0797312259674072
0.4434485137462616,7.751559734344482,2.0073776245117188
0.3872240483760834,7.716433048248291,1.9986504316329956
0.3321659564971924,7.69601583480835,1.9938284158706665
0.27626633644104004,7.6638946533203125,1.9860763549804688
0.22227026522159576,7.642683982849121,1.9812331199645996
0.1688416749238968,7.628655433654785,1.9783426523208618
0.11521687358617783,7.587790489196777,1.968582034111023
0.06224827095866203,7.5657548904418945,1.9625707864761353
0.008560115471482277,7.520693778991699,1.9505655765533447
-0.04373832419514656,7.516849994659424,1.9493539333343506
-0.09545151889324188,7.471053123474121,1.9373579025268555
-0.1468876451253891,7.447586536407471,1.9312465190887451
-0.19811463356018066,7.431328773498535,1.9270976781845093
-0.24971932172775269,7.429834842681885,1.926861047744751
-0.30264315009117126,7.443389892578125,1.9292972087860107
-0.25456130504608154,5.34881067276001,1.3856947422027588
-0.29363900423049927,5.384954929351807,1.3944244384765625
-0.331205278635025,5.386837959289551,1.3943434953689575
-0.36584076285362244,5.343170166015625,1.3825405836105347
-0.4024520814418793,5.325641632080078,1.3775672912597656
-0.43822094798088074,5.30793571472168,1.3725085258483887
-0.41075870394706726,4.589369773864746,1.1856400966644287
-0.44236308336257935,4.586858749389648,1.1839849948883057
-0.47400686144828796,4.584124565124512,1.1823267936706543
-0.5034325122833252,4.554775238037109,1.1738460063934326
-0.5360138416290283,4.559105396270752,1.1741188764572144
-0.5630630850791931,4.518135070800781,1.1627870798110962
-0.5943942666053772,4.514595985412598,1.160936713218689
-0.6233157515525818,4.496018886566162,1.1547037363052368
-0.654719889163971,4.492173194885254,1.1522901058197021
-0.6821424961090088,4.465717315673828,1.1441624164581299
-0.7131320834159851,4.461484432220459,1.141776204109192
-0.7410809993743896,4.438340663909912,1.1346064805984497
-0.7693917751312256,4.418749809265137,1.128409504890442
-0.7971327900886536,4.39912223815918,1.1218912601470947
-0.8235581517219543,4.371912002563477,1.1130859851837158
-0.7167418599128723,3.667649745941162,0.9322876334190369
-0.7381047606468201,3.6447248458862305,0.925011157989502
-0.7635381817817688,3.6401405334472656,0.9224146008491516
-0.9401371479034424,4.332065582275391,1.0960925817489624
-0.9717552661895752,4.329767227172852,1.0938758850097656
-1.0005162954330444,4.320243835449219,1.089278221130371
-1.0229166746139526,4.28474235534668,1.0780858993530273
-1.050316333770752,4.271233081817627,1.0724962949752808
-1.083552360534668,4.279536247253418,1.0724021196365356
-1.1024975776672363,4.228607177734375,1.057469367980957
-1.134070634841919,4.229064464569092,1.0554931163787842
-1.1633520126342773,4.22210693359375,1.0514731407165527
-1.1879419088363647,4.2005696296691895,1.0433964729309082
-1.2143628597259521,4.186192989349365,1.0371650457382202
-1.2423206567764282,4.175132751464844,1.031755805015564
-1.2716114521026611,4.167430400848389,1.0271999835968018
-1.2962678670883179,4.145012378692627,1.019080638885498
-1.3253551721572876,4.136920928955078,1.0145364999771118
-1.348612904548645,4.1146416664123535,1.0058677196502686
-1.379408359527588,4.1137237548828125,1.0024135112762451
-1.4047918319702148,4.098325252532959,0.9955368638038635
-1.431024193763733,4.082457065582275,0.9884928464889526
-1.4648966789245605,4.0879011154174805,0.9866428375244141
-1.4805711507797241,4.042982578277588,0.9727027416229248
-1.508073329925537,4.034195899963379,0.9669166207313538
-1.538555383682251,4.032257080078125,0.9626664519309998
-1.5575205087661743,4.001821994781494,0.9517375230789185
-1.5855615139007568,3.99222993850708,0.9456987380981445
-1.6094043254852295,3.971766233444214,0.9371193647384644
-1.6388660669326782,3.9652605056762695,0.9318869113922119
-1.6719324588775635,3.9695792198181152,0.9285032749176025
-1.6926535367965698,3.945709228515625,0.918635368347168
-1.7178280353546143,3.9321815967559814,0.9112178087234497
-1.7424843311309814,3.9145450592041016,0.9027199149131775
-1.7638522386550903,3.8897616863250732,0.8926364779472351
-1.7880779504776,3.8719003200531006,0.8838961124420166
-1.8172922134399414,3.8683981895446777,0.8781613707542419
-1.8498703241348267,3.871565103530884,0.8739469051361084
-1.8701064586639404,3.8465254306793213,0.863230288028717
-1.904340147972107,3.848543167114258,0.858500599861145
-1.928741455078125,3.8295695781707764,0.8490086793899536
-1.951004981994629,3.8114840984344482,0.8392805457115173
-1.9695653915405273,3.7864487171173096,0.8280906677246094
-1.9956990480422974,3.774573802947998,0.8196908235549927
-2.0045344829559326,3.7282567024230957,0.8036932945251465
-2.0238022804260254,3.702195644378662,0.7921810150146484
-1.7134191989898682,3.0858404636383057,0.6547979116439819
-1.7416341304779053,3.08925199508667,0.650104820728302
-0.8214056491851807,1.4342652559280396,0.29920876026153564
-0.8549132347106934,1.4689853191375732,0.3036835789680481
-0.8652144074440002,1.4637480974197388,0.2997724115848541
-0.8751451969146729,1.4586647748947144,0.2956952452659607
-0.8648560047149658,1.4207063913345337,0.2850855588912964
-0.8913019895553589,1.44147789478302,0.28604865074157715
-0.8934946060180664,1.422802448272705,0.27916935086250305
-0.8988142013549805,1.4111688137054443,0.273532509803772
-0.8790280222892761,1.3605693578720093,0.26040565967559814
-0.9056485295295715,1.3809369802474976,0.26072946190834045
-0.907071053981781,1.3623721599578857,0.25363031029701233
-0.9247311353683472,1.3700059652328491,0.25124022364616394
-2.423781156539917,3.5426361560821533,0.6397327184677124
-1.3913960456848145,2.0032827854156494,0.3554304838180542
-1.269625186920166,1.8019516468048096,0.3140107989311218
-1.3061861991882324,2.05592942237854,-0.21583688259124756
-1.2392815351486206,1.9821981191635132,-0.21578121185302734
-1.15155827999115,1.9019639492034912,-0.22108453512191772
-1.1119142770767212,1.8659496307373047,-0.22351856529712677
-0.8415801525115967,1.4599863290786743,-0.1851131021976471
-0.8273073434829712,1.4584946632385254,-0.18976859748363495
-0.9318351149559021,1.6705242395401,-0.222858265042305
-0.8952006101608276,1.6323198080062866,-0.22309806942939758
-0.8521726727485657,1.5798766613006592,-0.22091388702392578
-0.8295882344245911,1.5647625923156738,-0.22379572689533234
-0.7947095036506653,1.525388240814209,-0.22289863228797913
-0.780033528804779,1.5234571695327759,-0.2272534817457199
-0.7621230483055115,1.5143920183181763,-0.2304176688194275
-0.7270565629005432,1.470555305480957,-0.22807817161083221
-0.7041993737220764,1.4508082866668701,-0.229333758354187
-0.670448362827301,1.4062199592590332,-0.22629396617412567
-0.6505354642868042,1.3892357349395752,-0.2274869680404663
-0.629109263420105,1.368627905845642,-0.22790591418743134
0.6243706941604614,1.370499610900879,-0.22968259453773499
0.6276470422744751,1.3527092933654785,-0.2230144590139389
0.6553831696510315,1.387373924255371,-0.22491946816444397
0.6784833073616028,1.411352515220642,-0.2248706966638565
0.70542311668396,1.442008137702942,-0.22568999230861664
0.7314298152923584,1.4687691926956177,-0.22559158504009247
0.7662897706031799,1.5126615762710571,-0.2279517501592636
0.7768234610557556,1.5080429315567017,-0.22284352779388428
0.8108456134796143,1.5478864908218384,-0.2241200953722
0.8291870951652527,1.5565052032470703,-0.22065985202789307
0.8677552342414856,1.602576494216919,-0.2222968339920044
0.9014813899993896,1.6379846334457397,-0.2220827341079712
0.9453092813491821,1.6899032592773438,-0.22376537322998047
0.9842155575752258,1.7311636209487915,-0.2236783355474472
1.0252385139465332,1.7756011486053467,-0.22367924451828003
1.055230975151062,1.799418330192566,-0.22077852487564087
1.1180108785629272,1.8760082721710205,-0.22370067238807678
1.1673153638839722,1.9288643598556519,-0.22341346740722656
1.2150640487670898,1.9780220985412598,-0.22230136394500732
1.2887217998504639,2.0659682750701904,-0.22477757930755615
1.3304580450057983,2.1003785133361816,-0.22085312008857727
1.3575431108474731,2.1116933822631836,-0.21416276693344116
1.3891807794570923,2.1291890144348145,-0.2078854888677597
1.4043622016906738,2.1200900077819824,-0.19867320358753204
1.38827383518219,2.06610369682312,-0.18545828759670258
1.7446943521499634,2.55965518951416,-0.21941548585891724
1.8252657651901245,2.6377127170562744,-0.21470367908477783
1.9817482233047485,2.824233055114746,-0.21781966090202332
1.9556149244308472,2.7482070922851562,-0.1998363882303238
1.9499709606170654,2.7004308700561523,-0.18375061452388763
1.458469033241272,1.9927281141281128,-0.126220703125
1.4860230684280396,2.0021398067474365,-0.11685855686664581
1.4694045782089233,2.066242218017578,0.3713490664958954
1.772618055343628,2.5313925743103027,0.46422305703163147
1.5679006576538086,2.276639223098755,0.4255712926387787
1.520485281944275,2.2418715953826904,0.42629629373550415
1.5018277168273926,2.2480907440185547,0.43449416756629944
1.4858415126800537,2.26162052154541,0.44377925992012024
1.4803816080093384,2.2910754680633545,0.4562074840068817
1.476083755493164,2.3196938037872314,0.46804460883140564
1.4545209407806396,2.3225998878479004,0.474604994058609
1.456269383430481,2.3652052879333496,0.4891277551651001
1.4899938106536865,2.460179090499878,0.5145783424377441
1.454118013381958,2.4397878646850586,0.5158689618110657
1.4087408781051636,2.402592658996582,0.5132241249084473
1.3937739133834839,2.4186763763427734,0.5216428637504578
1.3865197896957397,2.4478511810302734,0.5328860282897949
1.368850827217102,2.456354856491089,0.5393958687782288
2.8895647525787354,5.2727370262146,1.1680254936218262
2.8653500080108643,5.322174549102783,1.18817138671875
2.827842950820923,5.347862720489502,1.2031242847442627
2.811415195465088,5.409789085388184,1.2259602546691895
2.7829885482788086,5.447405815124512,1.2432434558868408
2.7787108421325684,5.536728858947754,1.2724542617797852
2.736490249633789,5.554923057556152,1.2845981121063232
1.229777455329895,2.543708562850952,0.5918947458267212
1.2047406435012817,2.53752064704895,0.5939425230026245
1.1801615953445435,2.5309860706329346,0.5958435535430908
1.1619168519973755,2.5382142066955566,0.6009318232536316
1.1549978256225586,2.573718786239624,0.6124507784843445
2.583176612854004,5.871379852294922,1.4042034149169922
2.5568675994873047,5.926036357879639,1.4242042303085327
2.535407066345215,5.990720272064209,1.4466215372085571
2.50584077835083,6.037735462188721,1.4649386405944824
2.4747824668884277,6.08920955657959,1.4837162494659424
2.4476325511932373,6.151085376739502,1.5048621892929077
2.418372631072998,6.209273338317871,1.525268316268921
2.3892765045166016,6.26301908493042,1.5444432497024536
2.3528764247894287,6.2987961769104,1.5593225955963135
2.3241560459136963,6.359736442565918,1.5805072784423828
2.295234203338623,6.424613952636719,1.6017695665359497
2.2591450214385986,6.471437931060791,1.6186912059783936
2.23394513130188,6.550294876098633,1.643744707107544
2.2032628059387207,6.61060094833374,1.6641448736190796
2.1628236770629883,6.645692825317383,1.6784253120422363
2.0993902683258057,6.608115196228027,1.6740350723266602
2.0364673137664795,6.574209213256836,1.6696513891220093
1.9775124788284302,6.550640106201172,1.6679216623306274
1.9117313623428345,6.501041412353516,1.6595686674118042
1.8587183952331543,6.486959457397461,1.660171627998352
1.8001145124435425,6.454385280609131,1.6561532020568848
1.7486379146575928,6.443160533905029,1.6574983596801758
0.8602011203765869,3.2618556022644043,0.840737521648407
0.8366155028343201,3.2671992778778076,0.8437834978103638
1.5839736461639404,6.375605583190918,1.6498889923095703
0.7984039187431335,3.314152240753174,0.8593983054161072
1.4710365533828735,6.298526287078857,1.6366230249404907
1.4252278804779053,6.299813747406006,1.640365481376648
1.367329478263855,6.249360084533691,1.6298884153366089
1.3153859376907349,6.224489212036133,1.6257878541946411
1.254838228225708,6.158548355102539,1.6110421419143677
1.2103807926177979,6.162415027618408,1.6145416498184204
1.161653995513916,6.139837741851807,1.6111420392990112
1.1159390211105347,6.131783962249756,1.611618161201477
1.0664387941360474,6.101096153259277,1.6060298681259155
1.014160394668579,6.059286594390869,1.596640706062317
0.9673662781715393,6.043093681335449,1.5940403938293457
0.9157870411872864,5.992911338806152,1.5825303792953491
0.8716670274734497,5.9833664894104,1.5817798376083374
0.8298704028129578,5.988462924957275,1.5849699974060059
0.7800245881080627,5.9371490478515625,1.5733189582824707
0.6237194538116455,5.019573211669922,1.331413745880127
0.5891445875167847,5.030869007110596,1.3352370262145996
0.5697161555290222,5.180830478668213,1.3759572505950928
0.524246871471405,5.097817420959473,1.3548808097839355
0.38825687766075134,4.052118301391602,1.0777709484100342
0.36488956212997437,4.114548683166504,1.095268726348877
0.33777692914009094,4.135410308837891,1.1017569303512573
0.307986319065094,4.126105785369873,1.0997728109359741
0.28029316663742065,4.146790981292725,1.1055669784545898
0.25072774291038513,4.140913009643555,1.1043342351913452
0.41283470392227173,7.730692386627197,2.062424898147583
0.3580857217311859,7.710368633270264,2.0578196048736572
0.3033410906791687,7.6821184158325195,2.051192045211792
0.24928176403045654,7.664801597595215,2.0475785732269287
0.19477318227291107,7.620953559875488,2.0359508991241455
0.1401834934949875,7.5956926345825195,2.0290374755859375
0.0871010348200798,7.581353187561035,2.025144338607788
0.03409942612051964,7.55909538269043,2.0192346572875977
-0.018331028521060944,7.5062785148620605,2.005258321762085
-0.07027355581521988,7.479517459869385,1.998337745666504
-0.12290002405643463,7.456153392791748,1.9924272298812866
-0.17429673671722412,7.440269947052002,1.9874963760375977
-0.22511638700962067,7.412774085998535,1.9793241024017334
-0.27663761377334595,7.4113287925720215,1.9782050848007202
-0.3280600607395172,7.409528732299805,1.9770879745483398
-0.275640070438385,5.379294395446777,1.4349656105041504
-0.3134600520133972,5.373662948608398,1.4331337213516235
-0.3498271703720093,5.356503009796143,1.428303599357605
-0.3851962983608246,5.331793785095215,1.4206775426864624
-0.420209139585495,5.306879997253418,1.412955403327942
-0.3939293920993805,4.574497699737549,1.2170829772949219
-0.42967063188552856,4.609604358673096,1.2255805730819702
-0.4587012231349945,4.576840400695801,1.2161022424697876
-0.48925575613975525,4.562673091888428,1.2116318941116333
-0.5201191306114197,4.552046775817871,1.2081619501113892
-0.5504943132400513,4.541445255279541,1.2039780616760254
-0.5783863663673401,4.508105754852295,1.1937788724899292
-0.6082936525344849,4.497125148773193,1.1895939111709595
-0.6372789144515991,4.478428840637207,1.183419942855835
-0.6706606149673462,4.4894256591796875,1.185143232345581
-0.6972657442092896,4.4553542137146,1.1750284433364868
-0.7268884181976318,4.439743995666504,1.1697336435317993
-0.7547603845596313,4.4205193519592285,1.1628847122192383
-0.7823511362075806,4.401121616363525,1.156059980392456
-0.8097116351127625,4.381547451019287,1.1492544412612915
-0.8251243233680725,4.2985711097717285,1.1258858442306519
-0.7250605225563049,3.6403496265411377,0.9521591663360596
-0.7478488087654114,3.6209347248077393,0.9457857012748718
-0.923185408115387,4.319657325744629,1.1265274286270142
-0.9551379680633545,4.325279712677002,1.1257984638214111
-0.982110857963562,4.308526515960693,1.119301438331604
-1.0114989280700684,4.302659511566162,1.1156903505325317
-1.042178750038147,4.296310901641846,1.111915111541748
-1.0648794174194336,4.260460376739502,1.1006147861480713
-1.0965734720230103,4.261190414428711,1.0988287925720215
-1.12186598777771,4.240001201629639,1.0908586978912354
-1.1507266759872437,4.233370780944824,1.0865368843078613
-1.1739455461502075,4.204498291015625,1.0765246152877808
-1.1988155841827393,4.182808876037598,1.0684338808059692
-1.2323768138885498,4.189992904663086,1.0677378177642822
-1.2595189809799194,4.175113201141357,1.061466932296753
-1.2828506231307983,4.149319171905518,1.052222490310669
-1.3137495517730713,4.148900032043457,1.0489540100097656
-1.3371838331222534,4.126706123352051,1.0402888059616089
-1.3629436492919922,4.111534118652344,1.0334385633468628
-1.3967665433883667,4.117528438568115,1.0318577289581299
-1.4157395362854004,4.080165863037109,1.0194778442382812
-1.4442819356918335,4.07145881652832,1.0142360925674438
-1.461962103843689,4.03424596786499,1.0012825727462769
-1.4972224235534668,4.047064781188965,1.0008618831634521
-1.524653434753418,4.038231372833252,0.9951133131980896
-1.5504223108291626,4.021722316741943,0.9873806834220886
-1.5760304927825928,4.005037784576416,0.9796672463417053
-1.5989367961883545,3.981034994125366,0.9700591564178467
-1.621485948562622,3.9611315727233887,0.9610008001327515
-1.6526414155960083,3.962200880050659,0.9570746421813965
-1.6796427965164185,3.9524123668670654,0.9505217671394348
-1.7106750011444092,3.9490346908569336,0.9453848600387573
-1.732959508895874,3.924283742904663,0.9351145625114441
-1.7586179971694946,3.910334825515747,0.9272800087928772
-1.7817528247833252,3.8931689262390137,0.9183750748634338
-1.8047670125961304,3.8758373260498047,0.9094834327697754
-1.8349742889404297,3.871842861175537,0.9036156535148621
-1.8595852851867676,3.8534066677093506,0.8942358493804932
-1.880174160003662,3.8281333446502686,0.8834285140037537
-1.9092782735824585,3.824110746383667,0.8769583106040955
-1.9418598413467407,3.826700448989868,0.8719882369041443
-1.967977523803711,3.8152127265930176,0.8637341260910034
-1.9845668077468872,3.7826225757598877,0.8505109548568726
-2.004894971847534,3.7564847469329834,0.838726282119751
-2.019423484802246,3.724524736404419,0.8253539204597473
-1.6928836107254028,3.074432134628296,0.6760567426681519
-1.717696189880371,3.0710906982421875,0.6699767708778381
-0.8271728157997131,1.4551043510437012,0.3147874176502228
-0.8454885482788086,1.463139295578003,0.31380587816238403
-0.8513593077659607,1.4516695737838745,0.3084638714790344
-0.8689046502113342,1.4599905014038086,0.3073278069496155
-0.8672423362731934,1.434956669807434,0.29904040694236755
-0.8856803774833679,1.4426226615905762,0.29750898480415344
-0.8999497890472412,1.443751335144043,0.2944330871105194
-0.8931238055229187,1.4125572443008423,0.2847748398780823
-0.890343964099884,1.3878159523010254,0.27644237875938416
-0.8877508044242859,1.3628714084625244,0.2680041193962097
-0.9100232124328613,1.376826524734497,0.267156183719635
-0.9450374841690063,1.4100582599639893,0.26970675587654114
-2.3780746459960938,3.4984660148620605,0.6592400074005127
-1.4794561862945557,2.1145856380462646,0.38545429706573486
-1.277519941329956,2.0276424884796143,-0.21598055958747864
-1.166873812675476,1.9113996028900146,-0.2178470492362976
-1.110335111618042,1.8492963314056396,-0.2175954431295395
-0.8353666663169861,1.4370933771133423,-0.17913974821567535
-0.8518037796020508,1.4896513223648071,-0.19075453281402588
-0.9490947723388672,1.688032865524292,-0.2218514382839203
-0.9160335659980774,1.6567579507827759,-0.22321449220180511
-0.8782111406326294,1.6147516965866089,-0.22272349894046783
-0.8534561991691589,1.5964480638504028,-0.22525610029697418
-0.8056743144989014,1.5332422256469727,-0.22113452851772308
-0.7857785224914551,1.5209852457046509,-0.22399434447288513
-0.7605223655700684,1.4983160495758057,-0.22525374591350555
-0.7322038412094116,1.4684518575668335,-0.22514581680297852
-0.7096312642097473,1.4486290216445923,-0.22634655237197876
-0.6858373880386353,1.4250303506851196,-0.22676227986812592
-0.6655545830726624,1.4082527160644531,-0.22809213399887085
-0.6454845666885376,1.391298532485962,-0.22926092147827148
-0.6176913380622864,1.3565655946731567,-0.2273448407649994
0.6195371747016907,1.372428059577942,-0.23125037550926208
0.622857928276062,1.3546524047851562,-0.2246401458978653
0.6421605944633484,1.3719624280929565,-0.2237762063741684
0.6802158951759338,1.4273899793624878,-0.22884468734264374
0.7039162516593933,1.4510642290115356,-0.228582963347435
0.719359278678894,1.4571701288223267,-0.225450336933136
0.7573108673095703,1.5081961154937744,-0.22904089093208313
0.7819753885269165,1.5311862230300903,-0.22812232375144958
0.7982513308525085,1.5366442203521729,-0.22441691160202026
0.8309870362281799,1.5727660655975342,-0.22495435178279877
0.8620456457138062,1.6053051948547363,-0.2248091697692871
0.8956471085548401,1.640816569328308,-0.22476759552955627
0.9356158971786499,1.686042070388794,-0.2257051169872284
0.9740665555000305,1.7275947332382202,-0.22583474218845367
1.0112812519073486,1.7653170824050903,-0.22508400678634644
1.049221396446228,1.802540898323059,-0.2239251583814621
1.1015554666519165,1.862757682800293,-0.2252415418624878
1.1642967462539673,1.9393118619918823,-0.22803549468517303
1.212152361869812,1.9884681701660156,-0.22704529762268066
1.2736430168151855,2.0565686225891113,-0.22746489942073822
1.3312538862228394,2.1178011894226074,-0.22674159705638885
1.353959321975708,2.1227314472198486,-0.21970899403095245
1.3817499876022339,2.133535861968994,-0.21278409659862518
1.3922747373580933,2.1182448863983154,-0.20322471857070923
1.3894296884536743,2.0836081504821777,-0.19181297719478607
1.7556740045547485,2.5940332412719727,-0.22831349074840546
1.7737406492233276,2.5827150344848633,-0.2166835069656372
1.9913614988327026,2.8596904277801514,-0.2280881702899933
1.943900227546692,2.7511634826660156,-0.20730876922607422
1.9631251096725464,2.73846697807312,-0.19381335377693176
1.4559673070907593,2.003811836242676,-0.13274747133255005
1.4794435501098633,2.006640672683716,-0.12297811359167099
2.315420150756836,3.2795705795288086,0.568977952003479
1.7306928634643555,2.492507219314575,0.4415399134159088
1.5356578826904297,2.2450435161590576,0.4050106406211853
1.5185078382492065,2.2550320625305176,0.41408243775367737
1.4939398765563965,2.2558822631835938,0.4210967719554901
1.4915207624435425,2.2882261276245117,0.4336685836315155
1.4915392398834229,2.3234283924102783,0.4466545283794403
1.4653151035308838,2.320308208465576,0.45207637548446655
1.4730002880096436,2.373015880584717,0.4684734046459198
1.4595450162887573,2.388871908187866,0.47721198201179504
1.5077100992202759,2.5067341327667236,0.5065284371376038
1.4805599451065063,2.5034923553466797,0.5112888216972351
1.435849666595459,2.4702420234680176,0.5097455382347107
1.3982053995132446,2.4461300373077393,0.5097537636756897
1.3768019676208496,2.4480531215667725,0.5149316787719727
1.3658968210220337,2.470362901687622,0.5242257714271545
1.3468185663223267,2.4794652462005615,0.5305752754211426
2.838566541671753,5.318402290344238,1.14736807346344
2.824659824371338,5.3837385177612305,1.1705416440963745
2.7982876300811768,5.424934387207031,1.188497543334961
2.7847471237182617,5.498041152954102,1.2127753496170044
2.7547059059143066,5.5404052734375,1.2303903102874756
1.245146632194519,2.550100564956665,0.5700067281723022
1.229905605316162,2.564772605895996,0.5769510865211487
1.1854896545410156,2.5168919563293457,0.5697212815284729
1.179345965385437,2.5524187088012695,0.5809310078620911
1.160070538520813,2.5601108074188232,0.5858736038208008
1.1350014209747314,2.5534958839416504,0.587479829788208
2.5712664127349854,5.894956111907959,1.363243818283081
2.5481364727020264,5.956528186798096,1.3847010135650635
2.5218820571899414,6.015044689178467,1.4047290086746216
2.481304168701172,6.041935443878174,1.4172399044036865
2.4618782997131348,6.121619701385498,1.4422816038131714
2.4282612800598145,6.161471843719482,1.457794427871704
2.405742645263672,6.233414173126221,1.481170892715454
2.3759255409240723,6.287411212921143,1.5001119375228882
2.3453257083892822,6.345541000366211,1.519302248954773
2.312696933746338,6.399936199188232,1.537750244140625
2.2838051319122314,6.464742183685303,1.5587882995605469
2.2534615993499756,6.525635242462158,1.578974962234497
2.221968650817871,6.582533836364746,1.598253607749939
2.1925790309906006,6.650463104248047,1.6199060678482056
2.136894702911377,6.642655849456787,1.6225286722183228
2.0688419342041016,6.594491958618164,1.6153301000595093
2.0093913078308105,6.571174621582031,1.614235758781433
1.9512263536453247,6.543215274810791,1.6118448972702026
1.8881769180297852,6.496548652648926,1.604864478111267
1.8326137065887451,6.47517204284668,1.6037346124649048
1.77359139919281,6.442745208740234,1.5991672277450562
1.7199699878692627,6.428183555603027,1.5990855693817139
0.8412628769874573,3.23787522315979,0.8072892427444458
1.6045657396316528,6.357029914855957,1.5884959697723389
0.811147153377533,3.3104970455169678,0.8290945291519165
1.5064363479614258,6.3390278816223145,1.591113805770874
1.4497792720794678,6.300380229949951,1.583987832069397
1.3937879800796509,6.265120029449463,1.5778038501739502
1.3439586162567139,6.25149393081665,1.577075719833374
1.2900007963180542,6.211312770843506,1.5696361064910889
1.2376306056976318,6.174379825592041,1.5630402565002441
1.1879260540008545,6.148211479187012,1.5592153072357178
1.1394585371017456,6.1332173347473145,1.5576138496398926
1.0884076356887817,6.0992231369018555,1.5508127212524414
1.034632682800293,6.046164035797119,1.539214849472046
0.9918225407600403,6.052430152893066,1.542763352394104
0.946609616279602,6.039605140686035,1.5414890050888062
0.8981196880340576,6.007810592651367,1.5354645252227783
0.8492040634155273,5.964323997497559,1.5264256000518799
0.8059245347976685,5.962051868438721,1.5269792079925537
0.7588750123977661,5.929424285888672,1.519826054573059
0.6069997549057007,5.024562835693359,1.2889748811721802
0.5803185701370239,5.103381633758545,1.310346007347107
0.5441123843193054,5.106825828552246,1.3124600648880005
0.4028698801994324,4.048049449920654,1.0413596630096436
0.37704354524612427,4.076766014099121,1.049594759941101
0.35380908846855164,4.143154144287109,1.0670855045318604
0.3246864080429077,4.1452813148498535,1.0680835247039795
0.2925892770290375,4.113274574279785,1.0603450536727905
0.2694970667362213,4.201789379119873,1.0837212800979614
0.442857563495636,7.745706081390381,1.9988865852355957
0.3882286250591278,7.733011722564697,1.9968276023864746
0.33253422379493713,7.693643093109131,1.9873287677764893
0.27675992250442505,7.665428638458252,1.9800792932510376
0.22232171893119812,7.6367878913879395,1.9728158712387085
0.1684645116329193,7.615325927734375,1.9675021171569824
0.11501985788345337,7.582138538360596,1.9592506885528564
0.06226223334670067,7.5750508308410645,1.957836627960205
0.008664010092616081,7.5373406410217285,1.9486087560653687
-0.04359520971775055,7.518362522125244,1.943516731262207
-0.09534303098917007,7.480240821838379,1.9330482482910156
-0.14701014757156372,7.464451313018799,1.9284483194351196
-0.19805951416492462,7.433181285858154,1.9199447631835938
-0.24855448305606842,7.397781848907471,1.910470724105835
-0.3031414747238159,7.452709197998047,1.9244118928909302
-0.2567123770713806,5.387704372406006,1.3910880088806152
-0.2935943007469177,5.378532886505127,1.3880181312561035
-0.3303045332431793,5.369180679321289,1.3846843242645264
-0.3658659756183624,5.344479560852051,1.3774632215499878
-0.4012952446937561,5.31194543838501,1.3682817220687866
-0.43758252263069153,5.301841735839844,1.364962100982666
-0.41098716855049133,4.590479373931885,1.1812572479248047
-0.4421592354774475,4.58028507232666,1.1781272888183594
-0.47332966327667236,4.573823928833008,1.17537260055542
-0.5057982206344604,4.574658393859863,1.1743813753128052
-0.5324037075042725,4.530208110809326,1.1618528366088867
-0.5646087527275085,4.534427642822266,1.1618661880493164
-0.5942559838294983,4.515858173370361,1.1560872793197632
-0.6246586441993713,4.504601001739502,1.1522430181503296
-0.6532745361328125,4.4780802726745605,1.1445351839065552
-0.6862728595733643,4.489140510559082,1.1457313299179077
-0.7134726643562317,4.462553977966309,1.137375831604004
-0.7422109246253967,4.447009563446045,1.1318999528884888
-0.7703782916069031,4.427504539489746,1.1254655122756958
-0.7998679876327515,4.4152421951293945,1.120924472808838
-0.8255772590637207,4.380337715148926,1.1106764078140259
-0.7161843180656433,3.660900115966797,0.9269874691963196
-0.738879382610321,3.6454808712005615,0.9214062690734863
-0.7637743949890137,3.6410441398620605,0.9186462163925171
-0.9365633726119995,4.318498134613037,1.0876725912094116
-0.9705197811126709,4.327404975891113,1.0879900455474854
-0.99730384349823,4.306577682495117,1.0809162855148315
-1.025607705116272,4.29296350479126,1.0757147073745728
-1.0496307611465454,4.264646530151367,1.0664088726043701
-1.0786494016647339,4.258393287658691,1.0624340772628784
-1.1004904508590698,4.222422122955322,1.051068663597107
-1.1354597806930542,4.237745761871338,1.0525420904159546
-1.1651138067245483,4.2307024002075195,1.0484609603881836
-1.1968398094177246,4.230749607086182,1.0461807250976562
-1.2177820205688477,4.194157600402832,1.0347539186477661
-1.244619607925415,4.179513931274414,1.0281943082809448
-1.2719244956970215,4.168459892272949,1.0226242542266846
-1.3002246618270874,4.160864353179932,1.0179567337036133
-1.3224189281463623,4.131076812744141,1.0078349113464355
-1.3537410497665405,4.130099773406982,1.0048010349273682
-1.3783379793167114,4.10708475112915,0.9964138865470886
-1.4086027145385742,4.1061530113220215,0.9928099513053894
-1.4313238859176636,4.083444595336914,0.9839707016944885
-1.4589369297027588,4.074950695037842,0.978613555431366
-1.4848154783248901,4.058807373046875,0.9713594913482666
-1.5107061862945557,4.0424346923828125,0.9640903472900391
-1.5342226028442383,4.01859188079834,0.9550468921661377
-1.5641980171203613,4.016640663146973,0.9507004618644714
-1.5856740474700928,3.9932305812835693,0.9412738680839539
-1.6126304864883423,3.98384952545166,0.9352107048034668
-1.6377724409103394,3.9668030738830566,0.927234411239624
-1.6648279428482056,3.9528872966766357,0.9199630618095398
-1.6895753145217896,3.9355452060699463,0.9119427800178528
-1.7160863876342773,3.9256322383880615,0.9051384925842285
-1.7425360679626465,3.915531635284424,0.8983319401741028
-1.7692970037460327,3.905095100402832,0.8914263844490051
-1.7910714149475098,3.8799703121185303,0.8809766173362732
-1.8153446912765503,3.8618369102478027,0.8722659349441528
-1.8484735488891602,3.864743947982788,0.8679623007774353
-1.8710898160934448,3.847036361694336,0.8588113784790039
-1.8935450315475464,3.829181432723999,0.8496850728988647
-1.9280109405517578,3.830918312072754,0.844569742679596
-1.9588539600372314,3.825639486312866,0.8379701375961304
-1.9749259948730469,3.7932446002960205,0.825269341468811
-1.9896060228347778,3.761373519897461,0.8124244809150696
-2.0003366470336914,3.722665548324585,0.7982068657875061
-2.022932767868042,3.703565835952759,0.7879875898361206
-1.7103724479675293,3.079468250274658,0.6499605774879456
-1.7392287254333496,3.0825140476226807,0.6452296376228333
-0.8254369497299194,1.4411439895629883,0.29902154207229614
-0.8428152203559875,1.4496291875839233,0.29811525344848633
-0.8610494136810303,1.4575881958007812,0.29687052965164185
-0.8637857437133789,1.4388608932495117,0.2901521623134613
-0.8774650692939758,1.4404007196426392,0.28741633892059326
-0.8708439469337463,1.4091163873672485,0.2781579792499542
-0.8848000764846802,1.4103344678878784,0.27521276473999023
-0.8991014957427979,1.4112626314163208,0.2721007466316223
-0.9005429148674011,1.3928701877593994,0.26511335372924805
-0.8928066492080688,1.3619084358215332,0.2558276653289795
-0.9022765755653381,1.3565115928649902,0.2512359321117401
-0.9553084969520569,1.414838433265686,0.25813964009284973
-2.4078235626220703,3.5167458057403564,0.6315577030181885
-1.2696423530578613,1.8292433023452759,0.32307395339012146
-1.3161237239837646,1.8687963485717773,0.32407429814338684
-1.2977815866470337,2.043405055999756,-0.2089046686887741
-1.2787989377975464,2.0452849864959717,-0.21670566499233246
-1.147586464881897,1.8959404230117798,-0.21455785632133484
-1.1001691818237305,1.8464998006820679,-0.21527071297168732
-0.8494748473167419,1.473979115486145,-0.18189267814159393
-0.9000830054283142,1.5874824523925781,-0.20103934407234192
-0.9472488760948181,1.6982561349868774,-0.22049230337142944
-0.9066135287284851,1.6534098386764526,-0.21989378333091736
-0.8650060892105103,1.6045998334884644,-0.21838168799877167
-0.8079477548599243,1.524416446685791,-0.2121237814426422
-0.8040448427200317,1.5432418584823608,-0.2193254679441452
-0.7803154587745667,1.5242164134979248,-0.22111068665981293
-0.7588651776313782,1.508299708366394,-0.22313816845417023
-0.7412101030349731,1.499058485031128,-0.22602561116218567
-0.7131726145744324,1.4689483642578125,-0.22565843164920807
-0.6840875744819641,1.4349865913391113,-0.2244272083044052
-0.6606922745704651,1.4111149311065674,-0.2245103120803833
-0.6408969163894653,1.3940242528915405,-0.22554391622543335
-0.629130482673645,1.3944346904754639,-0.22927963733673096
-0.61271733045578,1.384140133857727,-0.23121404647827148
0.598964512348175,1.3646600246429443,-0.22900529205799103
0.6118324398994446,1.36808180809021,-0.22612498700618744
0.6488882303237915,1.4241100549697876,-0.2316838949918747
0.6523179411888123,1.4062103033065796,-0.22512733936309814
0.6820530891418457,1.444216251373291,-0.22741857171058655
0.704082190990448,1.4644196033477783,-0.2267014980316162
0.7347956895828247,1.5018459558486938,-0.22845229506492615
0.7557766437530518,1.5181249380111694,-0.22672802209854126
0.7787473797798157,1.537652850151062,-0.22538359463214874
0.8074750304222107,1.5672175884246826,-0.22530871629714966
0.8400168418884277,1.6034616231918335,-0.22595737874507904
0.8784748315811157,1.6496660709381104,-0.22774331271648407
0.914168119430542,1.6885000467300415,-0.2281423956155777
0.9525914788246155,1.730201244354248,-0.22855062782764435
0.9891040921211243,1.7684252262115479,-0.22830024361610413
1.0281867980957031,1.8095800876617432,-0.22812426090240479
1.074100375175476,1.8601880073547363,-0.22865688800811768
1.1205590963363647,1.9103894233703613,-0.22877834737300873
1.1676689386367798,1.960127830505371,-0.22837327420711517
1.2095847129821777,1.99928879737854,-0.22635909914970398
1.2828476428985596,2.087562322616577,-0.22934357821941376
