X,Y,Z
1.2925163507461548,2.2977375984191895,-0.1506797969341278
1.303885579109192,2.2825517654418945,-0.1467696577310562
1.3150941133499146,2.267319440841675,-0.14288294315338135
1.3268754482269287,2.251619815826416,-0.13885089755058289
1.3384634256362915,2.2358880043029785,-0.13475444912910461
1.3491824865341187,2.220526933670044,-0.13074365258216858
1.3601058721542358,2.2049050331115723,-0.12666761875152588
1.37950599193573,2.20224928855896,-0.12324286252260208
1.3938864469528198,2.1933858394622803,-0.1194414496421814
1.4001901149749756,2.1710262298583984,-0.11482802033424377
1.4153320789337158,2.161396026611328,-0.11078979074954987
1.4142907857894897,2.129559278488159,-0.10564568638801575
1.4347792863845825,2.130138397216797,-0.10210013389587402
1.4540388584136963,2.1267054080963135,-0.09810557961463928
1.4568278789520264,2.1012845039367676,-0.09304869920015335
1.461678385734558,2.0790417194366455,-0.08815766870975494
1.4282382726669312,2.0024497509002686,-0.08089035749435425
1.4523677825927734,2.0093302726745605,-0.07710114121437073
1.4590381383895874,1.9901623725891113,-0.07202675193548203
1.5067569017410278,2.0279088020324707,-0.06881468743085861
1.4456950426101685,2.0315029621124268,0.11595374345779419
1.4781709909439087,2.108619451522827,0.1243518516421318
1.4620203971862793,2.1195807456970215,0.12885244190692902
1.45453679561615,2.1433355808258057,0.1340658813714981
1.4394607543945312,2.1532325744628906,0.1381331980228424
1.4314019680023193,2.177031993865967,0.1430327296257019
1.4189105033874512,2.1942200660705566,0.1475190371274948
1.4035125970840454,2.2038495540618896,0.151225745677948
1.3950709104537964,2.2273752689361572,0.15581776201725006
1.3698992729187012,2.224388837814331,0.15855711698532104
1.358290195465088,2.24037766456604,0.16242016851902008
1.3455554246902466,2.256882429122925,0.16632609069347382
1.3324007987976074,2.2734670639038086,0.17016592621803284
1.319667935371399,2.289640426635742,0.17390936613082886
1.3132305145263672,2.3155312538146973,0.1783207654953003
1.2959508895874023,2.325009346008301,0.18138448894023895
1.278218388557434,2.334561586380005,0.18449117243289948
1.2725356817245483,2.3640170097351074,0.18906283378601074
1.255968451499939,2.372629165649414,0.19194284081459045
1.2491003274917603,2.402402877807617,0.19643256068229675
1.2383099794387817,2.425260543823242,0.20039701461791992
1.2240341901779175,2.440984010696411,0.2037685364484787
1.212080478668213,2.4597508907318115,0.20733076333999634
1.2110087871551514,2.50339674949646,0.21291328966617584
1.1958210468292236,2.5190887451171875,0.2161342054605484
1.1872881650924683,2.548698663711548,0.22055725753307343
1.172671914100647,2.56380558013916,0.2236805111169815
1.1588609218597412,2.582667350769043,0.22712014615535736
1.139886498451233,2.5908868312835693,0.22951431572437286
1.1239583492279053,2.6061058044433594,0.23254358768463135
1.1114733219146729,2.628161907196045,0.23615841567516327
1.0901174545288086,2.6284584999084473,0.23780500888824463
1.079588532447815,2.657822847366333,0.24200879037380219
1.0688023567199707,2.687129020690918,0.24616876244544983
1.0491726398468018,2.694653034210205,0.24835838377475739
1.0330215692520142,2.7090229988098145,0.25113773345947266
1.0195616483688354,2.730544090270996,0.2545948624610901
0.9995514750480652,2.7377448081970215,0.2566033899784088
0.9836351275444031,2.755718469619751,0.25958454608917236
0.9572585821151733,2.7442126274108887,0.2597988247871399
0.9329282641410828,2.735963821411133,0.2602815330028534
0.9113451242446899,2.734851360321045,0.2614375352859497
0.9010271430015564,2.7708425521850586,0.26604196429252625
0.8809906244277954,2.777113914489746,0.26774862408638
0.88507479429245,2.861266613006592,0.27700766921043396
0.8884052634239197,2.945485830307007,0.28632697463035583
0.8678330183029175,2.9514431953430176,0.28806790709495544
0.851201593875885,2.9723057746887207,0.29118624329566956
0.8346869349479675,2.9970200061798096,0.29460784792900085
0.8171910047531128,3.0178017616271973,0.29765355587005615
0.7956864833831787,3.0233891010284424,0.2992113530635834
0.7784373760223389,3.043781042098999,0.30223342776298523
0.759089469909668,3.056525230407715,0.3045133650302887
0.7423337697982788,3.084502935409546,0.30812329053878784
0.7247300148010254,3.1085169315338135,0.31134963035583496
0.7042229175567627,3.121063470840454,0.31345146894454956
0.6955842971801758,3.186561346054077,0.32089006900787354
0.6805722117424011,3.225431442260742,0.3256836533546448
0.6574885845184326,3.2300872802734375,0.32695749402046204
0.6375004053115845,3.249824047088623,0.32962605357170105
0.6172643899917603,3.269437789916992,0.3323051631450653
0.5968148708343506,3.288919448852539,0.3349931836128235
0.5778891444206238,3.3158578872680664,0.3384522497653961
0.5563244819641113,3.331249475479126,0.340768426656723
0.5352930426597595,3.350339889526367,0.34329313039779663
0.5139495730400085,3.3693153858184814,0.3457554280757904
0.49568256735801697,3.4112346172332764,0.3505987226963043
0.4753590226173401,3.4414970874786377,0.35426950454711914
0.46007558703422546,3.5140366554260254,0.36232858896255493
0.4365883469581604,3.5247697830200195,0.36403512954711914
0.41497549414634705,3.554696798324585,0.3675002157688141
0.38827285170555115,3.5420100688934326,0.3665468394756317
0.3673166334629059,3.583240509033203,0.3711938261985779
0.34365999698638916,3.601133108139038,0.37344610691070557
0.3212158977985382,3.6382431983947754,0.3777198791503906
0.2996656000614166,3.686795234680176,0.3832021653652191
0.2787361443042755,3.7546322345733643,0.3904474079608917
0.2539599537849426,3.7797136306762695,0.39326220750808716
0.228379026055336,3.7968738079071045,0.3952743411064148
0.20319896936416626,3.8332793712615967,0.39931654930114746
0.17762409150600433,3.857844352722168,0.4021427631378174
0.15167687833309174,3.8822388648986816,0.40497446060180664
0.12646564841270447,3.941439390182495,0.41115322709083557
0.10058853030204773,4.008243083953857,0.4181446433067322
0.07268443703651428,4.039921283721924,0.4214937388896942
0.044848714023828506,4.071398735046387,0.42484256625175476
0.016589047387242317,4.094911575317383,0.4273819029331207
-0.011963953264057636,4.12211275100708,0.4303278923034668
-0.0415390208363533,4.211304664611816,0.4394511580467224
-0.07217364013195038,4.257542133331299,0.4441007375717163
-0.10245901346206665,4.2841477394104,0.44672444462776184
-0.13223378360271454,4.283353805541992,0.44651201367378235
-0.16097436845302582,4.255176067352295,0.44346722960472107
-0.19280681014060974,4.304434299468994,0.44851377606391907
-0.23267360031604767,4.497055530548096,0.46818140149116516
-0.2670391798019409,4.5419111251831055,0.4724496006965637
-0.299783319234848,4.559396266937256,0.4738938808441162
-0.3395453691482544,4.669650554656982,0.4849928617477417
-0.37601011991500854,4.71759033203125,0.489629864692688
-0.4141644239425659,4.77686071395874,0.49545860290527344
-0.4759945273399353,5.075690746307373,0.5257560610771179
-0.5320112109184265,5.281165599822998,0.5463353395462036
-0.581312358379364,5.3972487449646,0.5576497912406921
-0.6093266010284424,5.312139511108398,0.5481959581375122
-0.6382328271865845,5.242312431335449,0.5403605699539185
-0.675289511680603,5.237778663635254,0.5392789244651794
-0.713827908039093,5.252425193786621,0.5398106575012207
-0.7477027773857117,5.232157230377197,0.5367756485939026
-0.774941623210907,5.1694016456604,0.529421329498291
-0.817836344242096,5.210150241851807,0.5326894521713257
-0.8446089029312134,5.143021583557129,0.5249341130256653
-0.8816731572151184,5.144834995269775,0.5242350697517395
-0.907976508140564,5.08912467956543,0.5173602104187012
-0.9342679381370544,5.03711462020874,0.5109080076217651
-0.9746411442756653,5.061311721801758,0.5122113823890686
-1.0034639835357666,5.02415132522583,0.5073210000991821
-1.058637022972107,5.112288475036621,0.5150667428970337
-1.0719914436340332,5.0024027824401855,0.5028173327445984
-1.1093567609786987,5.01039457321167,0.5021854639053345
-1.1416826248168945,4.995368003845215,0.4992676377296448
-1.1756885051727295,4.98768949508667,0.49710747599601746
-1.2052615880966187,4.95684289932251,0.49262237548828125
-1.2387940883636475,4.944778919219971,0.49005126953125
-1.2145144939422607,4.710456848144531,0.4653710722923279
-1.242453932762146,4.68731164932251,0.46148961782455444
-1.2742677927017212,4.678998947143555,0.4590926766395569
-1.3046050071716309,4.662794589996338,0.45591220259666443
-1.3337938785552979,4.642630100250244,0.45236849784851074
-1.3638651371002197,4.62601375579834,0.44919872283935547
-1.1059958934783936,3.660038471221924,0.3539666533470154
-1.1284149885177612,3.645253896713257,0.35109466314315796
-1.1534781455993652,3.6376113891601562,0.34890398383140564
-1.4776588678359985,4.5511064529418945,0.43471312522888184
-1.5093339681625366,4.540965557098389,0.4319324791431427
-1.5454787015914917,4.545507431030273,0.43042469024658203
-1.6054400205612183,4.619814872741699,0.4353261888027191
-3.4775447845458984,9.794035911560059,0.9183837175369263
-1.6631072759628296,4.583409309387207,0.42763039469718933
-1.68961501121521,4.557406425476074,0.42305514216423035
-1.7638778686523438,4.658717155456543,0.43022480607032776
-1.768462061882019,4.578118324279785,0.42035311460494995
-1.7934454679489136,4.551978588104248,0.4155450463294983
-1.8158851861953735,4.518235683441162,0.41003137826919556
-1.8443608283996582,4.498598575592041,0.40579283237457275
-1.8620198965072632,4.453690052032471,0.3993023931980133
-4.036581039428711,9.477619171142578,0.8440122008323669
-4.093559741973877,9.436890602111816,0.8346902132034302
-4.142065525054932,9.373872756958008,0.8233442902565002
-1.9870251417160034,4.413521766662598,0.38487496972084045
-2.0207831859588623,4.407084941864014,0.3815010190010071
-2.0566461086273193,4.408018589019775,0.37855613231658936
-2.05753755569458,4.334780693054199,0.3692895770072937
-2.0906851291656494,4.327905178070068,0.36562997102737427
-2.120946168899536,4.313521385192871,0.361291766166687
-2.150325298309326,4.299320697784424,0.35687026381492615
-2.168194055557251,4.264503479003906,0.3506479859352112
-2.207125663757324,4.271183013916016,0.3478570580482483
-2.2021195888519287,4.190693378448486,0.3378791809082031
-4.443253040313721,8.312965393066406,0.6632229685783386
-4.497769355773926,8.284354209899902,0.653663158416748
-2.2562897205352783,4.091855525970459,0.3192555010318756
-2.2477121353149414,4.01228141784668,0.3093964457511902
-2.275639295578003,3.9968883991241455,0.3044450283050537
-2.3063271045684814,3.988656997680664,0.2998187243938446
-2.332275867462158,3.973918914794922,0.2947506904602051
-2.3509585857391357,3.9451382160186768,0.2885427474975586
-2.378523588180542,3.9289753437042236,0.2831159830093384
-2.4042046070098877,3.9137070178985596,0.27762067317962646
-2.4258809089660645,3.8915157318115234,0.2715612053871155
-2.4565396308898926,3.881868600845337,0.2662425637245178
-2.4873547554016113,3.871875286102295,0.26073968410491943
-2.5036702156066895,3.843139171600342,0.25388410687446594
-2.5286166667938232,3.8271677494049072,0.24783840775489807
-2.5515220165252686,3.802969455718994,0.24079370498657227
-2.580467462539673,3.7932372093200684,0.23468759655952454
-2.6467061042785645,3.8381145000457764,0.2318514883518219
-2.0558886528015137,2.9377639293670654,0.17274916172027588
-2.074846029281616,2.9247307777404785,0.1671561449766159
-2.098085403442383,2.9180452823638916,0.1618063896894455
-2.1139168739318848,2.897282600402832,0.15520265698432922
-1.1089282035827637,1.5002208948135376,0.0774870365858078
-2.0721170902252197,2.905423164367676,-0.10944957286119461
-2.061427354812622,2.936643123626709,-0.11671982705593109
-2.461029052734375,3.561983346939087,-0.1486755907535553
-2.457568645477295,3.611377477645874,-0.15737976133823395
-2.4344818592071533,3.6360511779785156,-0.16507075726985931
-2.403949022293091,3.6466386318206787,-0.17180249094963074
-2.3767948150634766,3.6640610694885254,-0.17878225445747375
-2.34486722946167,3.6749796867370605,-0.18532326817512512
-2.322908401489258,3.6977899074554443,-0.19210772216320038
-2.291771173477173,3.7076609134674072,-0.1981307864189148
-2.268059015274048,3.7310054302215576,-0.20486223697662354
-2.2410595417022705,3.7469427585601807,-0.21102383732795715
-2.217987298965454,3.7693638801574707,-0.21737346053123474
-2.190007448196411,3.785341262817383,-0.22333599627017975
-2.1550655364990234,3.7870566844940186,-0.22829550504684448
-2.1321330070495605,3.808617115020752,-0.23431812226772308
-2.1073575019836426,3.83093523979187,-0.2404126524925232
-2.0755817890167236,3.8390283584594727,-0.24552354216575623
-2.059643268585205,3.873781681060791,-0.25217166543006897
-2.031728982925415,3.8881492614746094,-0.25744521617889404
-2.0032248497009277,3.902561664581299,-0.2626917362213135
-1.9835224151611328,3.93410325050354,-0.2691047787666321
-1.9559698104858398,3.947528123855591,-0.2741391360759735
-1.9273090362548828,3.9612553119659424,-0.27907371520996094
-1.9018135070800781,3.981851100921631,-0.28450900316238403
-1.880203366279602,4.0089826583862305,-0.29034069180488586
-1.8455822467803955,4.007534980773926,-0.2940528094768524
-1.8288806676864624,4.049074172973633,-0.3008587062358856
-1.8027206659317017,4.068968296051025,-0.30603933334350586
-1.7802058458328247,4.095527172088623,-0.31166431307792664
-1.7514981031417847,4.107542514801025,-0.316165030002594
-1.729408621788025,4.137678146362305,-0.3219088912010193
-1.701991319656372,4.1571044921875,-0.326920747756958
-1.6783922910690308,4.183144569396973,-0.3323603868484497
-1.6491183042526245,4.194431781768799,-0.336620569229126
-1.6190544366836548,4.205799579620361,-0.3406985104084015
-1.591598629951477,4.224261283874512,-0.34535810351371765
-1.5610729455947876,4.2353010177612305,-0.349454402923584
-1.53407883644104,4.253105640411377,-0.3540310561656952
-1.503873348236084,4.2635602951049805,-0.357850044965744
-1.4758933782577515,4.28125,-0.36221665143966675
-1.447803258895874,4.298730850219727,-0.36658766865730286
-1.1788297891616821,3.5836987495422363,-0.3080131709575653
-1.142931342124939,3.5582683086395264,-0.3081126809120178
-1.1257129907608032,3.5920755863189697,-0.31319284439086914
-1.3321864604949951,4.3591628074646,-0.38269558548927307
-1.304863691329956,4.379307270050049,-0.3870696425437927
-1.272070288658142,4.38054084777832,-0.3897787928581238
-1.2468260526657104,4.411778450012207,-0.3949804902076721
-1.2175341844558716,4.42774772644043,-0.39874860644340515
-1.1840927600860596,4.428472518920898,-0.4011613428592682
-1.1512736082077026,4.428802490234375,-0.4035073220729828
-1.1164520978927612,4.421388149261475,-0.40508025884628296
-1.091992974281311,4.459291458129883,-0.4106196463108063
-1.0550531148910522,4.443936347961426,-0.4112415313720703
-1.0255789756774902,4.4585652351379395,-0.4146375060081482
-0.9961707592010498,4.472949504852295,-0.41802361607551575
-0.9664128422737122,4.487199783325195,-0.4212188720703125
-0.9373672604560852,4.509024620056152,-0.42504873871803284
-0.9055622220039368,4.515296936035156,-0.42740893363952637
-0.8798826336860657,4.551843643188477,-0.43265336751937866
-0.8481578230857849,4.557638168334961,-0.43500134348869324
-0.8222212195396423,4.597755432128906,-0.44033101201057434
-0.7945219874382019,4.633995056152344,-0.44531503319740295
-0.761890709400177,4.639277935028076,-0.44732996821403503
-0.7362125515937805,4.686532974243164,-0.4534113109111786
-0.7046895623207092,4.699050426483154,-0.4561203122138977
-0.6739327311515808,4.719114303588867,-0.4592369496822357
-0.6401998996734619,4.723647117614746,-0.46089181303977966
-0.6081458330154419,4.735562324523926,-0.46326592564582825
-0.5770133137702942,4.7549638748168945,-0.4663965404033661
-0.5447326302528381,4.766449928283691,-0.46864986419677734
-0.5080322623252869,4.739103317260742,-0.4668203294277191
-0.46666696667671204,4.661196231842041,-0.46001362800598145
-0.4259909391403198,4.582988262176514,-0.45318102836608887
-0.38980168104171753,4.535374164581299,-0.4493512213230133
-0.3545370399951935,4.49138069152832,-0.4456966817378998
-0.31843575835227966,4.427760601043701,-0.4398835003376007
-0.281729519367218,4.340587139129639,-0.4317338168621063
-0.24694201350212097,4.2725510597229,-0.42549753189086914
-0.2150518149137497,4.231393337249756,-0.4219350814819336
-0.17961947619915009,4.096827983856201,-0.40883877873420715
-0.14808320999145508,4.016379356384277,-0.4009914696216583
-0.11984890699386597,4.009514808654785,-0.40050628781318665
-0.09162691235542297,4.018004894256592,-0.40157821774482727
-0.06454633176326752,4.072925567626953,-0.40730971097946167
-0.03613632544875145,4.065497398376465,-0.4065800607204437
-0.007779934909194708,4.034562587738037,-0.40340492129325867
0.02014886401593685,4.011204242706299,-0.4010080099105835
0.04790142923593521,3.9604427814483643,-0.3958911597728729
0.07402441650629044,3.886183023452759,-0.3884464204311371
0.10017311573028564,3.8545243740081787,-0.3850077688694
0.1261684149503708,3.830467462539673,-0.3822728395462036
0.15195679664611816,3.810121536254883,-0.37993061542510986
0.17698821425437927,3.7779507637023926,-0.37643083930015564
0.20098134875297546,3.726186513900757,-0.3709985613822937
0.22496579587459564,3.6937294006347656,-0.3672286868095398
0.2468898594379425,3.6378557682037354,-0.3611183762550354
0.27008068561553955,3.6089909076690674,-0.35771888494491577
0.29389527440071106,3.5915985107421875,-0.3554786741733551
0.31721916794776917,3.5662684440612793,-0.35246706008911133
0.33929938077926636,3.536996603012085,-0.34880194067955017
0.3621806204319,3.5191924571990967,-0.3462850749492645
0.37888503074645996,3.4471371173858643,-0.3384646773338318
0.4028536379337311,3.444514274597168,-0.3374890685081482
0.4229174852371216,3.4069507122039795,-0.33307400345802307
0.444456547498703,3.3886454105377197,-0.3303152322769165
0.4636334478855133,3.35479736328125,-0.3260703384876251
0.4845990538597107,3.3362371921539307,-0.32333987951278687
0.5072552561759949,3.329054594039917,-0.32172635197639465
0.5258616805076599,3.2947945594787598,-0.3174426257610321
0.5473427772521973,3.283552646636963,-0.3152162432670593
0.5673344731330872,3.264512062072754,-0.3122655749320984
0.5871707201004028,3.2453362941741943,-0.3093233108520508
0.603254497051239,3.2069146633148193,-0.30457451939582825
0.6195072531700134,3.17226505279541,-0.30011722445487976
0.6370791792869568,3.145137071609497,-0.29623860120773315
0.6555110812187195,3.1256086826324463,-0.29312899708747864
0.6714099645614624,3.094531536102295,-0.2889566719532013
0.6895391345024109,3.074753522872925,-0.28586581349372864
0.7072517275810242,3.054924726486206,-0.28264668583869934
0.7268316149711609,3.0425033569335938,-0.28002557158470154
0.7440155744552612,3.022494316101074,-0.27675771713256836
0.7630919814109802,3.0098798274993896,-0.274175763130188
0.7811198830604553,2.993360757827759,-0.2712553143501282
0.7996376752853394,2.9805963039398193,-0.2685128450393677
0.8183524012565613,2.9676289558410645,-0.2657307982444763
0.8366155624389648,2.9546279907226562,-0.262990802526474
0.8507003784179688,2.9264776706695557,-0.25890710949897766
0.8565202355384827,2.872202157974243,-0.2525121569633484
0.8761915564537048,2.866457462310791,-0.2502884864807129
0.8647392392158508,2.760171413421631,-0.2393292337656021
0.876680850982666,2.7320668697357178,-0.23524831235408783
0.9005565047264099,2.7408738136291504,-0.23435023427009583
0.9118993878364563,2.712679624557495,-0.23018866777420044
0.9379758834838867,2.728686571121216,-0.22974278032779694
0.9565877318382263,2.7224133014678955,-0.2274150252342224
0.9732588529586792,2.7084240913391113,-0.22438743710517883
0.9947285652160645,2.709110975265503,-0.22258377075195312
1.0077028274536133,2.68788480758667,-0.21888792514801025
1.023217797279358,2.673879623413086,-0.21580621600151062
1.035994529724121,2.6524367332458496,-0.2121245115995407
1.0519063472747803,2.6379857063293457,-0.2089751958847046
1.0698493719100952,2.630966901779175,-0.20635604858398438
1.087654948234558,2.62386155128479,-0.20372435450553894
1.1010359525680542,2.605794906616211,-0.2002393752336502
1.1130396127700806,2.5839335918426514,-0.19645018875598907
1.1247777938842773,2.5620412826538086,-0.19259048998355865
1.129357933998108,2.5261173248291016,-0.18771584331989288
1.1399973630905151,2.5044164657592773,-0.18393898010253906
1.1541852951049805,2.4895243644714355,-0.18062350153923035
1.1529781818389893,2.4429543018341064,-0.17502214014530182
1.1696959733963013,2.4351983070373535,-0.17215755581855774
1.179247498512268,2.4134409427642822,-0.16836127638816833
1.1960598230361938,2.4053544998168945,-0.165461465716362
1.209019422531128,2.3903310298919678,-0.16206622123718262
1.2249997854232788,2.3823788166046143,-0.15912717580795288
1.2373915910720825,2.3673653602600098,-0.1557188183069229
1.2468417882919312,2.344951629638672,-0.1517208069562912
1.2571901082992554,2.326324939727783,-0.14801053702831268
1.2726675271987915,2.318086862564087,-0.14495539665222168
1.2807213068008423,2.295989751815796,-0.14101700484752655
1.296686053276062,2.2872049808502197,-0.13784180581569672
1.308271050453186,2.2717928886413574,-0.13419502973556519
1.3232827186584473,2.26326847076416,-0.1310095340013504
1.3388433456420898,2.254288673400879,-0.12769447267055511
1.3461660146713257,2.231904983520508,-0.12359408289194107
1.3608335256576538,2.2231757640838623,-0.12024719268083572
1.3718714714050293,2.207383394241333,-0.11642450094223022
1.383073329925537,2.191342353820801,-0.1125427782535553
1.3973815441131592,2.1824252605438232,-0.10901354998350143
1.4117330312728882,2.173344850540161,-0.10545852780342102
1.422568678855896,2.157102584838867,-0.10138651728630066
1.4368666410446167,2.1477808952331543,-0.09759438782930374
1.4354987144470215,2.1159214973449707,-0.09285014867782593
1.445841908454895,2.0995659828186035,-0.08859381079673767
1.4503811597824097,2.0775787830352783,-0.08413098007440567
1.468550682067871,2.074510097503662,-0.08035413175821304
1.4395275115966797,2.0042550563812256,-0.07380983233451843
1.454427719116211,1.998448133468628,-0.06981488317251205
1.4726693630218506,1.9949113130569458,-0.06556789577007294
1.485970377922058,2.103919267654419,0.11020240932703018
1.470880389213562,2.1142759323120117,0.11435378342866898
1.4592620134353638,2.1315536499023438,0.11876949667930603
1.4513144493103027,2.155583143234253,0.12359493970870972
1.436158537864685,2.165496349334717,0.1272897571325302
1.4153414964675903,2.169631004333496,0.13057278096675873
1.4072595834732056,2.1932241916656494,0.13500367105007172
1.4043670892715454,2.2226030826568604,0.13960854709148407
1.3791674375534058,2.219764471054077,0.14217309653759003
1.3663259744644165,2.2366228103637695,0.14593413472175598
1.3545020818710327,2.2527053356170654,0.1494808942079544
1.3422183990478516,2.2689082622528076,0.15298835933208466
1.3290694952011108,2.2854554653167725,0.15648728609085083
1.3215973377227783,2.3120579719543457,0.16070161759853363
1.3015519380569458,2.3142595291137695,0.1630849838256836
1.2845029830932617,2.3235678672790527,0.16587607562541962
1.2745510339736938,2.3466036319732666,0.169637531042099
1.25383722782135,2.3487062454223633,0.17183829843997955
1.2516090869903564,2.3849728107452393,0.17652451992034912
1.2376563549041748,2.4008259773254395,0.17960862815380096
1.2339295148849487,2.437549352645874,0.18426743149757385
1.2162030935287476,2.4462499618530273,0.1868021935224533
1.2110227346420288,2.4790265560150146,0.1911362111568451
1.1994904279708862,2.5017342567443848,0.19467779994010925
1.1843266487121582,2.5173773765563965,0.19761192798614502
1.1788333654403687,2.5541372299194336,0.20223470032215118
1.1641690731048584,2.5692296028137207,0.20508906245231628
1.1492124795913696,2.584301710128784,0.20793217420578003
1.1318292617797852,2.596036434173584,0.2104034423828125
1.1185752153396606,2.6185455322265625,0.21379819512367249
1.10281503200531,2.6334941387176514,0.216537743806839
1.0903455018997192,2.6553573608398438,0.21982966363430023
1.074305772781372,2.6701157093048096,0.22247280180454254
1.0605806112289429,2.6921815872192383,0.22566944360733032
1.0378303527832031,2.6925175189971924,0.22708484530448914
1.0269802808761597,2.7214975357055664,0.2308758646249771
1.010662317276001,2.7357397079467773,0.2334223985671997
0.9923920035362244,2.746403455734253,0.23557476699352264
0.9828357100486755,2.7827389240264893,0.23989444971084595
0.9432470202445984,2.7345457077026367,0.23694930970668793
0.9214174151420593,2.7336132526397705,0.23803341388702393
0.9047669172286987,2.7472193241119385,0.240380197763443
0.8852102160453796,2.753441333770752,0.24199537932872772
0.8700212240219116,2.7744643688201904,0.24484883248806
0.8974303007125854,2.93696928024292,0.26028305292129517
0.8788156509399414,2.950572967529297,0.2625589966773987
0.8647260665893555,2.978914499282837,0.26615309715270996
0.8437811732292175,2.984776496887207,0.2676985561847687
0.8234224319458008,2.994365930557251,0.26945623755455017
0.805955171585083,3.015101432800293,0.2722376585006714
0.7879400253295898,3.0358121395111084,0.27505260705947876
0.7686764001846313,3.0486464500427246,0.27713581919670105
0.7492719888687134,3.0613584518432617,0.2792258560657501
0.7328741550445557,3.0892114639282227,0.2825293242931366
0.7143136858940125,3.1094157695770264,0.28513073921203613
0.704380214214325,3.1713755130767822,0.291607528924942
0.6910500526428223,3.2179784774780273,0.29668667912483215
0.6670180559158325,3.2149863243103027,0.2972095310688019
0.6490670442581177,3.2423596382141113,0.3004859387874603
0.6274847984313965,3.254434585571289,0.30221185088157654
0.6082050204277039,3.2817370891571045,0.3053835928440094
0.5889955759048462,3.3088526725769043,0.3085508346557617
0.5691790580749512,3.331956624984741,0.31135648488998413
0.5459609627723694,3.335744619369507,0.312375009059906
0.5249043107032776,3.3547885417938232,0.31469839811325073
0.5041739344596863,3.381486654281616,0.3176848590373993
0.48572343587875366,3.42339825630188,0.32211658358573914
0.46833375096321106,3.4767684936523438,0.3276541233062744
0.4500471353530884,3.52616024017334,0.3328403830528259
0.4236469864845276,3.5136826038360596,0.3322072923183441
0.4011572301387787,3.5358340740203857,0.33464789390563965
0.37744274735450745,3.554032802581787,0.3366973102092743
0.3562678396701813,3.595245838165283,0.3409428298473358
0.3325057625770569,3.6130878925323486,0.34299251437187195
0.3089904487133026,3.6346347332000732,0.345412015914917
0.28855597972869873,3.698671817779541,0.3518942892551422
0.26687464118003845,3.7665436267852783,0.35852301120758057
0.24149155616760254,3.7838103771209717,0.3603433072566986
0.21632079780101776,3.8086702823638916,0.3629063367843628
0.19104690849781036,3.8372433185577393,0.3658433258533478
0.16567088663578033,3.8695271015167236,0.36915433406829834
0.13960106670856476,3.9094338417053223,0.37320592999458313
0.11420464515686035,3.976384162902832,0.3795941174030304
0.08733133226633072,4.01984167098999,0.3837583363056183
0.05961165949702263,4.043674468994141,0.38606810569763184
0.031666286289691925,4.075091361999512,0.38912126421928406
0.002855287166312337,4.102425575256348,0.39180561900138855
-0.025944439694285393,4.149002552032471,0.39632028341293335
-0.056041169911623,4.245948314666748,0.40539073944091797
-0.08599752932786942,4.26880407333374,0.40740159153938293
-0.11616870760917664,4.287559986114502,0.4090391993522644
-0.14528140425682068,4.267238616943359,0.4069683849811554
-0.17661023139953613,4.29332160949707,0.4093407094478607
-0.2161220908164978,4.493993759155273,0.42834123969078064
-0.2504442036151886,4.550682544708252,0.4333530068397522
-0.2819530963897705,4.548890590667725,0.4328114688396454
-0.31875020265579224,4.624475479125977,0.4396474063396454
-0.3581724166870117,4.711349010467529,0.4475582540035248
-0.39383482933044434,4.743676662445068,0.45030540227890015
-0.429572731256485,4.771871089935303,0.452625036239624
-0.5033397674560547,5.1908087730407715,0.49167537689208984
-0.5431519150733948,5.225990295410156,0.4943377673625946
-0.5952808260917664,5.361298561096191,0.5064610242843628
-0.6228377819061279,5.2760329246521,0.49777305126190186
-0.6585760116577148,5.263948440551758,0.4960213005542755
-0.6940746903419495,5.251643180847168,0.49419400095939636
-0.7220660448074341,5.189098834991455,0.4873991310596466
-0.7651093006134033,5.230232238769531,0.4903506636619568
-0.7998687028884888,5.217287063598633,0.48826470971107483
-0.8452234268188477,5.2693610191345215,0.4922723174095154
-0.8548106551170349,5.102365970611572,0.4758516848087311
-0.8973863124847412,5.13862943649292,0.4783053994178772
-0.9353100657463074,5.147835731506348,0.47802823781967163
-0.9645822644233704,5.1069655418396,0.4731098711490631
-0.9859914183616638,5.031693458557129,0.4650682806968689
-1.0178062915802002,5.009632587432861,0.4619677662849426
-1.0510144233703613,4.994976043701172,0.45957568287849426
-1.0778796672821045,4.953589916229248,0.45456770062446594
-1.115604281425476,4.961369037628174,0.45393314957618713
-1.1441103219985962,4.931092739105225,0.4498627483844757
-1.1877415180206299,4.964967250823975,0.451657235622406
-1.2212969064712524,4.952998161315918,0.44927075505256653
-1.2145147323608398,4.7823944091796875,0.4325597286224365
-1.2269151210784912,4.695014476776123,0.4231671988964081
-1.2547096014022827,4.671747207641602,0.4195937216281891
-1.286384105682373,4.663323402404785,0.4173775911331177
-1.3131431341171265,4.635838508605957,0.41346022486686707
-1.347544550895691,4.6342644691467285,0.4118611514568329
-1.3711143732070923,4.595073223114014,0.40681785345077515
-1.1165106296539307,3.651607036590576,0.3219221830368042
-1.1341865062713623,3.621865749359131,0.3179551064968109
-1.1694042682647705,3.6476335525512695,0.31886789202690125
-1.4910428524017334,4.542081356048584,0.3953438997268677
-1.5207455158233643,4.5242390632629395,0.39206287264823914
-1.5778350830078125,4.591431140899658,0.39591509103775024
-1.6165207624435425,4.602969646453857,0.3949227035045624
-3.5237882137298584,9.82214641571045,0.8384979963302612
-3.5767440795898438,9.757920265197754,0.8287444710731506
-1.7055113315582275,4.554871082305908,0.38484686613082886
-1.728535771369934,4.521445274353027,0.3798394203186035
-1.7587438821792603,4.510046482086182,0.3766675293445587
-1.8176594972610474,4.57082462310791,0.37950506806373596
-1.8490265607833862,4.558500289916992,0.37619420886039734
-1.8629119396209717,4.502577304840088,0.369290828704834
-1.9091887474060059,4.5257463455200195,0.3686974346637726
-1.9147871732711792,4.455909729003906,0.36050286889076233
-1.941440463066101,4.436142444610596,0.35640838742256165
-1.9782747030258179,4.437196731567383,0.35392796993255615
-2.0059516429901123,4.416489124298096,0.34969058632850647
-2.02474308013916,4.378180027008057,0.34387362003326416
-2.0621259212493896,4.382538795471191,0.3414190411567688
-2.052513360977173,4.288191795349121,0.33133354783058167
-4.17822790145874,8.576261520385742,0.6569279432296753
-2.108419895172119,4.2528910636901855,0.32289326190948486
-2.135223627090454,4.235449314117432,0.3184549808502197
-2.196930170059204,4.287465572357178,0.31926366686820984
-2.222278356552124,4.2659101486206055,0.31449154019355774
-2.2209179401397705,4.192089080810547,0.30583634972572327
-2.2692923545837402,4.2151875495910645,0.30416351556777954
-2.285720109939575,4.1799821853637695,0.29822781682014465
-2.238104820251465,4.028476238250732,0.28405073285102844
-2.2623660564422607,4.006269454956055,0.2790006101131439
-2.2932591438293457,3.997978925704956,0.27485382556915283
-2.3154146671295166,3.9764859676361084,0.26972484588623047
-2.3375675678253174,3.954763650894165,0.2645784914493561
-2.3657033443450928,3.938335418701172,0.25949859619140625
-2.396132230758667,3.929365873336792,0.2548929750919342
-2.417515993118286,3.907402992248535,0.24938981235027313
-2.4435036182403564,3.8915343284606934,0.2441893219947815
-2.4706180095672607,3.874716281890869,0.23873993754386902
-2.491828441619873,3.8521616458892822,0.23276643455028534
-2.5165252685546875,3.8364017009735107,0.22729124128818512
-2.5472512245178223,3.825793743133545,0.22178879380226135
-2.5682380199432373,3.802666425704956,0.2154475748538971
-2.5879476070404053,3.7801618576049805,0.20911511778831482
-2.0505735874176025,2.951779365539551,0.1589880734682083
-2.0657317638397217,2.9319217205047607,0.15351282060146332
-2.0841386318206787,2.919130802154541,0.14838869869709015
-2.0992913246154785,2.8988964557647705,0.14255887269973755
-1.1086786985397339,1.5104044675827026,0.07165972888469696
-1.1180870532989502,1.5035921335220337,0.06867905706167221
-2.063948154449463,2.9161980152130127,-0.104631707072258
-2.5054399967193604,3.598276138305664,-0.13594162464141846
-2.453651189804077,3.5768542289733887,-0.14125148952007294
-2.4437458515167236,3.6210930347442627,-0.14917516708374023
-2.4125964641571045,3.6322739124298096,-0.15552128851413727
-2.3908865451812744,3.6556591987609863,-0.1621028184890747
-2.3631210327148438,3.673384428024292,-0.16842271387577057
-2.3363819122314453,3.6901679039001465,-0.17447952926158905
-2.3095946311950684,3.7067086696624756,-0.18040117621421814
-2.2778573036193848,3.7168586254119873,-0.1858799159526825
-2.254939317703247,3.7396388053894043,-0.19185933470726013
-2.2324652671813965,3.7618939876556396,-0.19766859710216522
-2.200594902038574,3.77130389213562,-0.20275695621967316
-2.1763558387756348,3.794045925140381,-0.2085919827222824
-2.149812698364258,3.808864116668701,-0.21372674405574799
-2.1219825744628906,3.824150323867798,-0.21882453560829163
-2.097536325454712,3.8462090492248535,-0.2243141084909439
-2.070298194885254,3.8606510162353516,-0.22921451926231384
-2.046076774597168,3.882070302963257,-0.2345317304134369
-2.019434928894043,3.9000980854034424,-0.23952573537826538
-1.98930823802948,3.910881519317627,-0.24405917525291443
-1.9670970439910889,3.9348974227905273,-0.24930265545845032
-1.9422402381896973,3.955627679824829,-0.25428223609924316
-1.9229841232299805,3.9907162189483643,-0.26023420691490173
-1.8909757137298584,3.997065544128418,-0.2642150819301605
-1.8696073293685913,4.024022102355957,-0.26948094367980957
-1.8439313173294067,4.044137477874756,-0.2742089331150055
-1.8146165609359741,4.057088375091553,-0.2784343659877777
-1.7887516021728516,4.076786518096924,-0.2830966114997864
-1.7736594676971436,4.121307373046875,-0.2895086705684662
-1.7442129850387573,4.133574485778809,-0.2935057282447815
-1.7204259634017944,4.160125255584717,-0.2984921336174011
-1.6906769275665283,4.172019958496094,-0.30243372917175293
-1.6643422842025757,4.190702438354492,-0.3068236708641052
-1.6339906454086304,4.202348232269287,-0.3106544315814972
-1.6065138578414917,4.220995903015137,-0.3148832619190216
-1.5789165496826172,4.239437580108643,-0.31911686062812805
-1.5466747283935547,4.24274206161499,-0.3221450746059418
-1.519485592842102,4.260560989379883,-0.32622629404067993
-1.4910855293273926,4.278571605682373,-0.33022817969322205
-1.463006615638733,4.296224117279053,-0.3341860771179199
-1.4352898597717285,4.3135151863098145,-0.3380959928035736
-1.1511293649673462,3.541501998901367,-0.279680997133255
-1.1283079385757446,3.5568106174468994,-0.2828182280063629
-1.3476338386535645,4.357254505157471,-0.3488467335700989
-1.3167232275009155,4.366447448730469,-0.35192444920539856
-1.29169499874115,4.393972396850586,-0.35647255182266235
-1.2608022689819336,4.402696132659912,-0.3594183325767517
-1.2315484285354614,4.418825626373291,-0.3628256916999817
-1.2021281719207764,4.434759616851807,-0.3662424385547638
-1.172398567199707,4.45053243637085,-0.36968132853507996
-1.141335368156433,4.458370685577393,-0.37243205308914185
-1.1136271953582764,4.481210708618164,-0.376217246055603
-1.0745651721954346,4.458498954772949,-0.37612801790237427
-1.0394223928451538,4.450626373291016,-0.37729090452194214
-1.0112757682800293,4.472864627838135,-0.38102754950523376
-0.9783850908279419,4.4720025062561035,-0.38275086879730225
-0.9500268697738647,4.493847370147705,-0.38615942001342773
-0.9198145270347595,4.507892608642578,-0.38892656564712524
-0.8896020650863647,4.52170467376709,-0.39169079065322876
-0.8648458123207092,4.565939426422119,-0.3971354365348816
-0.8363928198814392,4.590845584869385,-0.4007909893989563
-0.8067777156829834,4.611791610717773,-0.40391457080841064
-0.7820585370063782,4.663249492645264,-0.4097479283809662
-0.7513028383255005,4.6799702644348145,-0.412557452917099
-0.7205442786216736,4.70039176940918,-0.4157378077507019
-0.6877232789993286,4.705164909362793,-0.41733476519584656
-0.6536304950714111,4.7020368576049805,-0.4180886745452881
-0.6237255334854126,4.729518890380859,-0.4215869903564453
-0.5945524573326111,4.764517784118652,-0.42578428983688354
-0.5623141527175903,4.77613639831543,-0.42791759967803955
-0.5266168713569641,4.764438152313232,-0.42774125933647156
-0.48725154995918274,4.709860324859619,-0.4235877990722656
-0.44565051794052124,4.623991966247559,-0.4166181981563568
-0.40720313787460327,4.557138919830322,-0.41135141253471375
-0.3719824552536011,4.51711893081665,-0.408506840467453
-0.3375580608844757,4.48854398727417,-0.4064364433288574
-0.29903557896614075,4.3859381675720215,-0.3975825905799866
-0.2648140788078308,4.329617500305176,-0.392927348613739
-0.2330152988433838,4.3002214431762695,-0.3907230496406555
-0.19778525829315186,4.188991546630859,-0.3810860812664032
-0.16542614996433258,4.124180316925049,-0.37537881731987
-0.13798975944519043,4.164090633392334,-0.3791666328907013
-0.10834148526191711,4.141595840454102,-0.37729117274284363
-0.07889994233846664,4.111111640930176,-0.374703586101532
-0.04997110366821289,4.0843095779418945,-0.3724667429924011
-0.020857956260442734,4.053445816040039,-0.36957255005836487
0.007323230151087046,4.037940502166748,-0.36806926131248474
0.03508324176073074,3.995009422302246,-0.3640848994255066
0.06144263967871666,3.905214548110962,-0.35584941506385803
0.08773597329854965,3.8658084869384766,-0.35222408175468445
0.11411583423614502,3.8495864868164062,-0.350429505109787
0.14034177362918854,3.8215062618255615,-0.3475569188594818
0.1658545583486557,3.7971553802490234,-0.3450503349304199
0.1910686194896698,3.7726337909698486,-0.3425480127334595
0.21390344202518463,3.7129926681518555,-0.3368787169456482
0.23561719059944153,3.6493656635284424,-0.33057743310928345
0.2593939006328583,3.620511531829834,-0.32744601368904114
0.2832574248313904,3.6031720638275146,-0.32538679242134094
0.3063219487667084,3.577915668487549,-0.3226316273212433
0.32904189825057983,3.5525152683258057,-0.31986910104751587
0.3524673283100128,3.5386204719543457,-0.3179023861885071
0.37162700295448303,3.4819676876068115,-0.312110036611557
0.39399197697639465,3.463925838470459,-0.30981963872909546
0.4157172739505768,3.441871166229248,-0.30719029903411865
0.43367865681648254,3.392669439315796,-0.3021305799484253
0.45395395159721375,3.366560459136963,-0.2989337146282196
0.4754100739955902,3.3479795455932617,-0.29641374945640564
0.49680471420288086,3.3331687450408936,-0.2942635118961334
0.5176146030426025,3.3143470287323,-0.2917729318141937
0.2646638751029968,1.6208213567733765,-0.14225825667381287
0.2889210283756256,1.6957451105117798,-0.14829422533512115
0.2965269982814789,1.6707817316055298,-0.14558544754981995
0.31536582112312317,1.706985354423523,-0.1481972187757492
0.32723066210746765,1.704813003540039,-0.14747941493988037
0.3299205005168915,1.6567599773406982,-0.14276930689811707
0.3381597101688385,1.6392728090286255,-0.14065197110176086
0.3591758906841278,1.6826602220535278,-0.14375324547290802
0.37269797921180725,1.6877632141113281,-0.14355599880218506
0.6996310949325562,3.066753387451172,-0.25971972942352295
0.715438723564148,3.039250135421753,-0.2561645209789276
0.7381486892700195,3.0419716835021973,-0.2550886273384094
0.753352165222168,3.0143115520477295,-0.2514849901199341
0.7736535668373108,3.0052900314331055,-0.24942311644554138
0.7906028628349304,2.9849088191986084,-0.24645552039146423
0.8090417385101318,2.9720468521118164,-0.24397462606430054
0.8273101449012756,2.9590821266174316,-0.24147197604179382
0.8454383611679077,2.946004629135132,-0.2389787882566452
0.8641138076782227,2.932619094848633,-0.23643094301223755
0.8675748109817505,2.870774030685425,-0.23001621663570404
0.8606887459754944,2.7793586254119873,-0.2211809754371643
0.8725913166999817,2.7512919902801514,-0.21745772659778595
0.884323239326477,2.723134756088257,-0.21374794840812683
0.9085370898246765,2.731735944747925,-0.21289515495300293
0.9273059964179993,2.7255821228027344,-0.21083581447601318
0.9484171867370605,2.726722478866577,-0.2092837542295456
0.9669764041900635,2.7203588485717773,-0.20716097950935364
0.9832106828689575,2.7064082622528076,-0.20444130897521973
1.0047518014907837,2.7069637775421143,-0.20281292498111725
1.015156865119934,2.678262710571289,-0.1988590955734253
1.0333476066589355,2.6714651584625244,-0.19658531248569489
1.0459702014923096,2.6499643325805664,-0.19322876632213593
1.061516284942627,2.635542154312134,-0.19038690626621246
1.0765703916549683,2.6211745738983154,-0.18749284744262695
1.0976364612579346,2.621051073074341,-0.1855589896440506
1.1108312606811523,2.6029460430145264,-0.18239203095436096
1.119620680809021,2.573861837387085,-0.1784392148256302
1.1278390884399414,2.544877529144287,-0.17449212074279785
1.1385626792907715,2.5231688022613525,-0.17102459073066711
1.1412063837051392,2.4835777282714844,-0.16635407507419586
1.1485260725021362,2.454564094543457,-0.16241808235645294
1.162087321281433,2.439704179763794,-0.15942203998565674
1.1750552654266357,2.424988269805908,-0.15639470517635345
1.1913084983825684,2.4172093868255615,-0.15382996201515198
1.2083500623703003,2.4089064598083496,-0.15113171935081482
1.2143077850341797,2.3798329830169678,-0.14716476202011108
1.2301985025405884,2.3718225955963135,-0.14448122680187225
1.2387747764587402,2.349893093109131,-0.14096689224243164
1.258764624595642,2.3482673168182373,-0.1385999619960785
1.2654513120651245,2.322645425796509,-0.13480563461780548
1.2811278104782104,2.314199447631836,-0.13196030259132385
1.2927920818328857,2.298915147781372,-0.1287575215101242
1.3010488748550415,2.2764556407928467,-0.12508653104305267
1.3162761926651,2.2678444385528564,-0.12216311693191528
1.335181474685669,2.2659854888916016,-0.11959217488765717
1.338874340057373,2.2367210388183594,-0.11546509712934494
1.3542097806930542,2.2276270389556885,-0.11239206045866013
1.3646857738494873,2.2122116088867188,-0.10899419337511063
1.3752367496490479,2.196615219116211,-0.10556788742542267
1.3947194814682007,2.1937074661254883,-0.1026265099644661
1.400844931602478,2.171396255493164,-0.09871801733970642
1.41502046585083,2.1623311042785645,-0.09547265619039536
1.4300638437271118,2.152562141418457,-0.09201301634311676
1.4353536367416382,2.1303791999816895,-0.0880376398563385
1.4447300434112549,2.1147215366363525,-0.0843440368771553
1.4530671834945679,2.094909429550171,-0.08021409064531326
1.4574729204177856,2.072920322418213,-0.07609911262989044
1.4189562797546387,1.9902873039245605,-0.06980176270008087
1.4483509063720703,2.0029609203338623,-0.06674809753894806
1.4747458696365356,2.0128517150878906,-0.06353120505809784
1.4628723859786987,1.9683563709259033,-0.058309927582740784
1.433882236480713,2.012324571609497,0.09252355992794037
1.4785356521606445,2.109632968902588,0.1005488783121109
1.472211480140686,2.1328680515289307,0.10491479933261871
1.4561535120010376,2.1436808109283447,0.1085762307047844
1.4395909309387207,2.154651641845703,0.1122189536690712
1.4287400245666504,2.171036720275879,0.11588060110807419
1.4120323657989502,2.1817593574523926,0.1192408874630928
1.3911428451538086,2.1857120990753174,0.1221616119146347
1.392417550086975,2.2216556072235107,0.12666895985603333
1.3718838691711426,2.2250590324401855,0.12929514050483704
1.3671562671661377,2.25520920753479,0.13347242772579193
1.3507071733474731,2.2649264335632324,0.13637873530387878
1.3345118761062622,2.2743380069732666,0.13915905356407166
1.31741464138031,2.2841153144836426,0.14190241694450378
1.308093786239624,2.3072471618652344,0.14547671377658844
1.293853521347046,2.3195672035217285,0.14826266467571259
1.287961721420288,2.3493988513946533,0.1521676629781723
1.2704520225524902,2.3587491512298584,0.15468966960906982
1.2568283081054688,2.3747007846832275,0.15762518346309662
1.2438290119171143,2.390172243118286,0.1604621708393097
1.2300689220428467,2.4058871269226074,0.16326427459716797
1.2189477682113647,2.4288430213928223,0.16656774282455444
1.2114814519882202,2.4585227966308594,0.17032018303871155
1.1959277391433716,2.470303773880005,0.17278516292572021
1.1949704885482788,2.5138463973999023,0.17745377123355865
1.1863136291503906,2.543621301651001,0.18112489581108093
1.1740180253982544,2.566319704055786,0.1843254566192627
1.158798098564148,2.5816214084625244,0.1869727522134781
1.1454683542251587,2.6001944541931152,0.18983693420886993
1.1233655214309692,2.6011862754821777,0.19128964841365814
1.113470435142517,2.630702495574951,0.19485411047935486
1.0974318981170654,2.6457273960113525,0.1973562389612198
1.078633427619934,2.653301954269409,0.19929225742816925
1.0656158924102783,2.675201416015625,0.20225314795970917
1.0490050315856934,2.689988613128662,0.20459915697574615
1.026654601097107,2.6901214122772217,0.20584280788898468
1.0183422565460205,2.7264413833618164,0.2098536342382431
1.0016355514526367,2.74078369140625,0.21219392120838165
0.9821783304214478,2.747685432434082,0.21388190984725952
0.9494185447692871,2.7178189754486084,0.2126215100288391
0.9322646856307983,2.7318596839904785,0.2147943526506424
0.9128162860870361,2.738295793533325,0.21636569499969482
0.8957840800285339,2.7519845962524414,0.21852120757102966
0.8810491561889648,2.7729709148406982,0.22119173407554626
0.8806940913200378,2.8423659801483154,0.22765544056892395
0.8883662819862366,2.941725730895996,0.23658345639705658
0.8695940971374512,2.955332040786743,0.23865000903606415
0.851144015789032,2.9686858654022217,0.2406911849975586
0.8352466225624084,2.9933011531829834,0.24365761876106262
0.81586092710495,3.006608724594116,0.24555838108062744
0.7983134984970093,3.0273215770721436,0.24808266758918762
0.7785792350769043,3.0403904914855957,0.24999947845935822
0.7592253684997559,3.053201913833618,0.25189125537872314
0.7412034273147583,3.0735437870025635,0.25443699955940247
0.7229186296463013,3.093796968460083,0.2568358778953552
0.7102989554405212,3.140552282333374,0.26140934228897095
0.6978496313095093,3.1910901069641113,0.2663313150405884
0.6785609722137451,3.2110724449157715,0.2687213122844696
0.6565962433815002,3.219515085220337,0.2701662480831146
0.6385619044303894,3.246859312057495,0.27316153049468994
0.6184231042861938,3.266528367996216,0.27536556124687195
0.6008254885673523,3.3013923168182373,0.27887222170829773
0.5800848007202148,3.320829153060913,0.2810977101325989
0.5564616918563843,3.3247900009155273,0.28203171491622925
0.5351574420928955,3.3400352001190186,0.28392621874809265
0.5140324234962463,3.359035015106201,0.2860424518585205
0.49366888403892517,3.3856301307678223,0.2887297570705414
0.47776490449905396,3.4468023777008057,0.29439055919647217
0.4611370265483856,3.5118234157562256,0.30041784048080444
0.4376431703567505,3.5226099491119385,0.30181577801704407
0.4130798578262329,3.5255115032196045,0.30255451798439026
0.3896012604236603,3.539882183074951,0.30411091446876526
0.3686786890029907,3.5812065601348877,0.3079567849636078
