X,Y,Z
1.0488717555999756,4.477785110473633,0.5254359245300293
1.0174682140350342,4.484757423400879,0.527714192867279
0.9871305823326111,4.499244213104248,0.5305976867675781
0.9518559575080872,4.490739345550537,0.530792772769928
0.7778431177139282,3.805394172668457,0.4508414566516876
0.7528160214424133,3.81813907623291,0.4533874988555908
0.7276101112365723,3.83072566986084,0.45594242215156555
0.8359302878379822,4.575962543487549,0.5457434058189392
0.8060877323150635,4.596879005432129,0.5491663217544556
0.7728950381278992,4.602381706237793,0.5507941246032715
0.7421778440475464,4.619030952453613,0.5537667274475098
0.7099766731262207,4.623900890350342,0.555342435836792
0.6811636090278625,4.651566982269287,0.5596863627433777
0.6506011486053467,4.671443939208984,0.5628754496574402
0.6190810203552246,4.691228866577148,0.565942108631134
0.5888631939888,4.71842622756958,0.5699251294136047
0.5556724071502686,4.722304821014404,0.5711212754249573
0.5231795907020569,4.729774475097656,0.5727733969688416
0.4926571249961853,4.756301403045654,0.5767645239830017
0.46077919006347656,4.77496862411499,0.5795538425445557
0.4266166388988495,4.778046131134033,0.5803446769714355
0.39558249711990356,4.811749458312988,0.5848797559738159
0.36182206869125366,4.814311504364014,0.5856603384017944
0.3299333453178406,4.8398284912109375,0.5892601013183594
0.29694536328315735,4.853524208068848,0.591453492641449
0.26372647285461426,4.878679275512695,0.5948029160499573
0.22999557852745056,4.888105869293213,0.5961052775382996
0.19640401005744934,4.905049800872803,0.5983545780181885
0.16238273680210114,4.914009094238281,0.59965980052948
0.1289084106683731,4.942109107971191,0.6033304929733276
0.09434313327074051,4.966114044189453,0.6065382957458496
0.059958212077617645,4.9821457862854,0.6085405945777893
0.025332530960440636,4.99796199798584,0.6103535294532776
-0.009525295346975327,5.021292209625244,0.6131128072738647
-0.044603802263736725,5.032745361328125,0.6144511699676514
-0.08019419759511948,5.032314300537109,0.6143680214881897
-0.1156698539853096,5.054904937744141,0.6171258687973022
-0.15077853202819824,5.054015159606934,0.6168355941772461
-0.1863461285829544,5.068413257598877,0.6182007193565369
-0.22212035953998566,5.082561492919922,0.619562566280365
-0.25991910696029663,5.131308078765869,0.6251668930053711
-0.29710790514945984,5.14489221572876,0.6265071630477905
-0.2830038070678711,4.372708320617676,0.5322393774986267
-0.307801216840744,4.29335355758667,0.5222339034080505
-0.33655446767807007,4.27962589263916,0.5200011134147644
-0.3703787922859192,4.327530860900879,0.5252779722213745
-0.3954596221446991,4.26699686050415,0.517408013343811
-0.41969215869903564,4.210221767425537,0.5100393891334534
-0.4436108469963074,4.157166957855225,0.5031571388244629
-0.4688722491264343,4.12327766418457,0.49852561950683594
-0.4902591109275818,4.062334060668945,0.4904058575630188
-0.5137476325035095,4.020471096038818,0.4846184253692627
-0.5346633195877075,3.9670042991638184,0.47748321294784546
-0.5567472577095032,3.9249260425567627,0.4717506766319275
-0.57659912109375,3.871216058731079,0.4646565914154053
-0.5986175537109375,3.8366079330444336,0.4598044753074646
-0.6197370886802673,3.7980527877807617,0.45425453782081604
-0.6392330527305603,3.7556393146514893,0.44829854369163513
-0.6595314741134644,3.7207751274108887,0.44328075647354126
-0.6790198683738708,3.681931257247925,0.4378133714199066
-0.6988060474395752,3.6467907428741455,0.4328196942806244
-0.716437041759491,3.6039879322052,0.4268572926521301
-0.7344039082527161,3.564917802810669,0.42114654183387756
-0.7474267482757568,3.50687313079834,0.4132574200630188
-0.7671691179275513,3.4829294681549072,0.4094287157058716
-0.7862122654914856,3.454993963241577,0.4051430821418762
-0.8084536790847778,3.442073345184326,0.402646541595459
-0.8233914375305176,3.398812770843506,0.3964826166629791
-0.8417737483978271,3.3745229244232178,0.3924419581890106
-0.8608289361000061,3.353898048400879,0.3888576924800873
-0.87382972240448,3.3106131553649902,0.3826758861541748
-0.8927991390228271,3.2896740436553955,0.37909209728240967
-0.910895049571991,3.2647762298583984,0.375061571598053
-0.9288684725761414,3.2437870502471924,0.3713350296020508
-0.9421021938323975,3.207841157913208,0.3658669888973236
-0.9615769386291504,3.194180727005005,0.3629750907421112
-0.9732305407524109,3.154324531555176,0.3571198582649231
-0.9908950924873352,3.1327688694000244,0.35333389043807983
-1.0030049085617065,3.096503734588623,0.34790584444999695
-1.0165491104125977,3.0677945613861084,0.3431690037250519
-1.0335197448730469,3.050067663192749,0.33969059586524963
-1.041395664215088,3.00655198097229,0.3333788514137268
-1.0727406740188599,3.028759241104126,0.33432552218437195
-1.0809979438781738,2.984788179397583,0.32796138525009155
-1.1065914630889893,2.9922397136688232,0.3271188735961914
-1.1157119274139404,2.955916166305542,0.32145559787750244
-1.1202032566070557,2.9087188243865967,0.31466376781463623
-1.1204084157943726,2.8505215644836426,0.30670058727264404
-1.131967306137085,2.821108818054199,0.301846981048584
-1.1512137651443481,2.8135831356048584,0.29928573966026306
-1.1595690250396729,2.7809669971466064,0.29399532079696655
-1.134093165397644,2.6696298122406006,0.2804803252220154
-1.1323570013046265,2.615642786026001,0.2730557918548584
-1.1587212085723877,2.625610828399658,0.272287517786026
-1.1717684268951416,2.6073029041290283,0.26853129267692566
-1.2036277055740356,2.6315720081329346,0.2690681517124176
-1.2063171863555908,2.5920569896698,0.26309511065483093
-1.2425363063812256,2.622609853744507,0.2641611397266388
-1.286561131477356,2.6665422916412354,0.2664530575275421
-1.2925300598144531,2.633652448654175,0.260972261428833
-1.2769967317581177,2.5591506958007812,0.25140753388404846
-1.2905381917953491,2.5439186096191406,0.24772876501083374
-1.2940088510513306,2.507471799850464,0.24192491173744202
-1.3041479587554932,2.48494291305542,0.23748938739299774
-1.3171056509017944,2.469587802886963,0.23359757661819458
-1.329644799232483,2.4543070793151855,0.2297763079404831
-1.338960886001587,2.431781530380249,0.22520722448825836
-1.3464972972869873,2.4056389331817627,0.22029031813144684
-1.3586171865463257,2.3901705741882324,0.2162720113992691
-1.366773009300232,2.3678576946258545,0.21159915626049042
-1.3749144077301025,2.3454082012176514,0.20691603422164917
-1.40323805809021,2.3561336994171143,0.20507706701755524
-1.4268155097961426,2.3604772090911865,0.20254959166049957
-1.4217356443405151,2.3182711601257324,0.1960330605506897
-1.4418388605117798,2.315335273742676,0.19269102811813354
-1.4372119903564453,2.2725589275360107,0.18602944910526276
-1.4518730640411377,2.2635412216186523,0.1820874810218811
-1.4600850343704224,2.2446303367614746,0.17737413942813873
-1.4757152795791626,2.234717845916748,0.17313534021377563
-1.4822057485580444,2.2120039463043213,0.16781309247016907
-1.4656115770339966,2.157672882080078,0.16021330654621124
-1.4758323431015015,2.141556739807129,0.15530844032764435
-1.4859588146209717,2.125361919403076,0.15026867389678955
-1.4926515817642212,2.1066629886627197,0.14503319561481476
-1.5071061849594116,2.096682548522949,0.14009185135364532
-1.5165091753005981,2.0805771350860596,0.13463790714740753
-1.5294628143310547,2.0713939666748047,0.12961067259311676
-1.522194504737854,2.131859064102173,-0.09073904901742935
-1.4809942245483398,2.1081652641296387,-0.0949942022562027
-1.5039335489273071,2.172823905944824,-0.10278727114200592
-1.4874744415283203,2.1838650703430176,-0.10816200822591782
-1.4757001399993896,2.200979709625244,-0.11368592083454132
-1.472858190536499,2.2307322025299072,-0.11969790607690811
-1.455676555633545,2.2417032718658447,-0.12480867654085159
-1.4479150772094727,2.264998435974121,-0.13035069406032562
-1.4316123723983765,2.275064468383789,-0.13504260778427124
-1.4166061878204346,2.2887449264526367,-0.1399407535791397
-1.4163987636566162,2.3252110481262207,-0.14611981809139252
-1.3995206356048584,2.3351213932037354,-0.15064600110054016
-1.3900868892669678,2.3585846424102783,-0.1559821218252182
-1.3691095113754272,2.3615217208862305,-0.15987955033779144
-1.3718290328979492,2.404649257659912,-0.16644002497196198
-1.3464363813400269,2.4007983207702637,-0.16972678899765015
-1.3397799730300903,2.4309563636779785,-0.1754796802997589
-1.3190041780471802,2.4331326484680176,-0.17902213335037231
-1.301490068435669,2.442248582839966,-0.18303214013576508
-1.296221375465393,2.475583791732788,-0.18886606395244598
-1.3034549951553345,2.532996416091919,-0.19656264781951904
-1.2748464345932007,2.5210323333740234,-0.19890666007995605
-1.2669050693511963,2.550856113433838,-0.2044200897216797
-1.2210006713867188,2.5036630630493164,-0.20372112095355988
-1.184780240058899,2.4732770919799805,-0.2041962444782257
-1.1639991998672485,2.474222183227539,-0.20717781782150269
-1.1868220567703247,2.570713758468628,-0.21816782653331757
-1.1919007301330566,2.6323082447052,-0.22641952335834503
-1.1560356616973877,2.6011440753936768,-0.22656738758087158
-1.1516809463500977,2.6410441398620605,-0.23287595808506012
-1.1188229322433472,2.616762161254883,-0.23343858122825623
-1.0999164581298828,2.6244609355926514,-0.23683317005634308
-1.0871003866195679,2.6463310718536377,-0.24150080978870392
-1.1179190874099731,2.7763500213623047,-0.2561059892177582
-1.1165176630020142,2.831061363220215,-0.2638101279735565
-1.0961633920669556,2.838689088821411,-0.26718440651893616
-1.087230920791626,2.875113010406494,-0.27324867248535156
-1.074833631515503,2.904351234436035,-0.27872878313064575
-1.0460611581802368,2.8897202014923096,-0.2797936499118805
-1.0305315256118774,2.911497116088867,-0.2843918800354004
-1.0074453353881836,2.911029100418091,-0.2867982089519501
-0.9846372604370117,2.9103074073791504,-0.28915485739707947
-0.9685627222061157,2.9317843914031982,-0.29362839460372925
-0.952475368976593,2.9531052112579346,-0.2980231046676636
-0.9408712983131409,2.9891531467437744,-0.3039456009864807
-0.9199072122573853,2.995375394821167,-0.3068479597568512
-0.9110462665557861,3.042454957962036,-0.31390416622161865
-0.9023986458778381,3.0933680534362793,-0.32127276062965393
-0.880997359752655,3.1032793521881104,-0.32447031140327454
-0.8654861450195312,3.1315555572509766,-0.3295443058013916
-0.8537330627441406,3.174750804901123,-0.33623775839805603
-0.8352385759353638,3.1954658031463623,-0.3403671681880951
-0.8155214190483093,3.2123148441314697,-0.34408092498779297
-0.8017746210098267,3.2555251121520996,-0.35069388151168823
-0.7880570888519287,3.298555374145508,-0.3572993874549866
-0.7693017721176147,3.3226535320281982,-0.36180558800697327
-0.7543057203292847,3.365659475326538,-0.3682195246219635
-0.7337765097618103,3.385841131210327,-0.3721841275691986
-0.7232319116592407,3.455334186553955,-0.3816378116607666
-0.7006844282150269,3.4676449298858643,-0.3847971558570862
-0.6837782859802246,3.510354995727539,-0.39113399386405945
-0.6626304984092712,3.533935785293579,-0.3953012526035309
-0.6460638046264648,3.5841257572174072,-0.4024892747402191
-0.6246165037155151,3.6113336086273193,-0.407161682844162
-0.6039118766784668,3.6421728134155273,-0.41222718358039856
-0.5893166065216064,3.7151339054107666,-0.42177656292915344
-0.5673335194587708,3.745840072631836,-0.4265829622745514
-0.5455653667449951,3.7802484035491943,-0.4318492114543915
-0.5297876596450806,3.8645730018615723,-0.44290056824684143
-0.5047513246536255,3.883387565612793,-0.4463300108909607
-0.48033928871154785,3.9097800254821777,-0.4504227936267853
-0.4604569971561432,3.978426694869995,-0.4594312608242035
-0.43609505891799927,4.012232303619385,-0.4644562900066376
-0.41334792971611023,4.065179824829102,-0.47173842787742615
-0.3881944715976715,4.106494426727295,-0.47746092081069946
-0.36392566561698914,4.1592302322387695,-0.48437798023223877
-0.3302590847015381,4.1035261154174805,-0.4786871671676636
-0.305312842130661,4.155911445617676,-0.4856281876564026
-0.2768561840057373,4.165555000305176,-0.4876090884208679
-0.24584197998046875,4.144099235534668,-0.48558300733566284
-0.21686804294586182,4.145644187927246,-0.4862021207809448
-0.18489941954612732,4.081099510192871,-0.4790867269039154
-0.15624168515205383,4.074460983276367,-0.47878122329711914
-0.12792499363422394,4.075381755828857,-0.47934988141059875
-0.09848585724830627,4.052894592285156,-0.47678837180137634
-0.07065090537071228,4.076735019683838,-0.4796990156173706
-0.04199351742863655,4.0460734367370605,-0.4762189984321594
-0.013864820823073387,4.054006576538086,-0.4773041009902954
0.014338012784719467,4.061758041381836,-0.4782634973526001
0.04254157841205597,4.011157035827637,-0.47205594182014465
0.07116684317588806,4.053463459014893,-0.4768105745315552
0.09753043204545975,3.9792134761810303,-0.46787887811660767
0.12493966519832611,3.970715045928955,-0.46670496463775635
0.1516532599925995,3.946544647216797,-0.46350404620170593
0.17903906106948853,3.9454774856567383,-0.46282121539115906
0.2069120556116104,3.94419527053833,-0.4621260464191437
0.23362378776073456,3.9311232566833496,-0.4600825309753418
0.2599395215511322,3.913996934890747,-0.45758959650993347
0.2853705883026123,3.8889946937561035,-0.45391958951950073
0.31233900785446167,3.88704776763916,-0.45283815264701843
0.3383953273296356,3.8694138526916504,-0.4499404728412628
0.36383309960365295,3.851639986038208,-0.447066992521286
0.3898557126522064,3.841417074203491,-0.4450955390930176
0.41561034321784973,3.8310747146606445,-0.4427735209465027
0.4421509802341461,3.8282716274261475,-0.44130656123161316
0.4691488444805145,3.8252289295196533,-0.43981316685676575
0.49324890971183777,3.802797555923462,-0.43613362312316895
0.5196977257728577,3.7994470596313477,-0.43461570143699646
0.5448419451713562,3.788289785385132,-0.4319048225879669
0.5675714015960693,3.7616069316864014,-0.4274543821811676
0.5953311920166016,3.765385389328003,-0.4264637231826782
0.6202676296234131,3.7536964416503906,-0.42376187443733215
0.646304726600647,3.749523639678955,-0.42178741097450256
0.670815110206604,3.737572431564331,-0.41874414682388306
0.6937967538833618,3.717820167541504,-0.4148552119731903
0.7181358933448792,3.705528497695923,-0.4118211567401886
0.7390223741531372,3.6739423274993896,-0.40664535760879517
0.7628592252731323,3.661397933959961,-0.40340882539749146
0.7938140034675598,3.6829025745391846,-0.40383437275886536
0.8192191123962402,3.67760968208313,-0.40132442116737366
0.8570501804351807,3.7250804901123047,-0.4045434296131134
1.0333608388900757,4.35040283203125,-0.47012796998023987
1.0596230030059814,4.328446865081787,-0.4651288688182831
1.0875306129455566,4.313867092132568,-0.4609581232070923
1.1154247522354126,4.299069881439209,-0.456783264875412
1.1454099416732788,4.291539192199707,-0.4533860683441162
1.1735725402832031,4.276241779327393,-0.44900962710380554
1.1987360715866089,4.2534942626953125,-0.44373950362205505
1.2279282808303833,4.245543479919434,-0.44004741311073303
1.2541499137878418,4.226095199584961,-0.43515291810035706
1.2892813682556152,4.236217975616455,-0.43331292271614075
1.3107985258102417,4.20152473449707,-0.4265860617160797
1.3372286558151245,4.185431957244873,-0.42181116342544556
1.3721227645874023,4.194991588592529,-0.41961541771888733
1.4000965356826782,4.182046890258789,-0.4151456952095032
1.4264898300170898,4.165312767028809,-0.4102124869823456
1.4523680210113525,4.14854621887207,-0.40514108538627625
1.4811745882034302,4.138779163360596,-0.40072160959243774
1.504663109779358,4.11415958404541,-0.39488446712493896
1.5306528806686401,4.096679210662842,-0.389758437871933
1.553044319152832,4.072028160095215,-0.3837500214576721
1.589253306388855,4.08353328704834,-0.3811643421649933
1.6122314929962158,4.0582146644592285,-0.37503382563591003
1.640539526939392,4.0472893714904785,-0.3702971935272217
1.659332275390625,4.014803886413574,-0.36347395181655884
1.6896157264709473,4.011044502258301,-0.35923144221305847
1.9582438468933105,4.5614800453186035,-0.40404292941093445
1.9906628131866455,4.547941207885742,-0.3981996774673462
2.025067090988159,4.541763782501221,-0.3929797410964966
2.075137138366699,4.570991039276123,-0.39069560170173645
2.112814426422119,4.5713791847229,-0.38587480783462524
2.1447556018829346,4.557000160217285,-0.379686176776886
2.183366298675537,4.556440830230713,-0.37447279691696167
2.210692882537842,4.535097599029541,-0.3675578236579895
2.2415332794189453,4.520448684692383,-0.3611689805984497
2.2730958461761475,4.505181312561035,-0.3546082377433777
2.307405710220337,4.496984481811523,-0.3485403060913086
2.33756685256958,4.481894493103027,-0.34187543392181396
1.7203233242034912,3.2436697483062744,-0.24329622089862823
1.7318980693817139,3.211331844329834,-0.23673115670681
1.7254905700683594,3.1486258506774902,-0.22796812653541565
1.735150694847107,3.1169235706329346,-0.22153519093990326
1.7719701528549194,3.1323888301849365,-0.21832779049873352
1.3528352975845337,2.3527932167053223,-0.16062955558300018
1.2897813320159912,2.2093124389648438,-0.1476806402206421
0.9505525827407837,1.6036953926086426,-0.10488062351942062
0.957737147808075,1.5905009508132935,-0.1015954539179802
0.9684344530105591,1.5841901302337646,-0.09875049442052841
0.9790642261505127,1.5778213739395142,-0.09585583209991455
0.9961771368980408,1.581102967262268,-0.09346730262041092
1.0069248676300049,1.574456810951233,-0.09044217318296432
1.0108271837234497,1.558189868927002,-0.08687759935855865
1.0214284658432007,1.5514332056045532,-0.08375032991170883
1.036539912223816,1.5509485006332397,-0.08082728832960129
1.0422075986862183,1.5378893613815308,-0.07729983329772949
2.514483690261841,3.6568105220794678,-0.17663320899009705
2.5614354610443115,3.6721625328063965,-0.16991928219795227
2.593994140625,3.668750286102295,-0.16225284337997437
2.6152665615081787,3.644402027130127,-0.1529136598110199
2.606602191925049,3.5835933685302734,-0.14224973320960999
2.6672117710113525,3.616990566253662,-0.1349896490573883
2.6217851638793945,3.7074201107025146,0.2352684587240219
2.5853402614593506,3.7133712768554688,0.24314068257808685
2.5669994354248047,3.744457244873047,0.25223907828330994
1.0615417957305908,1.5748493671417236,0.1090412586927414
1.0631669759750366,1.6016883850097656,0.11359493434429169
1.038619875907898,1.5896180868148804,0.1153012216091156
1.026371955871582,1.597328782081604,0.11837700754404068
1.0148324966430664,1.604469656944275,0.1212608590722084
0.9907177090644836,1.5917729139328003,0.1225818544626236
0.994834303855896,1.625659465789795,0.1274084597826004
0.9747438430786133,1.6194038391113281,0.129049614071846
0.9553984999656677,1.612596869468689,0.1305125206708908
1.335614800453186,2.2928380966186523,0.1883038729429245
1.3469874858856201,2.353459596633911,0.1960960030555725
1.8002680540084839,3.1978490352630615,0.2699929177761078
1.7513678073883057,3.1623120307922363,0.27040407061576843
1.7779656648635864,3.2673087120056152,0.2827150225639343
1.7571839094161987,3.2869815826416016,0.28775960206985474
2.3872861862182617,4.543729782104492,0.4022347331047058
2.348212718963623,4.546010494232178,0.4067533314228058
2.321446180343628,4.5767107009887695,0.4135381877422333
2.2804625034332275,4.579376220703125,0.4178120195865631
2.254498243331909,4.609068393707275,0.4244253933429718
2.2148828506469727,4.610476970672607,0.42843905091285706
2.187999725341797,4.640044212341309,0.4348051846027374
2.1537909507751465,4.655553340911865,0.43979352712631226
2.116560459136963,4.663582801818848,0.44406211376190186
2.094956636428833,4.70271110534668,0.451185017824173
2.0540130138397217,4.699059963226318,0.454178124666214
1.9944390058517456,4.656567573547363,0.4531609117984772
1.7329496145248413,4.128935813903809,0.40451115369796753
1.7004295587539673,4.133649826049805,0.40761539340019226
1.671514630317688,4.145059108734131,0.4113353192806244
1.6477466821670532,4.17093563079834,0.4164125323295593
1.6168198585510254,4.182666778564453,0.4199581742286682
1.5862969160079956,4.193986892700195,0.423447847366333
1.556484341621399,4.204798221588135,0.4268472194671631
1.5323855876922607,4.229846954345703,0.4316830635070801
1.497207522392273,4.225598335266113,0.43342626094818115
1.4685745239257812,4.24354362487793,0.437298983335495
1.4402716159820557,4.261125087738037,0.4411311149597168
1.411167025566101,4.274632930755615,0.4445306658744812
1.3860381841659546,4.298877239227295,0.44904327392578125
1.360495686531067,4.323025703430176,0.4535163342952728
1.3264775276184082,4.325167655944824,0.4554729759693146
1.2997156381607056,4.349228382110596,0.4597353935241699
1.2685401439666748,4.358139514923096,0.46241456270217896
1.2402174472808838,4.374085426330566,0.465821772813797
1.2159113883972168,4.4048171043396,0.4708356559276581
1.1824504137039185,4.405618190765381,0.47239792346954346
1.150327444076538,4.413863658905029,0.47474050521850586
1.122479796409607,4.4368109703063965,0.4786703884601593
1.093166708946228,4.45188045501709,0.48175159096717834
1.063016414642334,4.462925434112549,0.484414279460907
1.033440113067627,4.477605819702148,0.48739781975746155
1.0026533603668213,4.492347717285156,0.4901757538318634
0.9673362970352173,4.483982563018799,0.49043595790863037
0.9354024529457092,4.490543365478516,0.49234798550605774
0.7663432955741882,3.8113739490509033,0.418891578912735
0.7397786378860474,3.8164443969726562,0.4204777181148529
0.8491076827049255,4.554473876953125,0.5028355121612549
0.8208827376365662,4.5831475257873535,0.5069140791893005
0.7916830778121948,4.607811450958252,0.5105818510055542
0.7585811614990234,4.609270095825195,0.5117013454437256
0.7282910943031311,4.625776290893555,0.5145066976547241
0.7000733017921448,4.661369800567627,0.5194885730743408
0.6639401912689209,4.642984867095947,0.5181453227996826
0.635328471660614,4.6782050132751465,0.5227365493774414
0.6052616238594055,4.70554780960083,0.5264813899993896
0.5722273588180542,4.709549427032471,0.5276399850845337
0.5411767959594727,4.728720188140869,0.5305209159851074
0.5088815093040466,4.743886470794678,0.5329963564872742
0.4762982130050659,4.754979610443115,0.534682035446167
0.4464324116706848,4.796776294708252,0.5398173928260803
0.4113464057445526,4.784238815307617,0.5388668179512024
0.3803248107433319,4.817868232727051,0.5431414842605591
0.3467775583267212,4.828092575073242,0.5448144674301147
0.3131601810455322,4.830300331115723,0.5456018447875977
0.28051531314849854,4.851701259613037,0.5481978058815002
0.2481139451265335,4.884515285491943,0.5520875453948975
0.2142481654882431,4.893845081329346,0.5533513426780701
0.1801348328590393,4.910711765289307,0.5554986596107483
0.14687785506248474,4.942840576171875,0.5593976974487305
0.11247607320547104,4.943699359893799,0.5597864985466003
0.07824007421731949,4.956003665924072,0.5611230731010437
0.044018879532814026,4.995243549346924,0.5655002593994141
0.008588862605392933,4.987668991088867,0.5646044015884399
-0.026291128247976303,5.026424407958984,0.5689812302589417
-0.06137857586145401,5.037765026092529,0.5702823996543884
-0.09649741649627686,5.044981479644775,0.571144163608551
-0.13171562552452087,5.051992416381836,0.5716493725776672
-0.16671691834926605,5.051007270812988,0.5712171792984009
-0.20390409231185913,5.088540077209473,0.5751609206199646
-0.2399943321943283,5.102558612823486,0.5764762759208679
-0.27691712975502014,5.127948760986328,0.5791021585464478
-0.3118959665298462,5.114323139190674,0.5773487687110901
-0.29306989908218384,4.314327716827393,0.48660457134246826
-0.32079923152923584,4.277402400970459,0.48195526003837585
-0.35165685415267944,4.290635585784912,0.482991099357605
-0.38241419196128845,4.299775123596191,0.48358583450317383
-0.40677592158317566,4.2391252517700195,0.47635722160339355
-0.4294729232788086,4.17062520980835,0.46828174591064453
-0.4545458257198334,4.129022121429443,0.46298202872276306
-0.47708332538604736,4.075782775878906,0.4563479721546173
-0.5003852844238281,4.033981800079346,0.451029509305954
-0.5227122902870178,3.988192558288574,0.44529739022254944
-0.5461879372596741,3.953803062438965,0.44086697697639465
-0.5668656826019287,3.9000046253204346,0.43429645895957947
-0.5901672840118408,3.8731179237365723,0.4305150508880615
-0.6081617474555969,3.8154358863830566,0.42328497767448425
-0.6285805106163025,3.7768399715423584,0.4182109534740448
-0.6493157148361206,3.7419426441192627,0.41357511281967163
-0.6711700558662415,3.7145469188690186,0.4097936153411865
-0.690975546836853,3.675494909286499,0.4047447144985199
-0.7072145938873291,3.625095844268799,0.39823517203330994
-0.7265549302101135,3.5937001705169678,0.3938181698322296
-0.7431485056877136,3.550795316696167,0.3881741762161255
-0.756935715675354,3.496396064758301,0.3813066780567169
-0.7766069173812866,3.4683635234832764,0.37732720375061035
-0.7989371418952942,3.4554755687713623,0.37502244114875793
-0.8152195811271667,3.4199154376983643,0.37003448605537415
-0.8347610235214233,3.3993825912475586,0.3667045831680298
-0.8493333458900452,3.359898805618286,0.3613615930080414
-0.8690505623817444,3.338982582092285,0.3580130636692047
-0.882225513458252,3.2955007553100586,0.3522917628288269
-0.9028410315513611,3.282041549682617,0.3497272729873657
-0.9134244918823242,3.234919548034668,0.343453973531723
-0.9353363513946533,3.228851556777954,0.3415694236755371
-0.9488134384155273,3.1926980018615723,0.33650362491607666
-0.9687540531158447,3.1787805557250977,0.3338053226470947
-0.980434238910675,3.138767719268799,0.3283986449241638
-0.9993723034858704,3.124843120574951,0.32557040452957153
-1.0131561756134033,3.0960867404937744,0.32117635011672974
-1.0269962549209595,3.0671541690826416,0.31677210330963135
-1.0418592691421509,3.0418145656585693,0.312764972448349
-1.057902216911316,3.0200159549713135,0.30913910269737244
-1.0839316844940186,3.0275204181671143,0.3084481954574585
-1.0962728261947632,2.9984772205352783,0.3039247989654541
-1.1109914779663086,2.9766879081726074,0.3001694977283478
-1.1164058446884155,2.9291586875915527,0.29381221532821655
-1.1170598268508911,2.870788812637329,0.2864242196083069
-1.1484191417694092,2.89212703704834,0.28698453307151794
-1.1414780616760254,2.819716453552246,0.2781057059764862
-1.1529086828231812,2.794269561767578,0.2739211320877075
-1.1449861526489258,2.721947431564331,0.265155166387558
-1.1409964561462402,2.660471200942993,0.25750675797462463
-1.1532256603240967,2.63844895362854,0.25371381640434265
-1.1676676273345947,2.6238152980804443,0.25050514936447144
-1.1819645166397095,2.6091039180755615,0.24730993807315826
-1.1950615644454956,2.5905234813690186,0.24371238052845
-1.24453604221344,2.6493122577667236,0.24734748899936676
-1.2492620944976807,2.612863540649414,0.24202820658683777
-1.276757001876831,2.6257927417755127,0.2411920130252838
-1.2872213125228882,2.603572368621826,0.23713228106498718
-1.2826452255249023,2.549557685852051,0.2301236242055893
-1.2826988697052002,2.5061230659484863,0.22414684295654297
-1.303087592124939,2.504624843597412,0.22185084223747253
-1.3086910247802734,2.475559949874878,0.21709150075912476
-1.314146637916565,2.4464306831359863,0.2123483568429947
-1.3312574625015259,2.437427520751953,0.20927418768405914
-1.3387534618377686,2.411334276199341,0.20466628670692444
-1.3545668125152588,2.402752161026001,0.20152615010738373
-1.3625813722610474,2.380537509918213,0.19726496934890747
-1.3713881969451904,2.3577353954315186,0.1928330659866333
-1.38752281665802,2.3485469818115234,0.189512237906456
-1.4110870361328125,2.352936267852783,0.18715012073516846
-1.4183604717254639,2.3305959701538086,0.18270422518253326
-1.4305096864700317,2.3142800331115723,0.17858350276947021
-1.433659315109253,2.2850422859191895,0.1734616607427597
-1.4483860731124878,2.276007652282715,0.16985660791397095
-1.4595775604248047,2.25985050201416,0.16558535397052765
-1.468982219696045,2.2400565147399902,0.16097594797611237
-1.479103446006775,2.2243053913116455,0.15660226345062256
-1.493360996246338,2.215031623840332,0.15268804132938385
-1.4956588745117188,2.1854727268218994,0.1471092402935028
-1.479102611541748,2.1308491230010986,0.13984057307243347
-1.49260675907135,2.121682643890381,0.13567203283309937
-1.5005258321762085,2.102013349533081,0.13051509857177734
-1.5095016956329346,2.0862321853637695,0.12557007372379303
-1.508858561515808,2.058011054992676,0.11984996497631073
-1.518530011177063,2.0414562225341797,0.11443395912647247
-1.5139552354812622,2.137829065322876,-0.08809372037649155
-1.5078306198120117,2.161007881164551,-0.09368403255939484
-1.495678186416626,2.17868709564209,-0.09906530380249023
-1.483945608139038,2.1958954334259033,-0.10429127514362335
-1.47225821018219,2.212902307510376,-0.10931654274463654
-1.463990330696106,2.236823081970215,-0.11471674591302872
-1.4482059478759766,2.246845006942749,-0.11913488805294037
-1.4463844299316406,2.28019380569458,-0.12479445338249207
-1.4289799928665161,2.2908902168273926,-0.12931972742080688
-1.41286301612854,2.300626754760742,-0.13349077105522156
-1.4041390419006348,2.323967933654785,-0.1384497582912445
-1.394765019416809,2.3475215435028076,-0.14345400035381317
-1.3860303163528442,2.3705337047576904,-0.1482863873243332
-1.3726431131362915,2.3870580196380615,-0.1527543067932129
-1.3511693477630615,2.3900671005249023,-0.15627138316631317
-1.3339853286743164,2.399446964263916,-0.1601151078939438
-1.3321174383163452,2.4358465671539307,-0.1657281070947647
-1.3142192363739014,2.4452922344207764,-0.16948404908180237
-1.2977708578109741,2.458204507827759,-0.17354190349578857
-1.2877551317214966,2.4807937145233154,-0.17811325192451477
-1.301975965499878,2.552125930786133,-0.18625497817993164
-1.2920957803726196,2.5786919593811035,-0.19118142127990723
-1.26491379737854,2.5701630115509033,-0.19348029792308807
-1.2262033224105835,2.5367438793182373,-0.19382336735725403
-1.1762346029281616,2.478325366973877,-0.19202949106693268
-1.1730079650878906,2.5183372497558594,-0.19779901206493378
-1.17768132686615,2.575995445251465,-0.2050037533044815
-1.1867420673370361,2.6443350315093994,-0.2131291925907135
-1.1615087985992432,2.6382365226745605,-0.2152162790298462
-1.138988971710205,2.639286994934082,-0.2178911715745926
-1.1171633005142212,2.6398820877075195,-0.2204398214817047
-1.0912117958068848,2.6293859481811523,-0.22200915217399597
-1.1193735599517822,2.752279758453369,-0.23484544456005096
-1.1254613399505615,2.825117826461792,-0.24354282021522522
-1.1233736276626587,2.8800711631774902,-0.25082260370254517
-1.097688913345337,2.8730220794677734,-0.25265324115753174
-1.1032555103302002,2.9497227668762207,-0.26182159781455994
-1.079452395439148,2.9499588012695312,-0.2641911208629608
-1.0688841342926025,2.986626386642456,-0.2698468863964081
-1.055321455001831,3.0159215927124023,-0.2748858332633972
-1.0340944528579712,3.022996187210083,-0.27783676981925964
-1.0075488090515137,3.015281915664673,-0.2792744040489197
-0.9980612993240356,3.059130907058716,-0.28551796078681946
-0.9789603352546692,3.07320499420166,-0.288987934589386
-0.958267867565155,3.0835282802581787,-0.2921561598777771
-0.9499081373214722,3.134676218032837,-0.2990192174911499
-0.9253665804862976,3.1336474418640137,-0.30091944336891174
-0.9139891266822815,3.177227735519409,-0.3071197271347046
-0.8897317051887512,3.1757779121398926,-0.3089763820171356
-0.8695237040519714,3.18919038772583,-0.31219860911369324
-0.8515272736549377,3.2139265537261963,-0.31643903255462646
-0.8345789909362793,3.24223256111145,-0.32103970646858215
-0.8099655508995056,3.240220308303833,-0.32264408469200134
-0.7983044385910034,3.2909064292907715,-0.3295286297798157
-0.7812635898590088,3.322737455368042,-0.33436501026153564
-0.7693838477134705,3.3811259269714355,-0.3419117331504822
-0.7455063462257385,3.386251211166382,-0.3440816402435303
-0.7284007668495178,3.4215526580810547,-0.3493264615535736
-0.7115390300750732,3.4606034755706787,-0.3549424707889557
-0.6947352290153503,3.5034520626068115,-0.36075443029403687
-0.6747099757194519,3.5348622798919678,-0.3654599189758301
-0.6527808904647827,3.5545847415924072,-0.36895713210105896
-0.6347484588623047,3.5971157550811768,-0.3748566210269928
-0.6193079948425293,3.658749580383301,-0.38263076543807983
-0.5972986817359924,3.685854196548462,-0.3866836428642273
-0.5774771571159363,3.732088088989258,-0.3928050994873047
-0.5571168661117554,3.7742841243743896,-0.3985171914100647
-0.5340970754623413,3.8009743690490723,-0.4026290774345398
-0.5131524205207825,3.846825361251831,-0.40852734446525574
-0.492978572845459,3.9041433334350586,-0.41561219096183777
-0.4715992212295532,3.9574992656707764,-0.42232125997543335
-0.4487955868244171,4.006908893585205,-0.42866548895835876
-0.42376238107681274,4.036826133728027,-0.4329429864883423
-0.3977985680103302,4.062775135040283,-0.4364455044269562
-0.37145811319351196,4.088559627532959,-0.43996086716651917
-0.344230979681015,4.1064229011535645,-0.4426496624946594
-0.3127574324607849,4.077666282653809,-0.4403441548347473
-0.2889867126941681,4.145504951477051,-0.44839999079704285
-0.26052936911582947,4.155105113983154,-0.4498681128025055
-0.23069117963314056,4.141242504119873,-0.44881629943847656
-0.19973623752593994,4.100013732910156,-0.4448140263557434
-0.1706639528274536,4.101258277893066,-0.44544491171836853
-0.14130932092666626,4.079009532928467,-0.4433821141719818
-0.11263199895620346,4.072108268737793,-0.4427585005760193
-0.08453957736492157,4.088301181793213,-0.4446677267551422
-0.05555044859647751,4.049936771392822,-0.4406631886959076
-0.027054136618971825,4.065736770629883,-0.44257551431655884
0.001165451598353684,4.015343189239502,-0.4370829164981842
0.0294533371925354,4.06574010848999,-0.4423944354057312
0.05675430968403816,3.9994473457336426,-0.43503084778785706
0.08538588881492615,4.037800312042236,-0.43907198309898376
0.11175066232681274,3.975018262863159,-0.4321371614933014
0.1393202245235443,3.958653211593628,-0.42999836802482605
0.1663147360086441,3.946012020111084,-0.4281664192676544
0.19374510645866394,3.944822072982788,-0.4275985062122345
0.21986214816570282,3.9201760292053223,-0.424511194229126
0.24763450026512146,3.926363706588745,-0.4247845709323883
0.2737239599227905,3.9013679027557373,-0.42138221859931946
0.30016371607780457,3.891732931137085,-0.4196138083934784
0.32521364092826843,3.8664345741271973,-0.4161815345287323
0.3514014184474945,3.8564419746398926,-0.41442084312438965
0.37743350863456726,3.8462753295898438,-0.4126649796962738
0.4045041501522064,3.8436641693115234,-0.4113434851169586
0.42720556259155273,3.806169033050537,-0.4063323736190796
0.45449909567832947,3.8109686374664307,-0.4058619737625122
0.4800281822681427,3.8001441955566406,-0.4037436246871948
0.501288890838623,3.7583529949188232,-0.39830687642097473
0.5369150638580322,3.8203094005584717,-0.4035736322402954
0.5593377947807312,3.7897751331329346,-0.3990989029407501
0.5944925546646118,3.843576192855835,-0.40351173281669617
0.6187254190444946,3.824181079864502,-0.4002412259578705
0.7597691416740417,4.498159408569336,-0.46918877959251404
0.7880833745002747,4.477748394012451,-0.465243935585022
0.820870041847229,4.480003833770752,-0.4636494219303131
0.7138575911521912,3.749058485031128,-0.3865008056163788
0.7414584159851074,3.751826524734497,-0.38529548048973083
0.7673974633216858,3.746830463409424,-0.3831142485141754
0.9278210401535034,4.376708507537842,-0.44545596837997437
0.9585006833076477,4.370368957519531,-0.44272950291633606
0.9907124638557434,4.371426582336426,-0.4407801330089569
1.0211782455444336,4.364683628082275,-0.4380645155906677
1.0494022369384766,4.350288391113281,-0.4342871904373169
1.0774842500686646,4.3357086181640625,-0.4304947555065155
1.1060423851013184,4.320791721343994,-0.4266487658023834
1.1381276845932007,4.320797443389893,-0.4243188202381134
1.1640013456344604,4.298094272613525,-0.41969195008277893
1.197669267654419,4.305313587188721,-0.4177705943584442
1.2250821590423584,4.289831638336182,-0.4136615991592407
1.2487759590148926,4.2590131759643555,-0.4080398380756378
1.2761732339859009,4.243086338043213,-0.4039192199707031
1.3030380010604858,4.227113723754883,-0.39961501955986023
1.33193039894104,4.218445777893066,-0.39593783020973206
1.3584693670272827,4.202142238616943,-0.3915577530860901
1.388305902481079,4.1927337646484375,-0.3877439498901367
1.4162161350250244,4.179629802703857,-0.3836096227169037
1.4396647214889526,4.155502796173096,-0.3783000707626343
1.465478539466858,4.138571739196777,-0.3736763596534729
1.4941545724868774,4.128666400909424,-0.3696688711643219
1.5202510356903076,4.111188888549805,-0.3649863004684448
1.5488622188568115,4.100872039794922,-0.36072996258735657
1.5655808448791504,4.061525821685791,-0.3539612293243408
1.5991172790527344,4.065547943115234,-0.3509787321090698
1.6187618970870972,4.032973289489746,-0.34480172395706177
1.6494638919830322,4.029303550720215,-0.34103822708129883
1.6772328615188599,4.018208026885986,-0.3364822268486023
1.8066668510437012,4.247222900390625,-0.35188886523246765
2.0145137310028076,4.645877361297607,-0.38067305088043213
2.0419769287109375,4.62153959274292,-0.37440115213394165
2.070030927658081,4.600944995880127,-0.36830759048461914
2.1049365997314453,4.594100475311279,-0.36325350403785706
2.136903762817383,4.579766273498535,-0.35756704211235046
2.170370101928711,4.568760871887207,-0.3521162271499634
2.196073055267334,4.5439276695251465,-0.34548184275627136
2.2232253551483154,4.522459983825684,-0.3391420245170593
2.258690357208252,4.5140252113342285,-0.3335581421852112
2.289954423904419,4.498691082000732,-0.3275083303451538
2.3254592418670654,4.494055271148682,-0.3221418857574463
2.35921573638916,4.485675811767578,-0.3164972960948944
1.728521704673767,3.2318105697631836,-0.22423003613948822
1.7432280778884888,3.206479549407959,-0.21865689754486084
1.7291226387023926,3.1300406455993652,-0.2095905989408493
1.7540838718414307,3.125375270843506,-0.2054223120212555
1.8048789501190186,3.1641626358032227,-0.2039182335138321
1.3353774547576904,2.30513334274292,-0.14555372297763824
0.9452531337738037,1.6071751117706299,-0.09936870634555817
0.9485066533088684,1.5872676372528076,-0.09591695666313171
0.9674986004829407,1.5942025184631348,-0.09409484267234802
0.9779934883117676,1.5879398584365845,-0.09146052598953247
0.9886661767959595,1.581470251083374,-0.08877041190862656
1.001788854598999,1.5779694318771362,-0.08615761250257492
1.0164966583251953,1.577980637550354,-0.08366859704256058
1.0205256938934326,1.5615583658218384,-0.08032462000846863
1.0227930545806885,1.5415236949920654,-0.07669752836227417
1.043737769126892,1.5511438846588135,-0.07453766465187073
1.0583430528640747,1.5508195161819458,-0.0718182623386383
2.558784008026123,3.693315029144287,-0.1640377640724182
2.586869955062866,3.683574914932251,-0.15669076144695282
2.6068766117095947,3.6601927280426025,-0.14847324788570404
2.599461078643799,3.5985708236694336,-0.13848961889743805
2.645198345184326,3.613893747329712,-0.13151036202907562
2.693516969680786,3.627101182937622,-0.12355976551771164
2.636932611465454,3.6981918811798096,0.20984618365764618
2.5990052223205566,3.7054049968719482,0.21765011548995972
2.5951600074768066,3.755164861679077,0.22723791003227234
1.0594069957733154,1.5581907033920288,0.09698496013879776
1.0606753826141357,1.5853712558746338,0.10130500048398972
1.0451931953430176,1.5860990285873413,0.10379217565059662
1.0200049877166748,1.5744102001190186,0.10541020333766937
1.0165892839431763,1.5949602127075195,0.10907237976789474
1.0095398426055908,1.6084668636322021,0.11214188486337662
0.9892363548278809,1.6025514602661133,0.11378881335258484
0.9729915261268616,1.6031687259674072,0.11586998403072357
0.9695190191268921,1.6232868432998657,0.11925224214792252
0.9696409106254578,1.650225281715393,0.12311310321092606
1.349053144454956,2.335736036300659,0.17685115337371826
1.816923975944519,3.199387311935425,0.24569320678710938
1.7469314336776733,3.126660108566284,0.24331940710544586
1.7442090511322021,3.1768479347229004,0.2503962516784668
1.7740339040756226,3.288947343826294,0.2623874247074127
1.7538634538650513,3.30824613571167,0.2669835388660431
2.36283016204834,4.5327558517456055,0.36984172463417053
2.3369410037994385,4.563244819641113,0.37620529532432556
2.298994779586792,4.573325157165527,0.38090378046035767
2.2657108306884766,4.589480876922607,0.3859850764274597
2.233482599258423,4.604836940765381,0.39088815450668335
2.203701972961426,4.627382278442383,0.3963041603565216
2.1694700717926025,4.643126487731934,0.4009983539581299
2.1350862979888916,4.658630847930908,0.40569740533828735
2.105073928833008,4.680414199829102,0.4108441472053528
2.072361707687378,4.694599151611328,0.4152861535549164
2.0349807739257812,4.702066421508789,0.4188697636127472
1.7786158323287964,4.193185329437256,0.37613505125045776
1.7139843702316284,4.122888565063477,0.37235185503959656
1.6816809177398682,4.127442359924316,0.3752601742744446
1.652540922164917,4.138882160186768,0.3787020444869995
1.6280114650726318,4.165011882781982,0.3833027184009552
1.597663164138794,4.176445960998535,0.38657626509666443
1.5732847452163696,4.2020182609558105,0.3911428153514862
1.543416976928711,4.2127814292907715,0.3943474292755127
1.5084342956542969,4.208615303039551,0.3960431218147278
1.4920639991760254,4.259550094604492,0.40274491906166077
1.4612168073654175,4.269955158233643,0.4056512713432312
1.4283008575439453,4.272602558135986,0.40780895948410034
1.4051967859268188,4.304544925689697,0.4127825200557709
1.3703135251998901,4.299181938171387,0.41412582993507385
1.341639757156372,4.3161187171936035,0.4173899292945862
1.3105367422103882,4.325416564941406,0.4199398458003998
1.2861402034759521,4.356823921203613,0.4246577322483063
1.2599996328353882,4.380402565002441,0.4286058843135834
1.228855848312378,4.388992786407471,0.43114349246025085
1.1954578161239624,4.389925956726074,0.4326539635658264
1.163954257965088,4.398166656494141,0.43484944105148315
1.1401365995407104,4.43630838394165,0.4400331377983093
1.1071133613586426,4.436436176300049,0.4414446949958801
1.0756282806396484,4.443957328796387,0.44362717866897583
1.0479568243026733,4.466336250305176,0.4471755623817444
1.0160636901855469,4.473515510559082,0.44901007413864136
0.9883361458778381,4.499442100524902,0.4527522623538971
0.954775869846344,4.498551368713379,0.45381686091423035
0.7957233190536499,3.8842923641204834,0.39286208152770996
0.7528640627861023,3.8094966411590576,0.3862875998020172
0.7208669781684875,3.7878541946411133,0.3848843574523926
0.8360335230827332,4.568877696990967,0.4651215076446533
0.8049426674842834,4.582199573516846,0.46737998723983765
0.7760521173477173,4.610677719116211,0.47122079133987427
0.7445498108863831,4.619657039642334,0.47307342290878296
0.712368369102478,4.624578952789307,0.47453436255455017
0.6830301284790039,4.6524553298950195,0.47803980112075806
0.6522960066795349,4.672443866729736,0.4807555079460144
0.6197153329849243,4.684597015380859,0.48270463943481445
0.5879109501838684,4.6964111328125,0.48462602496147156
0.5570285320281982,4.715709686279297,0.48734375834465027
0.5262874364852905,4.738677024841309,0.490419864654541
0.4937490224838257,4.749910831451416,0.4919964373111725
0.46187713742256165,4.768651008605957,0.4943763017654419
0.4291197955608368,4.787232398986816,0.4967762529850006
0.397018700838089,4.805516242980957,0.4991604685783386
0.3641476631164551,4.815831184387207,0.5007427930831909
0.3311033844947815,4.825932025909424,0.5022483468055725
0.29776015877723694,4.835846424102783,0.5034710764884949
0.2643195688724518,4.857201099395752,0.5059148073196411
0.23138552904129028,4.882174968719482,0.5087589025497437
0.1983197033405304,4.906917095184326,0.5116044282913208
0.16424395143985748,4.908132076263428,0.5120222568511963
0.1309133768081665,4.940192699432373,0.515589714050293
0.0960811972618103,4.952646732330322,0.5168431997299194
0.06155848503112793,4.953192234039307,0.5168800354003906
0.027244850993156433,4.9923481941223145,0.5209711194038391
-0.007512208074331284,5.00018310546875,0.5218190550804138
-0.042574264109134674,5.031085968017578,0.5250999927520752
-0.07827775925397873,5.038434982299805,0.5258514285087585
-0.1133013442158699,5.037804126739502,0.5255141854286194
-0.1486629694700241,5.048580646514893,0.5263916850090027
-0.18432126939296722,5.062990665435791,0.527672290802002
-0.22018709778785706,5.077149391174316,0.5289508700370789
-0.25776752829551697,5.122098445892334,0.5334609150886536
-0.29418617486953735,5.1240739822387695,0.5334165096282959
-0.28090575337409973,4.365911483764648,0.4540512263774872
-0.305835485458374,4.290293216705322,0.44577446579933167
-0.33484071493148804,4.280395984649658,0.44435593485832214
-0.36592596769332886,4.293513774871826,0.4453444480895996
-0.39345964789390564,4.259927749633789,0.4415052831172943
-0.4176740348339081,4.203030109405518,0.4351978600025177
-0.4429278075695038,4.1653733253479,0.4306713044643402
-0.4650999903678894,4.104395389556885,0.4237667918205261
-0.48780253529548645,4.054889678955078,0.41808274388313293
-0.511530339717865,4.012887954711914,0.41319039463996887
-0.5347156524658203,3.9746694564819336,0.4087275266647339
-0.5540158152580261,3.913259744644165,0.401822566986084
-0.5751502513885498,3.871042251586914,0.3967275321483612
-0.5968877077102661,3.83640456199646,0.392442524433136
-0.6211389899253845,3.8169209957122803,0.3897223472595215
-0.6365699768066406,3.7474911212921143,0.38193947076797485
-0.6585571765899658,3.720123529434204,0.37847718596458435
-0.6778580546379089,3.6812150478363037,0.3737545907497406
-0.6971345543861389,3.646096706390381,0.36929264664649963
-0.715243399143219,3.6070659160614014,0.36446613073349
-0.7372286915779114,3.586902618408203,0.3615589141845703
-0.7492581605911255,3.5209782123565674,0.3540748357772827
-0.7662545442581177,3.4816360473632812,0.3493035137653351
-0.784965991973877,3.45369553565979,0.3455512523651123
-0.8049497604370117,3.433276653289795,0.34248530864715576
-0.8250926733016968,3.4126498699188232,0.33940640091896057
-0.8438490629196167,3.3881828784942627,0.3359804153442383
-0.8577420711517334,3.344719409942627,0.3306920528411865
-0.8770239353179932,3.3237836360931396,0.3276624083518982
-0.8975389003753662,3.3104166984558105,0.32518258690834045
-0.9088698625564575,3.2631123065948486,0.31937023997306824
-0.9267047047615051,3.242084264755249,0.31618383526802063
-0.9447268843650818,3.220839738845825,0.31297948956489563
-0.9581391215324402,3.1845648288726807,0.30833908915519714
-0.9696940183639526,3.144624710083008,0.30329734086990356
-0.9889369606971741,3.1306557655334473,0.3006383776664734
-1.005264401435852,3.1092841625213623,0.2973146140575409
-1.0215486288070679,3.0877685546875,0.2939906716346741
-1.0318026542663574,3.0475974082946777,0.2888968586921692
-1.0479133129119873,3.0258123874664307,0.28557994961738586
-1.063069462776184,3.004213571548462,0.28210821747779846
-1.0783486366271973,2.9824161529541016,0.27861618995666504
-1.0930073261260986,2.960681438446045,0.2751832604408264
-1.1040135622024536,2.927696943283081,0.27068671584129333
-1.113240361213684,2.891057252883911,0.2658902108669281
-1.1271164417266846,2.8691585063934326,0.2623478174209595
-1.132198452949524,2.825474262237549,0.25678521394729614
-1.1437848806381226,2.7999908924102783,0.2529442012310028
-1.1542284488677979,2.770620346069336,0.24873295426368713
-1.1385375261306763,2.6802821159362793,0.2391112595796585
-1.1380523443222046,2.6298601627349854,0.2330148071050644
-1.1543211936950684,2.6187126636505127,0.23036260902881622
-1.1717838048934937,2.611146926879883,0.22806650400161743
