X,Y,Z
0.11922864615917206,5.727315902709961,0.4961250424385071
0.060773611068725586,4.385489463806152,0.3800230026245117
0.030301665887236595,4.397485733032227,0.38098013401031494
-0.0003335911897011101,4.397594928741455,0.3809256851673126
-0.02896825037896633,4.113405227661133,0.35626623034477234
-0.05722824111580849,4.054732322692871,0.35115939378738403
-0.08682522922754288,4.120384216308594,0.35683751106262207
-0.11444415897130966,4.084680557250977,0.3537001609802246
-0.14141228795051575,4.044922828674316,0.3500080406665802
-0.1725599467754364,4.117751598358154,0.35607290267944336
-0.19537726044654846,3.9998719692230225,0.34566617012023926
-0.19934959709644318,3.5632143020629883,0.307751327753067
-0.22193363308906555,3.526808738708496,0.3044475018978119
-0.2618984878063202,3.746506929397583,0.3232044279575348
-0.2994619309902191,3.895988941192627,0.3357032537460327
-0.31760963797569275,3.789158344268799,0.3261280059814453
-0.3389800786972046,3.7287371158599854,0.3205723166465759
-0.3538278043270111,3.61401104927063,0.31038418412208557
-0.3764784336090088,3.588286876678467,0.3078664541244507
-0.40954312682151794,3.6591358184814453,0.3135828971862793
-0.434686541557312,3.656299114227295,0.3128278851509094
-0.45389696955680847,3.6030349731445312,0.3077721893787384
-0.4776652753353119,3.5921719074249268,0.30636829137802124
-0.5004821419715881,3.573406934738159,0.3043033480644226
-0.5207943916320801,3.5390944480895996,0.3009350001811981
-0.5464563965797424,3.543170690536499,0.3007619380950928
-0.5711300373077393,3.539360761642456,0.29977625608444214
-0.5895668864250183,3.5008955001831055,0.2958863079547882
-0.6170282363891602,3.516004800796509,0.2965383529663086
-1.1626334190368652,6.3647332191467285,0.535679280757904
-1.2105218172073364,6.375762462615967,0.5355091691017151
-1.2679603099822998,6.436193466186523,0.5392822623252869
-1.3196759223937988,6.4617414474487305,0.5399307608604431
-1.3783468008041382,6.521309852600098,0.5434476137161255
-1.4323352575302124,6.553696632385254,0.5446917414665222
-1.470993995666504,6.513387203216553,0.5399028062820435
-1.4958364963531494,6.41599178314209,0.5304358005523682
-0.6591126322746277,2.7409565448760986,0.22587335109710693
-0.691777765750885,2.7931978702545166,0.22942203283309937
-0.7049588561058044,2.765888214111328,0.22643910348415375
-0.726075291633606,2.768566131591797,0.22591114044189453
-0.739230751991272,2.7409827709198,0.22292572259902954
-0.7626809477806091,2.7508163452148438,0.22295056283473969
-0.7919512391090393,2.783151149749756,0.2246823012828827
-0.8336971998214722,2.856341600418091,0.2296856939792633
-1.0050280094146729,3.3581528663635254,0.26897427439689636
-1.0089870691299438,3.287895679473877,0.2622912526130676
-1.0393306016921997,3.3030688762664795,0.2624295949935913
-1.0570427179336548,3.2812154293060303,0.2595205008983612
-1.0718785524368286,3.251939058303833,0.2559993863105774
-1.106277585029602,3.281672716140747,0.2571299970149994
-1.1238926649093628,3.259345531463623,0.2541560232639313
-1.322745442390442,3.751265048980713,0.29110532999038696
-1.3713271617889404,3.8044304847717285,0.29370301961898804
-1.402238130569458,3.809936046600342,0.2925029397010803
-1.427769660949707,3.8006205558776855,0.2901739776134491
-1.4566317796707153,3.7981820106506348,0.2883421778678894
-1.4802134037017822,3.780869483947754,0.2853718400001526
-1.5125049352645874,3.7850475311279297,0.2839559018611908
-1.5436493158340454,3.7894835472106934,0.2824454605579376
-2.3489792346954346,5.658094882965088,0.4189690053462982
-2.3663904666900635,5.591928958892822,0.41129204630851746
-2.3991470336914062,5.56127405166626,0.4062272012233734
-2.4474759101867676,5.566033363342285,0.4036339223384857
-2.500425338745117,5.5854902267456055,0.401952862739563
-2.5278799533843994,5.547732353210449,0.3961643576622009
-2.569272756576538,5.537593364715576,0.39227309823036194
-2.6195077896118164,5.544519424438477,0.3895464241504669
-2.6155176162719727,5.438777446746826,0.37877118587493896
-2.651531457901001,5.421629905700684,0.37418290972709656
-2.6649861335754395,5.358795166015625,0.3664746880531311
-2.364274740219116,4.672425746917725,0.3164510130882263
-2.403881788253784,4.670004844665527,0.3132001459598541
-2.4345855712890625,4.654361248016357,0.3088723123073578
-2.4730138778686523,4.652021408081055,0.30537670850753784
-2.4937217235565186,4.614668846130371,0.2995219826698303
-1.1756079196929932,2.1397793292999268,0.13727416098117828
-1.1898633241653442,2.132023811340332,0.13510315120220184
-1.8941739797592163,3.3425772190093994,0.20914363861083984
-1.926884412765503,3.3465778827667236,0.20657244324684143
-1.9462459087371826,3.326545476913452,0.20248274505138397
-1.9683372974395752,3.313746452331543,0.19876782596111298
-1.2527087926864624,2.078226327896118,0.12278769165277481
-1.2627085447311401,2.063166856765747,0.11994975805282593
-2.6761622428894043,4.3041090965271,0.24596479535102844
-2.776836633682251,4.402495384216309,0.24714747071266174
-3.0133001804351807,4.710240840911865,0.2596299946308136
-2.6188125610351562,4.031693935394287,0.2177572101354599
-2.605140447616577,3.952324390411377,0.2090064138174057
-2.6394741535186768,3.948558807373047,0.2041671723127365
-2.7033395767211914,3.985835552215576,0.20119556784629822
-2.7483081817626953,3.9932281970977783,0.19644398987293243
-2.87172532081604,4.116947174072266,0.19713854789733887
-2.9149374961853027,4.120296478271484,0.19154900312423706
-2.895460367202759,4.033837795257568,0.1814839094877243
-2.895230531692505,3.9813287258148193,0.17315445840358734
-2.913008689880371,3.949267625808716,0.1652228832244873
-3.015251874923706,4.219059944152832,-0.13396799564361572
-2.4528822898864746,3.4878737926483154,-0.11688066273927689
-2.9776668548583984,4.297503471374512,-0.15088652074337006
-2.911834239959717,4.271410942077637,-0.15672653913497925
-2.885047674179077,4.298688888549805,-0.16412252187728882
-2.871518135070801,4.3449578285217285,-0.17202986776828766
-2.8210506439208984,4.340409278869629,-0.1779962033033371
-2.125209331512451,3.321028709411621,-0.14051169157028198
-2.107513189315796,3.345926523208618,-0.1458020955324173
-1.2662686109542847,2.0440661907196045,-0.09162651002407074
-1.2639518976211548,2.07285213470459,-0.09534544497728348
-2.0160391330718994,3.360294818878174,-0.15846115350723267
-1.995089054107666,3.3816287517547607,-0.1632479876279831
-1.9785860776901245,3.409160852432251,-0.16825434565544128
-1.1921534538269043,2.087520122528076,-0.10520903766155243
-1.188214659690857,2.1165261268615723,-0.10883017629384995
-1.9055663347244263,3.454319953918457,-0.18115782737731934
-1.8851650953292847,3.4741673469543457,-0.18550217151641846
-1.8934788703918457,3.5492327213287354,-0.19282810389995575
-1.8765443563461304,3.5800368785858154,-0.1977733075618744
-1.8651478290557861,3.62091326713562,-0.20326021313667297
-2.4876840114593506,4.914775848388672,-0.2802278399467468
-2.4434664249420166,4.914838790893555,-0.2843804657459259
-2.40751314163208,4.932253360748291,-0.2894894778728485
-2.381002187728882,4.966451168060303,-0.29548385739326477
-2.3464083671569824,4.982595920562744,-0.30036619305610657
-2.3269593715667725,5.03441858291626,-0.3073062002658844
-1.5362498760223389,3.3887081146240234,-0.20943230390548706
-1.502790093421936,3.37788987159729,-0.21122851967811584
-1.4791642427444458,3.388108253479004,-0.21430984139442444
-1.4609895944595337,3.4127678871154785,-0.21823060512542725
-1.4393360614776611,3.4302241802215576,-0.22168266773223877
-1.4264280796051025,3.4691684246063232,-0.22655704617500305
-1.3817782402038574,3.4282190799713135,-0.22613579034805298
-1.345970869064331,3.408738374710083,-0.22700445353984833
-1.3270671367645264,3.432685136795044,-0.23069950938224792
-1.308073878288269,3.4564626216888428,-0.23439696431159973
-1.2943041324615479,3.4947333335876465,-0.2391088604927063
-1.2975783348083496,3.580531120300293,-0.24707382917404175
-1.2718478441238403,3.589571714401245,-0.24966663122177124
-1.248604655265808,3.60579252243042,-0.2527756690979004
-1.2233810424804688,3.614250421524048,-0.25530487298965454
-1.2002031803131104,3.630042552947998,-0.25839510560035706
-1.149312138557434,3.56040096282959,-0.2551964819431305
-0.9799295663833618,3.1111369132995605,-0.2244988977909088
-0.9625087380409241,3.132737398147583,-0.227564737200737
-0.8992540240287781,3.0011191368103027,-0.21943418681621552
-0.8050594329833984,2.756598472595215,-0.20284304022789001
-0.7733712196350098,2.721006393432617,-0.20140111446380615
-0.7519198656082153,2.7188124656677246,-0.20240040123462677
-0.7349011898040771,2.7314181327819824,-0.20449259877204895
-0.7139113545417786,2.728811264038086,-0.20544905960559845
-0.7033835649490356,2.767627000808716,-0.20945513248443604
-1.4797160625457764,6.002695083618164,-0.45651423931121826
-1.4598768949508667,6.1075005531311035,-0.46672767400741577
-1.4629908800125122,6.314631462097168,-0.4848584830760956
-1.418944001197815,6.324438095092773,-0.4879333972930908
-1.3751691579818726,6.337872505187988,-0.4909968674182892
-1.3191425800323486,6.2978339195251465,-0.48987042903900146
-1.2670354843139648,6.268586158752441,-0.48953860998153687
-1.2167342901229858,6.242631435394287,-0.48943963646888733
-1.1632627248764038,6.197145462036133,-0.4878055453300476
-1.1148440837860107,6.178165912628174,-0.48787355422973633
-1.0526450872421265,6.082208156585693,-0.48186004161834717
-0.9207975268363953,5.551413536071777,-0.44122314453125
-0.7661350965499878,4.826788425445557,-0.38486912846565247
-0.9151816368103027,6.03695821762085,-0.48291170597076416
-0.8727458119392395,6.043105125427246,-0.4845823645591736
-0.6528350114822388,4.760541915893555,-0.3826988935470581
-0.6250210404396057,4.807363986968994,-0.3874318301677704
-0.7421385049819946,6.036589622497559,-0.48772889375686646
-0.5624581575393677,4.854074954986572,-0.3931562900543213
-0.5250760912895203,4.826850891113281,-0.39161741733551025
-0.5948122143745422,5.849083423614502,-0.4753846526145935
-0.5554144978523254,5.876324653625488,-0.47846710681915283
-0.5132445693016052,5.864429950714111,-0.4783672094345093
-0.46837934851646423,5.81731653213501,-0.47535794973373413
-0.2556708753108978,3.479029417037964,-0.2845820188522339
-0.23242807388305664,3.4962308406829834,-0.28629937767982483
-0.2076341211795807,3.497753620147705,-0.2867535650730133
-0.2989676296710968,5.707383155822754,-0.468453973531723
-0.25858035683631897,5.693711280822754,-0.46785807609558105
-0.21750932931900024,5.66033935546875,-0.465283066034317
-0.17733319103717804,5.638345241546631,-0.46366387605667114
-0.1364525556564331,5.600515365600586,-0.46076637506484985
-0.0971217229962349,5.577948570251465,-0.4591406583786011
-0.058068323880434036,5.551217079162598,-0.45716485381126404
-0.015636270865797997,4.461440563201904,-0.36730581521987915
0.013970788568258286,4.048784255981445,-0.33324700593948364
0.04173429310321808,3.966841697692871,-0.32643380761146545
0.0948558822274208,5.430044651031494,-0.4467710256576538
0.13238264620304108,5.421480655670166,-0.4460109770298004
0.16840460896492004,5.369886875152588,-0.4413534998893738
0.20128650963306427,5.255813121795654,-0.4315945506095886
0.19554802775382996,4.320916175842285,-0.35452425479888916
0.2733483612537384,5.221450328826904,-0.4280647337436676
0.2543211579322815,4.286721229553223,-0.3511708676815033
0.27913904190063477,4.211102485656738,-0.34442663192749023
0.3068999648094177,4.189709186553955,-0.34213656187057495
0.3359711766242981,4.187535285949707,-0.3414342701435089
0.369341105222702,4.227775573730469,-0.344191312789917
0.4751632511615753,5.035310745239258,-0.40934106707572937
0.5092279314994812,5.024247646331787,-0.4075445234775543
0.5221376419067383,4.819411277770996,-0.3900666832923889
0.5225047469139099,4.529531002044678,-0.3658086359500885
0.5616568922996521,4.5837812423706055,-0.3693840801715851
0.6010368466377258,4.637774467468262,-0.3729507625102997
0.6546558141708374,4.791810035705566,-0.3842366635799408
0.7015082240104675,4.883665084838867,-0.390473872423172
0.7329565286636353,4.863411903381348,-0.38774314522743225
0.7661693692207336,4.850527763366699,-0.3855980336666107
0.7935758233070374,4.806772232055664,-0.3810470998287201
0.8333168029785156,4.8397064208984375,-0.38228893280029297
0.37731704115867615,2.1045684814453125,-0.16564470529556274
0.39897215366363525,2.140263319015503,-0.16785453259944916
0.4167889654636383,2.152799606323242,-0.16823741793632507
0.4335390329360962,2.1575005054473877,-0.16799625754356384
0.4467410147190094,2.146923303604126,-0.16645075380802155
0.4581790268421173,2.128650188446045,-0.1643240749835968
0.47455209493637085,2.13311505317688,-0.16395865380764008
0.47893962264060974,2.0842714309692383,-0.15950939059257507
0.5080413818359375,2.1415557861328125,-0.16315588355064392
0.5208817720413208,2.1305320262908936,-0.16148729622364044
1.1622660160064697,4.616669654846191,-0.3481452465057373
1.1941664218902588,4.608700752258301,-0.34575971961021423
1.2262036800384521,4.600460052490234,-0.34335967898368835
1.2585746049880981,4.591897964477539,-0.34083640575408936
1.2783310413360596,4.542123317718506,-0.3351496458053589
1.3115214109420776,4.540956020355225,-0.3330800533294678
1.3385213613510132,4.517010688781738,-0.32933273911476135
1.3653993606567383,4.492863178253174,-0.3255903124809265
1.3921741247177124,4.4685187339782715,-0.32168978452682495
1.424979567527771,4.466553688049316,-0.3193601667881012
1.4445853233337402,4.4235711097717285,-0.3141202926635742
1.4778599739074707,4.420991897583008,-0.3117339611053467
1.4985891580581665,4.381270885467529,-0.3067522943019867
1.2415194511413574,3.550654888153076,-0.2466682642698288
1.2844722270965576,3.5935287475585938,-0.2476501613855362
1.3065385818481445,3.5774431228637695,-0.24456733465194702
1.6026437282562256,4.295258522033691,-0.29124483466148376
1.6321908235549927,4.284334182739258,-0.2880486845970154
1.6640434265136719,4.280651092529297,-0.28524163365364075
1.687783122062683,4.254795551300049,-0.28093183040618896
1.7159557342529297,4.239528179168701,-0.277317076921463
1.7454521656036377,4.227689743041992,-0.2739451825618744
1.767931580543518,4.201648235321045,-0.2695075571537018
1.7963005304336548,4.189823150634766,-0.2659977376461029
1.8194228410720825,4.163045883178711,-0.26145580410957336
1.84524667263031,4.14335298538208,-0.2574041485786438
1.8701602220535278,4.123831272125244,-0.2532983422279358
1.8946123123168945,4.104290008544922,-0.24916966259479523
1.9292755126953125,4.105583190917969,-0.2462654858827591
1.9482587575912476,4.070910930633545,-0.24110952019691467
1.9606400728225708,4.026176452636719,-0.23539365828037262
1.9997018575668335,4.037641525268555,-0.2329213172197342
2.0183305740356445,4.006759166717529,-0.22796638309955597
2.05863618850708,4.017141342163086,-0.22528709471225739
2.0751259326934814,3.9824981689453125,-0.22004345059394836
2.1020796298980713,3.968566656112671,-0.21587204933166504
2.1197667121887207,3.937229633331299,-0.21076878905296326
2.1509296894073486,3.9294185638427734,-0.20685511827468872
2.1394243240356445,3.846855640411377,-0.19901275634765625
2.1629631519317627,3.829406976699829,-0.19458703696727753
2.1818857192993164,3.8008933067321777,-0.18943539261817932
2.2004146575927734,3.7723548412323,-0.1843225657939911
2.243082284927368,3.7882375717163086,-0.1813165843486786
2.2541019916534424,3.75006365776062,-0.17569072544574738
2.2842400074005127,3.7411515712738037,-0.1712716519832611
2.301553964614868,3.7123847007751465,-0.16585734486579895
2.3133060932159424,3.6776411533355713,-0.16026495397090912
2.3469557762145996,3.675013780593872,-0.15587398409843445
2.376248836517334,3.6656606197357178,-0.15111373364925385
2.3870956897735596,3.6308090686798096,-0.14531062543392181
2.4078032970428467,3.607935905456543,-0.13973473012447357
2.4367787837982178,3.598068952560425,-0.1346210539340973
2.4598562717437744,3.5825283527374268,-0.1292814463376999
2.4796605110168457,3.5595357418060303,-0.12341801822185516
2.494375705718994,3.530327320098877,-0.1172482818365097
2.5170581340789795,3.5143799781799316,-0.11144722253084183
2.541506052017212,3.4969351291656494,-0.10516346991062164
2.200075149536133,2.9872257709503174,-0.08489691466093063
2.6852197647094727,3.791205644607544,0.1559601128101349
2.6734774112701416,3.832599401473999,0.16319230198860168
2.6834006309509277,3.9109039306640625,0.1720430999994278
2.6747992038726807,3.958996295928955,0.17930258810520172
2.6627657413482666,4.004387855529785,0.18631811439990997
2.6276447772979736,4.017922878265381,0.19183583557605743
2.5826191902160645,4.009666919708252,0.19584187865257263
2.5532655715942383,4.028164386749268,0.20106878876686096
2.54679274559021,4.087276458740234,0.2083931416273117
2.497429609298706,4.071662902832031,0.21155321598052979
2.480574131011963,4.109077453613281,0.21738477051258087
2.461566209793091,4.147488117218018,0.2232031524181366
2.431110382080078,4.165163040161133,0.22784096002578735
2.40531325340271,4.18886661529541,0.23271799087524414
2.3746607303619385,4.2060747146606445,0.2370908260345459
2.284482955932617,4.117704391479492,0.23537877202033997
2.247469902038574,4.120023250579834,0.23863211274147034
2.222325563430786,4.142267227172852,0.24297010898590088
2.1914048194885254,4.158476829528809,0.2468935251235962
2.1748814582824707,4.202083587646484,0.25238236784935
2.137777090072632,4.203360557556152,0.25524476170539856
2.1188275814056396,4.238903522491455,0.2601470351219177
2.0915024280548096,4.260924816131592,0.26412850618362427
2.059490919113159,4.276267051696777,0.26769715547561646
2.0286436080932617,4.290771961212158,0.2711239457130432
2.0019896030426025,4.3116631507873535,0.27488973736763
1.9762885570526123,4.336154460906982,0.27884459495544434
1.9875056743621826,4.4463982582092285,0.28824582695961
4.471734523773193,10.203337669372559,0.6667619943618774
4.389651775360107,10.212986946105957,0.6725742816925049
1.9099695682525635,4.530449867248535,0.30060404539108276
1.880259394645691,4.55109977722168,0.3040758967399597
1.8528677225112915,4.578949928283691,0.3079988956451416
1.8241281509399414,4.602860450744629,0.31166014075279236
1.8111714124679565,4.6663713455200195,0.3180140554904938
1.7841200828552246,4.693269729614258,0.3218824863433838
1.3642734289169312,3.668221950531006,0.25300133228302
1.3190101385116577,3.626579999923706,0.2515311539173126
1.2956714630126953,3.643117904663086,0.25407320261001587
1.2774792909622192,3.674164056777954,0.2576407492160797
1.6131439208984375,4.745604515075684,0.3345574736595154
1.5789740085601807,4.756916522979736,0.3369164764881134
1.5698893070220947,4.845860958099365,0.34480375051498413
1.5328599214553833,4.849358558654785,0.3466396927833557
1.4984254837036133,4.859941482543945,0.34898483753204346
1.4836242198944092,4.933534622192383,0.3558635115623474
1.4440370798110962,4.928871154785156,0.35692596435546875
1.404361605644226,4.923964500427246,0.35791870951652527
1.3732129335403442,4.948768615722656,0.3610876798629761
1.3000186681747437,4.815141677856445,0.3526456654071808
1.273763656616211,4.854240894317627,0.3568602204322815
1.2414882183074951,4.870500087738037,0.3592861592769623
1.2113745212554932,4.898019790649414,0.3624148666858673
1.1817913055419922,4.929155349731445,0.3658405840396881
1.1453009843826294,4.9296345710754395,0.3669959306716919
1.1206380128860474,4.983100891113281,0.37212926149368286
1.0843138694763184,4.983028888702393,0.3732709586620331
1.0545823574066162,5.017167091369629,0.37672296166419983
1.0220036506652832,5.039696216583252,0.37931302189826965
0.9877136945724487,5.054358959197998,0.3813329041004181
2.1839599609375,11.61146354675293,0.8781797885894775
2.0698494911193848,11.442133903503418,0.867480993270874
1.9604557752609253,11.287233352661133,0.8576501607894897
1.8486195802688599,11.108500480651855,0.8455617427825928
1.7505418062210083,10.997989654541016,0.8386638164520264
1.6454195976257324,10.83675765991211,0.8279205560684204
1.5542246103286743,10.739842414855957,0.8220502734184265
1.4619132280349731,10.622883796691895,0.8146493434906006
1.366123914718628,10.470520973205566,0.8041613101959229
1.2741979360580444,10.332862854003906,0.7945565581321716
1.1905728578567505,10.248604774475098,0.7890745997428894
1.1023072004318237,10.117311477661133,0.7799994945526123
1.031819224357605,10.124619483947754,0.7816103100776672
0.4150187075138092,4.373611927032471,0.33810582756996155
0.37343862652778625,4.252223968505859,0.32899126410484314
0.343605101108551,4.254705905914307,0.32941561937332153
0.315757691860199,4.2919769287109375,0.3325566053390503
0.2845304310321808,4.274610996246338,0.3314751982688904
0.2610609531402588,4.381420612335205,0.340043842792511
0.2312091886997223,4.394763946533203,0.3413826823234558
0.1982114315032959,4.34567928314209,0.33765336871147156
0.13339221477508545,4.235127925872803,0.32923874258995056
0.1028449684381485,4.193113803863525,0.3260820806026459
0.07717413455247879,4.392302513122559,0.3417031764984131
0.04687746241688728,4.416085243225098,0.3436984121799469
0.01551619078963995,4.392946243286133,0.3417900800704956
-0.015125056728720665,4.40074348449707,0.34230753779411316
-0.042670838534832,4.1045732498168945,0.31920263171195984
-0.07078421860933304,4.080820560455322,0.3173036575317383
-0.0993686392903328,4.088022232055664,0.317827045917511
-0.12825067341327667,4.10281229019165,0.3189350664615631
-0.1579250693321228,4.1212897300720215,0.3201174736022949
-0.1821131557226181,4.022855281829834,0.3122428059577942
-0.18662594258785248,3.574253797531128,0.277233749628067
-0.20984740555286407,3.545677900314331,0.2748415768146515
-0.23341578245162964,3.528613805770874,0.27335721254348755
-0.2850823700428009,3.8920211791992188,0.3013044595718384
-0.3075861930847168,3.835649251937866,0.2965776026248932
-0.3333436846733093,3.8257179260253906,0.2954620122909546
-0.34515345096588135,3.668259382247925,0.28298062086105347
-0.36321359872817993,3.5921823978424072,0.27680835127830505
-0.38943180441856384,3.5973081588745117,0.27690786123275757
-0.4264124929904938,3.6990339756011963,0.2843918800354004
-0.4490230679512024,3.6728696823120117,0.28189125657081604
-0.4732908606529236,3.6620218753814697,0.28058356046676636
-0.4937498867511749,3.623997688293457,0.27721238136291504
-0.5183070302009583,3.612752914428711,0.2758951485157013
-0.5387755632400513,3.5783016681671143,0.2728324234485626
-0.5574597716331482,3.5360705852508545,0.26911017298698425
-0.5804160237312317,3.524548053741455,0.26763099431991577
-0.5986256003379822,3.486001968383789,0.26411953568458557
-0.6000144481658936,3.355316400527954,0.2536628544330597
-1.1861649751663208,6.372747898101807,0.48072075843811035
-1.2385233640670776,6.406554222106934,0.48224490880966187
-1.2940006256103516,6.4553303718566895,0.4846630394458771
-1.3459670543670654,6.484640598297119,0.4854990541934967
-0.7629483342170715,3.553886890411377,0.26533982157707214
-0.7845169901847839,3.5333118438720703,0.26305997371673584
-1.3037545680999756,5.684818267822266,0.4220748245716095
-1.3468025922775269,5.690925598144531,0.4213775396347046
-0.6747497916221619,2.767078399658203,0.2041860818862915
-0.7049123644828796,2.807856559753418,0.20649045705795288
-0.7145941853523254,2.7652602195739746,0.20265741646289825
-0.735785186290741,2.767838954925537,0.2021506428718567
-0.7509095668792725,2.747696876525879,0.19999505579471588
-0.780359148979187,2.780055046081543,0.20160605013370514
-0.8153562545776367,2.830960512161255,0.2044617086648941
-0.977320671081543,3.307464122772217,0.23788967728614807
-1.0090274810791016,3.330623149871826,0.2385745346546173
-1.0251983404159546,3.3013107776641846,0.23549799621105194
-1.0434046983718872,3.279350757598877,0.23296698927879333
-1.0811996459960938,3.320526361465454,0.2347581684589386
-1.1014925241470337,3.305752754211426,0.23256634175777435
-1.1100211143493652,3.257751226425171,0.2280791699886322
-1.14552903175354,3.2868587970733643,0.2289697229862213
-1.3358887434005737,3.7489020824432373,0.2598544657230377
-1.384061336517334,3.80212664604187,0.26210224628448486
-1.4069010019302368,3.785564422607422,0.2594776153564453
-1.4355740547180176,3.7832720279693604,0.25781601667404175
-1.4674618244171143,3.787895679473877,0.25660815834999084
-1.49381422996521,3.7777297496795654,0.25440117716789246
-1.5311431884765625,3.7965612411499023,0.25404292345046997
-1.5535151958465576,3.7791905403137207,0.25119560956954956
-2.353748083114624,5.617066860198975,0.37080737948417664
-2.386613130569458,5.5864667892456055,0.36620256304740906
-2.4130325317382812,5.5413384437561035,0.3606767952442169
-2.4899566173553467,5.614261627197266,0.3626536428928375
-2.5498085021972656,5.647541046142578,0.36193305253982544
-4.055817604064941,8.822800636291504,0.5608426332473755
-2.5727827548980713,5.495850086212158,0.34644025564193726
-2.604252815246582,5.463984966278076,0.34152981638908386
-2.631911039352417,5.429311752319336,0.33628779649734497
-2.6505045890808105,5.377063751220703,0.3299994468688965
-2.7016663551330566,5.3867363929748535,0.32738491892814636
-2.3721580505371094,4.6488237380981445,0.279744952917099
-1.8036357164382935,3.4763689041137695,0.20703038573265076
-1.815567135810852,3.4438891410827637,0.20287416875362396
-1.8494505882263184,3.452561855316162,0.2011314332485199
-1.8660906553268433,3.4260177612304688,0.19722223281860352
-1.1907445192337036,2.1502082347869873,0.12225060909986496
-1.1933515071868896,2.122058153152466,0.11910971254110336
-1.9115217924118042,3.3476059436798096,0.18545415997505188
-1.9347318410873413,3.334428548812866,0.18213997781276703
-1.9535893201828003,3.314540386199951,0.1784510463476181
-1.9753910303115845,3.301776170730591,0.17503859102725983
-1.2678481340408325,2.088118553161621,0.10897789150476456
-2.656977415084839,4.30814266204834,0.22103366255760193
-2.603102207183838,4.158072471618652,0.2095903754234314
-2.577566146850586,4.0590596199035645,0.20085786283016205
-2.5778329372406006,3.9988911151885986,0.19394035637378693
-2.584312677383423,3.948373556137085,0.18750128149986267
-2.600935697555542,3.9189469814300537,0.1820242702960968
-2.6307260990142822,3.9086532592773438,0.17737969756126404
-2.6996941566467285,3.9517359733581543,0.1747961938381195
-2.7433855533599854,3.9598233699798584,0.1704287827014923
-2.8202474117279053,4.015920162200928,0.16801218688488007
-2.8663060665130615,4.021844387054443,0.1629415601491928
-2.8780593872070312,3.9848246574401855,0.15608325600624084
-2.9223530292510986,3.9914796352386475,0.15069319307804108
-2.9307661056518555,3.94671893119812,0.1429501473903656
-2.461669921875,3.472543478012085,-0.10291165113449097
-2.4454407691955566,3.502885103225708,-0.10902164876461029
-2.915346384048462,4.241240501403809,-0.13801023364067078
-2.9002139568328857,4.289139270782471,-0.1456097662448883
-2.896153211593628,4.348080158233643,-0.15313872694969177
-2.8422141075134277,4.336698532104492,-0.15817700326442719
-2.8419189453125,4.406520366668701,-0.16605828702449799
-2.120375156402588,3.338459014892578,-0.12960444390773773
-2.0888171195983887,3.3443198204040527,-0.1336309015750885
-1.2794443368911743,2.08213210105896,-0.08545206487178802
-2.028635263442993,3.3534820079803467,-0.14107221364974976
-2.0158894062042236,3.388270854949951,-0.145950049161911
-1.990769624710083,3.402916193008423,-0.14995864033699036
-1.9626773595809937,3.4100210666656494,-0.15349918603897095
-1.2036610841751099,2.126314878463745,-0.09766297787427902
-1.1613898277282715,2.0872724056243896,-0.09774984419345856
-1.9089525938034058,3.4888877868652344,-0.1664104163646698
-1.8808716535568237,3.495073080062866,-0.1696552336215973
-1.8858344554901123,3.5674405097961426,-0.17613232135772705
-1.8704485893249512,3.601757526397705,-0.18074734508991241
-2.5230958461761475,4.942179203033447,-0.2518119812011719
-2.5022165775299072,4.987493515014648,-0.25791260600090027
-2.4744555950164795,5.022843360900879,-0.2634338438510895
-2.4374637603759766,5.040652275085449,-0.2680974006652832
-2.412330389022827,5.078420639038086,-0.27365642786026
-2.389641046524048,5.123359203338623,-0.27959761023521423
-1.5585812330245972,3.4055745601654053,-0.18811245262622833
-1.521248459815979,3.388073682785034,-0.18937547504901886
-1.491274356842041,3.384174108505249,-0.19131308794021606
-1.4669924974441528,3.3946139812469482,-0.1940688192844391
-1.448500394821167,3.419346332550049,-0.19753292202949524
-1.4297780990600586,3.4439635276794434,-0.20101363956928253
-1.4057793617248535,3.453679323196411,-0.2035704106092453
-1.3672196865081787,3.427016258239746,-0.2039712816476822
-1.3322135210037231,3.411336660385132,-0.20490099489688873
-1.3118565082550049,3.431601047515869,-0.2079608142375946
-1.2932050228118896,3.4551916122436523,-0.21120449900627136
-1.2825241088867188,3.5005881786346436,-0.21580412983894348
-1.27738356590271,3.5645251274108887,-0.2215040922164917
-1.2591352462768555,3.5956673622131348,-0.22519081830978394
-1.2436892986297607,3.6338837146759033,-0.22931291162967682
-1.2183067798614502,3.6423304080963135,-0.23155269026756287
-1.1963928937911987,3.6617538928985596,-0.23447531461715698
-1.0008413791656494,3.138875722885132,-0.202318474650383
-0.9710479378700256,3.123614549636841,-0.20268183946609497
-0.9446271657943726,3.1153011322021484,-0.2034406065940857
-0.814599335193634,2.7553112506866455,-0.1810774803161621
-0.7865438461303711,2.7309160232543945,-0.1805332452058792
-0.763951301574707,2.725087881088257,-0.1811523288488388
-0.7446261048316956,2.7303414344787598,-0.18250955641269684
-0.727262556552887,2.742992877960205,-0.18437324464321136
-0.7149408459663391,2.7743258476257324,-0.18749746680259705
-0.6811274290084839,2.7225069999694824,-0.1848716139793396
-1.4706825017929077,6.060416221618652,-0.4134587049484253
-1.465469241142273,6.2297892570495605,-0.42699456214904785
-1.4386287927627563,6.315828323364258,-0.43492695689201355
-1.3962963819503784,6.333121299743652,-0.4381072223186493
-1.3499512672424316,6.335030555725098,-0.43990984559059143
-1.2989366054534912,6.313697814941406,-0.4401102662086487
-1.2386990785598755,6.242217063903809,-0.4367969334125519
-0.9362203478813171,4.899493217468262,-0.3441784083843231
-0.8899850249290466,4.840639591217041,-0.3412967324256897
-0.8463776707649231,4.7929606437683105,-0.3389637768268585
-0.8040958642959595,4.7487616539001465,-0.33687257766723633
-0.7633893489837646,4.708009719848633,-0.3350125551223755
-0.7258696556091309,4.686239242553711,-0.3345165550708771
-0.6886083483695984,4.660256385803223,-0.3336257040500641
-0.6558610200881958,4.6648993492126465,-0.3347266614437103
-0.6241132616996765,4.677035808563232,-0.3363831639289856
-0.5904790163040161,4.673467636108398,-0.33692169189453125
-0.5625444650650024,4.716074466705322,-0.34080877900123596
-0.530398428440094,4.731484889984131,-0.3426870107650757
-0.4972538352012634,4.7350239753723145,-0.34349945187568665
-0.467883437871933,4.777106285095215,-0.3471294343471527
-0.4373699426651001,4.811234474182129,-0.35020479559898376
-0.40616270899772644,4.841278076171875,-0.3530055582523346
-0.3781357407569885,4.925551891326904,-0.35972264409065247
-0.2434045970439911,3.4900453090667725,-0.2551215589046478
-0.2194889932870865,3.499411106109619,-0.25605589151382446
-0.3182525932788849,5.710239887237549,-0.41825053095817566
-0.27782154083251953,5.696704387664795,-0.41770267486572266
-0.23649431765079498,5.675135135650635,-0.4165266156196594
-0.19547192752361298,5.633800506591797,-0.41361159086227417
-0.15574271976947784,5.61943244934082,-0.4126953184604645
-0.11583804339170456,5.581414699554443,-0.410060316324234
-0.07668047398328781,5.554800510406494,-0.4082808196544647
-0.03712659701704979,5.50844144821167,-0.4050387740135193
0.0009272919851355255,4.374916076660156,-0.3215767741203308
0.028717277571558952,4.008620738983154,-0.2945628762245178
0.07703947275876999,5.457407474517822,-0.40092065930366516
0.1143680140376091,5.425589561462402,-0.3985004425048828
0.15208283066749573,5.424672603607178,-0.39836981892585754
0.1864340454339981,5.3105902671813965,-0.38960352540016174
0.21956264972686768,5.219676971435547,-0.3825685381889343
0.20908577740192413,4.2647223472595215,-0.31229308247566223
0.29142171144485474,5.2045207023620605,-0.38078394532203674
0.2664083242416382,4.230352878570557,-0.309257835149765
0.2951289713382721,4.2128705978393555,-0.3074962794780731
0.3231213092803955,4.195233345031738,-0.3057193160057068
0.355448842048645,4.2317633628845215,-0.3079017698764801
0.4572215676307678,5.024646282196045,-0.365037739276886
0.49212247133255005,5.021403789520264,-0.3642655909061432
0.5160431861877441,4.909397125244141,-0.3553716242313385
0.5095698833465576,4.545698642730713,-0.3283063471317291
0.5464809536933899,4.588569164276123,-0.3306716978549957
0.5837240219116211,4.627254486083984,-0.3327327072620392
0.6287342309951782,4.719715118408203,-0.338655024766922
0.6868539452552795,4.892761707305908,-0.3500923216342926
0.7188588380813599,4.876442909240723,-0.3479085862636566
0.7500765919685364,4.856064796447754,-0.3454572260379791
0.7776549458503723,4.812353134155273,-0.3413635790348053
0.8149934411048889,4.829979419708252,-0.3416418731212616
0.373197466135025,2.122407913208008,-0.14961208403110504
0.3964662253856659,2.1657943725585938,-0.15210814774036407
0.40700697898864746,2.1400928497314453,-0.14976219832897186
0.42641499638557434,2.16020131111145,-0.15062376856803894
0.4398718476295471,2.1495978832244873,-0.14934730529785156
0.4498370289802551,2.1236953735351562,-0.1469305157661438
0.46132007241249084,2.1053338050842285,-0.1450151801109314
0.47579723596572876,2.1021673679351807,-0.14416754245758057
0.4833011031150818,2.06850528717041,-0.141238272190094
0.5086411833763123,2.1106207370758057,-0.14348478615283966
0.5353279113769531,2.156323194503784,-0.1458582580089569
1.1779148578643799,4.607339382171631,-0.3100307881832123
1.2115439176559448,4.606815814971924,-0.30840691924095154
1.2404803037643433,4.587139129638672,-0.30549946427345276
1.272360920906067,4.5785417556762695,-0.30334293842315674
1.3014227151870728,4.56241512298584,-0.3004849851131439
1.328693151473999,4.538459777832031,-0.2971022129058838
1.3554707765579224,4.51440954208374,-0.29375210404396057
1.3823120594024658,4.490103244781494,-0.29039230942726135
1.4110466241836548,4.473137855529785,-0.2874750792980194
1.439113736152649,4.456158638000488,-0.2844235599040985
1.4650663137435913,4.431435585021973,-0.280868798494339
1.492030143737793,4.410247802734375,-0.277560830116272
1.5124995708465576,4.370436191558838,-0.2731054425239563
1.2732234001159668,3.5991287231445312,-0.22321467101573944
1.2923598289489746,3.5758602619171143,-0.22003349661827087
1.3302003145217896,3.603696823120117,-0.21999244391918182
1.6144675016403198,4.2803449630737305,-0.2591341733932495
1.644179344177246,4.269189357757568,-0.256328284740448
1.6830068826675415,4.2835564613342285,-0.2548961639404297
1.7061439752578735,4.257765769958496,-0.2510802149772644
1.7310649156570435,4.235233306884766,-0.2474355697631836
1.755056381225586,4.208627223968506,-0.24351519346237183
1.7868019342422485,4.2039055824279785,-0.24082504212856293
1.8089232444763184,4.177615165710449,-0.2368624210357666
1.8310768604278564,4.151082515716553,-0.23288702964782715
1.859926700592041,4.138416767120361,-0.22965838015079498
1.8856184482574463,4.118377208709717,-0.22594717144966125
1.9098976850509644,4.098748207092285,-0.22225011885166168
1.937485694885254,4.085958957672119,-0.2189246565103531
1.9506468772888184,4.040916442871094,-0.21381361782550812
1.9836769104003906,4.038032054901123,-0.21094092726707458
2.0145797729492188,4.031614780426025,-0.20774614810943604
2.041539192199707,4.018209457397461,-0.2042388617992401
2.0622780323028564,3.9902262687683105,-0.19990114867687225
2.0879406929016113,3.9726316928863525,-0.19608481228351593
2.1161046028137207,3.9623072147369385,-0.19256718456745148
2.136956214904785,3.9379637241363525,-0.18836140632629395
2.1535208225250244,3.902390480041504,-0.18346647918224335
2.1438701152801514,3.8230783939361572,-0.17661958932876587
2.1575279235839844,3.788634777069092,-0.1718825399875641
2.18699049949646,3.780900001525879,-0.1683085560798645
2.2212154865264893,3.7791953086853027,-0.16489000618457794
2.238800048828125,3.7508087158203125,-0.16021661460399628
2.259342670440674,3.7295150756835938,-0.15591929852962494
2.289196491241455,3.720611095428467,-0.1519634872674942
2.3062238693237305,3.6918530464172363,-0.1471763253211975
2.334397315979004,3.683518648147583,-0.1431902050971985
2.3597099781036377,3.667527437210083,-0.1386953741312027
2.384960412979126,3.651327133178711,-0.13415664434432983
2.4084699153900146,3.6360270977020264,-0.12963274121284485
2.4283607006073,3.613532304763794,-0.12472263723611832
2.4445114135742188,3.5839014053344727,-0.11941013485193253
2.476696014404297,3.5809051990509033,-0.11490009725093842
2.4827873706817627,3.5387496948242188,-0.10901125520467758
2.506558895111084,3.5221099853515625,-0.1037897914648056
2.528728485107422,3.5063765048980713,-0.09859690815210342
2.599034309387207,3.5520002841949463,-0.09458336979150772
2.1842195987701416,2.9457948207855225,-0.07398699223995209
2.695295810699463,3.7753210067749023,0.1331593096256256
2.6623342037200928,3.788886308670044,0.13880956172943115
2.6442294120788574,3.8203494548797607,0.1447489857673645
2.6233694553375244,3.853400707244873,0.15071752667427063
2.5956575870513916,3.871920585632324,0.15579812228679657
2.6084816455841064,3.9522740840911865,0.16328991949558258
2.590409755706787,3.9918806552886963,0.16920633614063263
2.5724594593048096,4.026452541351318,0.1745905876159668
2.5560600757598877,4.064376354217529,0.1800573468208313
2.5210962295532227,4.076776027679443,0.1843424141407013
2.5077810287475586,4.121376991271973,0.18994227051734924
2.4463348388671875,4.085322380065918,0.19175174832344055
2.439450263977051,4.143683433532715,0.19780734181404114
2.4240965843200684,4.188598155975342,0.20325936377048492
2.3639180660247803,4.1509552001953125,0.20448166131973267
2.345726251602173,4.187932014465332,0.20932291448116302
2.28197979927063,4.147250175476074,0.21022680401802063
2.229419231414795,4.122394561767578,0.21176669001579285
2.222554922103882,4.1790313720703125,0.21738669276237488
2.1817126274108887,4.1739182472229,0.21974951028823853
2.1614630222320557,4.210594177246094,0.22423981130123138
2.1302826404571533,4.226273059844971,0.22763420641422272
2.104252815246582,4.247830867767334,0.23121406137943268
2.074139356613159,4.262443542480469,0.2343740314245224
2.049546957015991,4.2914533615112305,0.2382258176803589
2.0180511474609375,4.306182384490967,0.24130260944366455
1.9879755973815918,4.3199849128723145,0.24423091113567352
1.9588658809661865,4.337374210357666,0.24741466343402863
1.9856513738632202,4.48334264755249,0.25780200958251953
1.9559509754180908,4.5047197341918945,0.2610927224159241
1.9298813343048096,4.532749176025391,0.26474350690841675
1.9117379188537598,4.578334808349609,0.26940903067588806
1.862450361251831,4.552119731903076,0.26982444524765015
1.8394594192504883,4.590729713439941,0.2739296555519104
1.793176293373108,4.571164608001709,0.27457717061042786
1.7582768201828003,4.576196193695068,0.276634156703949
1.7346173524856567,4.610075950622559,0.2804412245750427
1.3361791372299194,3.630549430847168,0.2221759706735611
1.3098894357681274,3.6400060653686523,0.2239890992641449
1.275801658630371,3.627187967300415,0.22443422675132751
1.633440375328064,4.749532699584961,0.2954486608505249
1.6239737272262573,4.830864906311035,0.3021045923233032
1.5841938257217407,4.827503681182861,0.30339574813842773
1.5494805574417114,4.838625907897949,0.3054794371128082
1.5216193199157715,4.871842384338379,0.3089820146560669
1.4761240482330322,4.844945430755615,0.30864566564559937
1.437874436378479,4.840038299560547,0.30970510840415955
1.4167439937591553,4.894866943359375,0.31451988220214844
1.3830994367599487,4.91246223449707,0.3168502748012543
1.345806360244751,4.914608955383301,0.31817901134490967
1.2900960445404053,4.844736099243164,0.3148198127746582
1.2583130598068237,4.861029624938965,0.3170440196990967
1.2272181510925293,4.880919933319092,0.31950902938842773
1.1973373889923096,4.912313461303711,0.3225399851799011
1.1694313287734985,4.950981140136719,0.3260599970817566
1.1377500295639038,4.9742536544799805,0.3285863697528839
1.106473684310913,4.997176170349121,0.33109286427497864
1.0741652250289917,5.016080856323242,0.33335304260253906
1.0381803512573242,5.023560047149658,0.3347402811050415
1.0056078433990479,5.045996189117432,0.3370276987552643
0.9756580591201782,5.083542823791504,0.3403497040271759
2.127779722213745,11.52187442779541,0.7732597589492798
2.0202126502990723,11.382719039916992,0.7657760381698608
0.34918591380119324,2.051841974258423,0.13838180899620056
1.7986271381378174,11.040549278259277,0.74587082862854
1.7018722295761108,10.933470726013184,0.7399247884750366
1.6095844507217407,10.844860076904297,0.735239565372467
1.5014923810958862,10.624094009399414,0.7215660810470581
1.4102174043655396,10.514565467834473,0.7154642343521118
1.3221275806427002,10.40803337097168,0.70936518907547
1.2353928089141846,10.304762840270996,0.7031441330909729
1.1520280838012695,10.216275215148926,0.6979483962059021
1.067716121673584,10.103856086730957,0.6911314129829407
0.9916640520095825,10.052769660949707,0.688521683216095
0.3945448398590088,4.311743259429932,0.295714795589447
0.35948336124420166,4.2561140060424805,0.29217463731765747
0.3301839530467987,4.266280651092529,0.29306402802467346
0.30162349343299866,4.287904739379883,0.29475587606430054
0.2783266305923462,4.394891738891602,0.30233559012413025
0.24722923338413239,4.396725654602051,0.3027048110961914
0.21531645953655243,4.371066570281982,0.3011902868747711
0.1821989268064499,4.310152053833008,0.2970878481864929
0.12262566387653351,4.335631847381592,0.29895755648612976
0.0927392914891243,4.3753437995910645,0.30177631974220276
0.06184118613600731,4.344701290130615,0.2997560203075409
0.03029714897274971,4.1657609939575195,0.2875135540962219
0.0012839005794376135,4.142494201660156,0.28582629561424255
-0.02815752848982811,4.232038974761963,0.2919059991836548
-0.055790409445762634,4.060288429260254,0.27997705340385437
-0.08385889232158661,4.0520172119140625,0.27933958172798157
-0.11181505769491196,4.043551921844482,0.2787024974822998
-0.1393466740846634,4.027106761932373,0.27752912044525146
-0.16758015751838684,4.0338521003723145,0.2777617275714874
-0.19553571939468384,4.032614707946777,0.2774559557437897
-0.1971324235200882,3.5486648082733154,0.24397343397140503
-0.2222835123538971,3.555006265640259,0.24423789978027344
-0.2567201554775238,3.693351984024048,0.2535765767097473
-0.29960739612579346,3.9168765544891357,0.2687361538410187
-0.3227483332157135,3.868145227432251,0.26504436135292053
-0.3411291241645813,3.7687835693359375,0.25790295004844666
-0.35352417826652527,3.62673282623291,0.24787874519824982
-0.37634041905403137,3.6009578704833984,0.24582454562187195
-0.41303616762161255,3.702864170074463,0.2524927854537964
-0.44466567039489746,3.750260591506958,0.255391389131546
-0.46070435643196106,3.665895938873291,0.24918706715106964
-0.4828409254550934,3.6395020484924316,0.24695603549480438
-0.5079076290130615,3.6361334323883057,0.24630120396614075
-0.5280756950378418,3.597853899002075,0.24329376220703125
-0.5494788885116577,3.5710325241088867,0.24108009040355682
-0.5683402419090271,3.5286569595336914,0.23773370683193207
-0.5879730582237244,3.497830867767334,0.23509758710861206
-0.5883489847183228,3.3594062328338623,0.2252667248249054
-1.1573295593261719,6.350183486938477,0.4248277544975281
-1.207956314086914,6.376558303833008,0.42561203241348267
-1.2613247632980347,6.41399621963501,0.4271416962146759
-1.316184639930725,6.454807758331299,0.42865023016929626
-1.3730672597885132,6.506825923919678,0.4308508038520813
-0.7810319066047668,3.5800538063049316,0.2363721877336502
-0.7997506260871887,3.548020362854004,0.2335829734802246
-1.2432056665420532,5.342144012451172,0.350691556930542
-1.2717022895812988,5.295454502105713,0.34659016132354736
-0.6992047429084778,2.8269524574279785,0.18437424302101135
-0.7087865471839905,2.784416437149048,0.18096396327018738
-0.7218247652053833,2.756953001022339,0.17855365574359894
-0.735924482345581,2.7331016063690186,0.17638222873210907
-0.7604391574859619,2.7466776371002197,0.1766246110200882
-0.7898629307746887,2.778982639312744,0.17799824476242065
-0.8021366596221924,2.7511749267578125,0.17547650635242462
-0.9748435020446777,3.2612786293029785,0.20714151859283447
-1.0087779760360718,3.2918283939361572,0.208191379904747
-1.0180808305740356,3.2400355339050293,0.2040220946073532
-1.0751001834869385,3.340646505355835,0.20942389965057373
-1.1025118827819824,3.348219633102417,0.20885643362998962
-1.098960041999817,3.2631845474243164,0.20254120230674744
-1.137741208076477,3.303622245788574,0.20402030646800995
-1.1659165620803833,3.3104212284088135,0.20339179039001465
-1.3492305278778076,3.7461369037628174,0.22895914316177368
-1.3919122219085693,3.7846691608428955,0.2299644500017166
-1.4228029251098633,3.7899484634399414,0.22893916070461273
-1.4568811655044556,3.8021669387817383,0.22831660509109497
-1.483261227607727,3.7920727729797363,0.22632591426372528
-1.5100303888320923,3.78161358833313,0.22430038452148438
-1.5412076711654663,3.7859902381896973,0.22303858399391174
-1.5694396495819092,3.7829465866088867,0.22133542597293854
-2.366640567779541,5.5974884033203125,0.32522132992744446
-2.399458885192871,5.566703796386719,0.32109394669532776
-2.4277729988098145,5.52479362487793,0.3163032531738281
-2.541048288345337,5.679591655731201,0.32257601618766785
-2.519059896469116,5.531352519989014,0.3116336762905121
-2.543613910675049,5.485919952392578,0.3065136969089508
-2.5701115131378174,5.443571090698242,0.3015516996383667
-2.6112449169158936,5.432823181152344,0.298236221075058
-2.619720935821533,5.359546661376953,0.29145491123199463
-1.769532322883606,3.560352325439453,0.19177579879760742
-1.7801752090454102,3.520237445831299,0.1877024620771408
-1.811792016029358,3.5217676162719727,0.18586432933807373
-1.818764328956604,3.4787304401397705,0.18158796429634094
-1.83839750289917,3.4596991539001465,0.17855030298233032
-1.8434146642684937,3.4128804206848145,0.17407654225826263
-1.8520936965942383,3.372743844985962,0.16994839906692505
-1.1977107524871826,2.1471588611602783,0.10681936889886856
-1.9079780578613281,3.3686628341674805,0.16539694368839264
-1.9233442544937134,3.342057228088379,0.1617906540632248
-1.9426641464233398,3.321967601776123,0.15849237143993378
-1.9626567363739014,3.3057992458343506,0.1553393304347992
-1.2327691316604614,2.046071767807007,0.0946505218744278
-1.2711204290390015,2.0776731967926025,0.09451498091220856
-2.518063545227051,4.05120849609375,0.181029811501503
-2.544088125228882,4.03509521484375,0.17699965834617615
-2.55128812789917,3.989081382751465,0.17166295647621155
-2.5790085792541504,3.971400737762451,0.1673339307308197
-2.6010966300964355,3.947803258895874,0.16273236274719238
-2.6180264949798584,3.9180080890655518,0.15780094265937805
-2.670996904373169,3.9390103816986084,0.1547105610370636
-2.7218213081359863,3.9564900398254395,0.1513112634420395
-2.7645680904388428,3.9650609493255615,0.14747504889965057
-2.8635940551757812,4.0483856201171875,0.14595623314380646
-2.886416435241699,4.022735595703125,0.14016635715961456
-2.895397186279297,3.9827189445495605,0.13396675884723663
