X,Y,Z
1.1036919355392456,4.615738391876221,-0.7495620250701904
1.1322821378707886,4.593850612640381,-0.7413453459739685
1.1487959623336792,4.523022651672363,-0.7252705693244934
0.961493194103241,3.679241418838501,-0.585808515548706
0.9880009889602661,3.677018404006958,-0.5813109278678894
1.004439115524292,3.637321949005127,-0.5709189772605896
1.0299112796783447,3.6309897899627686,-0.5658208727836609
1.0621132850646973,3.6466994285583496,-0.563825249671936
1.085188388824463,3.6326866149902344,-0.5571513175964355
1.1059637069702148,3.611096143722534,-0.5493500828742981
1.1289682388305664,3.596710681915283,-0.5426700711250305
1.1517395973205566,3.5822088718414307,-0.5359236001968384
1.1769710779190063,3.5748910903930664,-0.529933750629425
1.196784496307373,3.5528502464294434,-0.52189040184021
1.2217339277267456,3.5452191829681396,-0.5159416198730469
1.2376528978347778,3.511841297149658,-0.5063010454177856
1.2658792734146118,3.515002489089966,-0.5016707181930542
1.2875349521636963,3.4997618198394775,-0.49441811442375183
1.3110694885253906,3.487774610519409,-0.4875246584415436
1.332797646522522,3.4721086025238037,-0.48022231459617615
1.3540310859680176,3.4564528465270996,-0.47275903820991516
1.3720932006835938,3.4335203170776367,-0.4642921984195709
1.401853322982788,3.439112901687622,-0.4596487581729889
1.7376757860183716,4.178147792816162,-0.5516715049743652
1.7575663328170776,4.1456379890441895,-0.5406357645988464
1.7860504388809204,4.134522438049316,-0.5323434472084045
1.8116252422332764,4.115976810455322,-0.5230610370635986
1.837429165840149,4.0970892906188965,-0.5136862397193909
1.8728517293930054,4.099184513092041,-0.5067095160484314
1.894441843032837,4.073197841644287,-0.49630093574523926
1.9226549863815308,4.061015605926514,-0.48755785822868347
1.947830080986023,4.04143762588501,-0.4778546690940857
1.9723637104034424,4.021919250488281,-0.468100905418396
1.9950456619262695,3.9987478256225586,-0.45777130126953125
2.0245020389556885,3.9893107414245605,-0.4490566849708557
2.043694496154785,3.9586853981018066,-0.4378732144832611
2.0672848224639893,3.938657283782959,-0.42783278226852417
2.0977208614349365,3.9323530197143555,-0.41926202178001404
2.125108242034912,3.9186301231384277,-0.4097112715244293
2.141880750656128,3.8838675022125244,-0.3977993130683899
2.1357932090759277,3.812542200088501,-0.3823738992214203
2.157705783843994,3.792174816131592,-0.372205525636673
2.1844494342803955,3.7777955532073975,-0.36229920387268066
2.190882444381714,3.729919910430908,-0.34924939274787903
2.2243897914886475,3.729112148284912,-0.3404732942581177
2.258152484893799,3.727905511856079,-0.33155396580696106
2.2639615535736084,3.6796252727508545,-0.31832411885261536
2.2885050773620605,3.665285587310791,-0.3080897033214569
2.3382022380828857,3.690128803253174,-0.30096518993377686
2.3477730751037598,3.647913932800293,-0.28775280714035034
2.3637855052948,3.6197896003723145,-0.275930792093277
2.404982566833496,3.63083553314209,-0.26704689860343933
2.41310453414917,3.588742733001709,-0.25366339087486267
2.4327614307403564,3.566800117492676,-0.24181772768497467
2.487684726715088,3.5960967540740967,-0.2330940216779709
2.4816055297851562,3.5345449447631836,-0.2179308980703354
2.50482439994812,3.5188608169555664,-0.20577135682106018
2.564746856689453,3.5534396171569824,-0.19606482982635498
2.2573068141937256,3.0828328132629395,-0.1592467874288559
2.174565315246582,2.931039571762085,-0.14102119207382202
2.7727479934692383,3.8924648761749268,0.4130329489707947
2.7610549926757812,3.9374024868011475,0.42921850085258484
2.734147071838379,3.964113235473633,0.44332826137542725
2.7145540714263916,3.9950146675109863,0.45684969425201416
2.6799278259277344,4.007589340209961,0.468111515045166
2.6312081813812256,4.001175880432129,0.4769602417945862
2.6273837089538574,4.058035850524902,0.4926723539829254
2.599745512008667,4.079092502593994,0.5038187503814697
2.557752847671509,4.081331253051758,0.5123944282531738
2.5579187870025635,4.148530960083008,0.5288815498352051
2.508288621902466,4.1321187019348145,0.53440260887146
2.48857045173645,4.169901371002197,0.5467725992202759
2.4427754878997803,4.16417121887207,0.5532181262969971
2.4261035919189453,4.204094409942627,0.5653637051582336
2.3924102783203125,4.213247299194336,0.5732776522636414
2.3721086978912354,4.250202655792236,0.5846796631813049
2.2814292907714844,4.16178560256958,0.5787694454193115
2.243809461593628,4.163464069366455,0.5848672986030579
2.2179784774780273,4.184961795806885,0.5936124920845032
2.187204360961914,4.20004415512085,0.6012261509895325
2.1696808338165283,4.242890357971191,0.6126901507377625
2.1446433067321777,4.271853923797607,0.6222417950630188
2.114459753036499,4.285839557647705,0.6293260455131531
2.0908474922180176,4.3135881423950195,0.6384390592575073
2.0553393363952637,4.321046352386475,0.6441513895988464
2.019832134246826,4.328209400177002,0.6498407125473022
1.9949818849563599,4.355769157409668,0.6584931015968323
1.9605475664138794,4.361910343170166,0.6639161109924316
2.015214681625366,4.5695109367370605,0.7000102996826172
1.964473009109497,4.544281482696533,0.7002505660057068
1.9458895921707153,4.5933380126953125,0.7119733095169067
1.912920355796814,4.606225967407227,0.7180303335189819
1.8871923685073853,4.636756896972656,0.7268851399421692
1.8714457750320435,4.692182540893555,0.7395462989807129
1.8257062435150146,4.676117420196533,0.740553081035614
1.7885758876800537,4.6812968254089355,0.7449367642402649
1.7494333982467651,4.678708553314209,0.748037576675415
1.3351061344146729,3.6491568088531494,0.5861656665802002
1.3185977935791016,3.683222532272339,0.5943652391433716
1.2854766845703125,3.673851728439331,0.5952046513557434
1.6557753086090088,4.844254970550537,0.7878844738006592
1.6106822490692139,4.8260908126831055,0.7880077362060547
1.5857442617416382,4.86604642868042,0.7976024746894836
1.5445680618286133,4.854205131530762,0.798695981502533
1.5261789560317993,4.915865898132324,0.8117332458496094
1.4927613735198975,4.933480739593506,0.8171806335449219
1.475577473640442,5.006352424621582,0.8318564891815186
1.4438962936401367,5.030929088592529,0.8385689854621887
1.3956464529037476,4.995790481567383,0.8353322148323059
1.3394241333007812,4.926601409912109,0.8263375163078308
1.2935781478881836,4.894357681274414,0.8231641054153442
1.2612266540527344,4.914150714874268,0.8285272717475891
1.2370926141738892,4.96737813949585,0.8395909667015076
1.2048102617263794,4.990571022033691,0.8456591963768005
1.1734209060668945,5.013298034667969,0.8516342639923096
1.1366595029830933,5.013274669647217,0.8537893891334534
1.1069117784500122,5.047021865844727,0.8613399863243103
1.0740035772323608,5.069390296936035,0.8667910695075989
1.0402271747589111,5.0916571617126465,0.8723070025444031
1.0012218952178955,5.083276748657227,0.8725713491439819
1.8115928173065186,9.547354698181152,1.6420749425888062
1.736681342124939,9.513381958007812,1.6395128965377808
1.6875905990600586,9.626994132995605,1.661821961402893
1.5950815677642822,9.501484870910645,1.6424349546432495
1.5202604532241821,9.46623706817627,1.6386524438858032
1.444579839706421,9.418952941894531,1.6328320503234863
1.3789277076721191,9.428094863891602,1.6368260383605957
1.3111991882324219,9.421514511108398,1.6381616592407227
1.2385618686676025,9.387990951538086,1.6345280408859253
0.6895344853401184,5.526836395263672,0.9631251692771912
1.1099454164505005,9.437952041625977,1.6462310552597046
1.0335782766342163,9.35706615447998,1.6337302923202515
0.9751754999160767,9.428622245788574,1.64789879322052
0.9084407687187195,9.423195838928223,1.648701548576355
0.3893224596977234,4.361824989318848,0.7640135288238525
0.3539671003818512,4.306788444519043,0.7547054290771484
0.32574567198753357,4.335893154144287,0.7601768374443054
0.2983904480934143,4.384007930755615,0.769025981426239
0.3437903821468353,5.630168437957764,0.9881973266601562
0.3047788739204407,5.647651195526123,0.9918995499610901
0.26822370290756226,5.707107067108154,1.0030192136764526
0.22930315136909485,5.7318034172058105,1.0076594352722168
0.18953704833984375,5.740900993347168,1.0093170404434204
0.14945484697818756,5.742030620574951,1.0096230506896973
0.11039328575134277,5.831361770629883,1.0254921913146973
0.06990592926740646,5.839628219604492,1.0271552801132202
0.029297519475221634,5.832224369049072,1.026111125946045
-0.01725473254919052,8.917648315429688,1.569270133972168
-0.07885943353176117,8.878949165344238,1.5619003772735596
-0.13998061418533325,8.774415016174316,1.543025255203247
-0.19847361743450165,8.66179084777832,1.5228215456008911
-0.25565439462661743,8.560320854187012,1.5046616792678833
-0.22387710213661194,6.07856559753418,1.068263292312622
-0.26323792338371277,6.011593341827393,1.0563701391220093
-0.18190120160579681,3.5851187705993652,0.6296374797821045
-0.20756658911705017,3.5915544033050537,0.630291759967804
-0.23143622279167175,3.5747921466827393,0.6269140243530273
-0.5627251267433167,7.848809719085693,1.3755592107772827
-0.6091762781143188,7.741390705108643,1.3559136390686035
-0.5693920254707336,6.644504547119141,1.163144826889038
-0.6073759198188782,6.544784069061279,1.1449074745178223
-0.6376027464866638,6.391444683074951,1.1167738437652588
-0.6824894547462463,6.394896507263184,1.1161186695098877
-0.7265844941139221,6.390384674072266,1.1141250133514404
-0.7690173983573914,6.370258331298828,1.1094592809677124
-0.8087062835693359,6.32301139831543,1.100111484527588
-0.8474420309066772,6.279440402984619,1.091491460800171
-0.8846389055252075,6.2319865226745605,1.0816339254379272
-0.9307559132575989,6.249090194702148,1.0828983783721924
-0.9800463914871216,6.284887313842773,1.0874384641647339
-1.0315996408462524,6.32393741607666,1.0925285816192627
-1.0815308094024658,6.351232051849365,1.0956308841705322
-1.1351871490478516,6.3971123695373535,1.101973295211792
-1.188438892364502,6.43890380859375,1.1072618961334229
-1.2448655366897583,6.495537281036377,1.1147099733352661
-1.296796441078186,6.525270462036133,1.1175618171691895
-1.3524421453475952,6.5657453536987305,1.122231125831604
-1.409305214881897,6.60957670211792,1.1275044679641724
-1.4519084692001343,6.585206508636475,1.121185302734375
-1.4889172315597534,6.538088798522949,1.1108667850494385
-1.5218640565872192,6.479796409606934,1.0981595516204834
-0.6812887191772461,2.8134729862213135,0.4755910336971283
-0.6985337138175964,2.8016197681427,0.47241249680519104
-0.7084789872169495,2.75966477394104,0.46416884660720825
-0.7296895384788513,2.7624351978302,0.46348315477371216
-0.7468808889389038,2.7501790523529053,0.46024951338768005
-0.7793311476707458,2.7936291694641113,0.4660322666168213
-1.7536406517028809,6.126143455505371,1.0187909603118896
-1.7929959297180176,6.107529640197754,1.0125702619552612
-1.147004246711731,3.808887004852295,0.6294921040534973
-1.1667784452438354,3.779181957244873,0.6226361393928528
-1.1911602020263672,3.7640230655670166,0.6180902123451233
-1.2213653326034546,3.771146535873413,0.6169336438179016
-1.2517579793930054,3.7780232429504395,0.6157433986663818
-1.2860904932022095,3.7956082820892334,0.6162953972816467
-2.009287118911743,5.797468662261963,0.9377411603927612
-2.036860466003418,5.747804641723633,0.9261651635169983
-2.069082260131836,5.712611198425293,0.9166436791419983
-2.1007707118988037,5.681438446044922,0.9075508117675781
-2.1280388832092285,5.6392412185668945,0.8967717289924622
-2.1583054065704346,5.6038818359375,0.8870835900306702
-2.2032318115234375,5.603997230529785,0.8829625844955444
-2.2706103324890137,5.657284259796143,0.8871232271194458
-2.326287269592285,5.685866355895996,0.886875569820404
-2.3615124225616455,5.664047718048096,0.87871253490448
-2.390446424484253,5.627784729003906,0.8683786988258362
-2.432981491088867,5.619088172912598,0.862139880657196
-2.5292930603027344,5.730125904083252,0.8741136193275452
-2.5540695190429688,5.6821489334106445,0.8615245223045349
-2.5822999477386475,5.645045280456543,0.8504357933998108
-2.588959217071533,5.562160968780518,0.8325659036636353
-2.6177027225494385,5.524210453033447,0.8213220238685608
-2.628580093383789,5.447275161743164,0.8042523860931396
-2.6555585861206055,5.409521102905273,0.7929011583328247
-2.6880457401275635,5.3860321044921875,0.7834309339523315
-2.7676572799682617,5.455625057220459,0.7874458432197571
-4.913255214691162,9.521492004394531,1.3630777597427368
-2.7756779193878174,5.288354396820068,0.7507814168930054
-2.801069736480713,5.249916076660156,0.7385994791984558
-2.846870183944702,5.252989292144775,0.7322527170181274
-1.17827308177948,2.140220880508423,0.29553481936454773
-1.1857582330703735,2.1188735961914062,0.28966453671455383
-2.5275988578796387,4.444766044616699,0.6014229655265808
-2.5611743927001953,4.4356536865234375,0.5935314297676086
-6.069535732269287,10.356544494628906,1.370474934577942
-1.2549338340759277,2.1080539226531982,0.27563777565956116
-1.2617384195327759,2.086437463760376,0.2694757878780365
-2.950946569442749,4.80942440032959,0.6130571961402893
-2.9540886878967285,4.74490213394165,0.5966237187385559
-2.9953267574310303,4.738752841949463,0.5872250199317932
-3.007887840270996,4.686068534851074,0.5719512104988098
-3.042534351348877,4.674305438995361,0.5613660216331482
-3.0450026988983154,4.613620281219482,0.5449966788291931
-3.082469940185547,4.599504470825195,0.5332373976707458
-3.0918936729431152,4.5476393699646,0.517231285572052
-3.121020793914795,4.529090404510498,0.504906177520752
-3.122694492340088,4.467799663543701,0.48735371232032776
-2.971654176712036,4.190091609954834,0.44645029306411743
-2.8600480556488037,3.979398488998413,0.413436621427536
-2.925585985183716,4.01498556137085,0.40599456429481506
-2.9490275382995605,3.9895052909851074,0.3914831578731537
-2.480499267578125,3.4744653701782227,-0.19360512495040894
-2.441922426223755,3.4723758697509766,-0.2052309215068817
-2.4284262657165527,3.5095534324645996,-0.2191963940858841
-2.33966326713562,3.4325332641601562,-0.22492989897727966
-2.2686150074005127,3.38094425201416,-0.23174512386322021
-2.2023026943206787,3.335303783416748,-0.2384890466928482
-2.157048463821411,3.317582845687866,-0.24651913344860077
-2.1491363048553467,3.359020709991455,-0.2587631344795227
-2.192629814147949,3.4829487800598145,-0.2776108384132385
-1.2728424072265625,2.0534939765930176,-0.16885559260845184
-1.2353525161743164,2.025745153427124,-0.17162750661373138
-2.133441925048828,3.5579490661621094,-0.31036388874053955
-2.066694736480713,3.501648187637329,-0.3135829269886017
-2.502687454223633,4.310431003570557,-0.39590537548065186
-1.2121539115905762,2.123338222503662,-0.19985036551952362
-2.595970392227173,4.622609615325928,-0.44513067603111267
-2.5662713050842285,4.646913528442383,-0.4575595557689667
-2.546870231628418,4.691879749298096,-0.4718210995197296
-2.5163121223449707,4.71599817276001,-0.48397958278656006
-2.497469186782837,4.760021209716797,-0.49796488881111145
-2.4720513820648193,4.793986797332764,-0.5109131932258606
-2.446810007095337,4.8318681716918945,-0.5244739055633545
-2.4157028198242188,4.8549909591674805,-0.5361217856407166
-2.3916659355163574,4.891651153564453,-0.549223780632019
-1.6010756492614746,3.3348050117492676,-0.38043904304504395
-1.5734784603118896,3.3384993076324463,-0.38684070110321045
-1.5399585962295532,3.3276126384735107,-0.39138150215148926
-1.5192046165466309,3.344834089279175,-0.39929378032684326
-1.5043706893920898,3.3762331008911133,-0.40867868065834045
-1.4767441749572754,3.3791046142578125,-0.41464999318122864
-1.4972074031829834,3.4920661449432373,-0.4341585636138916
-1.457504153251648,3.465916156768799,-0.43647947907447815
-1.4408950805664062,3.497196912765503,-0.44589540362358093
-1.4272658824920654,3.5354197025299072,-0.45620042085647583
-1.4123003482818604,3.5697896480560303,-0.4659929871559143
-1.333916187286377,3.4414100646972656,-0.45438483357429504
-1.3036986589431763,3.4355907440185547,-0.4584976136684418
-0.9144322872161865,2.4632530212402344,-0.3322923481464386
-2.0004642009735107,5.5062432289123535,-0.7504789233207703
-0.9665982723236084,2.719285488128662,-0.37440919876098633
-0.8594865202903748,2.473057508468628,-0.34375858306884766
-0.844303548336029,2.485905408859253,-0.3487778604030609
-0.8190774917602539,2.469302177429199,-0.3496907651424408
-0.8136265277862549,2.5112667083740234,-0.35885921120643616
-0.8016568422317505,2.534867525100708,-0.36533322930336
-0.785868763923645,2.5473642349243164,-0.37015292048454285
-0.7767060399055481,2.581961154937744,-0.37823355197906494
-0.7607992887496948,2.5942063331604004,-0.3830626904964447
-0.7517921924591064,2.632490396499634,-0.39177069067955017
-0.7476314306259155,2.6893725395202637,-0.4030934274196625
-0.7305919528007507,2.701523542404175,-0.40779510140419006
-0.7116389274597168,2.706040859222412,-0.41134440898895264
-0.6964841485023499,2.725395441055298,-0.4171852171421051
-0.6768670678138733,2.729823350906372,-0.42050960659980774
-0.6557409763336182,2.726530075073242,-0.42258596420288086
-0.6409593820571899,2.749375343322754,-0.4287281632423401
-0.6302486062049866,2.790947198867798,-0.4378504753112793
-0.6139463186264038,2.809903383255005,-0.44330650568008423
-0.5985991358757019,2.836418867111206,-0.4498650133609772
-0.580950140953064,2.8514370918273926,-0.4546092748641968
-0.566973865032196,2.8852486610412598,-0.46239081025123596
-0.5496746301651001,2.903831720352173,-0.4677656888961792
-0.5320056676864624,2.922390937805176,-0.47279781103134155
-0.5157462954521179,2.9522900581359863,-0.4797525405883789
-0.49636954069137573,2.963007688522339,-0.48359182476997375
-0.4744487702846527,2.9583611488342285,-0.48494458198547363
-0.45840728282928467,2.9917144775390625,-0.4922958314418793
-0.4418860971927643,3.025012731552124,-0.4995076358318329
-0.7081669569015503,5.100914001464844,-0.8452969193458557
-0.6579692363739014,4.994304656982422,-0.8305487036705017
-0.6192569136619568,4.96759557723999,-0.8289813995361328
-0.541293203830719,4.603940963745117,-0.7703173160552979
-0.49934089183807373,4.519094944000244,-0.7581398487091064
-0.4935964047908783,4.771134853363037,-0.8025830984115601
-0.46426862478256226,4.820063591003418,-0.8130656480789185
-0.423504114151001,4.742225646972656,-0.8017047643661499
-0.3853948712348938,4.683322429656982,-0.793185293674469
-0.35130780935287476,4.666376113891602,-0.7917852997779846
-0.31728702783584595,4.64533805847168,-0.78971266746521
-0.2815762460231781,4.601025581359863,-0.7837127447128296
-0.24641136825084686,4.545015335083008,-0.7749425768852234
-0.21545608341693878,4.56182861328125,-0.7786205410957336
-0.18373149633407593,4.5630364418029785,-0.7796736359596252
-0.15033437311649323,4.513996601104736,-0.7721689343452454
-0.11839941889047623,4.514825820922852,-0.7728778123855591
-0.08706198632717133,4.519339561462402,-0.7738288640975952
-0.05631972849369049,4.573684215545654,-0.7833520770072937
-0.024294646456837654,4.5354132652282715,-0.7770512700080872
0.007164441514760256,4.477671146392822,-0.7674460411071777
0.03607296198606491,4.154173374176025,-0.7116528749465942
0.0642469972372055,4.107698440551758,-0.7033148407936096
0.09165696799755096,4.057183742523193,-0.6943280100822449
0.12109705060720444,4.098855972290039,-0.7011521458625793
0.15308189392089844,4.1942267417907715,-0.716937780380249
0.1793672889471054,4.127857685089111,-0.7046300172805786
0.21552234888076782,4.265136241912842,-0.7270869612693787
0.24517719447612762,4.26373291015625,-0.7259215712547302
0.26912325620651245,4.173729419708252,-0.709725022315979
0.2969802916049957,4.156678676605225,-0.7054473161697388
0.3249388039112091,4.143303394317627,-0.7016828656196594
0.3558768033981323,4.160403728485107,-0.7030841708183289
0.3972589075565338,4.292389392852783,-0.723905086517334
0.4305550456047058,4.324367523193359,-0.7276729345321655
0.46626952290534973,4.375347137451172,-0.7340922355651855
0.47839242219924927,4.21163272857666,-0.7045750021934509
0.5206874012947083,4.311868667602539,-0.7192378640174866
0.5609346628189087,4.388856887817383,-0.7300071716308594
0.6465550661087036,4.7941060066223145,-0.7946624159812927
0.6911762356758118,4.870255470275879,-0.8042916059494019
0.7238554358482361,4.8583149909973145,-0.7993640899658203
0.7607008814811707,4.86890983581543,-0.7981154918670654
0.7920783162117004,4.848896026611328,-0.7918277382850647
0.8231261968612671,4.828786849975586,-0.7849729657173157
0.8492109179496765,4.781885147094727,-0.7738426327705383
0.8768982887268066,4.746203422546387,-0.7646062970161438
0.9158797860145569,4.770969390869141,-0.7651338577270508
0.9435853362083435,4.734866619110107,-0.7554511427879333
0.9694622755050659,4.694961071014404,-0.7450792193412781
1.0077383518218994,4.7153143882751465,-0.7443130016326904
0.83652663230896,3.785252094268799,-0.5943005681037903
0.8560203909873962,3.7498486042022705,-0.5855161547660828
0.8789333701133728,3.7293784618377686,-0.5786520838737488
0.9065806865692139,3.731391429901123,-0.5753809213638306
0.9326235055923462,3.7256555557250977,-0.570907473564148
0.9529001712799072,3.6972670555114746,-0.5630042552947998
0.9785952568054199,3.6912713050842285,-0.5582505464553833
1.001556634902954,3.673835277557373,-0.5516132116317749
1.0208525657653809,3.6451640129089355,-0.5434045195579529
1.0506516695022583,3.6535117626190186,-0.5407230854034424
1.0739305019378662,3.639411449432373,-0.5346227288246155
1.0968842506408691,3.6252477169036865,-0.5282738208770752
1.120104432106018,3.6108150482177734,-0.5218586921691895
1.1477254629135132,3.611018657684326,-0.517608106136322
1.1706368923187256,3.5962765216827393,-0.5112358331680298
1.185721516609192,3.5594942569732666,-0.5014714598655701
1.2028013467788696,3.5300049781799316,-0.49280834197998047
1.2299878597259521,3.529611349105835,-0.4882005453109741
1.2525790929794312,3.5142264366149902,-0.48144087195396423
1.2769719362258911,3.5062315464019775,-0.4756167232990265
1.311942219734192,3.5271973609924316,-0.4736025929450989
1.3336788415908813,3.511547565460205,-0.4666282534599304
1.638706088066101,4.22587251663208,-0.5556163787841797
1.66579270362854,4.2079176902771,-0.5471195578575134
1.700568437576294,4.211703777313232,-0.541382908821106
1.726699709892273,4.193645477294922,-0.5328338742256165
1.7531415224075317,4.175225257873535,-0.5241816639900208
1.782292127609253,4.163839340209961,-0.5163852572441101
1.8082321882247925,4.145171642303467,-0.5074047446250916
1.8335545063018799,4.1265082359313965,-0.4985732436180115
1.8529621362686157,4.093245029449463,-0.487892746925354
1.8848772048950195,4.088169097900391,-0.4805767834186554
1.9095131158828735,4.069106101989746,-0.47148796916007996
1.931177020072937,4.04262113571167,-0.4614599645137787
1.9562052488327026,4.022888660430908,-0.4522000849246979
1.9843053817749023,4.010052680969238,-0.4437011182308197
2.0115950107574463,3.9973769187927246,-0.4351128041744232
2.0336410999298096,3.9740395545959473,-0.4253610074520111
2.054368495941162,3.946773052215576,-0.4150644838809967
2.0857772827148438,3.940009355545044,-0.4067806899547577
2.108750343322754,3.9198403358459473,-0.3971768915653229
2.1282029151916504,3.892488718032837,-0.3867897093296051
2.119675874710083,3.8136532306671143,-0.37127062678337097
2.1457221508026123,3.7999370098114014,-0.3621821403503418
2.1640326976776123,3.7724690437316895,-0.3516610860824585
2.186392307281494,3.7514076232910156,-0.3416697084903717
2.224487543106079,3.7569820880889893,-0.3340049386024475
2.2415850162506104,3.7294726371765137,-0.3233490586280823
2.2587692737579346,3.7016677856445312,-0.31262004375457764
2.293484926223755,3.699456214904785,-0.3036014139652252
2.301762580871582,3.6583287715911865,-0.2915712296962738
2.3218517303466797,3.6371407508850098,-0.2812083959579468
2.3728854656219482,3.660731554031372,-0.2737120985984802
2.38486385345459,3.625741720199585,-0.26179054379463196
2.3961455821990967,3.5909523963928223,-0.24983133375644684
2.4386959075927734,3.6006951332092285,-0.24055545032024384
2.4452714920043945,3.559159517288208,-0.2278127819299698
2.463937520980835,3.5374464988708496,-0.21644547581672668
2.5203142166137695,3.565325975418091,-0.20718467235565186
2.5169384479522705,3.510934591293335,-0.19294345378875732
2.563089609146118,3.5264008045196533,-0.18245813250541687
2.1751341819763184,2.949998140335083,-0.142469584941864
2.782210350036621,3.935490369796753,0.3968792259693146
2.7574665546417236,3.961066484451294,0.4101780652999878
2.7259252071380615,3.9815196990966797,0.4227848947048187
2.700838565826416,4.006711959838867,0.43518757820129395
2.6626532077789307,4.012299537658691,0.44499722123146057
2.6396987438201904,4.044779300689697,0.45760753750801086
2.6142029762268066,4.069357872009277,0.4688233733177185
2.564396619796753,4.053832530975342,0.475106805562973
2.548872947692871,4.0990777015686035,0.48832836747169495
2.5217132568359375,4.123779296875,0.49893009662628174
2.488485336303711,4.133738994598389,0.5072462558746338
2.480012893676758,4.18744421005249,0.5208501219749451
2.444114923477173,4.198392391204834,0.5289820432662964
2.4123497009277344,4.215601921081543,0.5378578305244446
2.374842643737793,4.217970371246338,0.5444287657737732
2.3439533710479736,4.234155178070068,0.5526017546653748
2.2599122524261475,4.155285358428955,0.5480525493621826
2.2344532012939453,4.181211471557617,0.5571319460868835
2.215221405029297,4.216740608215332,0.5673655867576599
2.1743457317352295,4.210807800292969,0.5718573331832886
2.1497480869293213,4.2398576736450195,0.580783486366272
2.1351969242095947,4.289581775665283,0.5926312804222107
2.094460964202881,4.28281307220459,0.5964613556861877
2.07045578956604,4.310728073120117,0.6051835417747498
2.045499324798584,4.338859558105469,0.6136146783828735
2.0099799633026123,4.345992088317871,0.6189702153205872
1.9779307842254639,4.3597731590271,0.6252637505531311
2.003952980041504,4.500065803527832,0.6496587991714478
2.000145196914673,4.577026844024658,0.6651298403739929
1.9674195051193237,4.594518661499023,0.6717073917388916
1.92000412940979,4.5759172439575195,0.6728702783584595
1.8894892930984497,4.596118927001953,0.6797156929969788
1.8629844188690186,4.622793674468994,0.6874195337295532
1.8220255374908447,4.613309860229492,0.6897695064544678
1.7991148233413696,4.654689788818359,0.6994274258613586
1.7937899827957153,4.742907524108887,0.716062068939209
1.7376223802566528,4.6970601081848145,0.7125068306922913
1.318972110748291,3.6430771350860596,0.555146336555481
1.3037006855010986,3.6808104515075684,0.5634617209434509
1.2782140970230103,3.6932504177093506,0.5678021907806396
1.6251063346862793,4.807717323303223,0.7419961094856262
1.5852088928222656,4.804035663604736,0.7443106770515442
1.5569236278533936,4.832886219024658,0.7516392469406128
1.5462720394134521,4.916682720184326,0.7675568461418152
1.521465539932251,4.960082054138184,0.77731853723526
1.4602556228637695,4.885161399841309,0.7679591178894043
1.4400768280029297,4.946872711181641,0.7800655961036682
1.411712884902954,4.982518672943115,0.788140594959259
1.3736687898635864,4.980513572692871,0.7902371287345886
1.3057548999786377,4.866337776184082,0.7745055556297302
1.276724100112915,4.8973822593688965,0.7818071246147156
1.243420958518982,4.913387298583984,0.7862628102302551
1.2181823253631592,4.962910175323486,0.7961448431015015
1.1915069818496704,5.008533477783203,0.8054677248001099
1.1531105041503906,5.001155376434326,0.8062600493431091
1.1225948333740234,5.0312886238098145,0.8131821751594543
1.091366171836853,5.057395935058594,0.819300651550293
1.0599919557571411,5.087277889251709,0.8256511688232422
1.0252068042755127,5.101836204528809,0.8295656442642212
0.9873902201652527,5.1009955406188965,0.831015944480896
1.8218193054199219,9.782624244689941,1.5968188047409058
1.7447693347930908,9.744911193847656,1.5937719345092773
1.6790786981582642,9.77131462097168,1.601036548614502
1.6096450090408325,9.782352447509766,1.6049449443817139
1.5318584442138672,9.73955249786377,1.6000862121582031
1.4563465118408203,9.715394020080566,1.5983927249908447
0.7798629999160767,5.461546897888184,0.8998192548751831
1.3245354890823364,9.760224342346191,1.610400676727295
1.2501916885375977,9.718875885009766,1.6059772968292236
1.1779451370239258,9.696388244628906,1.6036109924316406
1.1065157651901245,9.677197456359863,1.6018617153167725
1.033829689025879,9.653770446777344,1.59950852394104
0.9663098454475403,9.660323143005371,1.6021592617034912
0.4026004374027252,4.328571796417236,0.7186230421066284
0.3701622188091278,4.304194450378418,0.7153374552726746
0.3399817645549774,4.30654764175415,0.7161536812782288
0.3111662268638611,4.335656642913818,0.7213140726089478
0.2852255702018738,4.4068379402160645,0.7335118055343628
0.32449281215667725,5.624251365661621,0.9366471171379089
0.2854112982749939,5.626225471496582,0.9375156760215759
0.2486133873462677,5.681822299957275,0.9473713636398315
0.21015430986881256,5.733390808105469,0.9563709497451782
0.17101702094078064,5.765492916107178,0.9617287516593933
0.1324021816253662,5.8396992683410645,0.9741572737693787
0.0911274254322052,5.809624195098877,0.9692376852035522
0.05094441771507263,5.833198070526123,0.9733150005340576
0.009808295406401157,5.871904373168945,0.9799697399139404
-0.04722264036536217,8.942541122436523,1.492799162864685
-0.07438642531633377,6.083405494689941,1.0151269435882568
-0.11583059281110764,6.040444850921631,1.0075905323028564
-0.15929792821407318,6.097347736358643,1.0167605876922607
-0.20432567596435547,6.177043914794922,1.0297738313674927
-0.2427346259355545,6.044622898101807,1.0074723958969116
-0.17050981521606445,3.6180214881896973,0.6029210686683655
-0.194533109664917,3.5975983142852783,0.5992130637168884
-0.21756097674369812,3.5655105113983154,0.593397319316864
-0.5319621562957764,7.8278069496154785,1.301787257194519
-0.5865346789360046,7.816434383392334,1.2989705801010132
-0.5403189063072205,6.5871710777282715,1.0939695835113525
-0.5902430415153503,6.629528999328613,1.1003347635269165
-0.6263521313667297,6.521914958953857,1.0817620754241943
-0.6569913029670715,6.379761695861816,1.0568828582763672
-0.7055066823959351,6.409812927246094,1.0605788230895996
-0.7487654089927673,6.397469997406006,1.0573279857635498
-0.7888466119766235,6.358023166656494,1.0496480464935303
-0.8271219730377197,6.306832790374756,1.0400890111923218
-0.8651812076568604,6.259242057800293,1.031191110610962
-0.9012327194213867,6.200034141540527,1.0198527574539185
-0.950801432132721,6.239867687225342,1.0247244834899902
-1.0002844333648682,6.27551794052124,1.028936743736267
-1.0524756908416748,6.322154998779297,1.0349642038345337
-1.1076146364212036,6.379727840423584,1.0427918434143066
-1.1588014364242554,6.410276889801025,1.046227216720581
-1.2115153074264526,6.444220066070557,1.0498369932174683
-1.264382243156433,6.481795310974121,1.0537192821502686
-1.3230993747711182,6.545435428619385,1.0618516206741333
-1.3766324520111084,6.578330993652344,1.064997673034668
-1.4290045499801636,6.599332332611084,1.0662078857421875
-1.4707072973251343,6.567044258117676,1.0588222742080688
-1.5048853158950806,6.508444786071777,1.047047734260559
-1.5330926179885864,6.43115758895874,1.0318691730499268
-0.6839617490768433,2.7851650714874268,0.44570374488830566
-0.7010656595230103,2.7732441425323486,0.44264471530914307
-0.7207042574882507,2.7685134410858154,0.44071418046951294
-0.7379959225654602,2.756263256072998,0.4376303553581238
-0.7570164799690247,2.751412868499756,0.4356595277786255
-0.7840254306793213,2.776298761367798,0.4381898045539856
-1.7733317613601685,6.1212639808654785,0.9630528688430786
-1.1212795972824097,3.773160457611084,0.5917129516601562
-1.143107533454895,3.7509350776672363,0.586325466632843
-1.1739333868026733,3.7580761909484863,0.5855543613433838
-1.1951121091842651,3.735671281814575,0.5800452828407288
-1.222744107246399,3.735383987426758,0.5777538418769836
-1.265596628189087,3.7787363529205322,0.5821644067764282
-1.3026885986328125,3.8034472465515137,0.5836925506591797
-2.0233099460601807,5.776115894317627,0.8829131126403809
-2.0493481159210205,5.722614288330078,0.8712813258171082
-2.08298921585083,5.6948771476745605,0.8632228970527649
-2.113131046295166,5.659903049468994,0.8539527058601379
-2.1326186656951904,5.595585823059082,0.8402681946754456
-2.17132568359375,5.581593990325928,0.8341782093048096
-2.233206033706665,5.6247124671936035,0.8365793228149414
-2.294013500213623,5.663806915283203,0.8382300138473511
-2.3467206954956055,5.685068130493164,0.8367444276809692
-2.3704607486724854,5.634250164031982,0.8246076107025146
-2.402665138244629,5.604747772216797,0.8156822919845581
-2.4574437141418457,5.624256134033203,0.8137696385383606
-2.5393388271331787,5.7034454345703125,0.8204277157783508
-4.024525165557861,8.880388259887695,1.2691491842269897
-4.118823528289795,8.928461074829102,1.2674823999404907
-2.616346597671509,5.573533535003662,0.7859341502189636
-2.6588783264160156,5.563081741333008,0.7789549827575684
-2.6420347690582275,5.4303107261657715,0.7549937963485718
-2.681833028793335,5.420547008514404,0.7478183507919312
-2.692375421524048,5.351434230804443,0.7323796153068542
-2.7320797443389893,5.34111213684082,0.7250773310661316
-2.7695746421813965,5.3229265213012695,0.716507077217102
-2.7921531200408936,5.277185916900635,0.7042367458343506
-2.7883460521698,5.188046932220459,0.6859204769134521
-1.1528265476226807,2.111863136291504,0.27659106254577637
-1.1902276277542114,2.1449368000030518,0.2780863046646118
-2.521268606185913,4.470094203948975,0.573586106300354
-2.5436854362487793,4.440540313720703,0.563628613948822
-6.018273830413818,10.350173950195312,1.2989869117736816
-6.064095973968506,10.2717866897583,1.2741355895996094
-1.2551201581954956,2.092089891433716,0.25623252987861633
-2.920752763748169,4.795190334320068,0.5797286033630371
-2.9213242530822754,4.727646350860596,0.5638468265533447
-2.952813148498535,4.7092413902282715,0.5537508130073547
-2.973541736602783,4.669800281524658,0.5407633781433105
-3.0182547569274902,4.670089244842529,0.5320733189582825
-3.0505785942077637,4.654918193817139,0.5215913653373718
-3.0541861057281494,4.593210220336914,0.5055516958236694
-3.0909698009490967,4.579214572906494,0.4944913983345032
-3.09847092628479,4.52833366394043,0.4792371392250061
-3.1172609329223633,4.493027210235596,0.46542832255363464
-3.149014472961426,4.472160816192627,0.4524513781070709
-2.8570921421051025,4.002664089202881,0.39503592252731323
-2.882488489151001,3.9855620861053467,0.3832787573337555
-2.9313881397247314,3.9945528507232666,0.3728131651878357
-2.9269227981567383,3.936094284057617,0.3559532165527344
-2.4597556591033936,3.470121145248413,-0.1919090300798416
-2.4469051361083984,3.5070831775665283,-0.20524989068508148
-2.403033494949341,3.49878191947937,-0.2155373990535736
-2.2946431636810303,3.3925647735595703,-0.2189292162656784
-2.238600969314575,3.363701581954956,-0.22666242718696594
-2.1907031536102295,3.3432300090789795,-0.234303280711174
-2.1580753326416016,3.345139980316162,-0.2431781142950058
-2.1160852909088135,3.3342583179473877,-0.25100386142730713
-1.2616045475006104,2.0199270248413086,-0.15708263218402863
-1.2695316076278687,2.0650131702423096,-0.16550225019454956
-2.15932035446167,3.5711326599121094,-0.2946259379386902
-2.1375107765197754,3.592522144317627,-0.3044968843460083
-2.078613758087158,3.5496106147766113,-0.3086344003677368
-1.2007935047149658,2.0859568119049072,-0.18594558537006378
-1.1932101249694824,2.107755661010742,-0.19234450161457062
-2.5801687240600586,4.632675647735596,-0.4321686923503876
-2.553950309753418,4.663910865783691,-0.4444117546081543
-2.5269153118133545,4.695247650146484,-0.45669370889663696
-2.5038249492645264,4.732973575592041,-0.46951791644096375
-2.481095314025879,4.770204067230225,-0.4821319878101349
-2.4585280418395996,4.811404705047607,-0.4951002597808838
-2.423495054244995,4.828062534332275,-0.5055571794509888
-2.4032375812530518,4.871821403503418,-0.5186453461647034
-2.38142728805542,4.915999412536621,-0.531964123249054
-1.5793348550796509,3.3208186626434326,-0.36496397852897644
-1.5620073080062866,3.345426559448242,-0.3732442557811737
-1.5286978483200073,3.3344075679779053,-0.3774449825286865
-1.5112026929855347,3.3586835861206055,-0.3855442404747009
-1.4931154251098633,3.383011817932129,-0.3936222493648529
-1.5131914615631104,3.4963879585266113,-0.4122920036315918
-1.4672906398773193,3.456153631210327,-0.412778377532959
-1.4426034688949585,3.46578049659729,-0.4190310537815094
-1.426385521888733,3.496901035308838,-0.42783692479133606
-1.4042855501174927,3.513439178466797,-0.43487095832824707
-1.3946975469589233,3.5623621940612793,-0.44601279497146606
-1.3277195692062378,3.4627506732940674,-0.43826669454574585
-1.762125015258789,4.6951823234558105,-0.60047447681427
-1.731298565864563,4.7139153480529785,-0.609079897403717
-2.0102550983428955,5.593347072601318,-0.7299719452857971
-1.02162766456604,2.9074666500091553,-0.3832094669342041
-0.9781678915023804,2.8481287956237793,-0.3788451850414276
-0.9417919516563416,2.80670428276062,-0.3767414391040802
-0.9015421867370605,2.750101327896118,-0.3724323809146881
-0.8633005619049072,2.6967897415161133,-0.3684292733669281
-0.8194971084594727,2.6248185634613037,-0.36153408885002136
-0.7838622331619263,2.5745232105255127,-0.35744526982307434
-0.7701314687728882,2.5943334102630615,-0.36302927136421204
-0.7519164085388184,2.5991780757904053,-0.3665437698364258
-0.7492514848709106,2.659841775894165,-0.37780097126960754
-0.7426316142082214,2.7094035148620605,-0.3875213861465454
-0.7172002792358398,2.6917412281036377,-0.38769766688346863
-0.709004819393158,2.737412929534912,-0.396969199180603
-0.6850621104240417,2.723095178604126,-0.39747345447540283
-0.6676480174064636,2.7349374294281006,-0.40159401297569275
-0.654552698135376,2.7654762268066406,-0.40850961208343506
-0.6331528425216675,2.7620673179626465,-0.41046372056007385
-0.6255789995193481,2.818800926208496,-0.42137202620506287
-0.6025037169456482,2.8076024055480957,-0.42185139656066895
-0.5889883041381836,2.8416404724121094,-0.4291219115257263
-0.5728402137756348,2.864232301712036,-0.4347127377986908
-0.5568610429763794,2.890568971633911,-0.440955251455307
-0.5394454002380371,2.909189462661743,-0.4458714723587036
-0.5251091122627258,2.946760892868042,-0.4535100758075714
-0.5043902397155762,2.950007438659668,-0.45591238141059875
-0.48880964517593384,2.9835662841796875,-0.4630261957645416
-0.4724259674549103,3.017090082168579,-0.47023046016693115
-0.4558301568031311,3.0505483150482178,-0.47707319259643555
-0.4382553696632385,3.0800983905792236,-0.48330557346343994
-0.41674381494522095,3.082761287689209,-0.4853511452674866
-0.39820781350135803,3.108234405517578,-0.4910200834274292
-0.38119328022003174,3.148937702178955,-0.49900028109550476
-0.3609871566295624,3.1704747676849365,-0.5036908984184265
-0.34210625290870667,3.2033514976501465,-0.510206401348114
-0.31977149844169617,3.205397129058838,-0.5118454098701477
-0.3013169765472412,3.249539613723755,-0.5202507972717285
-0.2799408733844757,3.2667288780212402,-0.5240129828453064
-0.2579035460948944,3.2838261127471924,-0.5276833176612854
-0.2413150817155838,3.3738372325897217,-0.5431079864501953
-0.3003239929676056,4.652980327606201,-0.7503751516342163
-0.26578062772750854,4.616203784942627,-0.7457014918327332
-0.23304258286952972,4.606240749359131,-0.7447511553764343
-0.19843104481697083,4.5613932609558105,-0.7381998300552368
-0.1658548265695572,4.539395809173584,-0.7353596687316895
-0.1343146115541458,4.540292739868164,-0.7362592816352844
-0.10232222825288773,4.521759986877441,-0.7336406111717224
-0.06988390535116196,4.460644245147705,-0.7238293290138245
-0.03833645209670067,4.460995197296143,-0.7240282893180847
-0.00716974213719368,4.387862682342529,-0.7123309969902039
0.023598600178956985,4.437899112701416,-0.7206629514694214
0.05421102046966553,4.418428421020508,-0.7170525193214417
0.07939975708723068,4.128889083862305,-0.6696454882621765
0.11001816391944885,4.2015533447265625,-0.6810379028320312
0.13921737670898438,4.1853346824646,-0.6780445575714111
0.1659431904554367,4.126587390899658,-0.6679799556732178
0.19660088419914246,4.1678876876831055,-0.673712968826294
0.234892800450325,4.339893341064453,-0.7005593180656433
0.2554260194301605,4.180516719818115,-0.6739399433135986
0.2860478162765503,4.1941819190979,-0.6752650737762451
0.31144893169403076,4.142349720001221,-0.6656180620193481
0.3417835533618927,4.159591197967529,-0.6669454574584961
0.37408527731895447,4.1958231925964355,-0.6713302731513977
0.4117753803730011,4.2817254066467285,-0.6836490631103516
0.5174034833908081,5.00817346572876,-0.7978693842887878
0.5495772957801819,4.9819111824035645,-0.7913435101509094
0.5841495394706726,4.978429794311523,-0.7884825468063354
0.6168738603591919,4.959378719329834,-0.7831955552101135
0.6408103108406067,4.875059127807617,-0.7676821947097778
0.6816354393959045,4.916796684265137,-0.7716273665428162
0.7112973928451538,4.881942272186279,-0.7633013725280762
0.7405080795288086,4.846905708312988,-0.7550191879272461
0.6261130571365356,3.9156808853149414,-0.6077111959457397
0.6508364081382751,3.8964288234710693,-0.6025113463401794
0.6778322458267212,3.8923404216766357,-0.5991610884666443
0.7011245489120483,3.8651866912841797,-0.5922446846961975
0.73086017370224,3.8759138584136963,-0.5912041068077087
0.7593861222267151,3.8788154125213623,-0.5889735817909241
0.7733057141304016,3.8096020221710205,-0.5756506323814392
0.796504020690918,3.789597749710083,-0.5695745348930359
0.8232234716415405,3.7844619750976562,-0.5657178163528442
0.8530327081680298,3.7942748069763184,-0.5641425251960754
0.8759942650794983,3.773733139038086,-0.5580846667289734
0.8985344171524048,3.75314998626709,-0.5516484379768372
0.9189286828041077,3.7249341011047363,-0.5441141128540039
0.9395816326141357,3.696465253829956,-0.5365307331085205
0.9673937559127808,3.697896957397461,-0.5333694815635681
0.9901257753372192,3.6804921627044678,-0.5273389220237732
1.015601396560669,3.6742067337036133,-0.5227012038230896
1.0368082523345947,3.6528453826904297,-0.5159589648246765
1.062802791595459,3.64603590965271,-0.5112095475196838
1.079424262046814,3.609482765197754,-0.5024099349975586
1.1043418645858765,3.6026268005371094,-0.4974413812160492
1.1315356492996216,3.602982759475708,-0.49348416924476624
1.1424243450164795,3.5514285564422607,-0.4824422299861908
1.1774067878723145,3.5733237266540527,-0.48133543133735657
1.1972413063049316,3.551072597503662,-0.47415417432785034
1.2343641519546509,3.5800724029541016,-0.4736917018890381
1.2372524738311768,3.509981155395508,-0.46015289425849915
1.2763153314590454,3.542037010192871,-0.46000340580940247
1.3063689470291138,3.5483102798461914,-0.4563767611980438
1.6015379428863525,4.2586669921875,-0.5420752763748169
1.6377924680709839,4.266510963439941,-0.5374920964241028
1.6620227098464966,4.2413458824157715,-0.5286700129508972
1.6874125003814697,4.2196431159973145,-0.5203168988227844
1.7105088233947754,4.194458961486816,-0.5113195180892944
1.7457431554794312,4.197632789611816,-0.5057041049003601
1.7690343856811523,4.1718902587890625,-0.49661722779273987
1.795217752456665,4.153103828430176,-0.48839521408081055
1.8205416202545166,4.134461402893066,-0.4800214171409607
1.8456482887268066,4.115674018859863,-0.471646249294281
1.871617317199707,4.096279621124268,-0.4630165696144104
1.8971107006072998,4.076833724975586,-0.45448988676071167
1.921718955039978,4.057563304901123,-0.44585007429122925
1.949401617050171,4.045197010040283,-0.4379728138446808
1.9707019329071045,4.018410682678223,-0.42844751477241516
1.999402642250061,4.00507926940918,-0.4202253520488739
2.0266025066375732,3.9922358989715576,-0.41205811500549316
2.0482869148254395,3.968862295150757,-0.40282905101776123
2.0760257244110107,3.9552719593048096,-0.39441052079200745
2.100029945373535,3.934596538543701,-0.3852725625038147
2.1303086280822754,3.927971839904785,-0.377412348985672
2.1460988521575928,3.893545627593994,-0.3667752742767334
2.1296913623809814,3.801035165786743,-0.3507252335548401
2.144312858581543,3.7667336463928223,-0.34022295475006104
2.1851961612701416,3.7799746990203857,-0.3339599668979645
2.1953818798065186,3.738751173019409,-0.3227264881134033
2.2301056385040283,3.7370917797088623,-0.3146354854106903
2.26322078704834,3.7361233234405518,-0.3066512644290924
2.275993824005127,3.7016749382019043,-0.2959090769290924
2.2896392345428467,3.6664602756500244,-0.2848062217235565
2.335458755493164,3.6844162940979004,-0.27779728174209595
2.339174270629883,3.636505603790283,-0.2656821012496948
2.364473342895508,3.620823860168457,-0.255724161863327
2.4021079540252686,3.624769926071167,-0.24703606963157654
2.417147397994995,3.5966479778289795,-0.23614440858364105
2.433166265487671,3.5676379203796387,-0.2247878611087799
2.47992205619812,3.58351731300354,-0.21590644121170044
2.4985909461975098,3.5616261959075928,-0.2048656940460205
2.5143959522247314,3.5319883823394775,-0.19265222549438477
2.56510591506958,3.553870916366577,-0.1831229329109192
2.270386219024658,3.102781295776367,-0.15018241107463837
2.1801249980926514,2.93705677986145,-0.13227397203445435
2.7935056686401367,3.921017646789551,0.3643263876438141
2.7459447383880615,3.9153072834014893,0.3743875324726105
2.74413800239563,3.9723615646362305,0.3898252248764038
2.721449851989746,4.005613803863525,0.4028548300266266
2.670167922973633,3.9921271800994873,0.41053351759910583
2.637216567993164,4.0035719871521,0.4203053414821625
2.6139392852783203,4.03624963760376,0.43220797181129456
2.596259355545044,4.074271202087402,0.4443068206310272
2.5777246952056885,4.1079583168029785,0.4555966258049011
2.5466740131378174,4.126233100891113,0.46497687697410583
2.5008046627044678,4.121339321136475,0.47164857387542725
2.4787487983703613,4.151749134063721,0.4819852411746979
2.466844320297241,4.198451995849609,0.49408039450645447
2.430941343307495,4.209375381469727,0.5017037391662598
2.3951003551483154,4.219935894012451,0.5092744827270508
2.376643419265747,4.25612735748291,0.5195397734642029
2.2840940952301025,4.159908771514893,0.5135947465896606
2.2471189498901367,4.165853977203369,0.5196961760520935
2.2247517108917236,4.198901176452637,0.5292113423347473
2.191376209259033,4.206787586212158,0.5352729558944702
2.1723124980926514,4.241961479187012,0.5448219180107117
2.1402955055236816,4.25732946395874,0.5516234040260315
2.1050376892089844,4.265361309051514,0.5573434233665466
2.0808122158050537,4.293637752532959,0.5656161904335022
2.0538809299468994,4.314350605010986,0.5728074312210083
2.0296108722686768,4.342127799987793,0.5808610916137695
1.9941438436508179,4.349201202392578,0.5858750939369202
1.9787709712982178,4.402194023132324,0.5972100496292114
2.011583089828491,4.56076192855835,0.6228238344192505
1.9703022241592407,4.552618026733398,0.6257630586624146
1.9315656423568726,4.551572322845459,0.6294717788696289
1.9188778400421143,4.6149773597717285,0.6419059038162231
1.88869047164917,4.639179706573486,0.6490352749824524
1.855777621269226,4.65169620513916,0.6543739438056946
1.828719139099121,4.678290843963623,0.6617042422294617
1.806395411491394,4.7194108963012695,0.6709661483764648
1.760972261428833,4.702788352966309,0.6717382669448853
1.3360142707824707,3.6498990058898926,0.5238388180732727
1.3126002550125122,3.66607928276062,0.528571605682373
1.2792104482650757,3.6527442932128906,0.529026985168457
1.6571711301803589,4.839994430541992,0.7041144371032715
1.626889944076538,4.865950107574463,0.7105776071548462
