X,Y,Z
-0.430046945810318,1.4603221416473389,-0.22634556889533997
-0.4130997061729431,1.4407638311386108,-0.22509406507015228
0.45530036091804504,1.437432885169983,-0.21760113537311554
0.47014492750167847,1.4492661952972412,-0.21749643981456757
0.48274943232536316,1.453620195388794,-0.21624910831451416
0.4990827441215515,1.4689017534255981,-0.21650084853172302
0.5117868185043335,1.4730892181396484,-0.21505123376846313
0.5248458385467529,1.4770829677581787,-0.2135077267885208
0.5352217555046082,1.473726749420166,-0.2109263837337494
0.5616703033447266,1.5138920545578003,-0.21445980668067932
0.5789910554885864,1.5284717082977295,-0.21421949565410614
0.6007975339889526,1.5537042617797852,-0.21539662778377533
0.6261389851570129,1.5858125686645508,-0.21737049520015717
0.6401171684265137,1.5889936685562134,-0.21533061563968658
0.6540103554725647,1.592130422592163,-0.21318455040454865
0.6695184707641602,1.5987085103988647,-0.21146975457668304
0.6868652701377869,1.6086385250091553,-0.21012187004089355
0.7138196229934692,1.6396912336349487,-0.21139386296272278
0.734529435634613,1.6564559936523438,-0.21069790422916412
0.763522744178772,1.6906883716583252,-0.21212077140808105
0.7851625680923462,1.7068716287612915,-0.21112175285816193
0.8152430653572083,1.7404453754425049,-0.21216340363025665
0.8373997807502747,1.7562153339385986,-0.21080829203128815
0.8664378523826599,1.785813331604004,-0.2110607922077179
0.8944832682609558,1.811490535736084,-0.2106608748435974
0.9245756268501282,1.840392827987671,-0.21049588918685913
0.9530222415924072,1.8656779527664185,-0.20974476635456085
1.001700520515442,1.9285516738891602,-0.21299278736114502
1.0463858842849731,1.9802826642990112,-0.21460895240306854
1.0839860439300537,2.018052577972412,-0.21455088257789612
1.112555980682373,2.038490056991577,-0.21247774362564087
1.158758521080017,2.0890891551971436,-0.2132779210805893
1.2002335786819458,2.1288564205169678,-0.21267661452293396
1.259464979171753,2.1987147331237793,-0.21469025313854218
1.2997359037399292,2.234452247619629,-0.21318769454956055
1.3154596090316772,2.225802421569824,-0.2071419060230255
1.3308724164962769,2.2171778678894043,-0.2010991871356964
1.3416647911071777,2.2020883560180664,-0.19446048140525818
1.3530141115188599,2.1865270137786865,-0.18756721913814545
1.3683992624282837,2.1774673461914062,-0.18123960494995117
1.4394547939300537,2.257539749145508,-0.18209896981716156
1.6008657217025757,2.4740490913391113,-0.19302153587341309
1.8559495210647583,2.824913263320923,-0.2125532031059265
1.8514111042022705,2.7771430015563965,-0.20104050636291504
1.8110719919204712,2.678025722503662,-0.1861753761768341
1.8342844247817993,2.6722562313079834,-0.1776847243309021
1.8563306331634521,2.667078733444214,-0.16921208798885345
1.4376842975616455,2.0367801189422607,-0.12277700006961823
1.4475971460342407,2.0205941200256348,-0.11491356790065765
1.4605634212493896,2.0116453170776367,-0.10761313885450363
1.4650633335113525,1.9894167184829712,-0.09919683635234833
2.1899170875549316,3.095714569091797,0.3552490174770355
2.1711368560791016,3.1171512603759766,0.36673006415367126
2.150597095489502,3.1395108699798584,0.37822389602661133
2.13199782371521,3.160357713699341,0.3888302743434906
2.1322519779205322,3.2104251384735107,0.4028594195842743
2.1070213317871094,3.225827217102051,0.4124608635902405
1.6234616041183472,2.52470064163208,0.32837098836898804
1.6303822994232178,2.5746564865112305,0.3403589427471161
1.6141575574874878,2.5930891036987305,0.34814581274986267
1.8658361434936523,3.0478463172912598,0.41523438692092896
1.8901225328445435,3.1364824771881104,0.4330945909023285
1.8553634881973267,3.129117488861084,0.43772852420806885
2.9636290073394775,5.085221290588379,0.720157265663147
2.9306905269622803,5.116025924682617,0.7332407832145691
2.917203903198242,5.17561149597168,0.7499833703041077
2.8947556018829346,5.22208833694458,0.7648103833198547
2.860675811767578,5.252506732940674,0.7769695520401001
2.8395023345947266,5.306379795074463,0.7926260232925415
2.8228938579559326,5.366259574890137,0.8090197443962097
2.777797222137451,5.370790004730225,0.8170167803764343
2.7742650508880615,5.462447643280029,0.83782559633255
2.75909686088562,5.533547401428223,0.8556532263755798
2.725992441177368,5.565695285797119,0.867305338382721
1.2189046144485474,2.533902645111084,0.3978947103023529
1.203956127166748,2.5489416122436523,0.403153657913208
1.181667447090149,2.5501935482025146,0.40606188774108887
1.1626458168029785,2.5582823753356934,0.4100705087184906
1.1571431159973145,2.5940544605255127,0.4184267520904541
2.569031238555908,5.868445873260498,0.9525160193443298
2.5488932132720947,5.938937664031982,0.969757080078125
2.524456262588501,6.002535820007324,0.9855237603187561
2.4918031692504883,6.048233509063721,0.9984793066978455
2.4634315967559814,6.10019063949585,1.0123424530029297
2.43609619140625,6.155529022216797,1.0268542766571045
2.4026241302490234,6.200467586517334,1.0396168231964111
2.3775479793548584,6.2708234786987305,1.05613112449646
2.347601890563965,6.330238342285156,1.0709272623062134
2.319404125213623,6.392755031585693,1.086250901222229
2.284794569015503,6.436723709106445,1.0984493494033813
2.2577085494995117,6.5062642097473145,1.1152145862579346
2.227792501449585,6.5724310874938965,1.1307367086410522
2.1931965351104736,6.627581596374512,1.1443880796432495
2.1568636894226074,6.67884635925293,1.157465934753418
2.0937862396240234,6.641211032867432,1.1550402641296387
2.0340068340301514,6.614290714263916,1.154543399810791
1.9717504978179932,6.575739860534668,1.1517373323440552
1.9079680442810059,6.533370494842529,1.1476387977600098
1.8502330780029297,6.508943557739258,1.1466997861862183
1.7944482564926147,6.48762321472168,1.1462968587875366
1.7349997758865356,6.447021007537842,1.1424317359924316
1.6763818264007568,6.4098358154296875,1.1392358541488647
0.8216521143913269,3.2345778942108154,0.5764184594154358
1.5690863132476807,6.367888450622559,1.1373777389526367
0.7956186532974243,3.3313350677490234,0.5963922739028931
1.4615050554275513,6.316827774047852,1.133500576019287
1.4065465927124023,6.28120231628418,1.1297721862792969
1.3545960187911987,6.2524871826171875,1.1272590160369873
1.3018715381622314,6.2197442054748535,1.123715877532959
1.2483588457107544,6.182999134063721,1.1190022230148315
1.199175238609314,6.164679050445557,1.11765456199646
1.1420009136199951,6.104492664337158,1.1087669134140015
1.093266487121582,6.077646732330322,1.105892300605774
1.0560855865478516,6.114831447601318,1.1147212982177734
1.000610589981079,6.045660495758057,1.104014277458191
0.960091233253479,6.067329406738281,1.1093449592590332
0.9111179113388062,6.039416790008545,1.1056864261627197
0.8639436364173889,6.0148186683654785,1.102648377418518
0.8132141828536987,5.9554972648620605,1.0932502746582031
0.6790326833724976,5.244068145751953,0.963995635509491
0.6210379600524902,5.072818756103516,0.93385910987854
0.5826640129089355,5.053889751434326,0.931121826171875
0.5526697039604187,5.114960193634033,0.9431555867195129
0.41322195529937744,4.094001293182373,0.7555525302886963
0.38244834542274475,4.073624610900879,0.7524728775024414
0.35971716046333313,4.141039848327637,0.7656518816947937
0.33387771248817444,4.181524753570557,0.7739084362983704
0.3024304211139679,4.160644054412842,0.7705405950546265
0.27372851967811584,4.170210361480713,0.7726036906242371
0.24625536799430847,4.202585220336914,0.7789335250854492
0.4000719487667084,7.756076812744141,1.4382402896881104
0.34547916054725647,7.743101119995117,1.4365780353546143
0.28911691904067993,7.702909469604492,1.4299451112747192
0.23485876619815826,7.68150520324707,1.426718831062317
0.18040652573108673,7.644522190093994,1.4197919368743896
0.1269282102584839,7.634036064147949,1.4178555011749268
0.0731227844953537,7.573251247406006,1.4066455364227295
0.01956338621675968,7.573541164398193,1.4068496227264404
-0.032951731234788895,7.550414085388184,1.4027692079544067
-0.08501425385475159,7.515403747558594,1.396546721458435
-0.1368931084871292,7.49934720993042,1.3932942152023315
-0.18833133578300476,7.475318908691406,1.3882696628570557
-0.23956619203090668,7.454777240753174,1.3839622735977173
-0.29220283031463623,7.45304012298584,1.3832067251205444
-0.3445151150226593,7.462478160858154,1.3845988512039185
-0.28733643889427185,5.408051013946533,1.003205418586731
-0.3234984278678894,5.383037567138672,0.9983121752738953
-0.36061930656433105,5.380902290344238,0.9971020817756653
-0.3970334827899933,5.359308242797852,0.9923218488693237
-0.43405231833457947,5.35666036605835,0.9911139607429504
-0.4052143394947052,4.603682518005371,0.851215124130249
-0.43940263986587524,4.6238932609558105,0.8544098734855652
-0.46759942173957825,4.582703590393066,0.8463024497032166
-0.49896886944770813,4.571930885314941,0.8434499502182007
-0.5312540531158447,4.5763258934021,0.8432458639144897
-0.5608580708503723,4.557603359222412,0.8388219475746155
-0.5898349285125732,4.534865856170654,0.8337030410766602
-0.6214373111724854,4.530941486358643,0.8320780396461487
-0.6513208746910095,4.5115132331848145,0.827635645866394
-0.6779910922050476,4.476805686950684,0.820314884185791
-0.7062643766403198,4.4572577476501465,0.8153953552246094
-0.7355564832687378,4.445114612579346,0.8118755221366882
-0.764715313911438,4.432777404785156,0.8083629012107849
-0.7907761931419373,4.401252746582031,0.8013814091682434
-0.8233232498168945,4.403502464294434,0.8005732297897339
-0.8407497406005859,4.330104827880859,0.7860878705978394
-0.7337413430213928,3.6460437774658203,0.6605417132377625
-0.7601668834686279,3.6488871574401855,0.6596782207489014
-0.9324937462806702,4.3284478187561035,0.7809318900108337
-0.9646571278572083,4.329771041870117,0.7795473337173462
-0.9913354516029358,4.308436393737793,0.7741439938545227
-1.0249205827713013,4.316878318786621,0.7741262912750244
-1.0526353120803833,4.302826404571533,0.7697415351867676
-1.078137755393982,4.281205177307129,0.7638726234436035
-1.1067837476730347,4.270492076873779,0.7599610090255737
-1.134251594543457,4.255886077880859,0.7554041743278503
-1.1618818044662476,4.241021156311035,0.7508238554000854
-1.189359188079834,4.225973606109619,0.7462545037269592
-1.2140692472457886,4.2035322189331055,0.7401067018508911
-1.2474030256271362,4.2104997634887695,0.7389194369316101
-1.2691810131072998,4.180488109588623,0.7313234806060791
-1.2934060096740723,4.1575775146484375,0.7249827980995178
-1.3224356174468994,4.149099349975586,0.7211710214614868
-1.3466252088546753,4.125758647918701,0.7148194313049316
-1.3752549886703491,4.117025375366211,0.7106533050537109
-1.400540828704834,4.10107421875,0.7051709294319153
-1.4193191528320312,4.066758632659912,0.6965848207473755
-1.4552589654922485,4.079351425170898,0.6959980130195618
-1.4731847047805786,4.040825843811035,0.6867048740386963
-1.504106879234314,4.038389205932617,0.6835930943489075
-1.5234949588775635,4.007166862487793,0.67514568567276
-1.5448198318481445,3.9832332134246826,0.6680200099945068
-1.5745590925216675,3.980665922164917,0.664496123790741
-1.6024984121322632,3.9703211784362793,0.6595786809921265
-1.642128825187683,3.98833966255188,0.6593829393386841
-1.6580278873443604,3.949127435684204,0.6494842171669006
-1.6905889511108398,3.952979326248169,0.6465120315551758
-1.7140169143676758,3.9353184700012207,0.6400441527366638
-1.735069990158081,3.910068988800049,0.632266104221344
-1.7625728845596313,3.898643970489502,0.6267200708389282
-1.7933926582336426,3.8939945697784424,0.6221293210983276
-1.8161139488220215,3.875852108001709,0.6151183247566223
-1.8452918529510498,3.8715479373931885,0.6103363633155823
-1.8719791173934937,3.859673261642456,0.6042444109916687
-1.8819587230682373,3.8126871585845947,0.5926446914672852
-1.9123586416244507,3.807173490524292,0.5873957872390747
-1.9341223239898682,3.7884669303894043,0.5798866748809814
-1.962817668914795,3.7833874225616455,0.5744947195053101
-1.9926320314407349,3.777548313140869,0.5687931776046753
-1.9953937530517578,3.720079183578491,0.5553208589553833
-2.035644054412842,3.7345666885375977,0.5524677038192749
-1.7078484296798706,3.084611415863037,0.4519179165363312
-1.7378588914871216,3.0909173488616943,0.44845855236053467
-0.8423960208892822,1.4740715026855469,0.21163466572761536
-0.8411587476730347,1.4483710527420044,0.20574158430099487
-0.8625213503837585,1.463265061378479,0.20547334849834442
-0.8683586716651917,1.451220154762268,0.20136617124080658
-0.8865880966186523,1.4588056802749634,0.19987323880195618
-0.888759195804596,1.4397321939468384,0.1947120875120163
-0.8982414603233337,1.4342924356460571,0.19131681323051453
-0.9034308791160583,1.4222900867462158,0.18705157935619354
-0.8967248201370239,1.3901798725128174,0.17996834218502045
-0.9022606611251831,1.3777810335159302,0.1755245327949524
-0.915448009967804,1.3788537979125977,0.1726888120174408
-2.3829240798950195,3.539505958557129,0.4354625940322876
-2.4497931003570557,3.5846593379974365,0.43238595128059387
-1.2803791761398315,1.8468254804611206,0.21813400089740753
-1.3995676040649414,1.9919198751449585,0.23025795817375183
-1.5729038715362549,2.250974178314209,-0.14693161845207214
-1.4415088891983032,2.341578722000122,-0.21116521954536438
-1.453120231628418,2.3977129459381104,-0.22264496982097626
-1.3474836349487305,2.2606587409973145,-0.21589507162570953
-1.2993907928466797,2.2160940170288086,-0.21734905242919922
-0.8178707957267761,1.4415709972381592,-0.14854085445404053
-1.1634101867675781,2.0858054161071777,-0.21998757123947144
-1.1374073028564453,2.0729241371154785,-0.2234155237674713
-1.0837873220443726,2.008540153503418,-0.2210812270641327
-1.037764549255371,1.9576095342636108,-0.21997784078121185
-0.993070125579834,1.9058854579925537,-0.21837389469146729
-0.9547650218009949,1.863889217376709,-0.21757546067237854
-0.9290359020233154,1.84590482711792,-0.2193884551525116
-0.8948573470115662,1.810321569442749,-0.21895810961723328
-0.8461165428161621,1.7428627014160156,-0.21440640091896057
-0.8271075487136841,1.7342605590820312,-0.21683625876903534
-0.8145039081573486,1.7397007942199707,-0.22092799842357635
-0.7807767987251282,1.699224591255188,-0.2191045731306076
-0.7559980750083923,1.6759092807769775,-0.2192678153514862
-0.7299867272377014,1.6488068103790283,-0.21883028745651245
-0.7147394418716431,1.6465293169021606,-0.22158454358577728
-0.6906879544258118,1.62262761592865,-0.22131651639938354
-0.659824788570404,1.5804948806762695,-0.21836963295936584
-0.6457085013389587,1.5774787664413452,-0.22073175013065338
-0.6285757422447205,1.5672470331192017,-0.2219545692205429
-0.6086102724075317,1.5497095584869385,-0.22213566303253174
-0.5893324613571167,1.5318347215652466,-0.22211186587810516
-0.5716903805732727,1.5173993110656738,-0.22252559661865234
-0.54740309715271,1.48473060131073,-0.22006936371326447
-0.5341222286224365,1.48091459274292,-0.22183026373386383
-0.5183500051498413,1.4696905612945557,-0.22245855629444122
-0.5054575800895691,1.4655781984329224,-0.22410240769386292
-0.4900568127632141,1.454092025756836,-0.22446298599243164
-0.4736141860485077,1.4388030767440796,-0.22419118881225586
-0.4563591778278351,1.4196468591690063,-0.2232436090707779
-0.44617560505867004,1.4224822521209717,-0.22576631605625153
-0.43607136607170105,1.4252351522445679,-0.22813396155834198
0.48238587379455566,1.4362127780914307,-0.2220887392759323
0.5025324821472168,1.4300765991210938,-0.21695254743099213
0.5124695897102356,1.4269485473632812,-0.2142876386642456
0.5370082259178162,1.4637171030044556,-0.217529296875
0.5501400828361511,1.4675225019454956,-0.2157461792230606
0.5770822763442993,1.5073997974395752,-0.219220831990242
0.5946385264396667,1.521796464920044,-0.21883127093315125
0.6166313886642456,1.546860694885254,-0.2198576182126999
0.6303443312644958,1.5501365661621094,-0.2177133858203888
0.6533198952674866,1.5746619701385498,-0.21843551099300385
0.6703333854675293,1.58479642868042,-0.2170950323343277
0.6889236569404602,1.5983936786651611,-0.21612347662448883
0.7062737345695496,1.608222246170044,-0.21456944942474365
0.7271077632904053,1.6249074935913086,-0.21383853256702423
0.7515153288841248,1.6484158039093018,-0.21383138000965118
0.7710075378417969,1.6612831354141235,-0.21236670017242432
0.8057451248168945,1.7054961919784546,-0.21476060152053833
0.83292156457901,1.7317428588867188,-0.21469217538833618
0.8586167693138123,1.7543036937713623,-0.21402601897716522
0.8881531953811646,1.7835497856140137,-0.2139497697353363
0.9163426756858826,1.809030532836914,-0.2133076936006546
0.9504607319831848,1.844482421875,-0.21364445984363556
0.9902475476264954,1.8900350332260132,-0.21492251753807068
1.0250413417816162,1.924946904182434,-0.21478144824504852
1.0773662328720093,1.9900805950164795,-0.2176671028137207
1.1047582626342773,2.0067155361175537,-0.21493272483348846
1.144963026046753,2.047247886657715,-0.21463564038276672
1.1838500499725342,2.083953857421875,-0.21371762454509735
1.2355481386184692,2.14013934135437,-0.21435724198818207
1.2917758226394653,2.2025818824768066,-0.21530239284038544
1.310857892036438,2.20095157623291,-0.20968922972679138
1.3341573476791382,2.205728769302368,-0.20458970963954926
1.3619294166564941,2.2167606353759766,-0.1998954713344574
1.356195092201233,2.1750781536102295,-0.19046223163604736
1.3709110021591187,2.1663968563079834,-0.18394063413143158
1.4390710592269897,2.2390530109405518,-0.18377219140529633
1.7565075159072876,2.6934382915496826,-0.21350504457950592
1.8539695739746094,2.8026537895202637,-0.2141970843076706
1.8780763149261475,2.7966649532318115,-0.20523154735565186
1.815733551979065,2.665316343307495,-0.1874256134033203
1.8425331115722656,2.6664836406707764,-0.17905807495117188
1.8657841682434082,2.6604397296905518,-0.16975189745426178
1.4402735233306885,2.0253822803497314,-0.1224019005894661
1.4628925323486328,2.0288288593292236,-0.11552431434392929
1.4724540710449219,2.0126819610595703,-0.10711726546287537
1.475989818572998,1.991099238395691,-0.09850822389125824
2.2004234790802,3.0864105224609375,0.37093573808670044
2.1756339073181152,3.1025147438049316,0.3826307952404022
2.157296895980835,3.1234121322631836,0.3941118121147156
2.1428236961364746,3.1508326530456543,0.4062304198741913
2.1242268085479736,3.17606782913208,0.41793355345726013
2.113694190979004,3.2097296714782715,0.4301997721195221
1.9762077331542969,3.04792857170105,0.4158114790916443
1.637403130531311,2.5680625438690186,0.3561098873615265
1.6343744993209839,2.605689764022827,0.36698004603385925
1.564826250076294,2.5338261127471924,0.3619999885559082
1.8963048458099365,3.120866298675537,0.4520207345485687
1.8796865940093994,3.147799015045166,0.4620330035686493
2.9789490699768066,5.071407318115234,0.7535805106163025
2.9486186504364014,5.100774765014648,0.7668486833572388
2.9260168075561523,5.147686004638672,0.7825444340705872
2.897940158843994,5.188411712646484,0.797162652015686
2.883253574371338,5.25231409072876,0.8153186440467834
2.8497328758239746,5.277695655822754,0.8271582722663879
2.8332436084747314,5.337503910064697,0.8443018198013306
2.805419445037842,5.381070613861084,0.8585980534553528
2.779168128967285,5.4277825355529785,0.8734580874443054
2.7608611583709717,5.487468242645264,0.8902654051780701
2.747706413269043,5.557190895080566,0.9087346196174622
1.230051875114441,2.5341429710388184,0.4174179136753082
1.2027311325073242,2.525125741958618,0.4188913106918335
1.1842548847198486,2.5331406593322754,0.42311978340148926
1.1679366827011108,2.5442702770233154,0.4277999699115753
1.1496176719665527,2.5518980026245117,0.4319661259651184
1.1587028503417969,2.6232643127441406,0.44664427638053894
2.5650713443756104,5.924464225769043,1.0145955085754395
2.531130790710449,5.962711334228516,1.0269367694854736
2.5083069801330566,6.025238513946533,1.0434212684631348
2.482477903366089,6.0844292640686035,1.0595709085464478
2.4535164833068848,6.140461444854736,1.0744900703430176
2.4194512367248535,6.1856842041015625,1.0875545740127563
2.389524459838867,6.241323471069336,1.1025042533874512
2.361844539642334,6.299890041351318,1.117916464805603
2.333984851837158,6.362231731414795,1.1342189311981201
2.298593044281006,6.406519889831543,1.146877408027649
2.2708523273468018,6.4763665199279785,1.1638507843017578
2.2384676933288574,6.535191059112549,1.1789733171463013
2.2056403160095215,6.589742660522461,1.1932990550994873
2.1753387451171875,6.655227184295654,1.209766149520874
2.124023675918579,6.654336929321289,1.2141687870025635
2.0563488006591797,6.605923175811768,1.2090824842453003
2.0017778873443604,6.597400665283203,1.2112730741500854
1.9398720264434814,6.562597274780273,1.2086563110351562
1.8768001794815063,6.51579475402832,1.203715443611145
1.8188649415969849,6.487168312072754,1.2022013664245605
1.7651339769363403,6.469047546386719,1.202447772026062
1.7085951566696167,6.443498611450195,1.2006192207336426
0.8368020057678223,3.2496862411499023,0.6070142984390259
1.5962414741516113,6.387204647064209,1.1960569620132446
0.809339702129364,3.3387839794158936,0.6267879605293274
1.4822700023651123,6.306255340576172,1.1868407726287842
1.4337027072906494,6.296899795532227,1.1879554986953735
1.3770283460617065,6.253728866577148,1.1820111274719238
1.3291054964065552,6.247636795043945,1.1831084489822388
1.2705557346343994,6.192415714263916,1.1749722957611084
1.2258034944534302,6.192878723144531,1.1773432493209839
1.1703166961669922,6.136444568634033,1.168927788734436
1.1246798038482666,6.128645420074463,1.1697973012924194
1.077061414718628,6.113236427307129,1.1684457063674927
1.0315285921096802,6.112720489501953,1.1700206995010376
0.9733471870422363,6.0283966064453125,1.1555579900741577
0.9312582015991211,6.034491062164307,1.1584275960922241
0.8858450055122375,6.017502784729004,1.156912922859192
0.8353894352912903,5.962178707122803,1.1480592489242554
0.7830921411514282,5.895294666290283,1.1364442110061646
0.7481382489204407,5.953579425811768,1.1487587690353394
0.5932150483131409,5.005901336669922,0.9668557643890381
0.573794424533844,5.150671482086182,0.9958400130271912
0.5423166155815125,5.196168899536133,1.0057073831558228
0.39721477031707764,4.080944061279297,0.7907376885414124
0.36821743845939636,4.083424091339111,0.7919689416885376
0.34615182876586914,4.166012287139893,0.80838543176651
0.3168853223323822,4.168174743652344,0.8092425465583801
0.28703051805496216,4.162482261657715,0.8086146712303162
0.25954723358154297,4.187174320220947,0.8139244318008423
0.4258439838886261,7.7572021484375,1.5089257955551147
0.3707908093929291,7.736688137054443,1.5060299634933472
0.31545332074165344,7.704465866088867,1.5000288486480713
0.2613655626773834,7.69871187210083,1.4990789890289307
0.20725466310977936,7.684909820556641,1.496634602546692
0.15171149373054504,7.632411003112793,1.4867292642593384
0.0983080118894577,7.606340408325195,1.4820349216461182
0.04529718682169914,7.583731651306152,1.4780839681625366
-0.0073097338899970055,7.560812473297119,1.4738357067108154
-0.05959577485918999,7.526162147521973,1.4666544198989868
-0.11239854246377945,7.4949727058410645,1.4602159261703491
-0.16382566094398499,7.463431358337402,1.4537893533706665
-0.21506714820861816,7.443039417266846,1.4496067762374878
-0.26680517196655273,7.441452503204346,1.4491567611694336
-0.32000765204429626,7.473982334136963,1.4554203748703003
-0.26900795102119446,5.407590866088867,1.0524810552597046
-0.30703750252723694,5.405769348144531,1.0514297485351562
-0.34395280480384827,5.39606237411499,1.04890775680542
-0.37972772121429443,5.370797157287598,1.0434141159057617
-0.415526807308197,5.349113941192627,1.0386701822280884
-0.4501328766345978,5.315722465515137,1.031706690788269
-0.4231232702732086,4.609894752502441,0.8941959738731384
-0.4526301622390747,4.584256172180176,0.8882640600204468
-0.4842228293418884,4.581315040588379,0.8867772221565247
-0.5157963633537292,4.578155517578125,0.8852902054786682
-0.5457318425178528,4.559518337249756,0.8808498978614807
-0.5760473012924194,4.540613174438477,0.8763905167579651
-0.6070901155471802,4.532983303070068,0.8741677403450012
-0.6361789107322693,4.513861656188965,0.869327962398529
-0.6637423634529114,4.487013339996338,0.8628889918327332
-0.694492757320404,4.48275089263916,0.860840380191803
-0.7222773432731628,4.455433368682861,0.8543826937675476
-0.7533097267150879,4.45068883895874,0.8523111343383789
-0.7843108177185059,4.4457268714904785,0.8502392768859863
-0.8102458119392395,4.414182662963867,0.8429466485977173
-0.8360641002655029,4.386411666870117,0.8360329270362854
-0.724568247795105,3.6653425693511963,0.6972814202308655
-0.7470278143882751,3.6455721855163574,0.6922139525413513
-0.7755840420722961,3.6557278633117676,0.6928646564483643
-0.9525027275085449,4.34101676940918,0.8212649822235107
-0.9827101230621338,4.334775447845459,0.8186370730400085
-1.0104355812072754,4.321100234985352,0.81407630443573
-1.033121109008789,4.284718990325928,0.805259644985199
-1.0659658908843994,4.293094158172607,0.8049322366714478
-1.0958062410354614,4.286175727844238,0.8017274737358093
-1.1217803955078125,4.264154434204102,0.7957374453544617
-1.1504663228988647,4.253118515014648,0.7918470501899719
-1.1737480163574219,4.223494529724121,0.7840470671653748
-1.202383041381836,4.216114044189453,0.7803700566291809
-1.228811264038086,4.20115327835083,0.7753298282623291
-1.2557429075241089,4.185842990875244,0.7702178955078125
-1.278212070465088,4.155584335327148,0.7623918652534485
-1.3146768808364868,4.169109344482422,0.7625998854637146
-1.3288325071334839,4.116875648498535,0.7504172921180725
-1.3639088869094849,4.130484580993652,0.7501965165138245
-1.383216142654419,4.096390724182129,0.7413483262062073
-1.4155104160308838,4.098350524902344,0.7389907836914062
-1.4403258562088013,4.07822847366333,0.7326760292053223
-1.4693641662597656,4.068653106689453,0.728240966796875
-1.491407036781311,4.045056343078613,0.720890998840332
-1.5078072547912598,4.006897926330566,0.7110075950622559
-1.5404528379440308,4.01182222366333,0.7087995409965515
-1.5657237768173218,3.994617462158203,0.7026049494743347
-1.599959373474121,3.998527765274048,0.700092613697052
-1.6245498657226562,3.981163740158081,0.6937448978424072
-1.6453438997268677,3.956838846206665,0.6859416961669922
-1.6748743057250977,3.9537298679351807,0.6818587183952332
-1.6930038928985596,3.921738862991333,0.6727322340011597
-1.7365798950195312,3.9458110332489014,0.6731168627738953
-1.7515900135040283,3.906304359436035,0.6627326011657715
-1.764836311340332,3.867410182952881,0.6520817279815674
-1.8069126605987549,3.891542434692383,0.6520795226097107
-1.8301348686218262,3.8731443881988525,0.6448656320571899
-1.8579630851745605,3.860931396484375,0.6384968161582947
-1.8851971626281738,3.8487391471862793,0.6322436332702637
-1.8971792459487915,3.809405565261841,0.6211760640144348
-1.9260642528533936,3.8046152591705322,0.6157598495483398
-1.959073781967163,3.80621075630188,0.6112756729125977
-1.9786940813064575,3.7797040939331055,0.6021519899368286
-2.0165469646453857,3.78708815574646,0.598327100276947
-2.02135968208313,3.737334966659546,0.5852280259132385
-1.6994636058807373,3.0939762592315674,0.4801460802555084
-1.7227917909622192,3.086447238922119,0.4744313657283783
-0.8293012976646423,1.4617927074432373,0.22249950468540192
-0.854905366897583,1.4833208322525024,0.2234155684709549
-0.8568392395973206,1.4647531509399414,0.2182467132806778
-0.8666988611221313,1.4594191312789917,0.2150259017944336
-0.8890660405158997,1.4736334085464478,0.21452941000461578
-0.8790595531463623,1.4348434209823608,0.20630845427513123
-0.8968181014060974,1.4426130056381226,0.20467634499073029
-0.8981688022613525,1.4239578247070312,0.19930146634578705
-0.9040970206260681,1.4115132093429565,0.19466787576675415
-0.9095921516418457,1.3992403745651245,0.19004787504673004
-0.8973128199577332,1.3613858222961426,0.18195855617523193
-0.9541943669319153,1.426680564880371,0.1873859465122223
-2.406562566757202,3.5445127487182617,0.4570179879665375
-1.2976152896881104,1.884934902191162,0.2383466362953186
-1.4520971775054932,2.0811984539031982,0.25789713859558105
-1.336051344871521,1.8977692127227783,-0.12422534078359604
-1.457204818725586,2.1028053760528564,-0.14549697935581207
-1.427281141281128,2.299710750579834,-0.2111307680606842
-1.4066985845565796,2.302546977996826,-0.21793147921562195
-1.3851325511932373,2.305783748626709,-0.2248356193304062
-1.2773170471191406,2.1609268188476562,-0.21655279397964478
-0.8383633494377136,1.4653874635696411,-0.15450233221054077
-1.1708496809005737,2.0811309814453125,-0.2247389853000641
-1.1049628257751465,1.997016191482544,-0.2206566333770752
-1.0551408529281616,1.9394733905792236,-0.21902640163898468
-1.0279573202133179,1.9225994348526,-0.22175872325897217
-0.9780296087265015,1.8605079650878906,-0.2189198136329651
-0.923815906047821,1.7874255180358887,-0.21441474556922913
-0.9210544228553772,1.8144313097000122,-0.22179913520812988
-0.8644834160804749,1.7336543798446655,-0.21578910946846008
-0.8521740436553955,1.7391812801361084,-0.22022992372512817
-0.8178446888923645,1.6992112398147583,-0.2188054919242859
-0.7954877614974976,1.6835334300994873,-0.2203160971403122
-0.7767894268035889,1.6746095418930054,-0.22261248528957367
-0.7374069690704346,1.619619369506836,-0.21863433718681335
-0.7226587533950806,1.6172419786453247,-0.22152970731258392
-0.7015886306762695,1.6006168127059937,-0.22237879037857056
-0.6763491034507751,1.573046088218689,-0.2215760350227356
-0.6561942100524902,1.555863857269287,-0.22210687398910522
-0.6389716863632202,1.545762062072754,-0.22358745336532593
-0.6220129728317261,1.5354764461517334,-0.22489558160305023
-0.6024765968322754,1.5178022384643555,-0.22504296898841858
-0.5735248923301697,1.4746569395065308,-0.22127246856689453
-0.5657671689987183,1.4854614734649658,-0.22548116743564606
-0.5359992384910583,1.4383562803268433,-0.22081398963928223
-0.5257430076599121,1.4416838884353638,-0.22375111281871796
-0.5142505168914795,1.4412671327590942,-0.22609232366085052
-0.4938279092311859,1.4152500629425049,-0.22432172298431396
-0.4861840605735779,1.4256253242492676,-0.2282084822654724
0.49918681383132935,1.4055211544036865,-0.22095529735088348
0.5243276953697205,1.413709282875061,-0.21764329075813293
0.5423629283905029,1.4321728944778442,-0.21804910898208618
0.5536929368972778,1.432428240776062,-0.21562939882278442
0.5752847790718079,1.4576845169067383,-0.21685482561588287
0.597123384475708,1.4827667474746704,-0.21799816191196442
0.616247832775116,1.5005345344543457,-0.21790550649166107
0.6400892734527588,1.5288535356521606,-0.21922259032726288
0.6538495421409607,1.5319331884384155,-0.21682168543338776
0.6710364818572998,1.5418956279754639,-0.21529628336429596
0.6911873817443848,1.5589326620101929,-0.21468736231327057
0.7163081765174866,1.5864096879959106,-0.21539190411567688
0.7338951826095581,1.5959450006484985,-0.21353763341903687
0.7583277225494385,1.619320273399353,-0.21343359351158142
0.7914621233940125,1.6599687337875366,-0.21534967422485352
0.81982421875,1.68991219997406,-0.21575024724006653
0.8419684171676636,1.7055386304855347,-0.2141554057598114
0.8766608834266663,1.745185136795044,-0.21541933715343475
0.9081054329872131,1.7776905298233032,-0.21557363867759705
0.9489114880561829,1.8271348476409912,-0.21757443249225616
0.974687933921814,1.8449184894561768,-0.2154550999403
1.0207873582839966,1.9001942873001099,-0.21758541464805603
1.0541778802871704,1.9313210248947144,-0.21668608486652374
1.1032308340072632,1.9892377853393555,-0.21852679550647736
1.136396884918213,2.015862226486206,-0.21655116975307465
1.1835458278656006,2.065751075744629,-0.21674798429012299
1.2288484573364258,2.1120927333831787,-0.21637305617332458
1.289053201675415,2.1811835765838623,-0.217876598238945
1.3184399604797363,2.196038007736206,-0.21363171935081482
1.3372811079025269,2.194373607635498,-0.20768490433692932
1.3605997562408447,2.1989669799804688,-0.20211923122406006
1.3636916875839233,2.1701300144195557,-0.19335918128490448
1.368044137954712,2.144925355911255,-0.1850273311138153
1.4056276082992554,2.1723086833953857,-0.1811792552471161
1.7697360515594482,2.6938998699188232,-0.21648412942886353
1.8599246740341187,2.7892069816589355,-0.2154199779033661
1.8565096855163574,2.7452552318573,-0.2035200297832489
1.8558439016342163,2.703963041305542,-0.191517636179924
1.8742598295211792,2.6919167041778564,-0.1816219836473465
1.4284247159957886,2.0237362384796143,-0.12969094514846802
1.4565269947052002,2.032985210418701,-0.12267105281352997
1.4699738025665283,2.023756265640259,-0.11460552364587784
1.4741476774215698,2.0018177032470703,-0.10563018918037415
2.1998109817504883,3.111989736557007,0.40101853013038635
2.168015956878662,3.113828420639038,0.4107758402824402
2.143061876296997,3.1295456886291504,0.42212074995040894
2.1433494091033936,3.1795108318328857,0.43765369057655334
2.1289541721343994,3.2063913345336914,0.4497052729129791
2.031583547592163,3.111175537109375,0.44409602880477905
1.9073904752731323,2.9685142040252686,0.430799663066864
1.6270637512207031,2.5713682174682617,0.37891364097595215
1.5991392135620117,2.569502115249634,0.38428983092308044
1.8662645816802979,3.0499966144561768,0.4625824987888336
1.8779741525650024,3.118701696395874,0.4791441857814789
1.8714557886123657,3.1574573516845703,0.4911721348762512
2.9465341567993164,5.056524276733398,0.7957941889762878
2.947234869003296,5.14797306060791,0.819568395614624
2.906252145767212,5.160472393035889,0.8301957249641418
2.8920645713806152,5.219695568084717,0.8483003377914429
2.8661348819732666,5.262969017028809,0.863522469997406
2.8334269523620605,5.29633903503418,0.8770270943641663
2.8279435634613037,5.3805036544799805,0.8989887833595276
2.79321026802063,5.405525207519531,0.9108280539512634
2.775094985961914,5.465085983276367,0.9284359812736511
2.7630584239959717,5.542863368988037,0.9488059878349304
1.246936321258545,2.5485551357269287,0.43954092264175415
1.215100646018982,2.5288875102996826,0.4392838776111603
1.1922372579574585,2.5261833667755127,0.44188109040260315
1.175421953201294,2.537551164627075,0.4467867910861969
1.1564555168151855,2.5455148220062256,0.4509614408016205
1.1531689167022705,2.5885303020477295,0.46140241622924805
2.5739221572875977,5.887547969818115,1.0555499792099
2.552875280380249,5.953793048858643,1.0737199783325195
2.526216983795166,6.009554386138916,1.089643955230713
2.496378183364868,6.062129497528076,1.1047183275222778
2.4673352241516113,6.118133068084717,1.1205464601516724
2.435242176055908,6.1625823974609375,1.1341447830200195
2.4048819541931152,6.214226722717285,1.1492491960525513
2.3756558895111084,6.269227981567383,1.1648234128952026
2.3469536304473877,6.331967830657959,1.181288480758667
2.318828821182251,6.39818811416626,1.1985338926315308
2.282984972000122,6.442278861999512,1.2116711139678955
2.2583401203155518,6.518742084503174,1.230987310409546
2.223573684692383,6.565789222717285,1.2448052167892456
2.1908047199249268,6.6240458488464355,1.2602672576904297
2.1519546508789062,6.6677632331848145,1.2727909088134766
2.0826516151428223,6.6159281730651855,1.2671122550964355
2.027158737182617,6.603709697723389,1.2689812183380127
1.9610536098480225,6.550230026245117,1.2628175020217896
1.903259515762329,6.5219950675964355,1.2615216970443726
1.841586709022522,6.482693195343018,1.2572592496871948
1.7875293493270874,6.468832015991211,1.2578727006912231
1.730847954750061,6.443394660949707,1.2562633752822876
1.668386697769165,6.391360759735107,1.249441385269165
0.8217065334320068,3.2399752140045166,0.6350600123405457
1.5696452856063843,6.3747172355651855,1.2528445720672607
0.7945038080215454,3.3286497592926025,0.6555324196815491
1.4453517198562622,6.252735614776611,1.2339054346084595
1.4047009944915771,6.284688949584961,1.2428416013717651
1.3524854183197021,6.256044387817383,1.2397485971450806
1.3016602993011475,6.230714321136475,1.237335443496704
1.249049186706543,6.193699836730957,1.232624888420105
1.202089786529541,6.186646938323975,1.2332324981689453
1.148004174232483,6.145530700683594,1.2269364595413208
1.1014188528060913,6.137796878814697,1.22731614112854
1.0471608638763428,6.080520153045654,1.2177983522415161
1.0022785663604736,6.0718889236450195,1.21803879737854
0.9539806246757507,6.040222644805908,1.2136999368667603
0.9085208177566528,6.031147003173828,1.21355140209198
0.8608537912368774,6.002814292907715,1.2091245651245117
0.8152525424957275,5.9854936599731445,1.206961989402771
0.7686038613319397,5.956419467926025,1.202472448348999
0.6190682649612427,5.0753397941589355,1.0258045196533203
0.5823513865470886,5.067711353302002,1.0255138874053955
0.5586439371109009,5.185535907745361,1.0506459474563599
0.40828457474708557,4.057528018951416,0.8226001858711243
0.3825325071811676,4.090587139129639,0.8298488855361938
0.35930129885673523,4.157811164855957,0.8440829515457153
0.33088573813438416,4.167632102966309,0.8467094898223877
0.29971349239349365,4.146737575531006,0.8431448340415955
0.2708684206008911,4.148504734039307,0.84421306848526
0.24319633841514587,4.173075199127197,0.84961998462677
0.39740753173828125,7.752779006958008,1.5787962675094604
0.34204375743865967,7.732239246368408,1.575054407119751
0.2854802906513214,7.692208766937256,1.567423701286316
0.23139940202236176,7.670862674713135,1.5636595487594604
0.17727312445640564,7.633832931518555,1.556768536567688
0.1239205151796341,7.611733913421631,1.5529847145080566
0.07059210538864136,7.577993869781494,1.5458275079727173
0.01684565469622612,7.5324015617370605,1.5363272428512573
-0.03548441827297211,7.524707317352295,1.5346369743347168
-0.08779602497816086,7.524306297302246,1.5345078706741333
-0.13974742591381073,7.504405975341797,1.5304765701293945
-0.19045986235141754,7.449713706970215,1.5194226503372192
-0.2416793256998062,7.433019638061523,1.5157620906829834
-0.29441747069358826,7.439018249511719,1.5161499977111816
-0.24771171808242798,5.326371669769287,1.0850363969802856
-0.2893139123916626,5.412611961364746,1.1021133661270142
-0.32607701420783997,5.395353317260742,1.098159909248352
-0.3615221381187439,5.362570285797119,1.09110426902771
-0.40004509687423706,5.367685317993164,1.0918081998825073
-0.43432459235191345,5.330740928649902,1.0833971500396729
-0.4097774922847748,4.633808612823486,0.9409059882164001
-0.43810954689979553,4.593027114868164,0.931827962398529
-0.46912169456481934,4.582536697387695,0.9289452433586121
-0.5023540258407593,4.586994171142578,0.9291225075721741
-0.5297257900238037,4.5456318855285645,0.9200823903083801
-0.5621315836906433,4.5497589111328125,0.920127272605896
-0.5908620357513428,4.527196407318115,0.9143519401550293
-0.6234321594238281,4.534815311431885,0.9147195219993591
-0.6490725874900818,4.489040374755859,0.9043457508087158
-0.6791250109672546,4.477234363555908,0.9008768796920776
-0.7102965712547302,4.4727864265441895,0.8989324569702148
-0.7376754283905029,4.44543981552124,0.8924344778060913
-0.7695249915122986,4.448294639587402,0.8915630578994751
-0.7958444952964783,4.420802116394043,0.8845152854919434
-0.8266391754150391,4.415658950805664,0.8819595575332642
-0.711574912071228,3.6614952087402344,0.7301052212715149
-0.7385994791984558,3.6643848419189453,0.7294793128967285
-0.7609559297561646,3.6445634365081787,0.7243719100952148
-0.9318714737892151,4.314377307891846,0.8559341430664062
-0.9684727191925049,4.338370323181152,0.8587465882301331
-0.9979955554008484,4.332283020019531,0.855668306350708
-1.024120569229126,4.311022758483887,0.8496275544166565
-1.0541623830795288,4.304394245147705,0.8464858531951904
-1.0784826278686523,4.275239944458008,0.838967502117157
-1.1058377027511597,4.256989479064941,0.8335330486297607
-1.137649416923523,4.261229515075684,0.8320730924606323
-1.1614912748336792,4.235603332519531,0.8248199820518494
-1.183996558189392,4.206145763397217,0.8168801665306091
-1.211212396621704,4.191116809844971,0.8117355704307556
-1.2431734800338745,4.190491676330566,0.8093813061714172
-1.2701647281646729,4.175079345703125,0.8042391538619995
-1.2938121557235718,4.152524948120117,0.7972223162651062
-1.3218824863433838,4.1444783210754395,0.7930365204811096
-1.347516655921936,4.128929615020752,0.7874562740325928
-1.3744715452194214,4.112768173217773,0.781669557094574
-1.4032484292984009,4.103858947753906,0.7773513793945312
-1.4255578517913818,4.076624870300293,0.769554853439331
-1.4595484733581543,4.085906505584717,0.7681965827941895
-1.4725935459136963,4.037102222442627,0.7559732794761658
-1.4865843057632446,3.9918270111083984,0.7444804906845093
-1.5342345237731934,4.032386779785156,0.7488675713539124
-1.5569260120391846,4.008081912994385,0.7412739396095276
-1.5788908004760742,3.983858346939087,0.7335477471351624
-1.6171882152557373,4.0026960372924805,0.733447253704071
-1.6382079124450684,3.9784655570983887,0.7254751324653625
-1.6601675748825073,3.9536616802215576,0.717300295829773
-1.6939891576766968,3.957073211669922,0.7142801284790039
-1.7187261581420898,3.938993453979492,0.707404375076294
-1.7420625686645508,3.921355962753296,0.7002147436141968
-1.7651560306549072,3.903615713119507,0.6930040717124939
-1.7791080474853516,3.864415168762207,0.6819443106651306
-1.8128726482391357,3.8668372631073,0.678180992603302
-1.8367820978164673,3.8480796813964844,0.6707291603088379
-1.8696285486221313,3.850525379180908,0.666662871837616
-1.8816194534301758,3.811406135559082,0.6552939414978027
-1.9146026372909546,3.813392400741577,0.6509212255477905
-1.9450924396514893,3.8077991008758545,0.6450960636138916
-1.9684675931930542,3.7882461547851562,0.636938214302063
-1.990472674369812,3.7692010402679443,0.6285865902900696
-1.999101161956787,3.726407051086426,0.6162404417991638
-2.028099536895752,3.7207298278808594,0.6099870204925537
-1.7154960632324219,3.095057487487793,0.5027238130569458
-1.7410459518432617,3.090684175491333,0.4973710775375366
-0.837486207485199,1.4645177125930786,0.23332273960113525
-0.8471466898918152,1.4594532251358032,0.23015929758548737
-0.8652270436286926,1.4673434495925903,0.22888228297233582
-0.859911322593689,1.4350062608718872,0.22128282487392426
-0.8896762132644653,1.4628108739852905,0.22288665175437927
-0.8992922902107239,1.457456350326538,0.21934476494789124
-0.8928862810134888,1.425486445426941,0.21172404289245605
-0.9030318856239319,1.4196381568908691,0.2079552561044693
-0.895884096622467,1.3879375457763672,0.20031189918518066
-0.8921797871589661,1.3631272315979004,0.19377659261226654
-0.9188523292541504,1.3832809925079346,0.19341686367988586
-2.3825454711914062,3.533237934112549,0.48555538058280945
-2.407634735107422,3.5223612785339355,0.47523191571235657
-1.3716061115264893,1.978797435760498,0.2617935240268707
-1.249366283416748,1.7760255336761475,0.22999712824821472
-1.2437115907669067,1.7810059785842896,-0.12338302284479141
-1.3878233432769775,2.218507766723633,-0.2068684995174408
-1.3594304323196411,2.207919120788574,-0.21253179013729095
-1.2770906686782837,2.1426024436950684,-0.21872466802597046
-0.8354529738426208,1.4488022327423096,-0.15601539611816406
-0.828750729560852,1.4611036777496338,-0.16125871241092682
-1.0911650657653809,1.9552663564682007,-0.22089023888111115
-1.04879891872406,1.9114155769348145,-0.22084616124629974
-1.012559175491333,1.877388596534729,-0.22169919312000275
-0.9679991602897644,1.825682282447815,-0.2201474905014038
-0.9261599779129028,1.7768503427505493,-0.21857436001300812
-0.8971312642097473,1.7518970966339111,-0.2197016328573227
-0.8442888259887695,1.6779993772506714,-0.21437673270702362
-0.8426909446716309,1.7042264938354492,-0.22162891924381256
-0.8132061958312988,1.674869179725647,-0.22166165709495544
-0.7842743992805481,1.6451630592346191,-0.2214019000530243
-0.7314157485961914,1.5623705387115479,-0.21366140246391296
-0.7268226146697998,1.581039547920227,-0.2196142077445984
-0.718607485294342,1.5927398204803467,-0.22457994520664215
-0.6866711378097534,1.551296591758728,-0.22196614742279053
-0.6723542809486389,1.5485624074935913,-0.22478613257408142
-0.6522695422172546,1.5313690900802612,-0.2253953516483307
-0.6352548599243164,1.521209478378296,-0.22688522934913635
-0.6051927208900452,1.4786806106567383,-0.2234312891960144
-0.591832160949707,1.475232481956482,-0.22572942078113556
-0.5727438926696777,1.4573252201080322,-0.22581101953983307
-0.5567278265953064,1.4464632272720337,-0.22677521407604218
-0.5408867001533508,1.435456395149231,-0.22766020894050598
-0.5266807079315186,1.427889108657837,-0.2290273904800415
0.5232947468757629,1.396537184715271,-0.22213752567768097
0.5386642217636108,1.4077240228652954,-0.22139501571655273
0.5457753539085388,1.3971612453460693,-0.2172299325466156
0.5712149739265442,1.4333374500274658,-0.22016304731369019
0.5869945883750916,1.4441584348678589,-0.21910782158374786
0.6092230081558228,1.4690032005310059,-0.22001585364341736
0.6226292848587036,1.4722857475280762,-0.21767902374267578
0.6497010588645935,1.5075467824935913,-0.2198980152606964
0.6726125478744507,1.5318868160247803,-0.2203889638185501
0.6929008364677429,1.5488500595092773,-0.2196798026561737
0.7152858376502991,1.5690451860427856,-0.21928280591964722
0.7326600551605225,1.5786617994308472,-0.2173091620206833
0.7468540668487549,1.5811173915863037,-0.21431215107440948
0.7781811952590942,1.6182880401611328,-0.21584561467170715
0.8083944320678711,1.6516133546829224,-0.21669214963912964
0.8407049179077148,1.6881663799285889,-0.2176562249660492
0.8716217875480652,1.7209874391555786,-0.21802744269371033
0.8944506049156189,1.7360715866088867,-0.21592764556407928
0.9264664053916931,1.7681623697280884,-0.21580752730369568
0.9750611186027527,1.830946683883667,-0.2191476970911026
1.0006400346755981,1.848690390586853,-0.2168426364660263
1.043949842453003,1.8965247869491577,-0.21768441796302795
1.089378833770752,1.9475207328796387,-0.21868112683296204
1.1352860927581787,1.998154878616333,-0.21933460235595703
1.1647799015045166,2.0177690982818604,-0.21624977886676788
1.2164227962493896,2.0738894939422607,-0.21678416430950165
1.2884715795516968,2.1630566120147705,-0.22021475434303284
1.3172721862792969,2.1782171726226807,-0.215851292014122
1.3367503881454468,2.176149845123291,-0.2094666212797165
1.3558461666107178,2.174156427383423,-0.20305326581001282
1.3787522315979004,2.1788127422332764,-0.19720619916915894
1.3774391412734985,2.143357276916504,-0.18737554550170898
1.4008501768112183,2.14739990234375,-0.18110370635986328
1.8043885231018066,2.726921558380127,-0.2215004414319992
1.8732714653015137,2.789536476135254,-0.21747025847434998
1.8158199787139893,2.6644346714019775,-0.19878484308719635
1.8713220357894897,2.707472801208496,-0.19269192218780518
1.890039324760437,2.6951725482940674,-0.1821531057357788
1.426871657371521,2.00575852394104,-0.1281605213880539
1.467280387878418,2.0349013805389404,-0.122458815574646
1.4584906101226807,1.993567705154419,-0.11190192401409149
1.4762718677520752,1.9906318187713623,-0.10358878970146179
2.201770782470703,3.0894362926483154,0.4153869152069092
2.1856586933135986,3.1181488037109375,0.42954227328300476
2.1577982902526855,3.1264641284942627,0.4402020573616028
2.1416752338409424,3.1500446796417236,0.4526170790195465
2.1144659519195557,3.162122964859009,0.4631156623363495
2.0967698097229004,3.1862661838531494,0.4750566780567169
1.4918403625488281,2.3024392127990723,0.34909558296203613
1.59071946144104,2.4956750869750977,0.3843339681625366
1.6142252683639526,2.575840950012207,0.40270084142684937
1.5753953456878662,2.553281545639038,0.4045877158641815
1.8966447114944458,3.122352123260498,0.5013109445571899
