X,Y,Z
0.17463229596614838,1.9552125930786133,-0.19498667120933533
0.18897254765033722,1.961729884147644,-0.19534973800182343
0.19799086451530457,1.9140053987503052,-0.19017808139324188
0.2112320363521576,1.912645936012268,-0.18960699439048767
0.2203986495733261,1.8764441013336182,-0.18559816479682922
0.23246733844280243,1.8672077655792236,-0.1842738837003708
0.24644674360752106,1.8733123540878296,-0.18447251617908478
0.263348788022995,1.8985613584518433,-0.1864016056060791
0.27868372201919556,1.9121602773666382,-0.1871800422668457
0.2931090295314789,1.9179414510726929,-0.18719275295734406
0.3052200675010681,1.908248782157898,-0.1857021600008011
0.32234683632850647,1.929161787033081,-0.18718522787094116
0.3356417715549469,1.9269813299179077,-0.18627417087554932
0.3533288538455963,1.9476250410079956,-0.1875573694705963
0.36973223090171814,1.9604995250701904,-0.18809528648853302
0.3990858495235443,2.0381147861480713,-0.1948171854019165
0.4085891842842102,2.0125210285186768,-0.19162584841251373
0.42885878682136536,2.040213108062744,-0.19339077174663544
0.4456353783607483,2.0486679077148438,-0.1933090090751648
0.45816609263420105,2.0380373001098633,-0.1914413720369339
0.47588175535202026,2.0500593185424805,-0.19170567393302917
0.49911242723464966,2.0846669673919678,-0.19399626553058624
0.507828414440155,2.0586493015289307,-0.19056515395641327
0.5299085378646851,2.085331916809082,-0.19199730455875397
0.5503488779067993,2.1042959690093994,-0.1927068531513214
0.5650317072868347,2.100526809692383,-0.19133158028125763
0.5909108519554138,2.1379730701446533,-0.19358664751052856
0.6055708527565002,2.1340062618255615,-0.19204525649547577
0.6270961761474609,2.1522560119628906,-0.1924707442522049
0.6487677097320557,2.170349359512329,-0.1928776353597641
0.6638408303260803,2.1659300327301025,-0.19126169383525848
0.6821370124816895,2.1726338863372803,-0.1905023455619812
0.706512451171875,2.197718858718872,-0.19133827090263367
0.7269008755683899,2.2076196670532227,-0.19078800082206726
0.7584438323974609,2.2506167888641357,-0.19308660924434662
0.7739295959472656,2.2455036640167236,-0.19115807116031647
0.7944114208221436,2.2550289630889893,-0.1904156655073166
0.8230774998664856,2.2863259315490723,-0.1914745718240738
0.8484449982643127,2.306277275085449,-0.1915222555398941
0.8729841113090515,2.322260618209839,-0.19117599725723267
0.8971520662307739,2.3382627964019775,-0.19072797894477844
0.92441725730896,2.361298084259033,-0.19082410633563995
0.9538411498069763,2.387550115585327,-0.19110262393951416
0.9763762950897217,2.395448684692383,-0.18987908959388733
1.013951063156128,2.4391634464263916,-0.1913294494152069
1.047201156616211,2.4718875885009766,-0.19185581803321838
1.0673140287399292,2.47196364402771,-0.18978546559810638
1.1111998558044434,2.5253028869628906,-0.19173389673233032
1.1380536556243896,2.539170265197754,-0.19057197868824005
1.1716203689575195,2.5669775009155273,-0.19032315909862518
1.190800666809082,2.562649965286255,-0.18766996264457703
1.2120047807693481,2.5615339279174805,-0.18520277738571167
1.2566736936569214,2.6095399856567383,-0.1862022578716278
1.325646996498108,2.7062792778015137,-0.19047704339027405
1.375697135925293,2.760058879852295,-0.19148887693881989
1.421359658241272,2.8027985095977783,-0.19161424040794373
1.4548320770263672,2.8209569454193115,-0.18994422256946564
1.4320255517959595,2.731968641281128,-0.18106430768966675
1.4395986795425415,2.7017362117767334,-0.17613953351974487
1.411962628364563,2.6061363220214844,-0.16700895130634308
1.3866281509399414,2.5179858207702637,-0.15846358239650726
1.431898593902588,2.559990882873535,-0.15817245841026306
1.4205920696258545,2.4994168281555176,-0.1514449566602707
1.4224348068237305,2.4626097679138184,-0.14621277153491974
1.4466992616653442,2.4667556285858154,-0.14338025450706482
1.4514555931091309,2.4369661808013916,-0.13851319253444672
1.4805222749710083,2.447035074234009,-0.13583829998970032
1.5093090534210205,2.457115411758423,-0.13310034573078156
1.4696494340896606,2.3579599857330322,-0.12452764809131622
1.4107385873794556,2.229259967803955,-0.11452663689851761
1.3925875425338745,2.1669671535491943,-0.10808251798152924
1.3939201831817627,2.1383893489837646,-0.10346556454896927
1.412723422050476,2.135560989379883,-0.09998846054077148
1.436122179031372,2.138909339904785,-0.09668729454278946
1.4366836547851562,2.1104297637939453,-0.09194781631231308
1.440132737159729,2.0845725536346436,-0.08713388442993164
1.454331636428833,2.074861764907837,-0.08297479897737503
1.4540164470672607,2.0465750694274902,-0.07809995114803314
1.4544209241867065,2.017641544342041,-0.07297821342945099
1.4675500392913818,2.008267641067505,-0.06856833398342133
1.4643932580947876,1.9768058061599731,-0.06328432261943817
2.1117846965789795,2.9559388160705566,0.1688602864742279
2.093336820602417,2.9781899452209473,0.17588403820991516
2.4531567096710205,3.544975757598877,0.21571257710456848
2.3904566764831543,3.5071518421173096,0.21931923925876617
2.376246213912964,3.5445687770843506,0.22749675810337067
2.359226942062378,3.574207305908203,0.2348347306251526
3.0897057056427,4.755049705505371,0.31948721408843994
1.6441770792007446,2.573035955429077,0.1765364110469818
1.6337833404541016,2.5977983474731445,0.18170462548732758
1.5950363874435425,2.575727939605713,0.18346095085144043
3.023468017578125,4.964951515197754,0.3597499430179596
2.9856350421905518,4.987231254577637,0.36746951937675476
2.958580732345581,5.020907878875732,0.37557870149612427
2.9107120037078857,5.0212626457214355,0.3811313807964325
2.8131351470947266,4.93745231628418,0.38002899289131165
2.765716314315796,4.936872482299805,0.38506007194519043
2.6834118366241455,4.870642185211182,0.38478678464889526
2.6201629638671875,4.838100910186768,0.38684138655662537
2.5638163089752197,4.81921911239624,0.389795184135437
2.503659248352051,4.788811683654785,0.3916131854057312
2.4363369941711426,4.739883899688721,0.39169156551361084
2.3825080394744873,4.718764781951904,0.3939502239227295
2.333775758743286,4.707866191864014,0.3967910408973694
1.2357652187347412,2.539022207260132,0.21599158644676208
1.2179362773895264,2.5473973751068115,0.2186269760131836
1.2000151872634888,2.555662155151367,0.2212580293416977
1.1811422109603882,2.5642201900482178,0.22378221154212952
1.1650930643081665,2.5798745155334473,0.22697313129901886
1.1562589406967163,2.609204053878784,0.23129768669605255
1.1209142208099365,2.57773494720459,0.23020996153354645
2.0507304668426514,4.8092522621154785,0.4325452744960785
2.5016911029815674,5.987500190734863,0.5420988202095032
2.468949317932129,6.034254550933838,0.5500008463859558
2.4485301971435547,6.105062007904053,0.5599493384361267
2.420123338699341,6.157752513885498,0.5683150887489319
2.394282102584839,6.221636772155762,0.577552080154419
2.365525484085083,6.282106399536133,0.5864027738571167
2.3286638259887695,6.324441432952881,0.5936724543571472
1.945503830909729,5.3993330001831055,0.5095311403274536
2.272472858428955,6.447198867797852,0.6116573214530945
2.2467551231384277,6.521653175354004,0.6217513084411621
2.207017660140991,6.559426307678223,0.6282070279121399
2.1817004680633545,6.64530086517334,0.6393994688987732
2.1377482414245605,6.667332172393799,0.6443539261817932
2.084299087524414,6.6593732833862305,0.6464349031448364
2.0181195735931396,6.610227108001709,0.6443675756454468
1.9617408514022827,6.59435510635376,0.6452227234840393
1.8992005586624146,6.555604934692383,0.6438425779342651
1.8425943851470947,6.535017490386963,0.6442476511001587
1.7826142311096191,6.494841575622559,0.6426503658294678
1.7282369136810303,6.472953796386719,0.6428656578063965
1.670332908630371,6.439632415771484,0.6415227651596069
0.8211140036582947,3.2613766193389893,0.3258858323097229
1.5515211820602417,6.356664180755615,0.6371463537216187
0.7961254119873047,3.363212823867798,0.3381192684173584
1.44277024269104,6.28993034362793,0.6342783570289612
1.3969048261642456,6.292031764984131,0.6362881660461426
1.3455263376235962,6.271166801452637,0.6356726288795471
0.3088633418083191,1.4920934438705444,0.15161344408988953
0.30139273405075073,1.5094196796417236,0.15374287962913513
0.3114454746246338,1.618290662765503,0.16522999107837677
0.3001733720302582,1.6203564405441284,0.16584636270999908
0.26697486639022827,1.499928593635559,0.15383565425872803
0.24050840735435486,1.4728100299835205,0.1516125500202179
0.23019352555274963,1.474411129951477,0.15206152200698853
0.20579983294010162,1.5288699865341187,0.15851108729839325
0.19254016876220703,1.5109766721725464,0.15685661137104034
0.18095116317272186,1.504546046257019,0.15639594197273254
0.1730678379535675,1.528902530670166,0.159143328666687
0.16367107629776,1.5416240692138672,0.1606912910938263
0.15448914468288422,1.558153748512268,0.16264797747135162
0.37530025839805603,4.081753253936768,0.4264433681964874
0.3512687087059021,4.138420581817627,0.4327048659324646
0.32615920901298523,4.191074371337891,0.4385768175125122
0.2944689691066742,4.158303737640381,0.4355299472808838
0.265478253364563,4.160192012786865,0.436131089925766
0.238898366689682,4.2123260498046875,0.44203266501426697
0.38660234212875366,7.779734134674072,0.8166923522949219
0.3305180072784424,7.743378639221191,0.813143789768219
0.2755154073238373,7.722151279449463,0.8112213611602783
0.22103939950466156,7.696643352508545,0.8088845610618591
0.16604433953762054,7.674655914306641,0.8069618940353394
0.1121123880147934,7.636725902557373,0.8033919930458069
0.05887884274125099,7.617895603179932,0.801368236541748
0.005822775885462761,7.602589130401611,0.7996628284454346
-0.04682468622922897,7.555835723876953,0.7946890592575073
-0.09987182915210724,7.528132438659668,0.7917578220367432
-0.1520506739616394,7.519495487213135,0.7908707857131958
-0.2029799222946167,7.471665382385254,0.7858992218971252
-0.25426751375198364,7.454602241516113,0.7837405204772949
-0.30617189407348633,7.460495948791504,0.7839069962501526
-0.3593658208847046,7.489306449890137,0.7865162491798401
-0.29800552129745483,5.41133451461792,0.5680105686187744
-0.3356211185455322,5.409181594848633,0.5675367116928101
-0.372207909822464,5.391260147094727,0.565436065196991
-0.4089045226573944,5.380889892578125,0.5638477206230164
-0.44417792558670044,5.354795455932617,0.5605279803276062
-0.47066524624824524,5.227807521820068,0.5466803908348083
-0.4483341872692108,4.6212382316589355,0.48279011249542236
-0.4803786873817444,4.618096828460693,0.48202377557754517
-0.5093997716903687,4.58770227432251,0.4784384071826935
-0.5410237908363342,4.5841851234436035,0.4774318337440491
-0.5681761503219604,4.5418596267700195,0.47229719161987305
-0.5973513722419739,4.522551536560059,0.46959787607192993
-0.6275454163551331,4.51072883605957,0.46769750118255615
-0.6577442288398743,4.498684406280518,0.46579593420028687
-0.6871707439422607,4.482604026794434,0.4635026156902313
-0.7160466313362122,4.4624810218811035,0.4605487883090973
-0.7491392493247986,4.472954750061035,0.46069592237472534
-0.7770179510116577,4.452564716339111,0.4576869606971741
-0.8050597906112671,4.431929111480713,0.45466867089271545
-0.8287056088447571,4.38817024230957,0.44930559396743774
-0.8509889245033264,4.340490818023682,0.44357985258102417
-0.7457081079483032,3.6680550575256348,0.3739238679409027
-0.7691344022750854,3.65541934967041,0.37168917059898376
-0.940330982208252,4.3225417137146,0.4384213387966156
-0.9754154086112976,4.3388471603393555,0.4389689564704895
-1.003782868385315,4.3245697021484375,0.4364381432533264
-1.0306715965270996,4.302433490753174,0.4331074655056
-1.057953119277954,4.288004398345947,0.4303031265735626
-1.0813003778457642,4.258316993713379,0.42599499225616455
-1.1103129386901855,4.251049041748047,0.4239507019519806
-1.143892526626587,4.258451461791992,0.42335858941078186
-1.1636768579483032,4.212971210479736,0.4175128936767578
-1.1948245763778687,4.212544918060303,0.4160682260990143
-1.2255202531814575,4.212051868438721,0.41443586349487305
-1.2517770528793335,4.19644021987915,0.4113371670246124
-1.2749040126800537,4.169375419616699,0.40712061524391174
-1.3044037818908691,4.160480976104736,0.4046576917171478
-1.3357059955596924,4.158944129943848,0.4029552638530731
-1.351698398590088,4.113102912902832,0.39674705266952515
-1.3843399286270142,4.118907928466797,0.39550262689590454
-1.4146678447723389,4.117075443267822,0.3935282528400421
-1.4381293058395386,4.092710971832275,0.3893682360649109
-1.459213137626648,4.0607099533081055,0.3844835162162781
-1.4869650602340698,4.050899505615234,0.3816379904747009
-1.516891360282898,4.048378944396973,0.3793535530567169
-1.5412551164627075,4.031113147735596,0.3757070004940033
-1.5634459257125854,4.006136417388916,0.371308833360672
-1.588882327079773,3.9880266189575195,0.3675287663936615
-1.628004789352417,4.006134986877441,0.3670516908168793
-1.6368428468704224,3.952322483062744,0.359825074672699
-1.6662222146987915,3.948774814605713,0.3572116792201996
-1.6888434886932373,3.926748275756836,0.35286644101142883
-1.724546194076538,3.9327762126922607,0.35098546743392944
-1.7484667301177979,3.9139838218688965,0.3468616008758545
-1.7535873651504517,3.8564722537994385,0.33919471502304077
-1.782548427581787,3.8520684242248535,0.33624008297920227
-1.8025702238082886,3.8258509635925293,0.33130180835723877
-1.8262698650360107,3.806283950805664,0.3269113600254059
-1.8520101308822632,3.7941527366638184,0.32310208678245544
-1.880532145500183,3.78912615776062,0.31981050968170166
-1.8988293409347534,3.762875556945801,0.3147136867046356
-1.9464209079742432,3.791447877883911,0.3140677511692047
-1.951201319694519,3.7366673946380615,0.306529700756073
-1.9835126399993896,3.737621784210205,0.3033408224582672
-2.0080904960632324,3.724817991256714,0.2990935444831848
-1.6966829299926758,3.0960962772369385,0.24580416083335876
-1.7258849143981934,3.098067283630371,0.24310964345932007
-1.723462462425232,3.046092987060547,0.23609809577465057
-0.8466163873672485,1.4734876155853271,0.11273732781410217
-0.8606142401695251,1.4745380878448486,0.11129926145076752
-0.8550121784210205,1.4418010711669922,0.10730283707380295
-0.8766247034072876,1.4562833309173584,0.10678539425134659
-0.8901468515396118,1.457350492477417,0.10523957014083862
-0.8797630667686462,1.4181125164031982,0.10069848597049713
-0.8979653120040894,1.4252780675888062,0.09948304295539856
-0.9071270227432251,1.4196159839630127,0.09730090200901031
-0.9036362171173096,1.3941854238510132,0.09376789629459381
-0.8983771800994873,1.3651670217514038,0.08992008864879608
-0.9271419048309326,1.3883707523345947,0.08944600075483322
-2.3924689292907715,3.5339529514312744,0.2225690335035324
-1.3144333362579346,1.9132312536239624,0.11748974770307541
-1.2336328029632568,1.7700912952423096,0.10583972185850143
-1.4948129653930664,2.15566086769104,-0.09636303782463074
-1.2262675762176514,1.795344352722168,-0.08384893834590912
-1.2909126281738281,1.9210764169692993,-0.09352974593639374
-1.2083187103271484,1.825847864151001,-0.09223528206348419
-1.128799557685852,1.7331410646438599,-0.09070707857608795
-1.1957265138626099,1.8662514686584473,-0.10097114741802216
-1.1826359033584595,1.8743826150894165,-0.10446931421756744
-2.0114591121673584,3.401141881942749,-0.21062582731246948
-0.8818467259407043,1.5666613578796387,-0.10359382629394531
-1.7061964273452759,3.084688186645508,-0.2081317901611328
-1.6576707363128662,3.048713445663452,-0.20966976881027222
-1.5975956916809082,2.9877676963806152,-0.20922042429447174
-1.5561617612838745,2.960880994796753,-0.21098722517490387
-1.5039645433425903,2.9130349159240723,-0.21111583709716797
-1.4440802335739136,2.8470423221588135,-0.20972077548503876
-1.401561975479126,2.8114142417907715,-0.21031533181667328
-1.3624135255813599,2.782649040222168,-0.21125662326812744
-1.3117914199829102,2.7289562225341797,-0.21017874777317047
-1.282611608505249,2.7166826725006104,-0.21211306750774384
-1.2291775941848755,2.6510722637176514,-0.2097787857055664
-1.2048512697219849,2.64910888671875,-0.21236349642276764
-1.1491349935531616,2.5756678581237793,-0.20908208191394806
-1.1217131614685059,2.561978578567505,-0.21047070622444153
-1.0822762250900269,2.5193891525268555,-0.20942077040672302
-1.0445303916931152,2.4801783561706543,-0.2084559202194214
-1.0070418119430542,2.4407100677490234,-0.20742005109786987
-0.9781591296195984,2.418621301651001,-0.2077149748802185
-0.9525768160820007,2.403463840484619,-0.2085610330104828
-0.9240922927856445,2.380951166152954,-0.2086392194032669
-0.9027808308601379,2.376398801803589,-0.21023747324943542
-0.872141420841217,2.3461031913757324,-0.2095230668783188
-0.8384641408920288,2.3043575286865234,-0.20767134428024292
-0.8065519332885742,2.265996217727661,-0.20598982274532318
-0.7878105640411377,2.26413893699646,-0.20752879977226257
-0.7617243528366089,2.239989757537842,-0.20699621737003326
-0.7371777296066284,2.219303846359253,-0.20675992965698242
-0.7168187499046326,2.209411859512329,-0.20746074616909027
-0.6893150806427002,2.1771888732910156,-0.2059108465909958
-0.6703245639801025,2.1707165241241455,-0.20677578449249268
-0.6484038829803467,2.1528220176696777,-0.2065109759569168
-0.6267997622489929,2.134721040725708,-0.20620325207710266
-0.60506272315979,2.1165521144866943,-0.20579300820827484
-0.5858637094497681,2.1056416034698486,-0.20599746704101562
-0.5659347772598267,2.0907866954803467,-0.20579750835895538
-0.5533232688903809,2.1020431518554688,-0.20815813541412354
-0.5290027856826782,2.0680251121520996,-0.20601516962051392
-0.508488118648529,2.048992156982422,-0.20520827174186707
-0.4885397255420685,2.0297129154205322,-0.20434345304965973
-0.4734533131122589,2.029153347015381,-0.20534832775592804
-0.455877423286438,2.017096519470215,-0.20518605411052704
-0.4350949823856354,1.9897301197052002,-0.20338037610054016
-0.422412246465683,2.0002825260162354,-0.20537427067756653
-0.4021032452583313,1.972619891166687,-0.20342767238616943
-0.3898465931415558,1.9828803539276123,-0.2053820788860321
-0.37312760949134827,1.970154881477356,-0.2049621194601059
-0.35721555352211,1.9611467123031616,-0.20479469001293182
-0.3418225944042206,1.9558950662612915,-0.20499229431152344
-0.32297953963279724,1.927483081817627,-0.20274171233177185
-0.31078460812568665,1.9372568130493164,-0.2045045793056488
-0.29609814286231995,1.9315941333770752,-0.2046484798192978
-0.2814118564128876,1.925853967666626,-0.204611137509346
-0.26444172859191895,1.9046443700790405,-0.20294152200222015
-0.25113388895988464,1.9063633680343628,-0.2037048488855362
-0.2388240396976471,1.9156922101974487,-0.2052915245294571
-0.22048209607601166,1.874798059463501,-0.20145678520202637
-0.2082078456878662,1.8839555978775024,-0.20285411179065704
-0.19421763718128204,1.877578854560852,-0.20258867740631104
-0.1793927699327469,1.86338472366333,-0.20149068534374237
-0.16710086166858673,1.8722652196884155,-0.20288759469985962
-0.15276314318180084,1.8578499555587769,-0.20169882476329803
-0.13976608216762543,1.8588316440582275,-0.2020776867866516
-0.12729091942310333,1.8674713373184204,-0.2033001035451889
-0.11406918615102768,1.8682836294174194,-0.20368513464927673
-0.09940256923437119,1.837969422340393,-0.20067629218101501
-0.08659433573484421,1.8385874032974243,-0.20095202326774597
-0.07347343862056732,1.8313651084899902,-0.2002946138381958
-0.061229150742292404,1.8473353385925293,-0.20218412578105927
-0.047345902770757675,1.8166471719741821,-0.19897793233394623
-0.03501822054386139,1.8324408531188965,-0.2008686065673828
-0.022260159254074097,1.8326326608657837,-0.2009376585483551
-0.009471974335610867,1.8249765634536743,-0.20009386539459229
0.0032360469922423363,1.832763433456421,-0.20095299184322357
0.01611846126616001,1.8249282836914062,-0.20010922849178314
0.028673728927969933,1.8170063495635986,-0.1992652863264084
0.041201408952474594,1.812896490097046,-0.19870318472385406
0.054362669587135315,1.8319926261901855,-0.2006525695323944
0.066796213388443,1.8238296508789062,-0.19962505996227264
0.07865791022777557,1.803942084312439,-0.19732530415058136
0.09201596677303314,1.8149943351745605,-0.19841836392879486
0.10552233457565308,1.82985520362854,-0.19977271556854248
0.1177176907658577,1.8213673830032349,-0.19856950640678406
0.13037046790122986,1.8205443620681763,-0.19821232557296753
0.14243964850902557,1.8118879795074463,-0.19701234996318817
0.15593381226062775,1.8186125755310059,-0.19748282432556152
0.16996724903583527,1.833014726638794,-0.1986248642206192
0.18189546465873718,1.8241217136383057,-0.1972503960132599
0.196197047829628,1.8383219242095947,-0.19838038086891174
0.2098419964313507,1.844691276550293,-0.19866934418678284
0.22378884255886078,1.8509396314620972,-0.19891123473644257
0.23557735979557037,1.8417223691940308,-0.1973603069782257
0.2514047622680664,1.863227128982544,-0.1991063952445984
0.2632499933242798,1.8538219928741455,-0.19755098223686218
0.2750231921672821,1.8443349599838257,-0.19599896669387817
0.2856575846672058,1.8270759582519531,-0.19356779754161835
0.30579856038093567,1.871164321899414,-0.1975347101688385
0.31090247631073,1.8231382369995117,-0.19178566336631775
0.33648884296417236,1.893714427947998,-0.19850924611091614
0.3447056710720062,1.8646786212921143,-0.19478344917297363
0.3575950562953949,1.8623546361923218,-0.19377759099006653
0.3721607029438019,1.8675386905670166,-0.19347073137760162
0.3858141303062439,1.8688465356826782,-0.19278043508529663
0.3964082598686218,1.854819416999817,-0.1905110478401184
0.40934184193611145,1.852120041847229,-0.1894194632768631
0.41521352529525757,1.8190526962280273,-0.18512138724327087
0.43777748942375183,1.857841968536377,-0.18809127807617188
0.4671601355075836,1.9228911399841309,-0.19368433952331543
0.48527196049690247,1.9385777711868286,-0.1942639797925949
0.5007075071334839,1.9428141117095947,-0.1936732977628708
0.5180281400680542,1.954509973526001,-0.19368529319763184
0.5439496636390686,1.9960134029388428,-0.19660435616970062
0.5620219707489014,2.0073108673095703,-0.1965274065732956
0.5738619565963745,1.9960181713104248,-0.19424104690551758
0.590976893901825,2.0033442974090576,-0.19370009005069733
0.6092236638069153,2.014296770095825,-0.19342447817325592
0.632529079914093,2.039874792098999,-0.19450660049915314
0.6538164019584656,2.057826280593872,-0.19484072923660278
0.6789960265159607,2.0866811275482178,-0.19617950916290283
0.6932729482650757,2.082162857055664,-0.19424442946910858
0.7200425863265991,2.114389181137085,-0.19570980966091156
0.7372446060180664,2.1168816089630127,-0.19437900185585022
0.7640185952186584,2.1447761058807373,-0.19532154500484467
0.7868033051490784,2.1615841388702393,-0.19519156217575073
0.8123950362205505,2.1855485439300537,-0.19560359418392181
0.8301122784614563,2.1874101161956787,-0.19401146471500397
0.8580204248428345,2.2144365310668945,-0.19459488987922668
0.8794068694114685,2.2229955196380615,-0.19348672032356262
0.9148996472358704,2.267730712890625,-0.19539237022399902
0.9465783834457397,2.3012938499450684,-0.19626742601394653
0.9686055779457092,2.3092339038848877,-0.1948683261871338
0.9939019083976746,2.3241193294525146,-0.19402582943439484
1.0302398204803467,2.3638155460357666,-0.19507789611816406
1.0651953220367432,2.3997371196746826,-0.19576048851013184
1.09623384475708,2.424487829208374,-0.19541840255260468
1.1261922121047974,2.4453155994415283,-0.19468854367733002
1.1610933542251587,2.476602554321289,-0.1946653425693512
1.2083038091659546,2.5321133136749268,-0.19636844098567963
1.2342342138290405,2.5415093898773193,-0.19441398978233337
1.2588342428207397,2.547071933746338,-0.19210974872112274
1.312902808189392,2.611832857131958,-0.19412192702293396
1.367647409439087,2.6761183738708496,-0.19590823352336884
1.4076048135757446,2.708423614501953,-0.19515565037727356
1.4341102838516235,2.712416887283325,-0.19220541417598724
1.4228615760803223,2.647996664047241,-0.18446360528469086
1.3732669353485107,2.515486240386963,-0.17218072712421417
1.3661211729049683,2.46181321144104,-0.16538597643375397
1.4005390405654907,2.4830265045166016,-0.16362230479717255
1.413467526435852,2.4669599533081055,-0.15926001965999603
1.4300447702407837,2.4576363563537598,-0.15537306666374207
1.4392249584197998,2.434415578842163,-0.15051208436489105
1.4597302675247192,2.4315261840820312,-0.14690400660037994
1.4757308959960938,2.4220893383026123,-0.14287695288658142
1.505007266998291,2.4318320751190186,-0.1397349238395691
1.5135163068771362,2.4083757400512695,-0.13468925654888153
1.4768319129943848,2.316378116607666,-0.12593823671340942
1.4203778505325317,2.195173501968384,-0.11580102890729904
1.3949506282806396,2.123450517654419,-0.10844875872135162
1.4197744131088257,2.1306326389312744,-0.10513003170490265
1.4296537637710571,2.114804267883301,-0.100601926445961
1.444352388381958,2.1049978733062744,-0.09621948003768921
1.4467103481292725,2.079840898513794,-0.09115283936262131
1.465224266052246,2.076598644256592,-0.08686909079551697
1.452258825302124,2.028531074523926,-0.08056407421827316
1.4513254165649414,2.000505208969116,-0.07524792850017548
1.458356261253357,1.9810421466827393,-0.0698729082942009
2.0991640090942383,2.9636826515197754,0.1892574429512024
2.185415029525757,3.1314749717712402,0.20609596371650696
2.392698287963867,3.485572338104248,0.23603424429893494
2.37532114982605,3.5157663822174072,0.24440930783748627
2.3740570545196533,3.567760705947876,0.2540036141872406
3.108736515045166,4.7501325607299805,0.3459095358848572
3.099242925643921,4.81141996383667,0.3577516973018646
1.6308289766311646,2.570927619934082,0.1949220895767212
1.619156837463379,2.596334218978882,0.20056644082069397
1.5915956497192383,2.594702959060669,0.20397835969924927
3.003772497177124,4.974031448364258,0.39735180139541626
2.981527805328369,5.018517971038818,0.40713241696357727
2.95932936668396,5.067129135131836,0.4171985387802124
2.862006902694702,4.983288764953613,0.4161152243614197
2.8097403049468994,4.972108840942383,0.4207208454608917
2.772986650466919,4.9921040534973145,0.4277421534061432
2.703730821609497,4.954047203063965,0.4296758770942688
2.6260180473327637,4.893681049346924,0.42929601669311523
2.5837888717651367,4.8979363441467285,0.43452006578445435
2.567547559738159,4.954212188720703,0.4441125988960266
2.4900190830230713,4.892801284790039,0.4430566132068634
2.4427127838134766,4.885608673095703,0.44667792320251465
2.4376673698425293,4.96144962310791,0.4578409790992737
1.2260878086090088,2.5418665409088135,0.2366941124200821
1.2139573097229004,2.5646543502807617,0.24083667993545532
1.1804330348968506,2.5414223670959473,0.24063684046268463
1.173952341079712,2.574141263961792,0.24565425515174866
1.16230046749115,2.5962297916412354,0.24969825148582458
1.1402204036712646,2.5972580909729004,0.25157955288887024
2.549146890640259,5.925667762756348,0.5780779719352722
2.5203423500061035,5.9754414558410645,0.5869001746177673
2.496345281600952,6.035505771636963,0.5967260003089905
2.4699134826660156,6.092013359069824,0.6062405109405518
2.436896562576294,6.138259410858154,0.614413857460022
2.409545421600342,6.202776908874512,0.6245600581169128
2.3738207817077637,6.240983009338379,0.6319610476493835
2.3464910984039307,6.300606727600098,0.6415451169013977
1.9667223691940308,5.3957695960998535,0.5524163246154785
2.2864701747894287,6.416637897491455,0.6600947380065918
2.2557015419006348,6.480551719665527,0.6699404120445251
2.228379011154175,6.5511274337768555,0.6804410815238953
2.197347402572632,6.610284805297852,0.6897790431976318
2.160734176635742,6.654548168182373,0.6976363658905029
2.112882137298584,6.669438362121582,0.7019947171211243
2.0501856803894043,6.6397199630737305,0.7016744017601013
1.9902995824813843,6.612835884094238,0.7015881538391113
1.928758144378662,6.573930740356445,0.7001563310623169
1.8711233139038086,6.545686721801758,0.6998521089553833
1.8122121095657349,6.51344633102417,0.6988696455955505
1.7563302516937256,6.492133140563965,0.6988213658332825
1.6911327838897705,6.436750411987305,0.6951469779014587
0.8301531672477722,3.2522780895233154,0.3523603081703186
1.5812718868255615,6.379856586456299,0.6934286952018738
0.8083403706550598,3.3613579273223877,0.3665296733379364
1.4744112491607666,6.328954696655273,0.6918894052505493
1.419895052909851,6.301279544830322,0.6906572580337524
1.3733597993850708,6.303323268890381,0.6926699280738831
1.3206182718276978,6.270626068115234,0.6908469796180725
0.30645886063575745,1.50704824924469,0.16646665334701538
0.2929179072380066,1.4938420057296753,0.1654135286808014
0.28714460134506226,1.52257239818573,0.16892628371715546
0.280485600233078,1.547436237335205,0.17202335596084595
1.0762397050857544,6.185784339904785,0.6890294551849365
0.2587636709213257,1.5510940551757812,0.17312324047088623
0.23509949445724487,1.472281813621521,0.16466444730758667
0.21529951691627502,1.4830553531646729,0.16640695929527283
0.21064679324626923,1.5267990827560425,0.17156553268432617
0.19437341392040253,1.4858522415161133,0.1672142744064331
0.1888040453195572,1.5256495475769043,0.17195482552051544
0.1898900270462036,1.627129316329956,0.18368017673492432
0.17832504212856293,1.6283948421478271,0.18405702710151672
0.16766665875911713,1.6372970342636108,0.18523067235946655
0.14694808423519135,1.5417970418930054,0.17459258437156677
0.3640669584274292,4.125617980957031,0.4676489233970642
0.34134048223495483,4.201471328735352,0.47673994302749634
0.30867043137550354,4.164989471435547,0.4731215536594391
0.2788326144218445,4.155355453491211,0.47239652276039124
0.2531891465187073,4.21527624130249,0.4794192612171173
0.41253426671028137,7.778784275054932,0.8851425647735596
0.3571762144565582,7.75812292098999,0.8832632899284363
0.3010849952697754,7.72934103012085,0.8805062174797058
0.24669060111045837,7.711766242980957,0.8790568113327026
0.19209301471710205,7.674438953399658,0.8751357197761536
0.13807891309261322,7.644532680511475,0.871714174747467
0.08428061008453369,7.602607250213623,0.8669642806053162
0.030470801517367363,7.610762119293213,0.8679688572883606
-0.02225867472589016,7.57196569442749,0.8636592030525208
-0.07448631525039673,7.53668737411499,0.859791100025177
-0.1262672245502472,7.5049519538879395,0.8561854362487793
-0.17755578458309174,7.472912788391113,0.8521496653556824
-0.22872357070446014,7.448280334472656,0.8490015864372253
-0.2813052535057068,7.446537017822266,0.8484998345375061
-0.33290860056877136,7.440579414367676,0.8475639820098877
-0.2800138294696808,5.41484260559082,0.6166529059410095
-0.3176251947879791,5.412817001342773,0.6162082552909851
-0.3540416955947876,5.395091533660889,0.6136308312416077
-0.39141660928726196,5.384819507598877,0.6119242906570435
-0.4274229109287262,5.366598606109619,0.6093549728393555
-0.46269556879997253,5.340389251708984,0.6059092283248901
-0.4324810802936554,4.6183037757873535,0.5236015915870667
-0.4633677005767822,4.603687763214111,0.5215509533882141
-0.49561986327171326,4.600450038909912,0.5204627513885498
-0.5254541635513306,4.581630229949951,0.5176526308059692
-0.5570243000984192,4.578019618988037,0.5165857672691345
-0.5839004516601562,4.5356526374816895,0.5111698508262634
-0.6154388189315796,4.5316009521484375,0.5101022720336914
-0.6430398225784302,4.496520519256592,0.5055318474769592
-0.6738764047622681,4.492162227630615,0.5041097402572632
-0.704081118106842,4.483756065368652,0.5022578835487366
-0.7335734963417053,4.471315860748291,0.49998000264167786
-0.7646534442901611,4.466266632080078,0.4985421597957611
-0.7915616631507874,4.438072681427002,0.49455052614212036
-0.8157684206962585,4.394364833831787,0.4888123571872711
-0.8391610980033875,4.3545660972595215,0.48324382305145264
-0.7341872453689575,3.674886465072632,0.4068717658519745
-0.7577449083328247,3.6623334884643555,0.4045535624027252
-0.7831991910934448,3.6571402549743652,0.40305450558662415
-0.965286135673523,4.356990814208984,0.47908562421798706
-0.9893492460250854,4.323907852172852,0.47431421279907227
-1.0133376121520996,4.2946367263793945,0.4697338938713074
-1.0333455801010132,4.250128746032715,0.46352583169937134
-1.0623972415924072,4.243186950683594,0.4614405632019043
-1.0904712677001953,4.228270053863525,0.4584667980670929
-1.123862862586975,4.2358269691467285,0.45797276496887207
-1.1550045013427734,4.235742092132568,0.4565097987651825
-1.1857924461364746,4.235559463500977,0.4548756182193756
-1.2123384475708008,4.220214366912842,0.451634019613266
-1.2352300882339478,4.189537525177002,0.4467347264289856
-1.2665895223617554,4.188549041748047,0.4450375735759735
-1.2852966785430908,4.146504878997803,0.43901169300079346
-1.3204073905944824,4.160219192504883,0.4386371374130249
-1.3459842205047607,4.144134044647217,0.4350886642932892
-1.3694932460784912,4.120337963104248,0.4307248294353485
-1.3957034349441528,4.103621006011963,0.42710110545158386
-1.4268174171447754,4.101436138153076,0.4250132441520691
-1.4524035453796387,4.084499359130859,0.4213012754917145
-1.4745324850082397,4.060339450836182,0.4167029857635498
-1.4964382648468018,4.0360493659973145,0.41212260723114014
-1.5219272375106812,4.018518447875977,0.40817928314208984
-1.5555142164230347,4.022643089294434,0.4064628481864929
-1.5776373147964478,3.9976229667663574,0.40178871154785156
-1.6014524698257446,3.980102062225342,0.39764007925987244
-1.6117842197418213,3.930061101913452,0.39029136300086975
-1.648114800453186,3.940626382827759,0.3888922929763794
-1.6832804679870605,3.9472410678863525,0.3870854675769806
-1.7107633352279663,3.935758590698242,0.38350149989128113
-1.7306983470916748,3.9103853702545166,0.3783515989780426
-1.7567960023880005,3.8990936279296875,0.3745874762535095
-1.7822930812835693,3.8835995197296143,0.37032678723335266
-1.7994827032089233,3.8502771854400635,0.3643950819969177
-1.805983066558838,3.7959446907043457,0.3564850091934204
-1.8378907442092896,3.7982847690582275,0.353727251291275
-1.8698766231536865,3.800381660461426,0.35094401240348816
-1.8896418809890747,3.7735846042633057,0.3453180193901062
-1.9195185899734497,3.7676098346710205,0.3416450619697571
-1.9485383033752441,3.7618539333343506,0.3378678560256958
-1.9769604206085205,3.7561991214752197,0.3340121805667877
-1.9947876930236816,3.7295076847076416,0.32825031876564026
-2.0208065509796143,3.715888500213623,0.3235276937484741
-1.7075679302215576,3.088444232940674,0.26587265729904175
-1.7277698516845703,3.077535390853882,0.2618202865123749
-0.8450525403022766,1.482452630996704,0.12460776418447495
-0.8476169109344482,1.4631794691085815,0.12139177322387695
-0.8538461327552795,1.450689435005188,0.11875750124454498
-0.8674556016921997,1.4518545866012573,0.1171472817659378
-0.8810316324234009,1.4529519081115723,0.11553604155778885
-0.8911926746368408,1.446923017501831,0.11324474215507507
-0.8928305506706238,1.4277347326278687,0.10992623120546341
-0.8936883211135864,1.4089422225952148,0.10662565380334854
-0.894804835319519,1.3899019956588745,0.10325026512145996
-0.8895732760429382,1.36094331741333,0.09913787245750427
-0.9027824401855469,1.361758828163147,0.09718505293130875
-2.403738260269165,3.5764453411102295,0.24988411366939545
-1.5383907556533813,2.222505569458008,0.1477852463722229
-1.243285894393921,1.7723288536071777,0.1147988960146904
-1.3640761375427246,1.9516372680664062,-0.09057366102933884
-1.173028826713562,1.7039169073104858,-0.08285148441791534
-1.1750566959381104,1.735400676727295,-0.08825261890888214
-1.247258186340332,1.8700474500656128,-0.09884235262870789
-1.2035887241363525,1.8332124948501587,-0.100511834025383
-1.145391821861267,1.7731059789657593,-0.1006498709321022
-1.3904883861541748,2.185793161392212,-0.1280217468738556
-1.1837618350982666,1.8915846347808838,-0.11422383785247803
-1.2412430047988892,2.0163588523864746,-0.12529408931732178
-1.8854435682296753,3.162274122238159,-0.20683792233467102
-0.8543123602867126,1.5056838989257812,-0.10546666383743286
-1.6730822324752808,2.99967622756958,-0.21451173722743988
-1.6046600341796875,2.9257819652557373,-0.21337760984897614
-1.5453053712844849,2.864530563354492,-0.21285121142864227
-1.4931347370147705,2.816934823989868,-0.2131849229335785
-1.440079689025879,2.765219211578369,-0.21297302842140198
-1.3833354711532593,2.7020883560180664,-0.21156737208366394
-1.3450366258621216,2.673133134841919,-0.21268706023693085
-1.2944456338882446,2.6196718215942383,-0.21165992319583893
-1.2632668018341064,2.6042494773864746,-0.21363425254821777
-1.2098088264465332,2.53887677192688,-0.21125528216362
-1.1852307319641113,2.532949686050415,-0.21369631588459015
-1.1359584331512451,2.473928928375244,-0.21150429546833038
-1.095807671546936,2.4320051670074463,-0.21062162518501282
-1.0677623748779297,2.41439151763916,-0.21170613169670105
-1.0317925214767456,2.3788530826568604,-0.21116501092910767
-1.0054690837860107,2.364461898803711,-0.21232162415981293
-0.9780622720718384,2.346163034439087,-0.2130684107542038
-0.9410327672958374,2.3022303581237793,-0.21136850118637085
-0.9060018062591553,2.261564254760742,-0.20985853672027588
-0.8667266964912415,2.209900140762329,-0.20717854797840118
-0.8480905294418335,2.2085368633270264,-0.20912185311317444
-0.8285120725631714,2.2032470703125,-0.21063923835754395
-0.8077034950256348,2.194140911102295,-0.21177847683429718
-0.7761828303337097,2.155707597732544,-0.2099032998085022
-0.7488338947296143,2.1280505657196045,-0.20905788242816925
-0.7288194894790649,2.118318796157837,-0.20987512171268463
-0.7040681838989258,2.0936529636383057,-0.2091803103685379
-0.6867615580558777,2.090996026992798,-0.21056795120239258
-0.6635155081748962,2.0697152614593506,-0.21001794934272766
-0.6393514275550842,2.044532060623169,-0.209050253033638
-0.6159937977790833,2.0189950466156006,-0.20796631276607513
-0.6018269658088684,2.0230655670166016,-0.2098771184682846
-0.5831440687179565,2.0121612548828125,-0.2101156860589981
-0.5635745525360107,1.9973595142364502,-0.2099364846944809
-0.541392982006073,1.9710808992385864,-0.2085053026676178
-0.5173682570457458,1.9371460676193237,-0.20625129342079163
-0.5036931037902832,1.940579891204834,-0.20781609416007996
-0.4899473190307617,1.9439316987991333,-0.20934416353702545
-0.4716583788394928,1.9282954931259155,-0.20881842076778412
-0.45461803674697876,1.9162564277648926,-0.20866276323795319
-0.4323035776615143,1.8814194202423096,-0.20599108934402466
-0.4173256754875183,1.8767002820968628,-0.20644594728946686
-0.404083788394928,1.8794546127319336,-0.20772814750671387
-0.38936707377433777,1.8744863271713257,-0.20815393328666687
-0.37400656938552856,1.8655915260314941,-0.20814165472984314
-0.35774460434913635,1.852829933166504,-0.20761720836162567
-0.33903172612190247,1.8246415853500366,-0.2052544355392456
-0.3262074589729309,1.8268593549728394,-0.20630796253681183
-0.3121325671672821,1.8213214874267578,-0.20648762583732605
-0.29689285159111023,1.8080157041549683,-0.20578648149967194
-0.28516873717308044,1.8176575899124146,-0.20756524801254272
-0.271218478679657,1.811843752861023,-0.20754937827587128
-0.25635865330696106,1.7982275485992432,-0.20663703978061676
-0.24231256544589996,1.7883286476135254,-0.20614756643772125
-0.22789974510669708,1.7744784355163574,-0.20518571138381958
-0.21550753712654114,1.7759512662887573,-0.20583203434944153
-0.20112258195877075,1.7619396448135376,-0.20469826459884644
-0.18718145787715912,1.7477914094924927,-0.2035408914089203
-0.17577990889549255,1.7567003965377808,-0.20507584512233734
-0.16351233422756195,1.757817029953003,-0.20565447211265564
-0.15055057406425476,1.7511332035064697,-0.20520184934139252
-0.13808026909828186,1.752106785774231,-0.20566131174564362
-0.12532755732536316,1.745233178138733,-0.20520047843456268
-0.11218983680009842,1.730523943901062,-0.20382317900657654
-0.10102236270904541,1.7467149496078491,-0.20599670708179474
-0.08804203569889069,1.7318490743637085,-0.20442773401737213
-0.07524126023054123,1.7207725048065186,-0.20331639051437378
-0.06341685354709625,1.7251005172729492,-0.20403029024600983
-0.0518825463950634,1.7409793138504028,-0.2061225175857544
-0.03941301256418228,1.7257707118988037,-0.20440992712974548
-0.027646584436297417,1.7415096759796143,-0.20631645619869232
-0.015236345119774342,1.7338956594467163,-0.20546753704547882
-0.0032108579762279987,1.7494679689407349,-0.20737552642822266
0.00883193127810955,1.7261656522750854,-0.20468509197235107
0.02070557326078415,1.714437484741211,-0.20320798456668854
0.032771121710538864,1.7220232486724854,-0.204007089138031
0.04504389315843582,1.7334015369415283,-0.20526434481143951
0.05691317468881607,1.7214231491088867,-0.20376430451869965
0.06934329122304916,1.7326297760009766,-0.20501072704792023
0.08134779334068298,1.7321442365646362,-0.20470070838928223
0.09461663663387299,1.7548173666000366,-0.20713378489017487
0.10538966208696365,1.7309210300445557,-0.2040795087814331
0.11818511039018631,1.7379090785980225,-0.20467400550842285
0.13085602223873138,1.744823932647705,-0.20522968471050262
0.1423305869102478,1.7361985445022583,-0.20382197201251984
0.15300405025482178,1.7197685241699219,-0.20151297748088837
0.16493894159793854,1.7187227010726929,-0.2010197639465332
0.18028083443641663,1.7484490871429443,-0.20412179827690125
0.19070519506931305,1.7317957878112793,-0.2017475962638855
0.20177467167377472,1.7228058576583862,-0.200175940990448
0.21464110910892487,1.7291494607925415,-0.20039555430412292
0.2266675978899002,1.7276928424835205,-0.19971542060375214
0.24104303121566772,1.7414995431900024,-0.2007952332496643
0.25200390815734863,1.732195496559143,-0.1991126388311386
0.2587064802646637,1.6959774494171143,-0.19429346919059753
0.27351441979408264,1.7134062051773071,-0.19563394784927368
0.28927215933799744,1.7345319986343384,-0.19738678634166718
0.29735448956489563,1.709626317024231,-0.19391077756881714
0.3093809485435486,1.7076061964035034,-0.19289350509643555
0.32402756810188293,1.720808744430542,-0.19358748197555542
0.33149290084838867,1.6957709789276123,-0.18998751044273376
0.3610689342021942,1.7810611724853516,-0.19872315227985382
0.3710704743862152,1.7672247886657715,-0.1963539868593216
0.3925410509109497,1.806460976600647,-0.1997140347957611
0.40671226382255554,1.8114248514175415,-0.19928373396396637
0.4245680570602417,1.831395149230957,-0.20049066841602325
0.4409589469432831,1.8436399698257446,-0.20083767175674438
0.4462950527667999,1.8105125427246094,-0.19618797302246094
0.45897117257118225,1.807499647140503,-0.19472000002861023
0.46947386860847473,1.7969248294830322,-0.19246849417686462
0.4779646694660187,1.7787511348724365,-0.18941468000411987
0.5203486680984497,1.8841599225997925,-0.19947347044944763
0.5375558733940125,1.8956615924835205,-0.19939367473125458
0.5529648065567017,1.899502158164978,-0.19845309853553772
0.5705568790435791,1.910703182220459,-0.19828757643699646
0.5816226005554199,1.8994144201278687,-0.19578030705451965
0.6076096296310425,1.9363130331039429,-0.19818827509880066
0.6256470084190369,1.9470969438552856,-0.1977873295545578
0.6440886855125427,1.9576534032821655,-0.19732417166233063
0.6651894450187683,1.9754186868667603,-0.19756832718849182
0.6903533935546875,2.0040225982666016,-0.1988646388053894
0.7092690467834473,2.0141186714172363,-0.19818560779094696
0.7361828088760376,2.0460398197174072,-0.1995946615934372
0.7476314902305603,2.033812999725342,-0.19666044414043427
0.7825894951820374,2.0833003520965576,-0.19961361587047577
0.8053416013717651,2.0998592376708984,-0.19933325052261353
0.8196404576301575,2.094550371170044,-0.19689008593559265
0.849852442741394,2.1288702487945557,-0.19813361763954163
0.8793932795524597,2.1591603755950928,-0.19890157878398895
0.9006637334823608,2.1674890518188477,-0.19755782186985016
0.9260066151618958,2.1866538524627686,-0.19710949063301086
0.9501234292984009,2.2019946575164795,-0.19627639651298523
0.9748750925064087,2.2169463634490967,-0.1953176110982895
1.0142422914505005,2.2636287212371826,-0.19708171486854553
1.0524873733520508,2.3064370155334473,-0.1982642412185669
1.0795636177062988,2.324249744415283,-0.1972605139017105
1.1123825311660767,2.352156639099121,-0.19698260724544525
1.1507929563522339,2.3902125358581543,-0.1974593997001648
1.1481178998947144,2.344151735305786,-0.19091537594795227
1.1641846895217896,2.336491346359253,-0.18749122321605682
1.2579385042190552,2.481532335281372,-0.19610437750816345
1.302071213722229,2.5249106884002686,-0.1964244395494461
1.3443609476089478,2.5647165775299072,-0.19626957178115845
1.3890516757965088,2.6075246334075928,-0.19621799886226654
1.3868098258972168,2.5603673458099365,-0.18925787508487701
1.3784881830215454,2.5030324459075928,-0.1816011518239975
1.3304319381713867,2.378392219543457,-0.1692938655614853
1.3561244010925293,2.3865647315979004,-0.16653481125831604
1.413748025894165,2.448211193084717,-0.16727149486541748
1.4343197345733643,2.445549964904785,-0.16347749531269073
1.4508025646209717,2.4360949993133545,-0.1591397523880005
1.4575393199920654,2.4095935821533203,-0.15362831950187683
1.474252462387085,2.399686098098755,-0.14916308224201202
1.5044804811477661,2.4133665561676025,-0.14610624313354492
1.5416224002838135,2.4363853931427,-0.1434265673160553
1.55051589012146,2.412490129470825,-0.13773606717586517
1.5045945644378662,2.307687997817993,-0.1276760995388031
1.4122943878173828,2.13512921333313,-0.11425568163394928
1.4206416606903076,2.1157374382019043,-0.10916531085968018
1.434475302696228,2.1066136360168457,-0.10461357235908508
1.4553239345550537,2.1067452430725098,-0.10031545162200928
1.4363815784454346,2.048821449279785,-0.0931934267282486
1.43136727809906,2.014347553253174,-0.08729518949985504
1.4586125612258911,2.0238654613494873,-0.08307814598083496
1.4629642963409424,2.001617193222046,-0.07738614082336426
1.475687026977539,1.9924520254135132,-0.07217184454202652
2.1146395206451416,2.9613561630249023,0.20316888391971588
2.083037853240967,2.9640989303588867,0.20983879268169403
2.400036334991455,3.4698331356048584,0.2528115510940552
2.3755133152008057,3.4860880374908447,0.26068711280822754
2.3787882328033447,3.5491504669189453,0.27202898263931274
2.358872175216675,3.575848340988159,0.2803804278373718
3.108114004135132,4.785061836242676,0.38329264521598816
1.646915316581726,2.5780131816864014,0.2106311023235321
1.63589608669281,2.6030378341674805,0.21669073402881622
1.5786833763122559,2.5510833263397217,0.21602897346019745
3.0348048210144043,4.984639644622803,0.4290803372859955
2.994312286376953,5.003758907318115,0.4376889169216156
2.97627854347229,5.054502487182617,0.448616623878479
2.944542407989502,5.0813307762146,0.457394540309906
2.913975238800049,5.116127967834473,0.46666276454925537
2.892425775527954,5.167800426483154,0.4775141477584839
2.878018379211426,5.228520393371582,0.4889775812625885
2.7708935737609863,5.117757797241211,0.48422548174858093
2.641202926635742,4.965802192687988,0.47496166825294495
2.6076853275299072,4.991603851318359,0.48255181312561035
2.5689568519592285,5.002264022827148,0.48841097950935364
2.5490684509277344,5.051039218902588,0.49809741973876953
2.5085296630859375,5.061985015869141,0.503740668296814
1.243981122970581,2.5573980808258057,0.2567649483680725
1.2189093828201294,2.5519020557403564,0.25839963555336
1.1976940631866455,2.5530354976654053,0.26065149903297424
1.1827385425567627,2.568265676498413,0.2642967104911804
1.1602542400360107,2.5696732997894287,0.2664395272731781
1.1601803302764893,2.6205267906188965,0.27371713519096375
2.565568447113037,5.9056549072265625,0.6211514472961426
2.5348236560821533,5.947864532470703,0.6299258470535278
2.5099380016326904,6.008367538452148,0.6404455900192261
