X,Y,Z
-0.43828827142715454,3.5191891193389893,0.05944083258509636
-0.46074894070625305,3.5005645751953125,0.05904248356819153
-0.48068979382514954,3.4663424491882324,0.05836796760559082
-0.49944359064102173,3.4281742572784424,0.05760260298848152
-0.5206761956214905,3.4092137813568115,0.05716431513428688
-0.535987138748169,3.3514795303344727,0.05607863888144493
-0.5444390177726746,3.259077310562134,0.05442193150520325
-0.5583676695823669,3.205195426940918,0.05341561511158943
-0.5761709809303284,3.1782331466674805,0.052826177328825
-0.5993477702140808,3.181896448135376,0.05274422466754913
-0.6128910779953003,3.135554075241089,0.05183716118335724
-0.6350039839744568,3.1311540603637695,0.05162372067570686
-0.6840612292289734,3.256625175476074,0.05355038866400719
-0.7197390794754028,3.31290864944458,0.05431416258215904
-0.730339527130127,3.2545742988586426,0.053178369998931885
-0.747227668762207,3.2266926765441895,0.052546821534633636
-0.7680488228797913,3.213773488998413,0.052157923579216
-0.688552975654602,2.7949869632720947,0.04520910233259201
-0.7079007029533386,2.7901532649993896,0.044976018369197845
-0.7229321002960205,2.7701573371887207,0.044468533247709274
-0.7377241849899292,2.750086545944214,0.043963924050331116
-0.7516810297966003,2.7260563373565674,0.04339605197310448
-0.7780628800392151,2.7470755577087402,0.043547406792640686
-0.8145620226860046,2.8016200065612793,0.04422682896256447
-0.938439667224884,3.1478781700134277,0.04945000633597374
-0.9597479701042175,3.1414525508880615,0.049103815108537674
-0.9942895174026489,3.175746440887451,0.049388088285923004
-1.0736002922058105,3.347285270690918,0.05179044231772423
-1.1114675998687744,3.384277105331421,0.05209583789110184
-1.136914849281311,3.384061574935913,0.05179770663380623
-1.1660531759262085,3.3947947025299072,0.05166035145521164
-1.2045607566833496,3.431043863296509,0.05190655589103699
-1.2340583801269531,3.4371562004089355,0.05168096348643303
-1.2525577545166016,3.413827657699585,0.05102018639445305
-1.2701233625411987,3.390659809112549,0.05033779516816139
-1.3277533054351807,3.473262071609497,0.05121438205242157
-1.3455922603607178,3.4496326446533203,0.05051613971590996
-1.3728883266448975,3.447277784347534,0.05011684447526932
-2.2599239349365234,5.561761379241943,0.08027832955121994
-2.322587728500366,5.607836723327637,0.0802965760231018
-2.357069253921509,5.584965229034424,0.07932570576667786
-2.384382963180542,5.543621063232422,0.07808692008256912
-2.426757574081421,5.533746242523193,0.07727306336164474
-2.5681509971618652,5.7488179206848145,0.07956171035766602
-2.553116798400879,5.614223480224609,0.07695958763360977
-1.4798171520233154,3.197322130203247,0.04340757802128792
-1.5119210481643677,3.2082014083862305,0.04311554506421089
-1.5311424732208252,3.190417766571045,0.04243026673793793
-1.538596749305725,3.15210223197937,0.04145991429686546
-1.5559343099594116,3.1348695755004883,0.04077230393886566
-1.5807626247406006,3.1311848163604736,0.040249053388834
-1.6167277097702026,3.147944927215576,0.03997600078582764
-1.6522756814956665,3.16473388671875,0.039683111011981964
-1.753994107246399,3.305419683456421,0.040899235755205154
-1.804040789604187,3.345102071762085,0.04083018749952316
-1.1605921983718872,2.1166186332702637,0.025467945262789726
-1.1938053369522095,2.1428966522216797,0.025398435071110725
-1.9233083724975586,3.3997206687927246,0.039665717631578445
-1.9583027362823486,3.4067530632019043,0.03908431529998779
-1.9504501819610596,3.3390815258026123,0.037645693868398666
-1.9804863929748535,3.3395419120788574,0.03696468099951744
-1.2488524913787842,2.0749309062957764,0.02253422886133194
-1.2711628675460815,2.0796782970428467,0.022127626463770866
-2.1159369945526123,3.4081432819366455,0.035480793565511703
-2.300211191177368,3.6522607803344727,0.03717777505517006
-2.324218273162842,3.637040376663208,0.03615735471248627
-2.3430495262145996,3.6109871864318848,0.034985918551683426
-2.35789155960083,3.5826337337493896,0.0337817445397377
-2.3964598178863525,3.5898830890655518,0.03288334980607033
-2.4104340076446533,3.556957721710205,0.03155484050512314
-2.407062530517578,3.5025203227996826,0.030044859275221825
-2.4249460697174072,3.4806549549102783,0.028815291821956635
-2.5008974075317383,3.5371196269989014,0.028124870732426643
-2.566894292831421,3.581249952316284,0.027257785201072693
-2.6269381046295166,3.6150012016296387,0.026234567165374756
-2.70452618598938,3.6695609092712402,0.02523074857890606
-2.7893831729888916,3.902296781539917,-0.037833016365766525
-2.471788167953491,3.5145602226257324,-0.035568494349718094
-2.4205234050750732,3.4931678771972656,-0.036692459136247635
-2.6930229663848877,3.9504594802856445,-0.04298786818981171
-2.6729636192321777,3.982872486114502,-0.044751331210136414
-2.620871067047119,3.965924024581909,-0.04589466378092766
-2.5774669647216797,3.9663290977478027,-0.047244053333997726
-2.5682010650634766,4.014114856719971,-0.04905720800161362
-2.0940377712249756,3.3250136375427246,-0.041632890701293945
-2.069065570831299,3.3405954837799072,-0.04281310364603996
-1.2645468711853027,2.0745034217834473,-0.02716423012316227
-1.2536689043045044,2.090200901031494,-0.02794395387172699
-1.988052248954773,3.3712639808654785,-0.045971039682626724
-1.979276418685913,3.412580728530884,-0.04741523042321205
-1.955514907836914,3.4262375831604004,-0.04844937473535538
-1.1965466737747192,2.1323435306549072,-0.030667267739772797
-1.1767306327819824,2.1344172954559326,-0.031215908005833626
-1.8692235946655273,3.447388172149658,-0.05119632929563522
-1.7678134441375732,3.315643548965454,-0.04997646063566208
-1.649161458015442,3.148611307144165,-0.04813515394926071
-1.5975816249847412,3.1049623489379883,-0.048126690089702606
-1.5825852155685425,3.130136489868164,-0.04916056618094444
-1.5569379329681396,3.134239673614502,-0.04984882101416588
-1.53742516040802,3.1525380611419678,-0.050749365240335464
-1.517957091331482,3.1706085205078125,-0.05164560303092003
-1.5024842023849487,3.195230484008789,-0.05263274535536766
-2.0382137298583984,4.414950370788574,-0.07351944595575333
-2.015200138092041,4.451221942901611,-0.07490384578704834
-2.0019137859344482,4.508526802062988,-0.07664214819669724
-1.9736087322235107,4.529494285583496,-0.07774454355239868
-1.9465508460998535,4.553917407989502,-0.07891131192445755
-1.9196373224258423,4.582253932952881,-0.08010509610176086
-1.6012121438980103,3.9024651050567627,-0.06883076578378677
-1.5664881467819214,3.8954784870147705,-0.06928813457489014
-1.5451030731201172,3.920793294906616,-0.07031704485416412
-1.518566608428955,3.9353203773498535,-0.07113158702850342
-1.4985020160675049,3.968050241470337,-0.07226710766553879
-1.47507905960083,3.993462085723877,-0.07328304648399353
-1.4552909135818481,4.025629997253418,-0.07440751045942307
-1.4220588207244873,4.020908355712891,-0.07485005259513855
-1.4034769535064697,4.060492515563965,-0.0760839506983757
-1.3769043684005737,4.077812194824219,-0.07690907269716263
-1.3476417064666748,4.087563514709473,-0.07759746164083481
-1.3202930688858032,4.100569248199463,-0.07833842933177948
-0.9729139804840088,3.0962915420532227,-0.05950997397303581
-0.9667391180992126,3.1554479598999023,-0.06098589673638344
-0.9351855516433716,3.132340431213379,-0.060877371579408646
-0.7976147532463074,2.7412850856781006,-0.05356737971305847
-0.7803099155426025,2.7543723583221436,-0.054120127111673355
-0.755683422088623,2.740971803665161,-0.0541265495121479
-0.7361506223678589,2.7462751865386963,-0.05448538810014725
-0.7165808081626892,2.751439332962036,-0.05484422296285629
-0.7040905356407166,2.7828633785247803,-0.055726274847984314
-1.3827332258224487,5.632430553436279,-0.11331727355718613
-1.353888988494873,5.687606334686279,-0.11490538716316223
-1.3670220375061035,5.929201126098633,-0.12025327980518341
-1.3232699632644653,5.931102275848389,-0.12076293677091599
-1.2769527435302734,5.917263031005859,-0.12094791233539581
-1.221548318862915,5.86113166809082,-0.12027394771575928
-1.17035973072052,5.819777011871338,-0.11984182149171829
-0.6188469529151917,3.1938350200653076,-0.0659748911857605
-0.6020017266273499,3.2288339138031006,-0.0669097900390625
-0.5767202377319336,3.217569589614868,-0.06688755005598068
-0.5651739835739136,3.2869982719421387,-0.06855280697345734
-0.5434604287147522,3.2985684871673584,-0.0689966231584549
-0.52386075258255,3.325456380844116,-0.06973525881767273
-0.5056506991386414,3.363816022872925,-0.07072103768587112
-0.4821624755859375,3.367257595062256,-0.0709763690829277
-0.46570849418640137,3.4247541427612305,-0.07238005101680756
-0.44484972953796387,3.451148271560669,-0.07312164455652237
-0.42485588788986206,3.4890732765197754,-0.07406136393547058
-0.39856836199760437,3.4764461517333984,-0.07393242418766022
0.0776669979095459,4.1428327560424805,-0.08969347178936005
0.10800909250974655,4.204659938812256,-0.09099667519330978
0.13614504039287567,4.1725850105285645,-0.09025370329618454
0.2106311321258545,5.322716236114502,-0.11507446318864822
0.24727332592010498,5.3133225440979,-0.11482009291648865
0.22838953137397766,4.2585129737854,-0.09198851883411407
0.25747233629226685,4.249031066894531,-0.09172327816486359
0.28688710927963257,4.2471489906311035,-0.0915846973657608
0.31454718112945557,4.221696376800537,-0.09094274044036865
0.3431764245033264,4.211631774902344,-0.0906371995806694
0.3756767213344574,4.240226745605469,-0.09116596728563309
0.49285632371902466,5.154996871948242,-0.11073165386915207
0.5223949551582336,5.0932087898254395,-0.10921362042427063
0.4979512691497803,4.545993328094482,-0.0973137691617012
0.534326434135437,4.585118770599365,-0.09798797965049744
0.5734755396842957,4.635489463806152,-0.0988999456167221
0.6173577308654785,4.720458030700684,-0.1005527600646019
0.6915414333343506,5.017854690551758,-0.1066659465432167
0.7249672412872314,5.005249977111816,-0.10615754872560501
0.7570792436599731,4.9847002029418945,-0.10548678785562515
0.7891942262649536,4.9599528312683105,-0.10472806543111801
0.8159258961677551,4.908130645751953,-0.1034097746014595
0.8498445749282837,4.902379035949707,-0.10302852094173431
0.8834215998649597,4.896449565887451,-0.10259193181991577
0.9119190573692322,4.863419532775879,-0.10159403830766678
0.9410578012466431,4.834003925323486,-0.10067679733037949
0.9721631407737732,4.811917304992676,-0.09991244971752167
1.005540132522583,4.805063247680664,-0.09946251660585403
1.0317859649658203,4.767543792724609,-0.09832992404699326
1.0644257068634033,4.760373592376709,-0.09782969951629639
1.0927927494049072,4.733912944793701,-0.09693725407123566
1.1208213567733765,4.703279972076416,-0.09595776349306107
1.1497706174850464,4.680212497711182,-0.09514302015304565
1.1816840171813965,4.672268867492676,-0.09456659108400345
1.2076014280319214,4.641439437866211,-0.09353390336036682
1.2394511699676514,4.633047580718994,-0.09295660257339478
1.2639245986938477,4.594046115875244,-0.09175996482372284
1.2958084344863892,4.5851664543151855,-0.09117985516786575
1.3258893489837646,4.57250452041626,-0.09046377241611481
1.3502751588821411,4.540933132171631,-0.08937882632017136
1.3745245933532715,4.509172439575195,-0.08829540759325027
1.408679723739624,4.506816864013672,-0.08777932077646255
1.4327884912490845,4.474623680114746,-0.08669454604387283
1.4630687236785889,4.4648284912109375,-0.08598098158836365
1.4882800579071045,4.440028190612793,-0.08498477935791016
1.5148200988769531,4.418673038482666,-0.08405575901269913
1.252186894416809,3.571397304534912,-0.06751172989606857
1.2931082248687744,3.6066253185272217,-0.06773149967193604
1.317410945892334,3.5978314876556396,-0.06708631664514542
1.6165844202041626,4.324195384979248,-0.08005353063344955
1.646278738975525,4.312992572784424,-0.07926124334335327
1.6733719110488892,4.294185161590576,-0.07832783460617065
1.7061076164245605,4.289707660675049,-0.077623151242733
1.7231765985488892,4.249196529388428,-0.07625366747379303
1.7576500177383423,4.251977920532227,-0.07566745579242706
1.7810981273651123,4.22527551651001,-0.0745379701256752
1.8104616403579712,4.212792873382568,-0.07366443425416946
1.8314353227615356,4.1824235916137695,-0.0724216103553772
1.8562406301498413,4.162937641143799,-0.07138177752494812
1.887887954711914,4.157279014587402,-0.07056808471679688
1.9101746082305908,4.129894733428955,-0.06937840580940247
1.9348974227905273,4.109753608703613,-0.06829769164323807
1.9627152681350708,4.0965576171875,-0.06730322539806366
1.9833626747131348,4.069243431091309,-0.06608912348747253
2.004692554473877,4.0413618087768555,-0.0648471787571907
2.039442777633667,4.041461944580078,-0.06404700875282288
2.0626440048217773,4.020908832550049,-0.06289458274841309
2.0893561840057373,4.007109642028809,-0.061849433928728104
2.1139609813690186,3.9853603839874268,-0.06063457205891609
2.1337926387786865,3.9570529460906982,-0.059333574026823044
2.163545608520508,3.9497900009155273,-0.05831977352499962
2.1858787536621094,3.928553581237793,-0.05709592625498772
2.2131168842315674,3.9132907390594482,-0.055919207632541656
2.240103006362915,3.897922992706299,-0.05471521615982056
2.2596561908721924,3.873076915740967,-0.053383197635412216
2.2816081047058105,3.8511252403259277,-0.05207280069589615
2.3083345890045166,3.835181713104248,-0.05081089586019516
2.3295791149139404,3.8131802082061768,-0.049455106258392334
2.350647211074829,3.7910568714141846,-0.048078980296850204
2.3767459392547607,3.774765968322754,-0.04673454910516739
2.4022459983825684,3.75860595703125,-0.04537612944841385
2.426414966583252,3.743065118789673,-0.044008295983076096
2.4558868408203125,3.733165979385376,-0.042651768773794174
2.481853485107422,3.715970516204834,-0.041147489100694656
2.5055043697357178,3.7000813484191895,-0.03966790437698364
2.521376848220825,3.6703593730926514,-0.037981342524290085
2.546306610107422,3.653125047683716,-0.036373089998960495
2.564828872680664,3.6305992603302,-0.03470216318964958
2.589817762374878,3.612833023071289,-0.03294708952307701
2.6087846755981445,3.5895235538482666,-0.03113049641251564
2.636197090148926,3.57916259765625,-0.02938464656472206
2.5889980792999268,3.651650905609131,0.04634523764252663
2.5471320152282715,3.6524128913879395,0.04814596846699715
2.5124194622039795,3.6574134826660156,0.049827784299850464
2.4806153774261475,3.669607162475586,0.051591482013463974
2.457216501235962,3.694676160812378,0.05348407104611397
2.4271421432495117,3.7051424980163574,0.055052079260349274
2.4079926013946533,3.7361927032470703,0.0569230280816555
2.371654987335205,3.740852117538452,0.058371249586343765
2.3450706005096436,3.757550001144409,0.059936076402664185
2.31337308883667,3.7679593563079834,0.06136434152722359
2.2930970191955566,3.7985692024230957,0.06312022358179092
2.278484344482422,3.834613561630249,0.06489294767379761
2.2511582374572754,3.8506948947906494,0.06632421910762787
2.22584867477417,3.8743667602539062,0.0678911879658699
2.197835922241211,3.89030122756958,0.06927462667226791
2.1954188346862793,3.9498353004455566,0.07140927016735077
2.1929123401641846,4.0136260986328125,0.07361945509910583
2.1872241497039795,4.074423789978027,0.07579208165407181
2.1815273761749268,4.134947299957275,0.07795985788106918
2.1634678840637207,4.1708173751831055,0.07964912056922913
2.1435701847076416,4.207371711730957,0.08131814002990723
2.105624198913574,4.209003925323486,0.08231117576360703
2.082779884338379,4.237745761871338,0.08380036801099777
2.059509754180908,4.266433238983154,0.08530265092849731
2.0218682289123535,4.26709508895874,0.08619669824838638
1.9972182512283325,4.295898914337158,0.0876573920249939
1.9634530544281006,4.302827835083008,0.08865202218294144
1.9366040229797363,4.323515892028809,0.08991978317499161
1.9120104312896729,4.351494312286377,0.09131522476673126
1.8843997716903687,4.376258373260498,0.09264013916254044
1.8528498411178589,4.389686584472656,0.09371025860309601
1.8252817392349243,4.409653663635254,0.09489886462688446
1.8003382682800293,4.436737537384033,0.09624481946229935
1.7653573751449585,4.442346572875977,0.09706683456897736
1.7383290529251099,4.469736099243164,0.09838320314884186
1.712300181388855,4.496470928192139,0.09966643899679184
1.6727863550186157,4.48629903793335,0.10012559592723846
1.318493127822876,3.6137852668762207,0.0811852514743805
1.2872040271759033,3.6084506511688232,0.08156995475292206
1.2530256509780884,3.59563946723938,0.08179379254579544
1.5829955339431763,4.646768093109131,0.10634022951126099
1.553101658821106,4.6650567054748535,0.10739562660455704
1.5356943607330322,4.724210262298584,0.10935451090335846
1.515920639038086,4.779760360717773,0.11121024936437607
1.5052095651626587,4.86903190612793,0.11388114839792252
1.4476330280303955,4.800845623016357,0.11284726113080978
1.4219613075256348,4.836993217468262,0.11426448822021484
1.3866918087005615,4.843142509460449,0.1149359717965126
1.3615714311599731,4.88674259185791,0.11647257208824158
1.305215835571289,4.817162036895752,0.11531338095664978
1.2689918279647827,4.818737506866455,0.11585187166929245
1.2412132024765015,4.850140571594238,0.11710508912801743
1.2146360874176025,4.889045238494873,0.11851169168949127
1.1807054281234741,4.901352405548096,0.11923778802156448
1.1493237018585205,4.924831867218018,0.12024343013763428
1.1193420886993408,4.955740451812744,0.12144050747156143
1.086521863937378,4.971019744873047,0.12225229293107986
1.0550295114517212,4.993750095367432,0.12323616445064545
1.0211971998214722,5.0087361335754395,0.12396056950092316
0.9841935038566589,5.00816535949707,0.12430615723133087
0.974393367767334,5.153212547302246,0.12828637659549713
0.9510867595672607,5.229011535644531,0.1305532157421112
0.9079047441482544,5.197031021118164,0.1301381140947342
1.8586127758026123,11.099831581115723,0.2785985469818115
1.7572101354599,10.97000789642334,0.2759597599506378
1.6547198295593262,10.827922821044922,0.27301961183547974
1.5585143566131592,10.696172714233398,0.270315945148468
1.469150185585022,10.59841537475586,0.2684689164161682
1.373164415359497,10.441919326782227,0.2650534212589264
1.2843303680419922,10.327288627624512,0.26257145404815674
1.2080883979797363,10.305014610290527,0.2624441385269165
1.113289475440979,10.119264602661133,0.25816282629966736
1.0361366271972656,10.060705184936523,0.2571164667606354
0.5345773696899414,5.57024621963501,0.14261038601398468
0.38210776448249817,4.29804801940918,0.11016841232776642
0.3497534394264221,4.273371696472168,0.10965605825185776
0.31751400232315063,4.2523884773254395,0.10924473404884338
0.2895011305809021,4.277866363525391,0.11002922803163528
0.2597297132015228,4.2797722816467285,0.11021347343921661
0.22995272278785706,4.2814717292785645,0.11037527769804001
0.2020256519317627,4.325879096984863,0.11158006638288498
0.17096568644046783,4.319398880004883,0.11147933453321457
0.13725194334983826,4.211204528808594,0.10875582695007324
0.10697934031486511,4.173017501831055,0.10784280300140381
0.07793261110782623,4.17365837097168,0.10793785005807877
0.0487653911113739,4.166289329528809,0.10777698457241058
0.019577469676733017,4.240723609924316,0.10970676690340042
-0.010089106857776642,4.287615776062012,0.11092954128980637
-0.09787194430828094,1.504131555557251,0.03883400931954384
-0.3231358826160431,3.472134590148926,0.08927765488624573
-0.3472863435745239,3.469805955886841,0.08913668245077133
-0.37167197465896606,3.4672834873199463,0.08894361555576324
-0.3920036554336548,3.433608055114746,0.08794143795967102
-0.41098278760910034,3.3920609951019287,0.08674442023038864
-0.4324842393398285,3.373645067214966,0.08614461869001389
-0.45119813084602356,3.3357365131378174,0.08505278080701828
-0.46809303760528564,3.2860865592956543,0.0836547464132309
-0.4917880892753601,3.2905280590057373,0.08357936143875122
-0.5143586993217468,3.2870824337005615,0.08330713957548141
-0.5369365811347961,3.2834770679473877,0.08303454518318176
-0.5584577322006226,3.2719693183898926,0.08256426453590393
-0.5852834582328796,3.2910850048065186,0.08287014067173004
-0.6026107668876648,3.2561984062194824,0.08178095519542694
-0.6292994618415833,3.2750163078308105,0.08202626556158066
-0.6516949534416199,3.270642042160034,0.08169294893741608
-0.6672001481056213,3.2316434383392334,0.08049856871366501
-0.6847357749938965,3.204025983810425,0.07959454506635666
-0.681159496307373,3.0809271335601807,0.07631715387105942
-0.7090938091278076,3.106680154800415,0.07668925076723099
-0.7338308095932007,3.1169893741607666,0.0766797736287117
-0.7229399085044861,2.979072093963623,0.07303590327501297
-0.6981688737869263,2.792133092880249,0.06821656972169876
-0.7071896195411682,2.7455339431762695,0.06684422492980957
-0.7309171557426453,2.759526252746582,0.06691310554742813
-0.7476121187210083,2.7469661235809326,0.06633062660694122
-0.7704518437385559,2.756880283355713,0.06629350781440735
-0.7939109206199646,2.766481399536133,0.06624234467744827
-0.9194101095199585,3.1204257011413574,0.07439631968736649
-0.9497962594032288,3.1439735889434814,0.07461145520210266
-0.9768368601799011,3.1561360359191895,0.0745314210653305
-1.0300427675247192,3.2499759197235107,0.0763697400689125
-1.0573054552078247,3.2576496601104736,0.07616555690765381
-1.0852692127227783,3.2649197578430176,0.07594283670186996
-1.1101908683776855,3.26479434967041,0.07553118467330933
-1.1270663738250732,3.242487668991089,0.07458189874887466
-1.1541482210159302,3.2495429515838623,0.07431140542030334
-1.184541940689087,3.263540744781494,0.07418832182884216
-1.2139933109283447,3.2735488414764404,0.07396932691335678
-1.2589043378829956,3.3234615325927734,0.07460615038871765
-1.2896349430084229,3.3368079662323,0.07438819855451584
-1.32489812374115,3.360790252685547,0.07440225780010223
-1.3568662405014038,3.373298168182373,0.07414121925830841
-2.303936719894409,5.614762306213379,0.12250731885433197
-2.348653793334961,5.613171577453613,0.12150440365076065
-2.3662168979644775,5.550668716430664,0.1191820576786995
-2.4066028594970703,5.541823387145996,0.11801832169294357
-2.462385416030884,5.564304828643799,0.11748787015676498
-2.5138232707977295,5.575576305389404,0.11671288311481476
-3.035377025604248,6.612671375274658,0.13710659742355347
-1.5041022300720215,3.220109701156616,0.06613460183143616
-1.519331932067871,3.1956799030303955,0.06498929113149643
-1.5313286781311035,3.163952112197876,0.06369294226169586
-1.5492628812789917,3.1465225219726562,0.0626697763800621
-1.5669337511062622,3.129045009613037,0.061618320643901825
-1.59496009349823,3.1324117183685303,0.0609823539853096
-1.6418805122375488,3.169801712036133,0.06096985191106796
-1.6799417734146118,3.1895971298217773,0.06059253588318825
-1.7746347188949585,3.316222906112671,0.06218085065484047
-1.8655869960784912,3.4313764572143555,0.06348690390586853
-1.1792300939559937,2.132911205291748,0.03889467567205429
-1.2052583694458008,2.1452460289001465,0.03854893520474434
-1.927554965019226,3.3790411949157715,0.05978725850582123
-1.9576623439788818,3.3797757625579834,0.058852214366197586
-1.9513944387435913,3.3156142234802246,0.056751102209091187
-1.2425813674926758,2.0785210132598877,0.03493586927652359
-1.264148235321045,2.0837833881378174,0.0343778021633625
-2.0277838706970215,3.292475461959839,0.05325506255030632
-2.452415943145752,3.9207682609558105,0.06210128590464592
-2.4296884536743164,3.8289341926574707,0.05931662768125534
-2.3532912731170654,3.655280590057373,0.05531599000096321
-2.361541271209717,3.612706184387207,0.05329159274697304
-2.381115198135376,3.590488910675049,0.05156853795051575
-2.397430419921875,3.5655267238616943,0.049802664667367935
-2.4130160808563232,3.5361227989196777,0.04788033664226532
-2.427882194519043,3.506969928741455,0.04591933637857437
-2.4409239292144775,3.47885799407959,0.04400235041975975
-2.5079658031463623,3.5223774909973145,0.042815208435058594
-2.6060242652893066,3.6107046604156494,0.04206530749797821
-2.700685739517212,3.6916239261627197,0.041055239737033844
-2.774632215499878,3.7390542030334473,0.03942250460386276
-2.770714044570923,3.9058237075805664,-0.05296701565384865
-2.4320971965789795,3.4849631786346436,-0.04933885112404823
-2.4896743297576904,3.6208555698394775,-0.05319890007376671
-2.737586498260498,4.047448635101318,-0.06164877489209175
-2.7078757286071777,4.067349433898926,-0.06400027126073837
-2.6963696479797363,4.112367153167725,-0.06665728986263275
-2.6652615070343018,4.132559776306152,-0.06891096383333206
-2.1058220863342285,3.317338228225708,-0.05678248032927513
-2.1005706787109375,3.3621580600738525,-0.059001196175813675
-1.255386471748352,2.043320655822754,-0.03671532869338989
-1.2688851356506348,2.0991108417510986,-0.03855997696518898
-2.0092289447784424,3.376600742340088,-0.06332238763570786
-1.9941184520721436,3.4081623554229736,-0.06519274413585663
-1.9588909149169922,3.405991315841675,-0.06642965227365494
-1.1964366436004639,2.1142749786376953,-0.04197434335947037
-1.188801646232605,2.136455535888672,-0.04314428195357323
-1.9018672704696655,3.4781875610351562,-0.0714021548628807
-1.8603990077972412,3.460658073425293,-0.07215160876512527
-1.7409863471984863,3.294142246246338,-0.06972352415323257
-1.627028226852417,3.1333653926849365,-0.0672711580991745
-1.5898752212524414,3.117321491241455,-0.06786560267210007
-1.5679458379745483,3.1283836364746094,-0.06900802254676819
-1.5495860576629639,3.146202564239502,-0.07029686123132706
-1.5330246686935425,3.171640157699585,-0.07173386961221695
-1.509852647781372,3.182711362838745,-0.07283849269151688
-1.4908483028411865,3.200252056121826,-0.07406194508075714
-2.103682041168213,4.5991644859313965,-0.107610322535038
-2.0863447189331055,4.649857997894287,-0.10993587225675583
-2.0336930751800537,4.621935844421387,-0.11040373891592026
-2.0036346912384033,4.643518924713135,-0.1120370551943779
-1.963666558265686,4.639330863952637,-0.11301986873149872
-1.5997660160064697,3.856023073196411,-0.09479201585054398
-1.5778127908706665,3.881897211074829,-0.09626803547143936
-1.5530166625976562,3.900264263153076,-0.09755745530128479
-1.5324183702468872,3.9293413162231445,-0.09912142902612686
-1.5075278282165527,3.9472920894622803,-0.10038053244352341
-1.4900410175323486,3.9872679710388184,-0.10216721892356873
-1.4666937589645386,4.012524127960205,-0.1035904809832573
-1.4386489391326904,4.022638320922852,-0.10460815578699112
-1.4101427793502808,4.032691955566406,-0.10563996434211731
-1.386491298675537,4.057369709014893,-0.1070026084780693
-1.3623566627502441,4.081982135772705,-0.10835877060890198
-1.3345494270324707,4.095239162445068,-0.10941644012928009
-1.308456540107727,4.111822128295898,-0.1105545163154602
-0.9736526012420654,3.1364071369171143,-0.08486691117286682
-0.9513119459152222,3.143237829208374,-0.0855177491903305
-0.8350128531455994,2.831554651260376,-0.07746022194623947
-0.7923985719680786,2.7585372924804688,-0.07587189227342606
-0.7668642401695251,2.741408348083496,-0.07580452412366867
-0.7425215244293213,2.7278571128845215,-0.07582289725542068
-0.7277560234069824,2.752019166946411,-0.07685695588588715
-0.7139655351638794,2.779810905456543,-0.07799609750509262
-0.6906612515449524,2.7695837020874023,-0.07806802541017532
-1.463071346282959,6.0457892417907715,-0.17119869589805603
-1.4431184530258179,6.1508660316467285,-0.1749376505613327
-1.4350606203079224,6.321008205413818,-0.18048100173473358
-1.3919299840927124,6.338613510131836,-0.18168464303016663
-1.3426432609558105,6.325259685516357,-0.1820003092288971
-1.293836236000061,6.3114824295043945,-0.1823040246963501
-1.2451245784759521,6.297365665435791,-0.1825675368309021
-1.1917794942855835,6.2639384269714355,-0.182175874710083
-1.1418176889419556,6.241461277008057,-0.18209578096866608
-1.0879520177841187,6.191593647003174,-0.18121156096458435
-0.974763035774231,5.783156394958496,-0.1697942018508911
-0.9369386434555054,5.805203914642334,-0.17096936702728271
-0.9375733137130737,6.085737228393555,-0.17966412007808685
-0.6882380247116089,4.685979843139648,-0.13867370784282684
-0.6591452360153198,4.717745304107666,-0.13995477557182312
-0.6293870806694031,4.745426654815674,-0.1411224901676178
-0.5851691961288452,4.660572052001953,-0.13894540071487427
-0.4123588800430298,3.481938123703003,-0.10399166494607925
0.09264849126338959,4.21578311920166,-0.1282126009464264
0.156609445810318,5.413204193115234,-0.16456010937690735
0.19565090537071228,5.435379505157471,-0.1651339828968048
0.23083652555942535,5.375383377075195,-0.16322162747383118
0.21005859971046448,4.207668781280518,-0.12770013511180878
0.24308915436267853,4.272377967834473,-0.12960511445999146
0.2712923586368561,4.247209548950195,-0.12874607741832733
0.30069348216056824,4.237407684326172,-0.12829330563545227
0.328855037689209,4.219656944274902,-0.12760956585407257
0.3600884675979614,4.240623950958252,-0.12810266017913818
0.47457560896873474,5.163395881652832,-0.1558135449886322
0.5080854296684265,5.136673927307129,-0.1548389345407486
0.4872905910015106,4.597177028656006,-0.13832077383995056
0.5163317918777466,4.570441246032715,-0.1372726857662201
0.5543709397315979,4.621054172515869,-0.13855238258838654
0.594866156578064,4.6829447746276855,-0.14016878604888916
0.6699815392494202,4.996035575866699,-0.14929169416427612
0.7094453573226929,5.0221476554870605,-0.14971795678138733
0.7376703023910522,4.974679470062256,-0.14794039726257324
0.7707146406173706,4.961779594421387,-0.1472010612487793
0.8039311170578003,4.948609828948975,-0.14645859599113464
0.8356512188911438,4.927526950836182,-0.1454910933971405
0.8628408908843994,4.883209228515625,-0.143784299492836
0.8968984484672546,4.877087116241455,-0.14315541088581085
0.9281033277511597,4.859338283538818,-0.14220115542411804
0.9587389230728149,4.837483882904053,-0.14113083481788635
0.9876311421394348,4.807771682739258,-0.13984033465385437
1.0176230669021606,4.78556489944458,-0.13873594999313354
1.0475364923477173,4.763136386871338,-0.1375594437122345
1.0758203268051147,4.736830711364746,-0.13628922402858734
1.1049752235412598,4.714094161987305,-0.13512730598449707
1.1359095573425293,4.698722839355469,-0.13418221473693848
1.1665116548538208,4.683193206787109,-0.13321015238761902
1.1931973695755005,4.652305603027344,-0.13172194361686707
1.2209416627883911,4.628973960876465,-0.13046936690807343
1.2528297901153564,4.620468616485596,-0.12963679432868958
1.280746340751648,4.596619606018066,-0.12837667763233185
1.3070957660675049,4.5689167976379395,-0.12699203193187714
1.3386950492858887,4.559784412384033,-0.1260404735803604
1.3651500940322876,4.535650253295898,-0.12469518184661865
1.3941004276275635,4.518689155578613,-0.12354616820812225
1.4231106042861938,4.5014729499816895,-0.12239333987236023
1.4469006061553955,4.4692888259887695,-0.12081314623355865
1.4690502882003784,4.433297634124756,-0.11907538771629333
1.5003283023834229,4.426961421966553,-0.11815544962882996
1.5244981050491333,4.398064136505127,-0.11662687361240387
1.2798099517822266,3.610748052597046,-0.09512442350387573
1.2965424060821533,3.5798871517181396,-0.09365923702716827
1.3356202840805054,3.6113505363464355,-0.09379708766937256
1.6281166076660156,4.310826301574707,-0.1111329197883606
1.6496262550354004,4.277566909790039,-0.10944266617298126
1.685022234916687,4.2805681228637695,-0.10868784040212631
1.7066203355789185,4.250999927520752,-0.10704222321510315
1.7366244792938232,4.243081092834473,-0.10594143718481064
1.7690560817718506,4.238157272338867,-0.10488785058259964
1.7908633947372437,4.207806587219238,-0.10321031510829926
1.8166168928146362,4.188270092010498,-0.10178319364786148
1.8415015935897827,4.168882846832275,-0.10032167285680771
1.8694117069244385,4.156473159790039,-0.09903428703546524
1.8955016136169434,4.136082172393799,-0.09750918298959732
1.9242076873779297,4.122837543487549,-0.09617670625448227
1.9483016729354858,4.1028923988342285,-0.0946381613612175
1.968803882598877,4.075783729553223,-0.09294344484806061
1.9967643022537231,4.062191009521484,-0.09153150022029877
2.0219762325286865,4.041000843048096,-0.08992142230272293
2.0454819202423096,4.0204243659973145,-0.08830803632736206
2.0720934867858887,4.006805896759033,-0.08684274554252625
2.095743417739868,3.985696315765381,-0.08518736809492111
2.1233725547790527,3.9710781574249268,-0.0836552232503891
2.1498377323150635,3.956845998764038,-0.0820981115102768
2.17063570022583,3.932129383087158,-0.08029721677303314
2.1821768283843994,3.8899824619293213,-0.0781303346157074
2.224644184112549,3.901893377304077,-0.07703042775392532
2.24636173248291,3.8804404735565186,-0.0752309039235115
2.263805627822876,3.8522117137908936,-0.07330899685621262
2.2829160690307617,3.822765588760376,-0.07127051800489426
2.3170201778411865,3.820507526397705,-0.06975273787975311
2.3295674324035645,3.785412073135376,-0.06761927902698517
2.3590409755706787,3.7763612270355225,-0.06591448187828064
2.38938045501709,3.7665250301361084,-0.06413935869932175
2.414241075515747,3.750671148300171,-0.06220798194408417
2.438680648803711,3.734858274459839,-0.06028703972697258
2.4602601528167725,3.7113420963287354,-0.05814060941338539
2.488830804824829,3.7016923427581787,-0.0561927855014801
2.5038552284240723,3.6726834774017334,-0.05393264815211296
2.5342071056365967,3.661343812942505,-0.05176161602139473
2.5532474517822266,3.638582944869995,-0.049447327852249146
2.572376012802124,3.615532159805298,-0.04707242175936699
2.6017136573791504,3.604149103164673,-0.0447099544107914
2.6241257190704346,3.5878937244415283,-0.04226483777165413
2.1922249794006348,2.9551947116851807,-0.0327867791056633
2.5654664039611816,3.5914723873138428,0.06046879664063454
2.542827844619751,3.6170425415039062,0.06331004947423935
2.511470079421997,3.6293437480926514,0.0658223107457161
2.4944207668304443,3.659958839416504,0.06853539496660233
2.4574906826019287,3.6660168170928955,0.0707700178027153
2.4398529529571533,3.696467399597168,0.0733274295926094
2.4214348793029785,3.7271571159362793,0.07587315887212753
2.401620388031006,3.7584619522094727,0.07839415967464447
2.3831024169921875,3.7886548042297363,0.08080197125673294
2.3746511936187744,3.835317373275757,0.08353979885578156
2.3660311698913574,3.88639235496521,0.08637672662734985
2.375457286834717,3.9673349857330322,0.08988816291093826
2.363638162612915,4.010651111602783,0.09249646961688995
2.3437366485595703,4.044851779937744,0.09487660229206085
2.3077309131622314,4.051977634429932,0.09662331640720367
2.2851953506469727,4.078120231628418,0.09872457385063171
2.2595512866973877,4.101258277893066,0.10077676177024841
2.2365875244140625,4.131553649902344,0.10295122861862183
2.2100930213928223,4.154590129852295,0.10493599623441696
2.1666460037231445,4.142143249511719,0.10596009343862534
2.158534526824951,4.199093341827393,0.10874655097723007
2.120027542114258,4.2011308670043945,0.1101095974445343
2.0999386310577393,4.237330913543701,0.11233489215373993
2.0704009532928467,4.251798629760742,0.11394564807415009
2.0402731895446777,4.266294479370117,0.11554083228111267
2.005723714828491,4.273978233337402,0.11690215021371841
1.9810689687728882,4.302621364593506,0.1188412606716156
1.957004189491272,4.330725193023682,0.12074609100818634
1.9236358404159546,4.337065696716309,0.12203303724527359
1.902992844581604,4.375946521759033,0.12417026609182358
1.8803191184997559,4.411176681518555,0.12622269988059998
1.843070149421692,4.409904956817627,0.12720981240272522
1.8413872718811035,4.495079040527344,0.13071273267269135
1.8312320709228516,4.562361240386963,0.13366711139678955
1.8110038042068481,4.608169078826904,0.1359720379114151
1.7804718017578125,4.62838077545166,0.13753490149974823
1.738598108291626,4.615036487579346,0.1380680799484253
1.3344740867614746,3.6196775436401367,0.10903284698724747
1.3045839071273804,3.6180787086486816,0.10965895652770996
1.2785395383834839,3.6273353099823,0.11060292273759842
1.6124674081802368,4.681108474731445,0.14358806610107422
1.5897974967956543,4.721791744232178,0.14567850530147552
1.5587430000305176,4.7403178215026855,0.1471138745546341
1.5617364645004272,4.866577625274658,0.15180520713329315
1.5151069164276123,4.840363025665283,0.15175317227840424
1.4874727725982666,4.873391628265381,0.1535571813583374
1.4724854230880737,4.947200298309326,0.15664975345134735
1.4108556509017944,4.86353874206543,0.15475894510746002
1.3734629154205322,4.866085052490234,0.15551935136318207
1.3407617807388306,4.88326358795166,0.15673097968101501
1.2788187265396118,4.7907915115356445,0.1544158160686493
1.2552766799926758,4.8373308181762695,0.15656577050685883
1.227331280708313,4.868628025054932,0.15823812782764435
1.195976734161377,4.8924760818481445,0.15960323810577393
1.1620136499404907,4.904638767242432,0.16055117547512054
1.1375874280929565,4.958414554595947,0.1628742814064026
1.0996148586273193,4.950951099395752,0.16318614780902863
1.0733275413513184,4.996629238128662,0.16525940597057343
1.0392305850982666,5.011780738830566,0.1662946492433548
1.0074554681777954,5.038150310516357,0.1676313877105713
0.9680226445198059,5.025973796844482,0.16769340634346008
2.1344470977783203,11.516282081604004,0.3853198289871216
2.0194802284240723,11.334754943847656,0.3803097605705261
1.9174832105636597,11.221720695495605,0.3776055574417114
1.8155174255371094,11.096234321594238,0.3741515278816223
1.7081820964813232,10.923588752746582,0.36910325288772583
1.6110726594924927,10.80015754699707,0.3657113015651703
1.511775255203247,10.64098834991455,0.36109527945518494
1.4187700748443604,10.519824981689453,0.35777747631073
1.3248891830444336,10.370680809020996,0.35336193442344666
1.2403273582458496,10.282803535461426,0.3509024977684021
1.1560853719711304,10.186509132385254,0.3481632471084595
1.0725150108337402,10.077844619750977,0.3450024425983429
0.9950597286224365,10.011221885681152,0.3432847261428833
0.39518511295318604,4.283982753753662,0.14715006947517395
0.36450061202049255,4.278858661651611,0.14711979031562805
0.33206072449684143,4.25016450881958,0.14627397060394287
0.3033626973628998,4.267956733703613,0.14703471958637238
0.2751424014568329,4.293333053588867,0.14806422591209412
0.24496126174926758,4.299063205718994,0.14842718839645386
0.2161618173122406,4.324053764343262,0.14942947030067444
0.1817319691181183,4.227947235107422,0.14616940915584564
0.15094439685344696,4.193996906280518,0.14506328105926514
0.12211105972528458,4.2105536460876465,0.14571090042591095
0.09588497877120972,4.375234603881836,0.15149632096290588
0.06435557454824448,4.301625728607178,0.14903828501701355
0.034792594611644745,4.35271692276001,0.15083743631839752
0.004515515174716711,4.368469715118408,0.15137267112731934
-0.025701534003019333,4.337164878845215,0.15028464794158936
-0.05457412824034691,4.196345329284668,0.14540919661521912
-0.2167574018239975,3.5068411827087402,0.12124063819646835
-0.24324902892112732,3.5364134311676025,0.12219610065221786
-0.46109044551849365,6.088325500488281,0.2101319432258606
-0.12352591753005981,1.494017481803894,0.05150746554136276
-0.34939366579055786,3.6099114418029785,0.12419351190328598
-0.36964714527130127,3.560804605484009,0.12238478660583496
-0.3886837661266327,3.507727861404419,0.12040240317583084
-0.4050806164741516,3.4390640258789062,0.11785907298326492
-0.423397034406662,3.389659881591797,0.11598419398069382
-0.4468424320220947,3.3866584300994873,0.11570767313241959
-0.8590220212936401,6.179203033447266,0.2108081728219986
-0.47978782653808594,3.283559799194336,0.11186187714338303
-0.49818143248558044,3.253187417984009,0.11058256030082703
-0.5221245288848877,3.2573516368865967,0.11047226935625076
-0.5418757200241089,3.2383041381835938,0.10958509147167206
-0.5603581666946411,3.2113935947418213,0.10843654721975327
-0.5812839865684509,3.1997487545013428,0.10781098157167435
-0.5976015329360962,3.16497540473938,0.10638701915740967
-0.6154712438583374,3.1416738033294678,0.10531136393547058
-0.6326871514320374,3.1143670082092285,0.10410477221012115
-0.6460749506950378,3.071746349334717,0.10240042954683304
-0.6723597049713135,3.090092182159424,0.10273249447345734
-0.6972170472145081,3.100602149963379,0.10280556231737137
-0.7200740575790405,3.1034066677093506,0.10254838317632675
-0.7397165894508362,3.0907726287841797,0.10176808387041092
-0.6924946904182434,2.8089616298675537,0.09216832369565964
-0.7024132013320923,2.766249656677246,0.09044689685106277
-0.7196688055992126,2.753756046295166,0.08972315490245819
-0.7315288782119751,2.722355604171753,0.08836003392934799
-0.7565722465515137,2.739830732345581,0.08854907006025314
-0.7869159579277039,2.7759552001953125,0.08934224396944046
-0.8376479148864746,2.879206895828247,0.09227526932954788
-0.9346109628677368,3.131509304046631,0.09993789345026016
-0.9607440233230591,3.1399471759796143,0.09976844489574432
-0.9822620153427124,3.133305072784424,0.09905276447534561
-1.0117267370224,3.1526544094085693,0.09916765987873077
-1.035684585571289,3.153108596801758,0.09868098795413971
-1.0800215005874634,3.212458372116089,0.1000206246972084
-1.1061065196990967,3.2159833908081055,0.09961030632257462
-1.1303794384002686,3.2158362865448,0.09902399033308029
-1.168258786201477,3.252126455307007,0.09954527020454407
-1.195842981338501,3.2587528228759766,0.09915468096733093
-1.499457597732544,3.9999074935913086,0.12096691131591797
-1.52436363697052,3.9821536540985107,0.11968787759542465
-1.5567213296890259,3.986422300338745,0.11898867040872574
-1.5896985530853271,3.990239143371582,0.11826007813215256
-2.271038055419922,5.589136600494385,0.16446836292743683
-2.3292922973632812,5.620149612426758,0.1641753613948822
-2.3557965755462646,5.57524299621582,0.16164015233516693
-2.3852717876434326,5.541497230529785,0.15937493741512299
-2.4197609424591064,5.5180487632751465,0.15739606320858002
-2.484783172607422,5.561914443969727,0.15731512010097504
-2.526615858078003,5.551670074462891,0.15568266808986664
-1.4937589168548584,3.2243542671203613,0.08959926664829254
-1.5184606313705444,3.2214624881744385,0.08867422491312027
-1.530286192893982,3.1899259090423584,0.08694446831941605
-1.538779377937317,3.151139497756958,0.08501655608415604
-1.5639574527740479,3.1474742889404297,0.08403508365154266
-1.5847622156143188,3.137082576751709,0.08282221108675003
-1.6269038915634155,3.168240785598755,0.08269745111465454
-1.6523455381393433,3.1638944149017334,0.08159489929676056
-1.7296291589736938,3.2556357383728027,0.08291522413492203
-1.7936747074127197,3.323262929916382,0.08354190737009048
-1.1677417755126953,2.130016326904297,0.05283920839428902
-1.186086654663086,2.128824234008789,0.05207086354494095
-1.9205704927444458,3.3915393352508545,0.08175703883171082
-1.9353150129318237,3.3651764392852783,0.07985641062259674
-1.957169771194458,3.3525495529174805,0.0783080905675888
-1.9762773513793945,3.3322811126708984,0.07651146501302719
-1.2656463384628296,2.1008846759796143,0.047386907041072845
-1.2711114883422852,2.079317808151245,0.046032242476940155
-2.510333776473999,4.045303821563721,0.08780071884393692
-2.540468215942383,4.031112194061279,0.08566939830780029
-2.5523576736450195,3.9912269115448,0.08297642320394516
-2.552417755126953,3.9354875087738037,0.07996620982885361
-2.5062780380249023,3.807053804397583,0.07543329894542694
-2.456432342529297,3.6761245727539062,0.07089050114154816
-2.420599937438965,3.5731735229492188,0.06700120866298676
-2.433605194091797,3.5406997203826904,0.06437326967716217
-2.444045305252075,3.5050125122070312,0.06164110079407692
-2.484057664871216,3.5151429176330566,0.05970190092921257
-2.628951072692871,3.6661479473114014,0.05981583148241043
-2.7193243503570557,3.740652322769165,0.058480821549892426
-2.7614529132843018,3.7485883235931396,0.05595213174819946
-2.911341667175293,4.074019908905029,-0.06811261922121048
-2.450385570526123,3.481504201889038,-0.0608828142285347
-2.4278564453125,3.5067038536071777,-0.06400521844625473
-2.7753961086273193,4.068729877471924,-0.07703639566898346
-2.7646725177764893,4.118369102478027,-0.08075220137834549
-2.7599828243255615,4.177741050720215,-0.08463167399168015
-2.7259743213653564,4.190633296966553,-0.08748940378427505
-2.7300984859466553,4.266923904418945,-0.09164179116487503
-2.1016666889190674,3.338123321533203,-0.07361596822738647
-2.074228525161743,3.3460068702697754,-0.07561685889959335
-1.2604434490203857,2.0674798488616943,-0.04782663285732269
-2.0241167545318604,3.3764588832855225,-0.07989144325256348
-2.0065157413482666,3.4005117416381836,-0.08212810754776001
-1.9797226190567017,3.411616086959839,-0.08404230326414108
-1.9389115571975708,3.399003028869629,-0.0853533074259758
-1.2002605199813843,2.138740062713623,-0.05466562882065773
-1.1735526323318481,2.1267571449279785,-0.055312879383563995
-1.9006409645080566,3.5050485134124756,-0.0926629900932312
-1.7558754682540894,3.2946362495422363,-0.08848294615745544
-1.6603684425354004,3.1683900356292725,-0.08636906743049622
-1.5982952117919922,3.1037814617156982,-0.08583332598209381
-1.5786521434783936,3.1225287914276123,-0.08758412301540375
-1.552897572517395,3.126657009124756,-0.08887558430433273
-1.5345159769058228,3.1443703174591064,-0.09053117781877518
-1.5186970233917236,3.1693289279937744,-0.09237159788608551
-1.4989464282989502,3.1873083114624023,-0.09400375187397003
-2.2290754318237305,4.8286848068237305,-0.14405281841754913
-2.2076597213745117,4.872766017913818,-0.1470140665769577
-2.1759939193725586,4.895474433898926,-0.1492643803358078
-2.1435763835906982,4.918214321136475,-0.15149088203907013
-2.114534854888916,4.947699069976807,-0.15391720831394196
-2.102726697921753,5.016235828399658,-0.15754638612270355
-1.594934344291687,3.8825857639312744,-0.12309359014034271
-1.558197259902954,3.8721871376037598,-0.12384764850139618
-1.5417643785476685,3.912306308746338,-0.12622475624084473
-1.518731951713562,3.9338178634643555,-0.12798312306404114
-1.4996484518051147,3.966142177581787,-0.130107119679451
-1.468007206916809,3.969592809677124,-0.13122431933879852
-1.4474490880966187,4.002011299133301,-0.13328750431537628
-1.424385666847229,4.026803016662598,-0.1350957304239273
-1.3989169597625732,4.043941497802734,-0.13664452731609344
-1.3754451274871826,4.068429946899414,-0.13842171430587769
-1.3458123207092285,4.078286170959473,-0.13967473804950714
-1.3190116882324219,4.095194339752197,-0.14116248488426208
-0.973053514957428,3.0949580669403076,-0.10735706984996796
-0.9606002569198608,3.131498336791992,-0.10930700600147247
-0.9272063374519348,3.1007909774780273,-0.10885372757911682
-0.8002306222915649,2.7474725246429443,-0.0969797819852829
-0.7729002833366394,2.7268660068511963,-0.09678683429956436
-0.755969226360321,2.7396838665008545,-0.0977618396282196
-0.7348479628562927,2.7373156547546387,-0.09819970279932022
-0.7134478092193604,2.734879732131958,-0.09857158362865448
-0.7026486992835999,2.7739100456237793,-0.10043950378894806
-1.2778589725494385,5.201362609863281,-0.18921609222888947
-1.2569769620895386,5.274652481079102,-0.19275593757629395
-1.2237612009048462,5.298440933227539,-0.19450828433036804
-1.1964515447616577,5.352646827697754,-0.19724731147289276
-1.1659519672393799,5.3952836990356445,-0.19957883656024933
-1.1352254152297974,5.441675662994385,-0.20207926630973816
-1.1020216941833496,5.472352027893066,-0.2039906233549118
-1.0862540006637573,5.59480619430542,-0.20935362577438354
-1.1572017669677734,6.193216800689697,-0.232445627450943
-1.0893528461456299,6.06671142578125,-0.22838756442070007
-1.0082412958145142,5.8550238609313965,-0.22110217809677124
-0.9401196837425232,5.696255207061768,-0.21576419472694397
-0.943717360496521,5.976376533508301,-0.22707310318946838
