X,Y,Z
0.9719131588935852,2.8748676776885986,-0.05191313102841377
0.98296719789505,2.8422017097473145,-0.05099692568182945
1.00003182888031,2.8279666900634766,-0.05041230842471123
1.0111644268035889,2.799109697341919,-0.04954558610916138
1.0219528675079346,2.770232677459717,-0.04868630692362785
1.038639783859253,2.7556817531585693,-0.04807109758257866
1.0549509525299072,2.741118907928467,-0.04746405407786369
1.0608521699905396,2.701117992401123,-0.046413104981184006
1.0760889053344727,2.6866793632507324,-0.04579640179872513
1.091221570968628,2.6721413135528564,-0.045181211084127426
1.1071017980575562,2.657149314880371,-0.044544193893671036
1.1072216033935547,2.6062586307525635,-0.04332151636481285
1.1402360200881958,2.634608030319214,-0.04339355230331421
1.1484023332595825,2.6054770946502686,-0.04251554235816002
1.1630371809005737,2.590425491333008,-0.041864216327667236
1.1731889247894287,2.564392328262329,-0.04102892056107521
1.1906325817108154,2.5563485622406006,-0.040482256561517715
1.1875526905059814,2.506019353866577,-0.03926405310630798
1.1942654848098755,2.476844072341919,-0.038383848965168
1.2149007320404053,2.475501537322998,-0.03792645409703255
1.225222110748291,2.4529666900634766,-0.03713514655828476
1.2290992736816406,2.4204094409942627,-0.03619632124900818
1.241655945777893,2.405212640762329,-0.0355217307806015
1.2619702816009521,2.403451919555664,-0.03502914682030678
1.260064959526062,2.3602731227874756,-0.03393802046775818
1.2644033432006836,2.331334114074707,-0.0330539345741272
1.2782790660858154,2.3193047046661377,-0.03240242227911949
1.279078483581543,2.283121109008789,-0.031409427523612976
1.3023345470428467,2.2879390716552734,-0.030980007722973824
1.3094589710235596,2.265850067138672,-0.030179493129253387
1.3246593475341797,2.2570056915283203,-0.029545990750193596
1.3205671310424805,2.2140510082244873,-0.028448928147554398
1.339271903038025,2.21193265914917,-0.02788502350449562
1.3536219596862793,2.203188419342041,-0.027233388274908066
1.3646647930145264,2.187171220779419,-0.026461096480488777
1.3753560781478882,2.1712305545806885,-0.02568972483277321
1.393778681755066,2.1687510013580322,-0.025065211579203606
1.4169243574142456,2.172386646270752,-0.024488892406225204
1.4103518724441528,2.129973888397217,-0.02338097058236599
1.4217675924301147,2.11767578125,-0.022611770778894424
1.4424800872802734,2.117823362350464,-0.021945934742689133
2.092527151107788,3.0266332626342773,-0.03034871071577072
2.11606764793396,3.019777774810791,-0.0292837955057621
2.1228208541870117,2.9863369464874268,-0.02789750136435032
2.1517224311828613,2.9848742485046387,-0.02678034082055092
2.1935620307922363,3.0027856826782227,-0.02580144628882408
2.556222677230835,3.4488418102264404,-0.028185326606035233
2.13199782371521,2.979839563369751,0.022252393886446953
2.1182913780212402,3.008718252182007,0.023552734404802322
2.1007044315338135,3.0305254459381104,0.024737665429711342
2.0922088623046875,3.064807415008545,0.025980813428759575
3.1160783767700195,4.640554428100586,0.0407608263194561
3.146012544631958,4.756719589233398,0.0431024506688118
3.123624324798584,4.79942512512207,0.04481232166290283
3.099944591522217,4.84259033203125,0.04650023207068443
1.6351286172866821,2.593945026397705,0.02553868293762207
1.6205049753189087,2.6122961044311523,0.026342317461967468
1.5804847478866577,2.5910472869873047,0.02673327550292015
1.5980640649795532,2.662581443786621,0.028060320764780045
1.5713225603103638,2.6603124141693115,0.028600573539733887
1.5318653583526611,2.6381468772888184,0.028897592797875404
1.5011247396469116,2.6287972927093506,0.029310641810297966
1.4827808141708374,2.6391806602478027,0.02992217242717743
1.46331787109375,2.650014877319336,0.030535193160176277
1.4436650276184082,2.6607654094696045,0.031133338809013367
1.4469187259674072,2.712233304977417,0.03219443932175636
1.4062312841415405,2.6807241439819336,0.03226608783006668
2.4583888053894043,4.770706653594971,0.058189526200294495
2.3944246768951416,4.733182430267334,0.05850137397646904
1.1945422887802124,2.402881622314453,0.0300633292645216
1.20176100730896,2.4602813720703125,0.031152060255408287
1.1770862340927124,2.454859972000122,0.03142993897199631
1.1907047033309937,2.530545234680176,0.032752443104982376
1.179487705230713,2.5530083179473877,0.03338451683521271
1.1695109605789185,2.579047203063965,0.03407147526741028
1.1605546474456787,2.608755350112915,0.03479142114520073
1.144749641418457,2.624248743057251,0.03531906008720398
1.1061094999313354,2.585622787475586,0.03510916978120804
1.095658779144287,2.611255168914795,0.035763587802648544
1.0769602060317993,2.6190168857574463,0.036173198372125626
1.9992529153823853,4.963611602783203,0.06907820701599121
1.9662251472473145,4.985175609588623,0.06990262120962143
2.0398361682891846,5.279287338256836,0.0745631754398346
2.2988674640655518,6.07511043548584,0.08642062544822693
2.234396457672119,6.0366716384887695,0.08645293116569519
2.1775574684143066,6.015873432159424,0.08670387417078018
1.9848021268844604,5.607775688171387,0.08132925629615784
1.8652421236038208,5.388906955718994,0.07863279432058334
1.9090169668197632,5.6422529220581055,0.08283193409442902
1.856806755065918,5.622631549835205,0.08299706876277924
1.8967087268829346,5.884870529174805,0.08733267337083817
1.8773317337036133,5.968912124633789,0.08904660493135452
1.8529086112976074,6.037840843200684,0.09054239839315414
1.8264491558074951,6.102987766265869,0.09199133515357971
1.799173355102539,6.172124862670898,0.09344411641359329
1.7670248746871948,6.230129241943359,0.09474721550941467
1.7324118614196777,6.276308059692383,0.0958675742149353
1.7079297304153442,6.35987663269043,0.09756544232368469
1.6774332523345947,6.424509525299072,0.09898581355810165
1.6297420263290405,6.428706169128418,0.0993928462266922
1.5775820016860962,6.417566299438477,0.0995718464255333
1.5286492109298706,6.413329601287842,0.0998520627617836
1.4708276987075806,6.366714000701904,0.09946852177381516
1.4162869453430176,6.331040382385254,0.09925520420074463
1.36078941822052,6.291253566741943,0.09891493618488312
1.3153432607650757,6.300905227661133,0.09934689849615097
1.250005841255188,6.206647872924805,0.0981348380446434
1.20828115940094,6.222856044769287,0.09866597503423691
1.160649061203003,6.208070278167725,0.09870976954698563
1.108139157295227,6.166070461273193,0.09828059375286102
1.0571578741073608,6.135380744934082,0.0980030745267868
1.006788969039917,6.100301265716553,0.09765397757291794
0.9654024839401245,6.1148905754089355,0.09810102730989456
0.9158259630203247,6.0751118659973145,0.09767865389585495
0.871145486831665,6.065891742706299,0.0977340117096901
0.818672239780426,6.006187915802002,0.09690547734498978
0.7742847800254822,5.9963154792785645,0.09688185155391693
0.7280551791191101,5.966689586639404,0.09654156118631363
0.46392518281936646,4.035394191741943,0.06538913398981094
0.4358348250389099,4.038521766662598,0.06553900241851807
0.40993309020996094,4.064785480499268,0.06602891534566879
0.38711288571357727,4.133713722229004,0.0672033280134201
0.3580891191959381,4.136326789855957,0.06730297207832336
0.32468000054359436,4.080313205718994,0.06645053625106812
0.2917843461036682,4.020142555236816,0.06553182750940323
0.2637973725795746,4.022074222564697,0.06561610847711563
0.2365434765815735,4.047243118286133,0.06604443490505219
0.20825406908988953,4.048796653747559,0.06609044969081879
0.1807267814874649,4.065756797790527,0.06639119982719421
0.29059457778930664,7.751333713531494,0.12662586569786072
0.23569053411483765,7.721936225891113,0.12620310485363007
0.18059413135051727,7.70779275894165,0.12596732378005981
0.12619295716285706,7.66590690612793,0.12525427341461182
0.07256949692964554,7.643167495727539,0.12486036866903305
0.019303344190120697,7.604429721832275,0.12421134114265442
-0.033364102244377136,7.569229602813721,0.12362624704837799
-0.08688724040985107,7.568804740905762,0.12360085546970367
-0.13895966112613678,7.544591426849365,0.12310345470905304
-0.1908983737230301,7.527829647064209,0.12273406982421875
-0.24205340445041656,7.491190433502197,0.12204701453447342
-0.29324087500572205,7.465910911560059,0.12155149132013321
-0.3450985550880432,7.463695049285889,0.12143771350383759
-0.2892264425754547,5.425174236297607,0.08818066865205765
-0.326810747385025,5.423042297363281,0.0880339965224266
-0.3632792830467224,5.405065536499023,0.08763480931520462
-0.39037251472473145,5.262196063995361,0.08521758019924164
-0.4044420123100281,4.982964038848877,0.0806039422750473
-0.4396311342716217,4.979984760284424,0.08046583086252213
-0.4398539364337921,4.619132041931152,0.07449904829263687
-0.46927231550216675,4.592682838439941,0.07394041121006012
-0.5018256306648254,4.597101211547852,0.0738823264837265
-0.5301747918128967,4.562466144561768,0.07319990545511246
-0.5595877170562744,4.535343647003174,0.07264088839292526
-0.5919605493545532,4.5391130447387695,0.07255204021930695
-0.619452178478241,4.5078511238098145,0.07187457382678986
-0.6482170224189758,4.4880242347717285,0.0713844895362854
-0.6792908310890198,4.483429908752441,0.07113951444625854
-0.7072529196739197,4.455381393432617,0.07052347809076309
-0.7381801605224609,4.4503655433654785,0.07027872651815414
-0.7686462998390198,4.445209980010986,0.06998845189809799
-0.7935006022453308,4.40910005569458,0.0692158192396164
-0.8144288063049316,4.353641510009766,0.06814555823802948
-0.8505962491035461,4.37855863571167,0.0683353841304779
-0.736392080783844,3.6526377201080322,0.05683848261833191
-0.7670658826828003,3.6742584705352783,0.056985724717378616
-0.7921583652496338,3.6689345836639404,0.05669855698943138
-0.9693918228149414,4.3458170890808105,0.06691928207874298
-0.9854406118392944,4.27810525894165,0.0656396672129631
-1.0192514657974243,4.286242485046387,0.06552485376596451
-1.0488673448562622,4.279096603393555,0.065170519053936
-1.0731710195541382,4.252933979034424,0.06449873745441437
-1.102074146270752,4.245541572570801,0.06411582231521606
-1.136345624923706,4.256719589233398,0.0640115886926651
-1.1664215326309204,4.24858283996582,0.06361169368028641
-1.1778490543365479,4.176486492156982,0.06226402148604393
-1.2083327770233154,4.17590856552124,0.06194078549742699
-1.234418511390686,4.160130500793457,0.061394933611154556
-1.2606006860733032,4.144114017486572,0.0608467198908329
-1.2945436239242554,4.1500115394592285,0.06061224639415741
-1.320951223373413,4.133488178253174,0.060058653354644775
-1.3488789796829224,4.1244659423828125,0.05958375707268715
-1.3816900253295898,4.130075454711914,0.0593191497027874
-1.3997128009796143,4.090997219085693,0.058413635939359665
-1.4280725717544556,4.081191062927246,0.05792530998587608
-1.4463224411010742,4.041593551635742,0.05701354518532753
-1.4734768867492676,4.03178071975708,0.05649750307202339
-1.5032292604446411,4.029128074645996,0.056082773953676224
-1.5265605449676514,4.00781774520874,0.05540427938103676
-1.5543794631958008,3.9971179962158203,0.05486968904733658
-1.5767203569412231,3.971560001373291,0.05412421375513077
-1.603344440460205,3.9608945846557617,0.05356568470597267
-1.6239055395126343,3.9356205463409424,0.052813995629549026
-1.6479160785675049,3.917161464691162,0.052147749811410904
-1.6719673871994019,3.898465156555176,0.051478974521160126
-1.7020848989486694,3.8939452171325684,0.050980404019355774
-1.7216273546218872,3.8682568073272705,0.05020250007510185
-1.7378557920455933,3.8352859020233154,0.0493333637714386
-1.7678053379058838,3.8301870822906494,0.048809513449668884
-1.7977389097213745,3.8248703479766846,0.048284053802490234
-1.8168857097625732,3.798509120941162,0.047455694526433945
-1.5447560548782349,3.1752030849456787,0.03926027938723564
-1.5596544742584229,3.150493860244751,0.03853395953774452
-1.5815436840057373,3.1395695209503174,0.0379754900932312
-1.5919108390808105,3.1080238819122314,0.03716107830405235
-1.6304649114608765,3.13208270072937,0.03700528293848038
-1.6484193801879883,3.1138408184051514,0.03632742539048195
-1.6625829935073853,3.088576078414917,0.035570595413446426
-1.6945141553878784,3.0979199409484863,0.03520860895514488
-1.7034176588058472,3.0662572383880615,0.03437827154994011
-0.8217684030532837,1.455885887145996,0.016091128811240196
-0.8106600046157837,1.4127737283706665,0.015378853306174278
-0.7630053162574768,1.3094826936721802,0.014031115919351578
-0.7635764479637146,1.2910327911376953,0.013609111309051514
-0.8388312458992004,1.3962409496307373,0.014460660517215729
-0.8871739506721497,1.4537327289581299,0.014783044345676899
-0.8761932253837585,1.4146342277526855,0.014112121425569057
-0.90632563829422,1.4418771266937256,0.014103149995207787
-0.8805762529373169,1.3795865774154663,0.013210682198405266
-1.356492519378662,1.97791588306427,0.01671401597559452
-1.3411141633987427,1.926824688911438,0.01578904315829277
-1.4618655443191528,2.0711581707000732,0.01643545739352703
-1.692277193069458,2.2999210357666016,0.016271017491817474
-1.2641981840133667,1.7947434186935425,-0.009798725135624409
-1.2770283222198486,1.8429573774337769,-0.010547500103712082
-1.3179863691329956,1.9615968465805054,-0.012144327163696289
-1.165470838546753,1.7628123760223389,-0.011306189000606537
-0.9037777781486511,1.4342833757400513,-0.01006319373846054
-0.8896548748016357,1.4338982105255127,-0.010319264605641365
-0.8791147470474243,1.4403822422027588,-0.010613027028739452
-0.844137966632843,1.406758427619934,-0.010603319853544235
-0.8124987483024597,1.3755868673324585,-0.010581890121102333
-0.7653483748435974,1.317192792892456,-0.010337025858461857
-0.788506031036377,1.3804851770401,-0.0110477888956666
-1.2857446670532227,2.2884790897369385,-0.01865146867930889
-1.6417213678359985,2.971024513244629,-0.024648992344737053
-1.6702790260314941,3.075629234313965,-0.02594129741191864
-1.662437081336975,3.115335464477539,-0.026701243594288826
-1.6370567083358765,3.1199231147766113,-0.027144132182002068
-1.6186503171920776,3.138300657272339,-0.027704736217856407
-1.591664433479309,3.1433143615722656,-0.02813444286584854
-1.5723419189453125,3.1617472171783447,-0.02867443859577179
-1.5503286123275757,3.1725950241088867,-0.029132910072803497
-1.528044581413269,3.1833834648132324,-0.029587319120764732
-1.5015180110931396,3.187343120574951,-0.029962362721562386
-1.4882932901382446,3.219374179840088,-0.03060194104909897
-1.4686853885650635,3.236942768096924,-0.03110199049115181
-1.4397183656692505,3.232830047607422,-0.03138718008995056
-1.4162379503250122,3.243180990219116,-0.031792234629392624
-1.3957825899124146,3.2605323791503906,-0.03226792812347412
-1.379008412361145,3.2846105098724365,-0.032803066074848175
-1.3557132482528687,3.294290065765381,-0.03320125862956047
-1.3336033821105957,3.3075103759765625,-0.03360443562269211
-1.305415153503418,3.306137800216675,-0.03385073319077492
-1.286191701889038,3.3262269496917725,-0.0343138724565506
-1.2630534172058105,3.335078716278076,-0.03465866670012474
-1.2378867864608765,3.340332269668579,-0.03496720269322395
-1.2205129861831665,3.367497205734253,-0.0354875847697258
-1.1963170766830444,3.3761651515960693,-0.03581588715314865
-1.1702284812927246,3.377025842666626,-0.0360555574297905
-1.1492549180984497,3.3924670219421387,-0.03645209223031998
-1.1322453022003174,3.422872543334961,-0.037000756710767746
-1.1077946424484253,3.430860757827759,-0.03729424253106117
-1.0786800384521484,3.4237444400787354,-0.037423793226480484
-1.0616647005081177,3.4535818099975586,-0.037955597043037415
-1.0375847816467285,3.4608895778656006,-0.03824271634221077
-1.0130059719085693,3.468160629272461,-0.038505684584379196
-0.9899163246154785,3.482940673828125,-0.03884951397776604
-0.9694170951843262,3.5049126148223877,-0.039271946996450424
-0.9429652690887451,3.5040292739868164,-0.03943776711821556
-0.9225359559059143,3.5256130695343018,-0.03985852375626564
-0.900440514087677,3.543409824371338,-0.040213849395513535
-0.8785430192947388,3.5649938583374023,-0.040612950921058655
-0.8497234582901001,3.555907726287842,-0.04066111892461777
-0.8303003311157227,3.5845513343811035,-0.04114053398370743
-0.8053902983665466,3.5902280807495117,-0.041359301656484604
-0.7834042906761169,3.6110761165618896,-0.04172598198056221
-0.7558081150054932,3.6089694499969482,-0.041824229061603546
-0.7350274324417114,3.63716983795166,-0.04227369651198387
-0.7096700072288513,3.642200469970703,-0.04245544224977493
-0.6871594190597534,3.662410020828247,-0.04281671717762947
-0.6599935293197632,3.6594631671905518,-0.04288926348090172
-0.6382918953895569,3.6910598278045654,-0.043360259383916855
-0.6134899258613586,3.7031798362731934,-0.04360366240143776
-0.5877348780632019,3.707352638244629,-0.043754249811172485
-0.564324676990509,3.7267892360687256,-0.044087380170822144
-0.5393962860107422,3.738370418548584,-0.044311460107564926
-0.5137124061584473,3.7498700618743896,-0.044512879103422165
-0.48737457394599915,3.753382921218872,-0.04462065175175667
-0.46309101581573486,3.7721967697143555,-0.04491235315799713
-0.43774107098579407,3.783085346221924,-0.04511210694909096
-0.411387175321579,3.7860405445098877,-0.04521534591913223
-0.38757506012916565,3.8160347938537598,-0.04561646655201912
-0.3617570102214813,3.834261417388916,-0.0458805188536644
-0.3370272219181061,3.860038995742798,-0.04623657837510109
-0.3101882338523865,3.8622875213623047,-0.04631313309073448
-0.28508442640304565,3.8877198696136475,-0.04667016491293907
-0.2584965229034424,3.8974063396453857,-0.0468074306845665
-0.2303185611963272,3.8913471698760986,-0.04674895852804184
-0.20438052713871002,3.9162631034851074,-0.04706471785902977
-0.1774744987487793,3.925394058227539,-0.047193143516778946
-0.15015274286270142,3.9265334606170654,-0.04722781851887703
-0.12462098896503448,3.9860451221466064,-0.04795228689908981
-0.09686901420354843,4.01025915145874,-0.04823172464966774
-0.06846995651721954,3.987405300140381,-0.04794764518737793
-0.04106578230857849,4.019031047821045,-0.04832102730870247
-0.013135509565472603,4.011407375335693,-0.048224806785583496
0.014758565463125706,4.0231194496154785,-0.04836336895823479
0.043175213038921356,4.022915363311768,-0.048327893018722534
0.07164798676967621,4.053761959075928,-0.048667728900909424
0.09962791949510574,4.0453572273254395,-0.0485384501516819
0.12929798662662506,4.091413497924805,-0.04906465858221054
0.15852190554141998,4.109930038452148,-0.04926260560750961
0.18710508942604065,4.108729362487793,-0.04919906705617905
0.2159355729818344,4.1034040451049805,-0.049067042768001556
0.24253402650356293,4.070616245269775,-0.048610832542181015
0.27291491627693176,4.100010871887207,-0.04889938607811928
0.30023956298828125,4.082435607910156,-0.04862995445728302
0.3241705596446991,4.025748252868652,-0.04789169877767563
0.351089745759964,4.00780725479126,-0.04758594557642937
0.37622153759002686,3.978064775466919,-0.04714479297399521
0.40139055252075195,3.952049732208252,-0.04675106704235077
0.423339307308197,3.8986878395080566,-0.046037428081035614
0.44411808252334595,3.841334342956543,-0.0452810563147068
0.4682340919971466,3.8148601055145264,-0.04485972598195076
0.4869347810745239,3.7534468173980713,-0.04402585327625275
0.510668158531189,3.734524965286255,-0.043694499880075455
0.5327714085578918,3.7038161754608154,-0.0432274155318737
0.5538886785507202,3.6691195964813232,-0.04271755740046501
0.5736286640167236,3.62654709815979,-0.04210345819592476
0.5940836668014526,3.5955445766448975,-0.041612621396780014
0.6082032322883606,3.5297844409942627,-0.04072451591491699
0.6312958002090454,3.5177931785583496,-0.04046018794178963
0.6478656530380249,3.4710824489593506,-0.03979992866516113
0.6674750447273254,3.443497657775879,-0.03935897722840309
0.6852943897247314,3.408130407333374,-0.03880878910422325
0.703053891658783,3.37658953666687,-0.03830890357494354
0.7197723388671875,3.34110951423645,-0.03776741400361061
0.7396101951599121,3.3207712173461914,-0.03739972040057182
0.756572961807251,3.2888994216918945,-0.0369056798517704
0.7704369425773621,3.245549440383911,-0.03625874221324921
0.7888851761817932,3.225034713745117,-0.03587277606129646
0.8072027564048767,3.2043912410736084,-0.03548773005604744
0.822614848613739,3.1722333431243896,-0.03497688099741936
0.8325850963592529,3.1211464405059814,-0.034262508153915405
0.8501172065734863,3.1002213954925537,-0.03386124595999718
0.8669710755348206,3.079324722290039,-0.03346221148967743
0.8847703337669373,3.0620648860931396,-0.033104848116636276
0.8971655368804932,3.0258798599243164,-0.03254397213459015
0.9113993048667908,2.997138023376465,-0.032067447900772095
0.9251892566680908,2.9683732986450195,-0.03157511353492737
0.9417611956596375,2.950861930847168,-0.031204888597130775
0.9497712254524231,2.907231569290161,-0.0305617842823267
0.9675033092498779,2.8931453227996826,-0.030230138450860977
0.9825319051742554,2.871570110321045,-0.02982333116233349
0.9942514300346375,2.842719554901123,-0.029326165094971657
1.0098332166671753,2.8247828483581543,-0.028939666226506233
1.018423318862915,2.7884557247161865,-0.028369950130581856
1.0377817153930664,2.7813119888305664,-0.028097501024603844
1.0486741065979004,2.7521603107452393,-0.02760424092411995
1.0671584606170654,2.7450485229492188,-0.02732389234006405
1.075839638710022,2.7122671604156494,-0.02678755298256874
1.0857367515563965,2.6830570697784424,-0.026289712637662888
1.1014128923416138,2.668213129043579,-0.025934236124157906
1.1044676303863525,2.6246252059936523,-0.025297900661826134
1.128206491470337,2.6315197944641113,-0.025143949314951897
1.152511477470398,2.638028383255005,-0.02497974783182144
1.1438004970550537,2.56929874420166,-0.024105805903673172
1.1761316061019897,2.5933144092559814,-0.024105574935674667
1.181939721107483,2.560590982437134,-0.023566508665680885
1.1757211685180664,2.5031661987304688,-0.02280823327600956
1.1932302713394165,2.494870185852051,-0.02249130979180336
1.1985663175582886,2.4619383811950684,-0.02195778302848339
1.2116219997406006,2.4468276500701904,-0.021577635779976845
1.2243032455444336,2.4317667484283447,-0.021196339279413223
1.230157494544983,2.402512550354004,-0.020688356831669807
1.235986351966858,2.3731279373168945,-0.02017972059547901
1.2522398233413696,2.3645944595336914,-0.019844654947519302
1.2752017974853516,2.370051383972168,-0.01962945982813835
1.2800225019454956,2.3407764434814453,-0.019120393320918083
1.2886542081832886,2.3181779384613037,-0.018664691597223282
1.3156546354293823,2.3299179077148438,-0.01848122663795948
1.3350435495376587,2.3278753757476807,-0.018179066479206085
1.3430733680725098,2.3051891326904297,-0.017709847539663315
1.3968651294708252,2.3596701622009277,-0.01782320812344551
1.3820774555206299,2.3002705574035645,-0.01707274466753006
1.4012089967727661,2.2978248596191406,-0.01674916036427021
1.5428730249404907,2.490441083908081,-0.01779513992369175
1.6011115312576294,2.546185255050659,-0.0178306233137846
3.079512357711792,4.82794189453125,-0.03311524540185928
3.112384080886841,4.806822299957275,-0.032233450561761856
3.1408817768096924,4.7789106369018555,-0.03129205480217934
3.1502585411071777,4.725865840911865,-0.030169161036610603
2.0330944061279297,3.0058510303497314,-0.018674379214644432
2.0778543949127197,3.027350902557373,-0.018270667642354965
2.096940040588379,3.0141661167144775,-0.017654074355959892
2.1263394355773926,3.0126473903656006,-0.017064664512872696
2.1557235717773438,3.0109336376190186,-0.016446541994810104
2.170138359069824,2.990917205810547,-0.015732092782855034
2.186208724975586,2.969499111175537,-0.014954717829823494
2.1207101345062256,2.9879491329193115,0.010181819088757038
2.1121909618377686,3.022613048553467,0.010831755585968494
2.108225107192993,3.063389539718628,0.011481629684567451
3.1132028102874756,4.600238800048828,0.01798928715288639
3.1222078800201416,4.683592796325684,0.018988817930221558
3.145639181137085,4.794538974761963,0.020113419741392136
3.118027687072754,4.831145286560059,0.02092684805393219
1.628096580505371,2.5615122318267822,0.011417032219469547
1.6173385381698608,2.5867631435394287,0.011844892986118793
1.589752435684204,2.5854811668395996,0.012137294746935368
1.6000299453735352,2.643270254135132,0.012690439820289612
1.577089786529541,2.647930383682251,0.012993277981877327
1.549407720565796,2.6461305618286133,0.013262762688100338
1.5107238292694092,2.623422145843506,0.013415172696113586
1.488572120666504,2.627077341079712,0.013688895851373672
1.476782202720642,2.651620388031006,0.014067613519728184
1.4572454690933228,2.662405490875244,0.01437339372932911
1.438713788986206,2.6724634170532227,0.014662309549748898
1.4268345832824707,2.6965129375457764,0.015028376132249832
2.4788806438446045,4.769176959991455,0.026951296254992485
2.4337143898010254,4.766078948974609,0.027297237887978554
1.210783839225769,2.4123823642730713,0.013993063941597939
1.2110159397125244,2.4558942317962646,0.014422394335269928
1.1859477758407593,2.450749635696411,0.014566371217370033
1.1582118272781372,2.4380550384521484,0.014658616855740547
1.1923997402191162,2.555798053741455,0.015536182560026646
1.1776810884475708,2.5712077617645264,0.015797847881913185
1.1637545824050903,2.5903918743133545,0.01607355661690235
1.1606552600860596,2.6345221996307373,0.01650756597518921
1.141975998878479,2.6426713466644287,0.01671505533158779
1.1144397258758545,2.628962516784668,0.01678096503019333
1.1045094728469849,2.658545970916748,0.017106855288147926
1.0823007822036743,2.6592304706573486,0.017245672643184662
1.0808452367782593,2.710350751876831,0.01771111786365509
1.0772547721862793,2.7579598426818848,0.018158936873078346
1.046623945236206,2.7362964153289795,0.018144039437174797
1.0460411310195923,2.79498553276062,0.018653104081749916
1.0232049226760864,2.795107126235962,0.018774008378386497
1.018194556236267,2.842618227005005,0.019211648032069206
1.0083619356155396,2.87925124168396,0.0195816308259964
0.9688991904258728,2.830909252166748,0.019366366788744926
0.9720842242240906,2.9081778526306152,0.020009569823741913
0.9719640612602234,2.978149652481079,0.020607871934771538
0.9535753726959229,2.9922876358032227,0.020821066573262215
0.9462989568710327,3.0437183380126953,0.021298671141266823
0.9155551791191101,3.0204670429229736,0.021234354004263878
0.8961696028709412,3.03442120552063,0.021428588777780533
0.8768188953399658,3.0481982231140137,0.021622298285365105
0.8618826270103455,3.0768001079559326,0.021921616047620773
0.841452956199646,3.0864977836608887,0.02208813652396202
0.8251374959945679,3.115150213241577,0.022375216707587242
0.8106959462165833,3.1512157917022705,0.022713856771588326
0.794089674949646,3.179603099822998,0.02299892157316208
0.7765489220619202,3.204031229019165,0.023256300017237663
0.7685365676879883,3.2701964378356934,0.023819776251912117
0.7467334866523743,3.283255100250244,0.023985419422388077
0.7259696125984192,3.299907922744751,0.02417304553091526
0.7139722108840942,3.358452081680298,0.024669988080859184
0.6937642693519592,3.378635883331299,0.02488650754094124
0.6785923838615417,3.4255285263061523,0.0253022238612175
0.6614294052124023,3.468656539916992,0.025681817904114723
0.6397396326065063,3.488607883453369,0.02588145062327385
0.619800329208374,3.5199718475341797,0.026167750358581543
0.5991631150245667,3.547313690185547,0.026425417512655258
0.5794556140899658,3.582244634628296,0.02674166113138199
0.5617460608482361,3.6364545822143555,0.027199655771255493
0.5395174622535706,3.6635096073150635,0.027440324425697327
0.5180190801620483,3.698167562484741,0.027739878743886948
0.49781477451324463,3.744291067123413,0.028127282857894897
0.47368323802948,3.7631683349609375,0.02831185609102249
0.45211368799209595,3.805158853530884,0.028672264888882637
0.42968320846557617,3.8509938716888428,0.02903752401471138
0.4086951017379761,3.912193536758423,0.029516413807868958
0.38656479120254517,3.9693899154663086,0.02996702492237091
0.35962602496147156,3.979764938354492,0.030065787956118584
0.33130159974098206,3.974383592605591,0.030046934261918068
0.3063579499721527,4.019476890563965,0.03040427900850773
0.28034964203834534,4.052699089050293,0.03066409006714821
0.25296086072921753,4.070155143737793,0.030806206166744232
0.22631968557834625,4.103020191192627,0.03106652945280075
0.19874805212020874,4.124001979827881,0.03123849630355835
0.16813267767429352,4.090178489685059,0.03099704720079899
0.13935449719429016,4.0834431648254395,0.030932681635022163
0.11131133884191513,4.099934101104736,0.0310447309166193
0.08178438991308212,4.053746700286865,0.030683765187859535
0.05319052189588547,4.022971153259277,0.030441179871559143
0.02473555877804756,4.0193400382995605,0.030405426397919655
-0.003202321706339717,4.019414901733398,0.030390100553631783
-0.031076716259121895,4.011484146118164,0.030304549261927605
-0.058611396700143814,3.987736701965332,0.030101172626018524
-0.08636318892240524,3.9872329235076904,0.03007480688393116
-0.11273171752691269,3.9396820068359375,0.029695311561226845
-0.14032405614852905,3.930978536605835,0.02961001545190811
-0.16706639528274536,3.9182040691375732,0.02946736291050911
-0.19231605529785156,3.8779373168945312,0.029117785394191742
-0.2209472954273224,3.9077115058898926,0.029295682907104492
-0.24512386322021484,3.8593027591705322,0.02888890728354454
-0.27124160528182983,3.8418924808502197,0.02871563471853733
-0.2972610890865326,3.8321316242218018,0.02859477698802948
-0.3236876428127289,3.8299906253814697,0.028522342443466187
-0.34831979870796204,3.8082175254821777,0.02830534614622593
-0.3758736848831177,3.8173727989196777,0.028319397941231728
-0.27239662408828735,2.579336166381836,0.019098663702607155
-0.28202202916145325,2.503629207611084,0.018504291772842407
-0.4505387842655182,3.7660133838653564,0.027762217447161674
-0.4754919707775116,3.755070447921753,0.027608687058091164
-0.49824628233909607,3.72847580909729,0.027341987937688828
-0.5246252417564392,3.72485613822937,0.027243610471487045
-0.5482339859008789,3.7056615352630615,0.027034182101488113
-0.5750390887260437,3.709503173828125,0.026984423398971558
-0.5973807573318481,3.686187505722046,0.026727890595793724
-0.6239889860153198,3.6897008419036865,0.026667427271604538
-0.6515583992004395,3.6968331336975098,0.026633242145180702
-0.6726889610290527,3.6652510166168213,0.0263202004134655
-0.699550986289978,3.668173313140869,0.02625713124871254
-0.7230910658836365,3.6556429862976074,0.02607530727982521
-0.7464591264724731,3.642969846725464,0.02589419111609459
-0.7715088725090027,3.6377480030059814,0.02576671727001667
-0.7921651601791382,3.6093156337738037,0.025474270805716515
-0.8223971128463745,3.62658429145813,0.02550717443227768
-0.8436341285705566,3.605659246444702,0.025253061205148697
-0.8681766986846924,3.599829912185669,0.025100497528910637
-0.8927436470985413,3.5938172340393066,0.024947529658675194
-0.9161725640296936,3.5798532962799072,0.02473701722919941
-0.9330626726150513,3.5431840419769287,0.024373872205615044
-0.9553131461143494,3.529158353805542,0.02416209876537323
-0.9813523292541504,3.530116558074951,0.02404845878481865
-1.0117043256759644,3.5459179878234863,0.02403617650270462
-1.082790732383728,3.696143627166748,0.024925323203206062
-1.2534376382827759,4.171117782592773,0.027985557913780212
-1.2751060724258423,4.140028476715088,0.027630433440208435
-1.3148236274719238,4.168565273284912,0.027666138485074043
-1.3213452100753784,4.092680931091309,0.027011360973119736
-1.3476954698562622,4.07585334777832,0.02674388326704502
-1.3784643411636353,4.073800563812256,0.026576947420835495
-1.40379798412323,4.056875705718994,0.02630409225821495
-1.4297997951507568,4.043643474578857,0.026043646037578583
-1.4570140838623047,4.033918857574463,0.025807132944464684
-1.4795570373535156,4.009056568145752,0.02547047659754753
-1.5023561716079712,3.983875274658203,0.025130949914455414
-1.5322906970977783,3.9808313846588135,0.024930929765105247
-1.5561232566833496,3.9631855487823486,0.024637488648295403
-1.5770426988601685,3.9380834102630615,0.02429872564971447
-1.607345461845398,3.9342548847198486,0.024087252095341682
-1.6321027278900146,3.915588140487671,0.02378307841718197
-1.6492323875427246,3.8829545974731445,0.023384660482406616
-1.6813952922821045,3.8861682415008545,0.023201631382107735
-1.7110360860824585,3.8817501068115234,0.022968988865613937
-1.7283426523208618,3.8483989238739014,0.022563494741916656
-1.751843810081482,3.829169988632202,0.022237999364733696
-1.783860445022583,3.831603765487671,0.022039523348212242
-1.8027504682540894,3.805471658706665,0.021676532924175262
-1.5339455604553223,3.180631399154663,0.017931953072547913
-1.5491629838943481,3.1558520793914795,0.017607925459742546
-1.5704268217086792,3.145326614379883,0.017346100881695747
-1.5841832160949707,3.1209094524383545,0.017012611031532288
-1.6164379119873047,3.130727767944336,0.016857964918017387
-1.6381393671035767,3.119428873062134,0.016587743535637856
-1.658799171447754,3.1084933280944824,0.016324179247021675
-1.6941202878952026,3.1249797344207764,0.016204027459025383
-1.7008436918258667,3.0856916904449463,0.015782658010721207
-1.2391679286956787,2.2116410732269287,0.011156476102769375
-0.8152098059654236,1.4327346086502075,0.00712227076292038
-0.7581310272216797,1.3123700618743896,0.006426910869777203
-0.7672119736671448,1.3070827722549438,0.006298109423369169
-0.7843626141548157,1.315090537071228,0.006230613682419062
-0.8778666257858276,1.4503066539764404,0.006757225841283798
-0.8874990344047546,1.4444327354431152,0.006613205652683973
-0.88511723279953,1.4183415174484253,0.006373322568833828
-0.867327868938446,1.3695441484451294,0.006037588231265545
-0.8953055739402771,1.3933972120285034,0.00602164538577199
-1.4140526056289673,2.0758419036865234,0.008172113448381424
-1.7680636644363403,2.557746648788452,0.009795654565095901
-1.2350534200668335,1.7627204656600952,0.0065657454542815685
-1.5414915084838867,2.2062323093414307,-0.0032282609026879072
-1.228922724723816,1.7860093116760254,-0.0027581865433603525
-0.9220179915428162,1.4505091905593872,-0.002754041226580739
-0.8739023208618164,1.3977243900299072,-0.00274054822511971
-0.8921092748641968,1.4507815837860107,-0.0029307189397513866
-0.8739028573036194,1.4435861110687256,-0.002995652612298727
-0.7935474514961243,1.3323651552200317,-0.0028358809649944305
-0.777691662311554,1.3281192779541016,-0.0028949228581041098
-0.7681043744087219,1.3336865901947021,-0.002972839865833521
-0.8030633926391602,1.4171854257583618,-0.003226140746846795
-1.2581923007965088,2.2592029571533203,-0.00524397986009717
-1.6955702304840088,3.0975334644317627,-0.007325703278183937
-1.6814095973968506,3.122999668121338,-0.007515657227486372
-1.6552046537399292,3.1281309127807617,-0.007653618231415749
-1.6358293294906616,3.147113561630249,-0.007813232950866222
-1.6061553955078125,3.1448256969451904,-0.00791753176599741
-1.5877693891525269,3.1628918647766113,-0.008070015348494053
-1.572157621383667,3.1881115436553955,-0.008238676935434341
-1.5484586954116821,3.199688673019409,-0.008370953612029552
-1.5306193828582764,3.2212395668029785,-0.008526163175702095
-1.5082355737686157,3.2317802906036377,-0.008650246076285839
-1.4886678457260132,3.2494354248046875,-0.008790960535407066
-1.460260272026062,3.2494564056396484,-0.008879171684384346
-1.4337544441223145,3.252702236175537,-0.008975246921181679
-1.4075504541397095,3.2556169033050537,-0.009069466032087803
-1.3878233432769775,3.2725625038146973,-0.009200922213494778
-1.3670752048492432,3.289745330810547,-0.009326362982392311
-1.3446778059005737,3.3031811714172363,-0.009441922418773174
-1.3172097206115723,3.3016164302825928,-0.009512205608189106
-1.298072099685669,3.3217720985412598,-0.009646476246416569
-1.2772051095962524,3.338216543197632,-0.009764425456523895
-1.2531598806381226,3.3473172187805176,-0.009858477860689163
-1.2266110181808472,3.348817825317383,-0.009929810650646687
-1.208534598350525,3.371986150741577,-0.010064559057354927
-1.184630274772644,3.380457878112793,-0.010157184675335884
-1.1628764867782593,3.39626145362854,-0.010257508605718613
-1.138479232788086,3.4045169353485107,-0.010335680097341537
-1.1145139932632446,3.4124372005462646,-0.010412284173071384
-1.0907831192016602,3.4200963973999023,-0.010487965308129787
-1.0733765363693237,3.4501521587371826,-0.01063303742557764
-1.05097234249115,3.46520733833313,-0.01072829868644476
-1.026224136352539,3.4726169109344482,-0.010800481773912907
-0.9997759461402893,3.472194194793701,-0.010847716592252254
-0.9819420576095581,3.501626968383789,-0.010988720692694187
-0.9553813338279724,3.5008692741394043,-0.011031930334866047
-0.9360570907592773,3.5303380489349365,-0.011162955313920975
-0.9119279384613037,3.5406813621520996,-0.01123370137065649
-0.8871302008628845,3.546975612640381,-0.0112916249781847
-0.8624153137207031,3.553065538406372,-0.01134925615042448
-0.8446935415267944,3.589431047439575,-0.011499771848320961
-0.8187465667724609,3.595438241958618,-0.011540844105184078
-0.7948943376541138,3.6087868213653564,-0.011605731211602688
-0.7696276903152466,3.6142594814300537,-0.011645599268376827
-0.7476024031639099,3.6348330974578857,-0.011734669096767902
-0.7192298173904419,3.6246252059936523,-0.011724462732672691
-0.6975326538085938,3.652726173400879,-0.011835857294499874
-0.6731204986572266,3.6652472019195557,-0.01189716812223196
-0.6508053541183472,3.6891093254089355,-0.011995871551334858
-0.625202476978302,3.6935341358184814,-0.012031839229166508
-0.6020362377166748,3.7132108211517334,-0.012118189595639706
-0.5754859447479248,3.7174181938171387,-0.01214561052620411
-0.5493155121803284,3.721374988555908,-0.012171280570328236
-0.5253605246543884,3.7406113147735596,-0.012247543781995773
-0.5003753304481506,3.7519168853759766,-0.012298395857214928
-0.4742444157600403,3.7553093433380127,-0.012323952279984951
-0.4525701105594635,3.7973246574401855,-0.012470449320971966
-0.4245300590991974,3.7927005290985107,-0.01245934795588255
-0.399522602558136,3.811126708984375,-0.012524525634944439
-0.3748740255832672,3.8332550525665283,-0.0126024866476655
-0.3474646210670471,3.8279922008514404,-0.01259101927280426
-0.32145342230796814,3.838104009628296,-0.012628220021724701
-0.2964838147163391,3.871455669403076,-0.012731252238154411
-0.2693687677383423,3.873436689376831,-0.012731814756989479
-0.24328914284706116,3.890817403793335,-0.012783613055944443
-0.21709111332893372,3.9080164432525635,-0.012835413217544556
-0.1899445503950119,3.9094300270080566,-0.012835975736379623
-0.16332584619522095,3.9379994869232178,-0.012915908358991146
-0.13583609461784363,3.9390435218811035,-0.01290325541049242
-0.1098809763789177,3.994561195373535,-0.01306947786360979
-0.08239473402500153,4.01085090637207,-0.013107736594974995
-0.054088421165943146,3.9800801277160645,-0.01299290545284748
-0.02607474848628044,4.003799915313721,-0.013052646070718765
0.0018215596210211515,4.019509315490723,-0.013079345226287842
0.02986806072294712,4.031118392944336,-0.01309320330619812
0.05790780857205391,4.030813217163086,-0.013068929314613342
0.08673877269029617,4.069366931915283,-0.013171090744435787
0.11478369683027267,4.060856819152832,-0.013121379539370537
0.1445433646440506,4.091176509857178,-0.013191181235015392
0.1737229973077774,4.109589576721191,-0.013222339563071728
0.20162858068943024,4.096582412719727,-0.013152982108294964
0.23075471818447113,4.10678243637085,-0.013158698566257954
0.25510749220848083,4.0388054847717285,-0.012914910912513733
0.2847101390361786,4.052490711212158,-0.012929053045809269
0.3088195025920868,3.9997944831848145,-0.012727361172437668
0.33581769466400146,3.9897782802581787,-0.012662574648857117
0.3642236888408661,3.995130777359009,-0.012647039256989956
0.38970449566841125,3.9691762924194336,-0.012533088214695454
0.412090539932251,3.9119293689727783,-0.012320968322455883
0.43252119421958923,3.850766658782959,-0.012086918577551842
0.4539720118045807,3.8050270080566406,-0.011902544647455215
0.481737345457077,3.8134241104125977,-0.01188830565661192
0.49742284417152405,3.7286674976348877,-0.011584698222577572
0.5200119018554688,3.69797420501709,-0.011450091376900673
0.5398351550102234,3.655651092529297,-0.011275841854512691
0.5613993406295776,3.628687620162964,-0.011145933531224728
0.5851134061813354,3.61702561378479,-0.011063952930271626
0.6030393242835999,3.5705103874206543,-0.010876156389713287
0.6210582256317139,3.527764081954956,-0.010701331309974194
0.6409703493118286,3.4964051246643066,-0.010561812669038773
0.6575930714607239,3.4535608291625977,-0.010390321724116802
0.6751732230186462,3.4183192253112793,-0.010243029333651066
0.6933016777038574,3.38678240776062,-0.010107632726430893
0.7152301073074341,3.3742339611053467,-0.010029538534581661
0.7340690493583679,3.3461949825286865,-0.009905574843287468
0.7465909719467163,3.2953779697418213,-0.009713075123727322
0.7664003968238831,3.2787935733795166,-0.009622513316571712
0.7797583937644958,3.235475778579712,-0.009454299695789814
0.7966108918190002,3.207223653793335,-0.00933079980313778
0.8173529505729675,3.193936824798584,-0.009251002222299576
0.8322585225105286,3.1618189811706543,-0.009110813960433006
0.841545820236206,3.110825300216675,-0.008915224112570286
0.8585973978042603,3.0899486541748047,-0.008807177655398846
0.8768529891967773,3.0726332664489746,-0.008709249086678028
0.8853722810745239,3.021374225616455,-0.008515636436641216
0.9015374183654785,3.000278949737549,-0.008408643305301666
0.919578492641449,2.9866251945495605,-0.008322961628437042
0.937527060508728,2.972849130630493,-0.008237440139055252
0.9545615911483765,2.955111026763916,-0.008140618912875652
0.9631841778755188,2.911195755004883,-0.007971991784870625
0.9780267477035522,2.8897523880004883,-0.007863461039960384
0.9847742915153503,2.8461570739746094,-0.007694225292652845
1.0027921199798584,2.8357162475585938,-0.007615445647388697
1.0172008275985718,2.8139710426330566,-0.007505764253437519
1.0232114791870117,2.770186185836792,-0.007338653784245253
1.0423073768615723,2.7630579471588135,-0.00726926838979125
1.0552659034729004,2.741399049758911,-0.007163329981267452
1.0582468509674072,2.6941373348236084,-0.006991099566221237
1.0798680782318115,2.693962812423706,-0.006941060069948435
1.0896159410476685,2.66473126411438,-0.006816152948886156
1.1047648191452026,2.6500244140625,-0.006722826510667801
1.1133474111557007,2.6209847927093506,-0.006594996899366379
1.1313658952713013,2.61325740814209,-0.006520099937915802
1.1494929790496826,2.605334997177124,-0.006444527301937342
1.1591308116912842,2.5796642303466797,-0.006321439985185862
1.176592230796814,2.571747064590454,-0.006238043308258057
1.1774322986602783,2.528336763381958,-0.006070000119507313
1.1849550008773804,2.4989054203033447,-0.005935281980782747
1.1919763088226318,2.469564914703369,-0.005803183186799288
1.2117778062820435,2.4686150550842285,-0.005742867011576891
1.2162482738494873,2.4358909130096436,-0.005608126986771822
1.2331616878509521,2.427372932434082,-0.005528363399207592
1.2876675128936768,2.4916164875030518,-0.0056128064170479774
1.3277095556259155,2.5280144214630127,-0.005634790286421776
1.3627701997756958,2.553651809692383,-0.005631144158542156
1.4046180248260498,2.588799238204956,-0.005643918644636869
1.4303945302963257,2.5925068855285645,-0.005585509818047285
1.4358820915222168,2.562638998031616,-0.005454749800264835
1.452695608139038,2.55314564704895,-0.005367864388972521
1.4899582862854004,2.5768043994903564,-0.005346157122403383
1.5332846641540527,2.6103293895721436,-0.005342966876924038
1.5665582418441772,2.6269495487213135,-0.005302002187818289
1.567892074584961,2.589690685272217,-0.005151921417564154
1.5940258502960205,2.592048406600952,-0.005078306421637535
1.5987153053283691,2.561572551727295,-0.004945286549627781
1.6110508441925049,2.544590711593628,-0.004841289948672056
3.109927177429199,4.836400508880615,-0.009053448215126991
3.1295971870422363,4.795733451843262,-0.008828287944197655
3.1343331336975098,4.736531734466553,-0.008565808646380901
3.0968306064605713,4.611304759979248,-0.00817915704101324
2.080880880355835,3.0537257194519043,-0.005311846267431974
2.1005077362060547,3.0402588844299316,-0.005191951524466276
2.1167538166046143,3.0194344520568848,-0.005054024048149586
2.1367053985595703,3.0053486824035645,-0.004926485009491444
2.151148796081543,2.9854040145874023,-0.004788985475897789
2.1948306560516357,3.0019657611846924,-0.0046995291486382484
2.55987548828125,3.455970048904419,-0.005279711913317442
2.14975643157959,3.005640983581543,-0.0012317040236666799
2.118650197982788,3.0085577964782715,-0.0011672740802168846
2.10585618019104,3.0365607738494873,-0.0011182581074535847
2.091325283050537,3.0655200481414795,-0.0010743875754997134
3.1223506927490234,4.645930767059326,-0.0015540864551439881
3.1461665630340576,4.75681209564209,-0.001522202044725418
3.127168893814087,4.806647777557373,-0.0014726734953001142
3.10628604888916,4.848029136657715,-0.0014251845423132181
1.618517279624939,2.567601203918457,-0.0007227564929053187
1.6036134958267212,2.586132764816284,-0.0006964140920899808
1.5733286142349243,2.5772476196289062,-0.0006646458059549332
1.5783418416976929,2.6290082931518555,-0.0006441912846639752
1.5427799224853516,2.6138100624084473,-0.0006055261474102736
1.506878137588501,2.594093084335327,-0.0005689200479537249
1.4730446338653564,2.577521324157715,-0.0005348867853172123
1.4424693584442139,2.5679073333740234,-0.0005067889578640461
1.4311820268630981,2.59207820892334,-0.0004857088206335902
1.409404993057251,2.5950963497161865,-0.00046192569425329566
1.3336918354034424,2.498332977294922,-0.00042153545655310154
1.2989524602890015,2.476940155029297,-0.0003951878461521119
1.2473987340927124,2.420093536376953,-0.0003649371792562306
1.223175048828125,2.4149246215820312,-0.0003431732766330242
1.209165096282959,2.4306986331939697,-0.0003232005692552775
1.2067928314208984,2.471062660217285,-0.00030565125052817166
1.1961026191711426,2.493595838546753,-0.0002863104164134711
1.17873215675354,2.5018537044525146,-0.0002655148273333907
1.177132487297058,2.545708417892456,-0.0002484694996383041
1.1695493459701538,2.5792548656463623,-0.00022969245037529618
1.1576215028762817,2.601741313934326,-0.00021058242418803275
1.1426260471343994,2.616888999938965,-0.00019107740081381053
1.1210182905197144,2.6177210807800293,-0.00017089616449084133
1.1141337156295776,2.6545822620391846,-0.0001533294125692919
1.0977123975753784,2.6698639392852783,-0.0001341017778031528
1.079118251800537,2.6774332523345947,-0.00011537221143953502
1.0762323141098022,2.7248473167419434,-9.805623994907364e-05
1.049505591392517,2.714322566986084,-7.776440179441124e-05
1.0451056957244873,2.762010335922241,-5.898451854591258e-05
1.0361638069152832,2.798724412918091,-3.9629558159504086e-05
1.0139988660812378,2.79852294921875,-2.0145549569861032e-05
1.0059869289398193,2.8387391567230225,-1.5739711898277164e-06
0.9957737326622009,2.875429391860962,1.6250320186372846e-05
0.9801263213157654,2.8973002433776855,3.422389636398293e-05
0.9620361328125,2.911586046218872,5.201503881835379e-05
0.9537606239318848,2.955381155014038,7.028634718153626e-05
0.9363357424736023,2.973236083984375,8.950795017881319e-05
0.9196244478225708,2.9947962760925293,0.00010973124881274998
0.9050232172012329,3.023714065551758,0.0001303540193475783
0.8926950097084045,3.059943199157715,0.0001512279559392482
0.8741926550865173,3.0774645805358887,0.0001717819250188768
0.8607020378112793,3.113698720932007,0.00019524854724295437
0.8404972553253174,3.1273038387298584,0.00021824926079716533
0.826204240322113,3.163419246673584,0.00024295970797538757
