X,Y,Z
-2.3959388732910156,3.5014090538024902,0.6290203332901001
-1.201852560043335,1.7304513454437256,0.3054996728897095
-1.4191982746124268,2.0138189792633057,0.34921732544898987
-1.3210182189941406,2.0793676376342773,-0.21253365278244019
-1.2785476446151733,2.0454318523406982,-0.21680079400539398
-1.1518065929412842,1.9024803638458252,-0.2152707427740097
-1.1120485067367554,1.8665623664855957,-0.217656672000885
-0.8446629643440247,1.441510558128357,-0.1730370670557022
-0.8456742763519287,1.4672060012817383,-0.18104250729084015
-0.9117598533630371,1.6076457500457764,-0.2035791426897049
-0.9470611214637756,1.6983585357666016,-0.22051134705543518
-0.9140380620956421,1.6670379638671875,-0.2217070758342743
-0.8726292848587036,1.6181269884109497,-0.22015221416950226
-0.8442830443382263,1.5929208993911743,-0.2216322422027588
-0.8074268102645874,1.5502136945724487,-0.22034670412540436
-0.7556225657463074,1.4759280681610107,-0.2140958458185196
-0.7659574747085571,1.5220738649368286,-0.22517071664333344
-0.7445220947265625,1.5060573816299438,-0.22707389295101166
-0.7096113562583923,1.4620665311813354,-0.22464166581630707
-0.6908302307128906,1.4489150047302246,-0.22659194469451904
-0.6640430688858032,1.418082594871521,-0.22563591599464417
-0.640769898891449,1.3940831422805786,-0.22554001212120056
-0.6258483529090881,1.3874346017837524,-0.22814959287643433
-0.6159252524375916,1.3911677598953247,-0.23238305747509003
0.5990743637084961,1.3646106719970703,-0.22901152074337006
0.6150159239768982,1.3751200437545776,-0.2272931933403015
0.639225423336029,1.4030355215072632,-0.22824755311012268
0.6588980555534363,1.420206069946289,-0.2273566573858261
0.6855274438858032,1.4511317014694214,-0.22850385308265686
0.7024180889129639,1.4609270095825195,-0.2261623591184616
0.7380961179733276,1.5088454484939575,-0.22953078150749207
0.7627593874931335,1.531951665878296,-0.22878015041351318
0.7894421219825745,1.5582904815673828,-0.2283967286348343
0.8109526634216309,1.5741422176361084,-0.22630660235881805
0.836248517036438,1.5966765880584717,-0.22504191100597382
0.8713019490242004,1.6359184980392456,-0.22581569850444794
0.914354145526886,1.6884030103683472,-0.22811473906040192
0.9486527442932129,1.7235089540481567,-0.2276650220155716
0.9852396249771118,1.761690378189087,-0.22743426263332367
1.028493881225586,1.8094209432601929,-0.22800253331661224
1.0664271116256714,1.8466837406158447,-0.22695136070251465
1.1242637634277344,1.9172215461730957,-0.22961638867855072
1.1677738428115845,1.9600722789764404,-0.228311225771904
1.2239938974380493,2.0223917961120605,-0.2289009690284729
1.2886700630187988,2.0976767539978027,-0.23045770823955536
1.3236119747161865,2.12265944480896,-0.22605110704898834
1.3616260290145874,2.1502060890197754,-0.22139574587345123
1.3746094703674316,2.1381776332855225,-0.21243612468242645
1.3847507238388062,2.1231577396392822,-0.20336100459098816
1.3911808729171753,2.101123094558716,-0.19329749047756195
1.727319359779358,2.5707836151123047,-0.2266618013381958
1.7729884386062622,2.6019792556762695,-0.21938523650169373
1.9268232583999634,2.785738706588745,-0.22328153252601624
1.9213366508483887,2.7382724285125732,-0.20809030532836914
1.9348070621490479,2.72011661529541,-0.19532287120819092
1.4449782371520996,2.0019829273223877,-0.1346529871225357
1.4584736824035645,1.9928102493286133,-0.12486221641302109
1.4763509035110474,1.9899320602416992,-0.11525529623031616
3.4869821071624756,4.90335750579834,0.8041973114013672
3.3752787113189697,4.817703723907471,0.8069255948066711
3.3388421535491943,4.839655876159668,0.8269054293632507
1.5239076614379883,2.2459676265716553,0.3910583555698395
1.5156537294387817,2.2686727046966553,0.4018062651157379
1.4991214275360107,2.2781567573547363,0.41008105874061584
1.4848124980926514,2.295212507247925,0.41953957080841064
1.499991774559021,2.3573687076568604,0.4371826648712158
1.5955699682235718,2.546534299850464,0.4785158634185791
3.0400209426879883,4.929708003997803,0.9381588101387024
3.025225877761841,4.990045070648193,0.9610388278961182
3.000209331512451,5.033601760864258,0.9807659983634949
2.9717016220092773,5.06558084487915,0.9975470900535583
2.9460952281951904,5.1044182777404785,1.015599250793457
2.92168927192688,5.151092052459717,1.0347665548324585
2.898890495300293,5.200850486755371,1.054649829864502
2.871922731399536,5.239438056945801,1.0719350576400757
2.861595392227173,5.308004379272461,1.0953766107559204
2.839228391647339,5.360900402069092,1.1150634288787842
2.801628828048706,5.386674880981445,1.129107117652893
2.7757391929626465,5.432012557983398,1.147060751914978
2.772426128387451,5.521481513977051,1.1743968725204468
2.7547171115875244,5.583460330963135,1.1958781480789185
1.2350594997406006,2.550605535507202,0.5497126579284668
1.1959916353225708,2.517202615737915,0.5459003448486328
1.1776491403579712,2.524768114089966,0.5508180856704712
1.1628456115722656,2.538998603820801,0.5571560859680176
1.1632115840911865,2.5882198810577393,0.571286141872406
2.582432508468628,5.86079216003418,1.3001632690429688
2.567323923110962,5.944413661956787,1.3253792524337769
2.5356922149658203,5.988943099975586,1.3419095277786255
2.506359338760376,6.036332607269287,1.3590121269226074
2.4799675941467285,6.094484329223633,1.3788137435913086
2.44931697845459,6.145878791809082,1.39637291431427
2.416186809539795,6.193783760070801,1.4130076169967651
2.386498212814331,6.25222635269165,1.4322017431259155
2.362267017364502,6.320541858673096,1.453546166419983
2.3272242546081543,6.363929748535156,1.4694055318832397
2.301295518875122,6.432104587554932,1.4908905029296875
2.2666115760803223,6.48292350769043,1.5075318813323975
2.2374651432037354,6.551595687866211,1.5284743309020996
2.2018167972564697,6.601933002471924,1.5452462434768677
2.1675055027008057,6.655470371246338,1.5628243684768677
2.107908010482788,6.628696918487549,1.5615400075912476
2.0427494049072266,6.58341121673584,1.5556252002716064
1.9804646968841553,6.549020767211914,1.551475167274475
1.9198626279830933,6.517746448516846,1.5480895042419434
1.8633229732513428,6.4968461990356445,1.5471712350845337
1.8025609254837036,6.45702600479126,1.541731357574463
1.7502171993255615,6.442219257354736,1.5422241687774658
1.6931205987930298,6.408692359924316,1.53810715675354
0.8347543478012085,3.2539217472076416,0.7824896574020386
1.5848335027694702,6.36702299118042,1.5341947078704834
0.8007228374481201,3.3197927474975586,0.8016033172607422
1.475276231765747,6.308670997619629,1.52639901638031
1.4294054508209229,6.310140609741211,1.5299166440963745
1.3713775873184204,6.255588531494141,1.519890546798706
1.314125895500183,6.204648494720459,1.5098658800125122
1.2559682130813599,6.149720668792725,1.4987685680389404
1.2119221687316895,6.15752649307251,1.502975583076477
1.1628066301345825,6.135054588317871,1.4998226165771484
1.115100383758545,6.115884780883789,1.4975100755691528
1.0683737993240356,6.100094795227051,1.496079444885254
0.7965892553329468,4.747550964355469,1.1660408973693848
0.7513525485992432,4.681293487548828,1.1509498357772827
0.7025004029273987,4.584638595581055,1.1283986568450928
0.6666272878646851,4.566409587860107,1.1251721382141113
0.6342428922653198,4.566629409790039,1.126516580581665
0.5978869199752808,4.540348052978516,1.1213915348052979
0.5662155151367188,4.543849945068359,1.1236459016799927
0.5275761485099792,4.490790843963623,1.1113616228103638
0.4959096610546112,4.494025707244873,1.112866759300232
0.4579399824142456,4.436678409576416,1.0994163751602173
0.40027523040771484,4.16384220123291,1.0325580835342407
0.3701033592224121,4.1586713790893555,1.0320827960968018
0.3417552411556244,4.168365001678467,1.035333514213562
0.30964672565460205,4.128714561462402,1.0263490676879883
0.2817011773586273,4.1457414627075195,1.0308125019073486
0.25652816891670227,4.211771488189697,1.047516107559204
0.41530370712280273,7.726301193237305,1.922249674797058
0.361370712518692,7.728687286376953,1.923553705215454
0.30604246258735657,7.689022064208984,1.9144768714904785
0.2510669529438019,7.645180702209473,1.9044443368911743
0.1976652592420578,7.638913154602051,1.9035654067993164
0.14298540353775024,7.613579750061035,1.8970141410827637
0.08971507102251053,7.599217414855957,1.8932942152023315
0.03654208034276962,7.561739921569824,1.8839081525802612
-0.015932252630591393,7.527683734893799,1.8754658699035645
-0.06796588748693466,7.497056007385254,1.8679672479629517
-0.12058836966753006,7.473635196685791,1.8623580932617188
-0.17185886204242706,7.446196556091309,1.855326533317566
-0.2227974832057953,7.4223785400390625,1.8485201597213745
-0.27425408363342285,7.4209394454956055,1.8473787307739258
-0.32753029465675354,7.460803031921387,1.8566043376922607
-0.2745908498764038,5.398990631103516,1.3430852890014648
-0.31229037046432495,5.389556884765625,1.3403562307357788
-0.3482469320297241,5.36476469039917,1.3338810205459595
-0.38427162170410156,5.347420692443848,1.328830361366272
-0.41935721039772034,5.322377681732178,1.3215280771255493
-0.44860926270484924,5.232872009277344,1.2983038425445557
-0.4268510043621063,4.599381923675537,1.1402909755706787
-0.45771241188049316,4.585338592529297,1.1360341310501099
-0.4879421293735504,4.567320823669434,1.1308528184890747
-0.5179972648620605,4.549096584320068,1.1256786584854126
-0.5493122935295105,4.545905590057373,1.1237213611602783
-0.5782015323638916,4.519913196563721,1.1159566640853882
-0.6113014221191406,4.53140115737915,1.1175237894058228
-0.6382937431335449,4.497547626495361,1.1079617738723755
-0.6684653759002686,4.486020088195801,1.1039527654647827
-0.6979216933250427,4.470537185668945,1.0990289449691772
-0.7259311079978943,4.443535327911377,1.0913141965866089
-0.7537698149681091,4.424185752868652,1.0848188400268555
-0.7827040553092957,4.412135601043701,1.0801727771759033
-0.8087527751922607,4.384952545166016,1.0718837976455688
-0.8269546627998352,4.316514015197754,1.0535736083984375
-0.7192578911781311,3.6182358264923096,0.8818439841270447
-0.7480018138885498,3.6285083293914795,0.88306725025177
-0.9174547791481018,4.300314426422119,1.044861912727356
-0.9549590945243835,4.331912517547607,1.0504107475280762
-0.9845002293586731,4.326138973236084,1.0469282865524292
-1.012317180633545,4.312747001647949,1.0416512489318848
-1.0393198728561401,4.29154109954834,1.0344716310501099
-1.0637487173080444,4.262885570526123,1.025597095489502
-1.0991885662078857,4.278308391571045,1.027377724647522
-1.1167104244232178,4.227530479431152,1.0127253532409668
-1.1434401273727417,4.213479995727539,1.0068433284759521
-1.1725804805755615,4.206464767456055,1.0026500225067139
-1.2079635858535767,4.2212114334106445,1.0036789178848267
-1.2300240993499756,4.1880693435668945,0.9933409094810486
-1.257172703742981,4.1730499267578125,0.9873692393302917
-1.283686876296997,4.158067226409912,0.9811165928840637
-1.3077762126922607,4.1357197761535645,0.9728039503097534
-1.3382225036621094,4.135112762451172,0.9697026610374451
-1.3666293621063232,4.126952171325684,0.9648379683494568
-1.3955981731414795,4.118407726287842,0.9598667621612549
-1.4170585870742798,4.088011741638184,0.9498610496520996
-1.4402637481689453,4.064897537231445,0.9413803219795227
-1.4604445695877075,4.034627437591553,0.930844783782959
-1.4930182695388794,4.040229320526123,0.9286983609199524
-1.5234497785568237,4.03829288482666,0.9247919321060181
-1.5463438034057617,4.014509677886963,0.9158514142036438
-1.571813702583313,3.9976882934570312,0.9085579514503479
-1.5998839139938354,3.987900495529175,0.902555525302887
-1.6267694234848022,3.978403091430664,0.8963902592658997
-1.6521250009536743,3.9651854038238525,0.8894312977790833
-1.6810617446899414,3.9585797786712646,0.8838929533958435
-1.7045207023620605,3.9374701976776123,0.8750753402709961
-1.7174016237258911,3.891512155532837,0.860759973526001
-1.7500886917114258,3.8952200412750244,0.8570640683174133
-1.7826800346374512,3.898785352706909,0.8532207608222961
-1.8089274168014526,3.8881893157958984,0.8463005423545837
-1.829954981803894,3.8629610538482666,0.8360050320625305
-1.8612093925476074,3.858119010925293,0.8300847411155701
-1.8845736980438232,3.839818000793457,0.821149468421936
-1.9034926891326904,3.8149664402008057,0.8105489611625671
-1.936047077178955,3.8174004554748535,0.8057823181152344
-1.962819218635559,3.805396318435669,0.797751247882843
-1.9862431287765503,3.7862484455108643,0.7882100939750671
-2.002174139022827,3.753472328186035,0.7756357192993164
-2.0161550045013428,3.7215006351470947,0.7630661725997925
-1.7183966636657715,3.1234076023101807,0.6354178786277771
-1.7179639339447021,3.072376012802124,0.6197932958602905
-1.736178994178772,3.0547778606414795,0.6109577417373657
-0.8393455147743225,1.4536707401275635,0.2880544364452362
-0.8568286895751953,1.462053656578064,0.2869586646556854
-0.8627963066101074,1.450323462486267,0.28187116980552673
-0.8692284226417542,1.4382539987564087,0.27658960223197937
-0.8794832229614258,1.432773232460022,0.2725892663002014
-0.8728494048118591,1.401382327079773,0.2634910047054291
-0.8903826475143433,1.4093564748764038,0.2618955075740814
-0.9087717533111572,1.4167622327804565,0.2599107027053833
-0.893634021282196,1.3721723556518555,0.24844570457935333
-0.8941285610198975,1.3541566133499146,0.24175244569778442
-0.9203437566757202,1.3746432065963745,0.24184568226337433
-2.3974363803863525,3.5275235176086426,0.6106187701225281
-2.435661554336548,3.5316624641418457,0.6011715531349182
-1.3058806657791138,1.8683280944824219,0.31244248151779175
-1.6499403715133667,2.3280575275421143,0.38202857971191406
-1.2820526361465454,2.034977912902832,-0.20713089406490326
-1.2243403196334839,1.9738718271255493,-0.2078244686126709
-1.1552178859710693,1.8922741413116455,-0.20579177141189575
-1.144721508026123,1.9068893194198608,-0.21404872834682465
-1.1190414428710938,1.8942269086837769,-0.2188500463962555
-0.8242268562316895,1.4176230430603027,-0.16834884881973267
-0.8368096947669983,1.4635518789291382,-0.1784660965204239
-0.9764124751091003,1.736403226852417,-0.21716979146003723
-0.9168169498443604,1.6577417850494385,-0.21243323385715485
-0.9047199487686157,1.6636321544647217,-0.2181714028120041
-0.8814239501953125,1.648988962173462,-0.22115635871887207
-0.8352655172348022,1.5893193483352661,-0.21773134171962738
-0.8025212287902832,1.5532002449035645,-0.21721380949020386
-0.7873510122299194,1.5515292882919312,-0.2214101403951645
-0.7604160904884338,1.5253280401229858,-0.22190803289413452
-0.7427119016647339,1.5160958766937256,-0.2246493697166443
-0.708301842212677,1.4718551635742188,-0.2220301330089569
-0.6859652996063232,1.4518076181411743,-0.22282496094703674
-0.6656809449195862,1.4349949359893799,-0.22397296130657196
-0.6488357782363892,1.4250273704528809,-0.22612421214580536
-0.6243727207183838,1.3972299098968506,-0.22523295879364014
-0.6110956072807312,1.3939920663833618,-0.22817076742649078
-0.5918999314308167,1.3764032125473022,-0.22866493463516235
0.5848837494850159,1.3708447217941284,-0.22846105694770813
0.5978704690933228,1.3743036985397339,-0.22574186325073242
0.6168665289878845,1.391921877861023,-0.22526070475578308
0.6504267454147339,1.4410700798034668,-0.2297116070985794
0.6638962626457214,1.4440983533859253,-0.22660931944847107
0.6922095417976379,1.4785321950912476,-0.22832973301410675
0.7159937620162964,1.5022236108779907,-0.2280944138765335
0.750098466873169,1.5466421842575073,-0.230882927775383
0.7628365755081177,1.545424461364746,-0.22663916647434235
0.7912005186080933,1.5752743482589722,-0.22685521841049194
0.8197521567344666,1.6049572229385376,-0.22682590782642365
0.8541620373725891,1.644633412361145,-0.22798550128936768
0.887803852558136,1.6802886724472046,-0.2281879335641861
0.9197887778282166,1.7123329639434814,-0.2277621030807495
0.9427216053009033,1.7271277904510498,-0.22485940158367157
0.9868216514587402,1.7789292335510254,-0.22647488117218018
1.0318952798843384,1.8301221132278442,-0.22760310769081116
1.0853341817855835,1.894361972808838,-0.22986796498298645
1.1334694623947144,1.9481127262115479,-0.23056553304195404
1.1769397258758545,1.9910200834274292,-0.2294429987668991
1.224995732307434,2.0401408672332764,-0.22868776321411133
1.2975398302078247,2.12888765335083,-0.2318924367427826
1.3207529783248901,2.1337451934814453,-0.2253449708223343
1.3545418977737427,2.154785633087158,-0.22032685577869415
1.3691895008087158,2.146326780319214,-0.2122029960155487
1.3774008750915527,2.127959966659546,-0.203084334731102
1.3839882612228394,2.1058645248413086,-0.19333431124687195
1.7921054363250732,2.6867828369140625,-0.23668810725212097
1.7860946655273438,2.6401190757751465,-0.22284339368343353
1.8930292129516602,2.756843090057373,-0.22187215089797974
1.893896222114563,2.7192506790161133,-0.2081039994955063
1.9299159049987793,2.732968330383301,-0.19818943738937378
1.438355803489685,2.0066094398498535,-0.13667498528957367
1.4470973014831543,1.9912933111190796,-0.12694668769836426
1.4697511196136475,1.9946458339691162,-0.11808694154024124
1.5915662050247192,2.252898931503296,0.35597068071365356
3.3565173149108887,4.825788497924805,0.7789427042007446
1.5472620725631714,2.2618255615234375,0.37256744503974915
1.5303345918655396,2.2718937397003174,0.38112571835517883
1.526269555091858,2.301119327545166,0.39270931482315063
1.4951921701431274,2.2923800945281982,0.39758574962615967
1.5069705247879028,2.3478333950042725,0.41337621212005615
1.5952550172805786,2.5238184928894043,0.4506342113018036
1.6042197942733765,2.580540418624878,0.46702343225479126
3.0270204544067383,4.952639102935791,0.9078211188316345
3.010333299636841,5.0052170753479,0.9283473491668701
2.9860575199127197,5.044010162353516,0.9462169408798218
2.957475423812866,5.080519199371338,0.9632670283317566
2.9402806758880615,5.141149997711182,0.9849949479103088
2.8946614265441895,5.146759033203125,0.9956504702568054
2.885718822479248,5.215395450592041,1.0183172225952148
2.8767037391662598,5.288092613220215,1.041689157485962
2.8434126377105713,5.321047306060791,1.0569229125976562
2.814858913421631,5.364109992980957,1.0743471384048462
2.7940890789031982,5.415890216827393,1.0930280685424805
2.774496555328369,5.471001625061035,1.1125373840332031
2.754039764404297,5.530544757843018,1.1324491500854492
1.2463939189910889,2.5501534938812256,0.5257041454315186
1.2072466611862183,2.5168375968933105,0.5222999453544617
1.1893113851547241,2.5243537425994873,0.5271522402763367
1.1874151229858398,2.566568374633789,0.539327085018158
1.1555812358856201,2.546419382095337,0.538075864315033
1.1551659107208252,2.5960872173309326,0.5515723824501038
2.5708882808685303,5.8922929763793945,1.2586312294006348
2.544994831085205,5.9472455978393555,1.2770317792892456
2.517641067504883,5.998299598693848,1.2946363687515259
2.4854462146759033,6.042792797088623,1.3103209733963013
2.4648854732513428,6.119414329528809,1.3327841758728027
2.4348933696746826,6.174642086029053,1.350756287574768
2.4068353176116943,6.232866287231445,1.3693736791610718
2.3708810806274414,6.269181251525879,1.3831849098205566
2.3488011360168457,6.344874382019043,1.4056895971298218
2.3150980472564697,6.396073341369629,1.4220424890518188
2.282038927078247,6.4506916999816895,1.4392918348312378
2.250523567199707,6.512441635131836,1.4583086967468262
2.2266526222229004,6.5914435386657715,1.481101155281067
2.1910016536712646,6.6377387046813965,1.49669349193573
2.141277313232422,6.644134998321533,1.5029722452163696
2.0801615715026855,6.617847442626953,1.501247763633728
2.014289617538452,6.576650619506836,1.4962297677993774
1.951778769493103,6.538113117218018,1.4916880130767822
1.8940986394882202,6.509777069091797,1.4894007444381714
1.8379515409469604,6.484638214111328,1.4878687858581543
1.7786049842834473,6.448263168334961,1.483365774154663
1.722062349319458,6.422779083251953,1.4807307720184326
0.8402475118637085,3.228025436401367,0.7458866834640503
1.6146085262298584,6.388982772827148,1.4795887470245361
0.8116910457611084,3.3085968494415283,0.7679303288459778
1.5011459589004517,6.308308124542236,1.4674917459487915
1.4550212621688843,6.310047149658203,1.4710932970046997
1.3973217010498047,6.267372131347656,1.4635943174362183
1.3451085090637207,6.242671966552734,1.4602937698364258
1.2909953594207764,6.206373691558838,1.4543235301971436
1.240837812423706,6.1806321144104,1.4508039951324463
1.190310001373291,6.150777816772461,1.4463649988174438
1.1423536539077759,6.135608673095703,1.4454677104949951
1.0927395820617676,6.109018325805664,1.4410585165023804
0.8130606412887573,4.739701271057129,1.1194065809249878
0.7805198431015015,4.75226354598999,1.1237854957580566
0.7305233478546143,4.651820182800293,1.1014517545700073
0.6907321810722351,4.611151695251465,1.0932918787002563
0.6531564593315125,4.577629566192627,1.0868295431137085
0.6195800304412842,4.570250988006592,1.0863852500915527
0.5824301242828369,4.536395072937012,1.0791465044021606
0.5484816431999207,4.524897575378418,1.077272653579712
0.5134856104850769,4.501815319061279,1.072684645652771
0.4807583689689636,4.497376441955566,1.0725889205932617
0.43769344687461853,4.382986068725586,1.0462795495986938
0.38751351833343506,4.173637390136719,0.9972764253616333
0.35662028193473816,4.157050609588623,0.9938865303993225
0.32742083072662354,4.159237384796143,0.9947831630706787
0.295499324798584,4.130935192108154,0.9884418249130249
0.26927563548088074,4.17439603805542,0.9993128776550293
0.2625148594379425,4.562827110290527,1.0928646326065063
0.3902272880077362,7.717209339141846,1.849429965019226
0.33559519052505493,7.696569919586182,1.8456133604049683
0.28006359934806824,7.67584753036499,1.8407195806503296
0.22581902146339417,7.654726028442383,1.8356990814208984
0.17179737985134125,7.629426956176758,1.8297654390335083
0.1179346889257431,7.584756374359131,1.8192726373672485
0.0651184692978859,7.577692031860352,1.817886233329773
0.011468919925391674,7.543671131134033,1.8101263046264648
-0.04078191518783569,7.505518913269043,1.801283597946167
-0.09285487979650497,7.497635364532471,1.7987205982208252
-0.14415928721427917,7.455209732055664,1.7879619598388672
-0.19517792761325836,7.423825263977051,1.7799427509307861
-0.24668918550014496,7.4224677085876465,1.7792115211486816
-0.2997697591781616,7.43589973449707,1.7821052074432373
-0.2533186674118042,5.358112335205078,1.2839694023132324
-0.29213446378707886,5.386767864227295,1.2904326915740967
-0.32883623242378235,5.377363681793213,1.2872594594955444
-0.36445289850234985,5.352542877197266,1.2804603576660156
-0.40093904733657837,5.335021018981934,1.2754613161087036
-0.4364473819732666,5.313493728637695,1.2695813179016113
-0.4093122184276581,4.591460227966309,1.0964795351028442
-0.441940039396286,4.596349239349365,1.09711754322052
-0.47369423508644104,4.593558311462402,1.0955562591552734
-0.5017129778862,4.552797794342041,1.0846483707427979
-0.5339663028717041,4.557225227355957,1.0845856666564941
-0.5625569820404053,4.531242370605469,1.0773404836654663
-0.5940454006195068,4.527667045593262,1.0754709243774414
-0.6223862171173096,4.501270294189453,1.0682376623153687
-0.6526054739952087,4.485909938812256,1.0636656284332275
-0.6833804249763489,4.481899738311768,1.0612400770187378
-0.7116637825965881,4.462686538696289,1.0551615953445435
-0.7384663820266724,4.435785293579102,1.0473276376724243
-0.7690911889076233,4.4311747550964355,1.0448013544082642
-0.7972851991653442,4.411322593688965,1.0387225151062012
-0.8257948160171509,4.391194820404053,1.0326145887374878
-0.7155182957649231,3.6649460792541504,0.860620379447937
-0.7375443577766418,3.645667314529419,0.8544568419456482
-0.7624205946922302,3.641166925430298,0.8518063426017761
-0.9323623180389404,4.306464672088623,1.005596399307251
-0.967863142490387,4.322809219360352,1.007535457611084
-0.9945714473724365,4.301855087280273,1.000856876373291
-1.0263863801956177,4.3029584884643555,0.9993593692779541
-1.0504026412963867,4.274463653564453,0.9905670285224915
-1.081335186958313,4.275487899780273,0.9884731769561768
-1.1090526580810547,4.261401176452637,0.9828875660896301
-1.1364389657974243,4.24717378616333,0.9773390293121338
-1.162030816078186,4.225319862365723,0.970065712928772
-1.1915661096572876,4.217978477478027,0.9661759734153748
-1.2186176776885986,4.203235626220703,0.960408091545105
-1.2443058490753174,4.1847944259643555,0.9533758163452148
-1.268239140510559,4.162657737731934,0.9456065893173218
-1.301203966140747,4.1694865226745605,0.9444441795349121
-1.321122407913208,4.132195949554443,0.933271586894989
-1.3476670980453491,4.116607666015625,0.9270742535591125
-1.3768565654754639,4.108006000518799,0.9223247766494751
-1.4046396017074585,4.099733829498291,0.9172236919403076
-1.4273192882537842,4.076837062835693,0.9089040160179138
-1.4550271034240723,4.068169116973877,0.9037951827049255
-1.478350043296814,4.044639587402344,0.8953341245651245
-1.5041295289993286,4.02812385559082,0.8884823322296143
-1.5354251861572266,4.025697231292725,0.8845807909965515
-1.5653339624404907,4.0236430168151855,0.880377471446991
-1.5826154947280884,3.9893229007720947,0.8691655397415161
-1.6170480251312256,3.9974207878112793,0.8671987652778625
-1.6408451795578003,3.9765896797180176,0.858873188495636
-1.6604362726211548,3.944836139678955,0.8481988906860352
-1.6906111240386963,3.941678047180176,0.8434879183769226
-1.7140538692474365,3.9245524406433105,0.8355422616004944
-1.724873423576355,3.8792426586151123,0.8216797113418579
-1.7455575466156006,3.8545374870300293,0.8121265172958374
-1.7893528938293457,3.8781397342681885,0.812627375125885
-1.8068939447402954,3.845982551574707,0.8015122413635254
-1.8425883054733276,3.856044054031372,0.7986916899681091
-1.8751698732376099,3.858880043029785,0.7943596839904785
-1.8981711864471436,3.840557813644409,0.7856017351150513
-1.9017149209976196,3.780242443084717,0.7680940628051758
-1.9495893716812134,3.809208393096924,0.7688606977462769
-1.9752278327941895,3.7975716590881348,0.7609468698501587
-1.9934502840042114,3.7722327709198,0.750272810459137
-2.0119526386260986,3.746541738510132,0.7394839525222778
-2.025690793991089,3.710110664367676,0.7264382839202881
-1.7066837549209595,3.074103355407715,0.5969693064689636
-1.7346761226654053,3.0774998664855957,0.5923190712928772
-0.8383257389068604,1.4650688171386719,0.27944639325141907
-0.852407693862915,1.4665396213531494,0.2770642638206482
-0.847224235534668,1.434525966644287,0.2683323621749878
-0.8652856349945068,1.4424430131912231,0.2669716775417328
-0.870849609375,1.4307676553726196,0.26193395256996155
-0.8724207878112793,1.4123975038528442,0.25566574931144714
-0.8742977976799011,1.3937638998031616,0.24925796687602997
-0.9006832838058472,1.4143725633621216,0.24980849027633667
-0.8891518115997314,1.3766016960144043,0.2398768961429596
-0.9068121314048767,1.384286880493164,0.2379232496023178
-0.9082004427909851,1.3656080961227417,0.23119395971298218
-0.9631840586662292,1.4273425340652466,0.23788976669311523
-2.4018006324768066,3.511345148086548,0.5756633877754211
-1.3356542587280273,1.9248515367507935,0.3099558651447296
-1.456578016281128,2.0683505535125732,0.3267908990383148
-1.3382015228271484,2.1063225269317627,-0.20535019040107727
-1.3061829805374146,2.0888729095458984,-0.2110094428062439
-1.1683635711669922,1.9299583435058594,-0.2079526036977768
-1.162532925605774,1.950835943222046,-0.21646670997142792
-0.8421723246574402,1.4613145589828491,-0.17143495380878448
-0.9486595392227173,1.6728192567825317,-0.20126062631607056
-0.9875099658966064,1.7705800533294678,-0.2182808667421341
-0.9351913332939148,1.7055903673171997,-0.21528983116149902
-0.9155895113945007,1.6978623867034912,-0.21912862360477448
-0.8759563565254211,1.6523233652114868,-0.21796895563602448
-0.8368818759918213,1.606421709060669,-0.21636119484901428
-0.8110078573226929,1.5841763019561768,-0.21768946945667267
-0.7822924852371216,1.5546032190322876,-0.21774902939796448
-0.755633533000946,1.5282561779022217,-0.21806535124778748
-0.744239091873169,1.533155918121338,-0.22280637919902802
-0.7231774926185608,1.516836166381836,-0.22429265081882477
-0.6959320306777954,1.4862340688705444,-0.22349728643894196
-0.670624315738678,1.4589325189590454,-0.22298811376094818
-0.6504256725311279,1.4419817924499512,-0.22392044961452484
-0.6244348287582397,1.4106107950210571,-0.22242501378059387
-0.609592616558075,1.4038196802139282,-0.22474300861358643
-0.5964088439941406,1.400456428527832,-0.22744522988796234
-0.5645166635513306,1.379059910774231,-0.23024645447731018
0.6001644730567932,1.419722318649292,-0.23109617829322815
0.6132381558418274,1.4231573343276978,-0.2284528613090515
0.6262673735618591,1.4265367984771729,-0.225713312625885
0.6520602703094482,1.4580199718475342,-0.2273135632276535
0.6802179217338562,1.4926354885101318,-0.22914449870586395
0.7004887461662292,1.509507656097412,-0.22814969718456268
0.7175680994987488,1.5192517042160034,-0.22595320641994476
0.74162757396698,1.5427500009536743,-0.22567488253116608
0.7645258903503418,1.5624390840530396,-0.2246585488319397
0.8033324480056763,1.613100290298462,-0.2278071492910385
0.8337697982788086,1.6462043523788452,-0.22828619182109833
0.8559863567352295,1.661668062210083,-0.2261185199022293
0.8911914825439453,1.7008953094482422,-0.22697517275810242
0.9321947693824768,1.7501474618911743,-0.22888270020484924
0.9645658731460571,1.7819344997406006,-0.22824952006340027
1.0054502487182617,1.8267091512680054,-0.2288348227739334
1.0411633253097534,1.8609271049499512,-0.2279108315706253
1.0941808223724365,1.9254300594329834,-0.2303655445575714
1.1346296072006226,1.9657119512557983,-0.22955232858657837
1.2036828994750977,2.052241325378418,-0.23354265093803406
1.2421122789382935,2.084531307220459,-0.2308509349822998
1.2985652685165405,2.146693706512451,-0.23124077916145325
1.3258187770843506,2.1582276821136475,-0.2257150560617447
1.3513507843017578,2.166107654571533,-0.21962222456932068
1.3700734376907349,2.1643145084381104,-0.21247896552085876
1.3809946775436401,2.1488964557647705,-0.20372335612773895
1.3856186866760254,2.123469114303589,-0.1939850151538849
1.7784168720245361,2.6865243911743164,-0.23611076176166534
1.8183472156524658,2.707636594772339,-0.22836953401565552
1.8243622779846191,2.676245927810669,-0.21571917831897736
1.8758845329284668,2.7126808166503906,-0.20827683806419373
1.8986144065856934,2.707204580307007,-0.19739295542240143
1.4450960159301758,2.030432939529419,-0.13972602784633636
1.4492549896240234,2.0088541507720947,-0.1299637258052826
1.472110390663147,2.012120485305786,-0.12143446505069733
1.4766465425491333,1.9899524450302124,-0.11103702336549759
2.6320815086364746,3.695688247680664,0.5493567585945129
1.579909086227417,2.253523111343384,0.34274929761886597
1.5440934896469116,2.239243745803833,0.34807246923446655
1.5322387218475342,2.2554545402526855,0.35730719566345215
1.5195320844650269,2.2720468044281006,0.36654648184776306
1.5056496858596802,2.2892160415649414,0.3757534325122833
1.4925516843795776,2.3057215213775635,0.3845682740211487
1.6110211610794067,2.5271246433258057,0.42785704135894775
1.5953551530838013,2.544822931289673,0.43691155314445496
3.061681032180786,4.966938495635986,0.8644036054611206
3.0059146881103516,4.953301429748535,0.8726717233657837
2.989147186279297,5.005946159362793,0.8927851319313049
2.9795570373535156,5.076452255249023,0.9154751896858215
2.936457872390747,5.090110778808594,0.9280034303665161
2.919017791748047,5.1421990394592285,0.9469072222709656
2.897207736968994,5.187509536743164,0.9647215008735657
2.8661820888519287,5.224344730377197,0.9805592894554138
2.855339527130127,5.298067092895508,1.0032860040664673
2.8293511867523193,5.340253829956055,1.0197806358337402
2.8018710613250732,5.378533363342285,1.0354862213134766
2.7834572792053223,5.437790870666504,1.0550377368927002
2.7673420906066895,5.508431911468506,1.076667070388794
2.732513427734375,5.540720462799072,1.0907831192016602
1.2258154153823853,2.5297610759735107,0.501384437084198
1.2078256607055664,2.537428140640259,0.5062776803970337
1.1858834028244019,2.538332939147949,0.5096015334129333
1.1732285022735596,2.560197114944458,0.5170156955718994
1.1569437980651855,2.5750765800476074,0.5231074690818787
1.1324602365493774,2.568270444869995,0.5246164798736572
2.5622613430023193,5.922232627868652,1.2164162397384644
2.535658359527588,5.977564334869385,1.2340999841690063
2.5029265880584717,6.022654056549072,1.249358057975769
2.473222255706787,6.078494548797607,1.2670857906341553
2.4469330310821533,6.136791229248047,1.285115122795105
2.4216315746307373,6.198447227478027,1.303957462310791
2.393975019454956,6.256538391113281,1.322082757949829
2.3626301288604736,6.3116841316223145,1.3388622999191284
2.325739622116089,6.356179714202881,1.3536124229431152
2.296328067779541,6.417976379394531,1.3720088005065918
2.27131986618042,6.490050792694092,1.3926013708114624
2.241755485534668,6.551163673400879,1.4109872579574585
2.2093546390533447,6.608892440795898,1.4283077716827393
2.1732826232910156,6.663473129272461,1.444604754447937
2.1141769886016846,6.644711017608643,1.44500732421875
2.0485033988952637,6.599615097045898,1.439605951309204
1.9876660108566284,6.56471586227417,1.4363585710525513
1.9285012483596802,6.532971382141113,1.4338111877441406
1.8679841756820679,6.497416973114014,1.4298490285873413
1.811769962310791,6.480208873748779,1.4295930862426758
1.7557523250579834,6.458641529083252,1.4283546209335327
1.6941514015197754,6.410566329956055,1.421213150024414
0.8369933366775513,3.2585673332214355,0.7241939306259155
1.5830307006835938,6.3458638191223145,1.4138424396514893
0.8058890700340271,3.331932306289673,0.7439879775047302
1.4750452041625977,6.295100212097168,1.408234715461731
1.4264822006225586,6.289566993713379,1.409655213356018
1.372701644897461,6.257505893707275,1.405157208442688
1.3210054636001587,6.228598117828369,1.4013566970825195
1.269783616065979,6.203159332275391,1.3984228372573853
1.2129133939743042,6.143589496612549,1.3875681161880493
1.1662064790725708,6.136287212371826,1.3877842426300049
1.1203503608703613,6.132384300231934,1.3888317346572876
0.8290029168128967,4.727530479431152,1.0722063779830933
0.8023252487182617,4.774028778076172,1.0843528509140015
0.7677605152130127,4.771368980407715,1.0853699445724487
0.7089978456497192,4.610257625579834,1.0503329038619995
0.6714297533035278,4.580741882324219,1.0446970462799072
0.6378767490386963,4.577401161193848,1.0449020862579346
0.600831151008606,4.551223278045654,1.03995680809021
0.5669748187065125,4.5397772789001465,1.038391351699829
0.5326791405677795,4.52048921585083,1.0350651741027832
0.4965824484825134,4.482021808624268,1.0273816585540771
0.4621599018573761,4.454680442810059,1.022139549255371
0.40071964263916016,4.14674186706543,0.9519577026367188
0.3683386743068695,4.118906021118164,0.9460943341255188
0.3431040644645691,4.166685104370117,0.9576401710510254
0.31116950511932373,4.130761623382568,0.9499914050102234
0.2834830582141876,4.147772312164307,0.9545570611953735
0.25809094309806824,4.206395626068115,0.968758761882782
0.2479960173368454,4.572865962982178,1.0535893440246582
0.36369919776916504,7.703815937042236,1.775200605392456
0.3094216585159302,7.698376655578613,1.774274230003357
0.25431838631629944,7.6621174812316895,1.7663283348083496
0.20099452137947083,7.6597065925598145,1.766265869140625
0.1459244191646576,7.615077972412109,1.756561279296875
0.09266413003206253,7.592885494232178,1.7521027326583862
0.03959743306040764,7.536289691925049,1.738771677017212
-0.012856989167630672,7.528850078582764,1.736669659614563
-0.06491973251104355,7.498208999633789,1.729301929473877
-0.1177627444267273,7.482418060302734,1.7254412174224854
-0.16881512105464935,7.439638137817383,1.715445876121521
-0.22038115561008453,7.430751800537109,1.71334969997406
-0.27200472354888916,7.429142951965332,1.7129088640213013
-0.3250895142555237,7.465448379516602,1.7202157974243164
-0.272165447473526,5.3912577629089355,1.2415642738342285
-0.31062036752700806,5.397053241729736,1.2422367334365845
-0.3460865020751953,5.364618301391602,1.2341835498809814
-0.38226622343063354,5.347136974334717,1.2296336889266968
-0.4187529385089874,5.33700704574585,1.2268366813659668
-0.45273882150650024,5.30014181137085,1.2176661491394043
-0.42779502272605896,4.626104354858398,1.061759114265442
-0.45696938037872314,4.596891403198242,1.054077386856079
-0.4870236814022064,4.5788493156433105,1.0490140914916992
-0.5171160697937012,4.560581684112549,1.0439478158950806
-0.5460671782493591,4.53455114364624,1.0371620655059814
-0.5800798535346985,4.546058177947998,1.0389995574951172
-0.6073179244995117,4.51221227645874,1.0300673246383667
-0.6356305480003357,4.4895830154418945,1.0235172510147095
-0.6675295829772949,4.493166446685791,1.0229970216751099
-0.6973181962966919,4.481438636779785,1.01903235912323
-0.727848470211029,4.469383716583252,1.0150114297866821
-0.7551246881484985,4.442172050476074,1.0076292753219604
-0.7834116816520691,4.422303199768066,1.0019378662109375
-0.8094879984855652,4.39499568939209,0.9939660429954529
-0.8359435200691223,4.371277809143066,0.9868687987327576
-0.7263820767402649,3.6627297401428223,0.8254864811897278
-0.7491300702095032,3.643125295639038,0.8196515440940857
-0.7832673192024231,3.67940616607666,0.8264364004135132
-0.9541342854499817,4.33400821685791,0.9718877077102661
-0.9856698513031006,4.3354973793029785,0.9703237414360046
-1.0082306861877441,4.299733638763428,0.9601696729660034
-1.0398377180099487,4.300848484039307,0.9582697749137878
-1.0693784952163696,4.294384956359863,0.9547433853149414
-1.091762661933899,4.2580108642578125,0.9445944428443909
-1.1127160787582397,4.217828273773193,0.9336767792701721
-1.1380198001861572,4.196043014526367,0.926791250705719
-1.1803127527236938,4.236849784851074,0.9331801533699036
-1.201754093170166,4.203909397125244,0.9233958721160889
-1.2302844524383545,4.196549415588379,0.9192925095558167
-1.2552175521850586,4.174116611480713,0.9118658900260925
-1.2844473123550415,4.166136741638184,0.9076461791992188
-1.3141156435012817,4.157808780670166,0.9033546447753906
-1.3398842811584473,4.142563819885254,0.8970389366149902
-1.3631349802017212,4.119877815246582,0.8891584873199463
-1.3885486125946045,4.1043195724487305,0.88287752866745
-1.409737467765808,4.0738372802734375,0.873350977897644
-1.4344815015792847,4.054047584533691,0.8661747574806213
-1.4530022144317627,4.015929698944092,0.8551030158996582
-1.4947028160095215,4.046682357788086,0.8581830263137817
-1.5193020105361938,4.030457019805908,0.8513074517250061
-1.546499490737915,4.0212297439575195,0.8459547758102417
-1.573439359664917,4.007821559906006,0.8396158218383789
-1.5964624881744385,3.9833741188049316,0.8309629559516907
-1.6271295547485352,3.9804162979125977,0.8267747759819031
-1.6509580612182617,3.9635307788848877,0.8192815184593201
-1.6596750020980835,3.911147356033325,0.8045320510864258
-1.6955839395523071,3.9220681190490723,0.8028017282485962
-1.7299333810806274,3.9251387119293213,0.7992743849754333
-1.7576279640197754,3.914098024368286,0.7929708361625671
-1.7778940200805664,3.889376163482666,0.783558189868927
-1.7845343351364136,3.836871862411499,0.7684860825538635
-1.8201063871383667,3.846984624862671,0.7660210132598877
-1.861083745956421,3.8629276752471924,0.7643730640411377
-1.8849841356277466,3.8441505432128906,0.7559467554092407
-1.9148917198181152,3.8393616676330566,0.7500673532485962
-1.930057168006897,3.807335615158081,0.7386267185211182
-1.9554539918899536,3.795788526535034,0.7312201261520386
-1.9822044372558594,3.783392906188965,0.7233927249908447
-2.002333641052246,3.756857395172119,0.7127733826637268
-2.0209057331085205,3.7308976650238037,0.7021834850311279
-2.068092107772827,3.759376287460327,0.7015710473060608
-1.7208764553070068,3.080388069152832,0.5699412822723389
-1.7390010356903076,3.06266188621521,0.561453640460968
-0.8487605452537537,1.4705108404159546,0.2670297920703888
-0.8586141467094421,1.465428113937378,0.2634468972682953
-0.8604261875152588,1.4470672607421875,0.2574838697910309
-0.8744238018989563,1.44834566116333,0.25492170453071594
-0.8847717642784119,1.4427261352539062,0.2510518431663513
-0.8907516002655029,1.4306323528289795,0.24594171345233917
-0.8919059634208679,1.4123259782791138,0.23978161811828613
-0.9057009220123291,1.4134011268615723,0.23682901263237
-0.8862897157669067,1.3621649742126465,0.22504973411560059
-0.9084132313728333,1.3761167526245117,0.22403575479984283
-0.9132634401321411,1.3642947673797607,0.21866320073604584
-2.385068893432617,3.5119874477386475,0.5536189675331116
-2.443263053894043,3.544480562210083,0.5489683747291565
-1.2566167116165161,1.7984496355056763,0.2733823359012604
-1.3288730382919312,1.8765839338302612,0.279763400554657
-1.3554308414459229,2.1508121490478516,-0.20808345079421997
-1.3273255825042725,2.1400504112243652,-0.21414180099964142
-1.1996431350708008,1.9976181983947754,-0.2127106934785843
-0.8246946334838867,1.418357253074646,-0.15964846312999725
-0.8451758027076721,1.477784276008606,-0.17070060968399048
-1.0208230018615723,1.8153460025787354,-0.21500776708126068
-0.9850414991378784,1.7812120914459229,-0.21604259312152863
-0.9370045065879822,1.7227064371109009,-0.21372349560260773
-0.885830819606781,1.6569918394088745,-0.21010570228099823
-0.8773496747016907,1.6696056127548218,-0.21619348227977753
-0.8440695405006409,1.633783221244812,-0.2158302664756775
-0.8284918665885925,1.632373332977295,-0.21993744373321533
-0.7870786190032959,1.578757643699646,-0.21675340831279755
-0.7620836496353149,1.5558820962905884,-0.2174924612045288
-0.739246666431427,1.5361855030059814,-0.21851767599582672
-0.7247529029846191,1.5338854789733887,-0.22189182043075562
-0.7070249319076538,1.524448275566101,-0.22418299317359924
-0.6799308657646179,1.493666410446167,-0.22320213913917542
-0.6519255042076111,1.4589883089065552,-0.22141069173812866
-0.6289080381393433,1.4347381591796875,-0.22096103429794312
-0.6123818159103394,1.4244563579559326,-0.22257865965366364
-0.591748058795929,1.4032498598098755,-0.22234559059143066
-0.5815724730491638,1.4069063663482666,-0.22605623304843903
-0.5656023621559143,1.3961726427078247,-0.22728289663791656
-0.5498245358467102,1.3852834701538086,-0.22843262553215027
0.5441290736198425,1.3791908025741577,-0.22750002145767212
0.5595115423202515,1.3902446031570435,-0.22646377980709076
0.5825186967849731,1.4189866781234741,-0.22819113731384277
0.6015399098396301,1.4367718696594238,-0.22803787887096405
0.6055168509483337,1.4188776016235352,-0.22214889526367188
0.6402536630630493,1.4718708992004395,-0.2271919846534729
0.6584686636924744,1.485589861869812,-0.22603558003902435
0.6912933588027954,1.5308548212051392,-0.22952526807785034
0.7084441184997559,1.54066801071167,-0.22749944031238556
0.7256888747215271,1.5503538846969604,-0.2253820151090622
0.7518081665039062,1.5772027969360352,-0.22554069757461548
0.7697535157203674,1.5863944292068481,-0.22312122583389282
0.8064864873886108,1.633777379989624,-0.22587047517299652
0.8455850481987,1.684252142906189,-0.22879168391227722
0.8698578476905823,1.7030556201934814,-0.22711734473705292
0.9034191370010376,1.7388027906417847,-0.22753369808197021
0.9355266690254211,1.7708581686019897,-0.22714681923389435
0.9624344706535339,1.7923866510391235,-0.22531633079051971
1.02167809009552,1.8714039325714111,-0.23029372096061707
1.0574066638946533,1.9056531190872192,-0.22943097352981567
1.091417670249939,1.9363101720809937,-0.2279069572687149
1.1418238878250122,1.9933359622955322,-0.22903130948543549
1.1970196962356567,2.0564799308776855,-0.2304808348417282
1.2427765130996704,2.1025192737579346,-0.2296559363603592
1.2950646877288818,2.1581435203552246,-0.22954335808753967
1.3225120306015015,2.169602155685425,-0.2242182344198227
1.344071626663208,2.170833110809326,-0.217626690864563
1.3669887781143188,2.175629138946533,-0.2114434689283371
1.3674535751342773,2.1438143253326416,-0.2015315443277359
1.378353476524353,2.1282706260681152,-0.1931205838918686
1.7861281633377075,2.7188258171081543,-0.23778176307678223
1.833176612854004,2.7493247985839844,-0.23093760013580322
1.8023929595947266,2.6628923416137695,-0.21423934400081635
1.8707302808761597,2.725637912750244,-0.20957936346530914
1.8848336935043335,2.7072324752807617,-0.19812701642513275
1.4335051774978638,2.0289976596832275,-0.1406218558549881
1.4514832496643066,2.0263636112213135,-0.13240428268909454
1.4745841026306152,2.029510498046875,-0.12417607009410858
1.4744755029678345,2.0011258125305176,-0.11384471505880356
2.6516664028167725,3.7512691020965576,0.5359764695167542
2.608391046524048,3.7509765625,0.5484976768493652
2.5768468379974365,3.761289596557617,0.5613375306129456
1.5380264520645142,2.2816243171691895,0.34730538725852966
1.5240249633789062,2.2990410327911377,0.3565247356891632
1.5158573389053345,2.3217933177948,0.3660094439983368
1.5637311935424805,2.432590961456299,0.3895980715751648
1.627297043800354,2.574411630630493,0.4184855818748474
1.5869569778442383,2.552751302719116,0.4209545850753784
3.0241966247558594,4.941008567810059,0.8255018591880798
3.0032951831817627,4.9875640869140625,0.8437471389770508
2.984186887741089,5.041655540466309,0.8631013631820679
2.9640400409698486,5.091526985168457,0.8815008401870728
2.9345595836639404,5.124128818511963,0.8968213200569153
2.915677547454834,5.177037715911865,0.9153512120246887
2.8926641941070557,5.227458953857422,0.9332038760185242
2.8717358112335205,5.2807512283325195,0.9515424966812134
2.854055166244507,5.336379528045654,0.9700108766555786
2.81526255607605,5.354774475097656,0.9819249510765076
2.7852327823638916,5.3944292068481445,0.9969679117202759
2.765160322189331,5.4545440673828125,1.0159472227096558
2.761737585067749,5.544773101806641,1.0403823852539062
1.2375293970108032,2.5286076068878174,0.47787752747535706
1.218846082687378,2.5367372035980225,0.4827847182750702
1.189906358718872,2.5240492820739746,0.48342573642730713
1.180580496788025,2.552997589111328,0.49207261204719543
1.1591997146606445,2.553481340408325,0.49511078000068665
1.1567455530166626,2.595904588699341,0.506322979927063
2.5733296871185303,5.886508464813232,1.1546459197998047
2.546860456466675,5.946346759796143,1.1725252866744995
2.519002914428711,6.002209663391113,1.1896530389785767
2.4934799671173096,6.060921669006348,1.207276463508606
2.466449022293091,6.11574125289917,1.2241777181625366
2.440004825592041,6.174087047576904,1.2418829202651978
2.4060144424438477,6.22273588180542,1.256988525390625
2.376316547393799,6.281682968139648,1.2742152214050293
2.3453047275543213,6.336641788482666,1.2906842231750488
2.3215551376342773,6.409025192260742,1.3106865882873535
2.282871961593628,6.441561698913574,1.3226594924926758
2.2608890533447266,6.52886962890625,1.345603585243225
2.2218031883239746,6.569047451019287,1.3584219217300415
2.1929938793182373,6.641755104064941,1.378104329109192
2.149139881134033,6.666600227355957,1.3878626823425293
2.080296754837036,6.610594272613525,1.3807642459869385
2.018341541290283,6.576150894165039,1.378232479095459
1.9554907083511353,6.537789344787598,1.3740513324737549
1.8940601348876953,6.502694129943848,1.3703162670135498
1.8383913040161133,6.485499382019043,1.3703876733779907
1.7813347578048706,6.456453800201416,1.3678812980651855
1.726184606552124,6.4305338859558105,1.36602783203125
1.6716253757476807,6.4080634117126465,1.3650025129318237
0.821829617023468,3.244584321975708,0.6926603317260742
1.5586425065994263,6.343729496002197,1.3570724725723267
1.5093944072723389,6.338833808898926,1.358888864517212
