X,Y,Z
-1.1071385145187378,2.8966901302337646,0.38607609272003174
-1.120926856994629,2.8751394748687744,0.3811931014060974
-1.1316148042678833,2.8463218212127686,0.3753792643547058
-1.14487886428833,2.8246700763702393,0.370552659034729
-1.1571533679962158,2.79909086227417,0.3651745915412903
-1.139383316040039,2.7018332481384277,0.3505002558231354
-1.139286756515503,2.651679754257202,0.3419198989868164
-1.1507714986801147,2.630180597305298,0.3370284140110016
-1.1604621410369873,2.605085849761963,0.33171430230140686
-1.1897759437561035,2.6220898628234863,0.33168894052505493
-1.2084800004959106,2.6139354705810547,0.3284171521663666
-1.2394065856933594,2.6341922283172607,0.3285902440547943
-1.2720222473144531,2.6578125953674316,0.32907482981681824
-1.2880347967147827,2.646199941635132,0.32518264651298523
-1.2720186710357666,2.5679874420166016,0.31307774782180786
-1.3113086223602295,2.600889205932617,0.31450599431991577
-1.2985084056854248,2.5337724685668945,0.3037310242652893
-1.3080978393554688,2.511765241622925,0.29843223094940186
-1.310430884361267,2.475872039794922,0.2915007472038269
-1.3241053819656372,2.4602115154266357,0.2868860363960266
-1.3372561931610107,2.444679021835327,0.28225088119506836
-1.3460659980773926,2.4225258827209473,0.27671337127685547
-1.356268048286438,2.4038901329040527,0.27167069911956787
-1.3691312074661255,2.388089656829834,0.2668115794658661
-1.3779720067977905,2.3654751777648926,0.26119181513786316
-1.405300498008728,2.3769540786743164,0.25918179750442505
-1.3970650434494019,2.3279964923858643,0.2505674362182617
-1.4050657749176025,2.3054440021514893,0.24474608898162842
-1.4498107433319092,2.342357873916626,0.24513310194015503
-1.4484511613845825,2.3069989681243896,0.23780642449855804
-1.4592475891113281,2.291429042816162,0.23257815837860107
-1.4628477096557617,2.2618682384490967,0.2256404012441635
-1.482454776763916,2.258871555328369,0.22138160467147827
-1.4926557540893555,2.2432758808135986,0.21581460535526276
-1.4967355728149414,2.217590093612671,0.209170401096344
-1.5123778581619263,2.2074546813964844,0.20379428565502167
-1.4911516904830933,2.146878242492676,0.1936834305524826
-1.5230659246444702,2.163074254989624,0.1905459612607956
-1.5043402910232544,2.1052072048187256,0.18055874109268188
-1.5177130699157715,2.0960774421691895,0.17477409541606903
-1.5221118927001953,2.0740671157836914,0.1677771806716919
-1.5271679162979126,2.0514512062072754,0.16035093367099762
-1.497851014137268,2.1147873401641846,-0.10796653479337692
-1.4778859615325928,2.11893367767334,-0.11421733349561691
-1.4726122617721558,2.1459412574768066,-0.12172163277864456
-1.4615755081176758,2.16253924369812,-0.12829700112342834
-1.4755383729934692,2.218559503555298,-0.1372503787279129
-1.471888542175293,2.2486207485198975,-0.14462655782699585
-1.4517757892608643,2.2520010471343994,-0.1500435173511505
-1.4411182403564453,2.272305488586426,-0.15657344460487366
-1.4283051490783691,2.289170742034912,-0.1628708392381668
-1.4202556610107422,2.312095880508423,-0.16937695443630219
-1.4231332540512085,2.355573892593384,-0.17746058106422424
-1.401846170425415,2.358818292617798,-0.18249456584453583
-1.3891537189483643,2.3749337196350098,-0.18834014236927032
-1.3596930503845215,2.364558219909668,-0.19210873544216156
-1.3498260974884033,2.3876900672912598,-0.19850793480873108
-1.3406145572662354,2.4102981090545654,-0.20468910038471222
-1.3307740688323975,2.433086633682251,-0.21090811491012573
-1.3147265911102295,2.4457764625549316,-0.2162581980228424
-1.3004733324050903,2.461747884750366,-0.2219056487083435
-1.2938803434371948,2.4911301136016846,-0.2286677360534668
-1.3057395219802856,2.5590083599090576,-0.23901493847370148
-1.2608169317245483,2.5158348083496094,-0.2390129566192627
-1.224128246307373,2.485813617706299,-0.23998428881168365
-1.2027981281280518,2.487112045288086,-0.243937686085701
-1.193034291267395,2.5129175186157227,-0.25017866492271423
-1.1699150800704956,2.5104448795318604,-0.253606915473938
-1.2007776498794556,2.6242713928222656,-0.2688342332839966
-1.1708998680114746,2.6074635982513428,-0.27075108885765076
-1.1755086183547974,2.6687870025634766,-0.280754417181015
-1.134377360343933,2.626868486404419,-0.27995455265045166
-1.114399790763855,2.6307287216186523,-0.28382807970046997
-1.1061393022537231,2.6632423400878906,-0.29074978828430176
-1.08987557888031,2.677877426147461,-0.29569029808044434
-1.0764517784118652,2.699582099914551,-0.301433265209198
-1.0684633255004883,2.735680341720581,-0.3088456392288208
-1.0560094118118286,2.760856866836548,-0.31495869159698486
-1.0361849069595337,2.767904043197632,-0.3189266622066498
-1.0243662595748901,2.7966668605804443,-0.32543161511421204
-1.0126482248306274,2.8252344131469727,-0.33190661668777466
-1.0026910305023193,2.861246347427368,-0.33933302760124207
-0.9860275387763977,2.8788936138153076,-0.34442248940467834
-0.9728779792785645,2.907474994659424,-0.35086876153945923
-0.9620693325996399,2.9432907104492188,-0.35821717977523804
-0.9484890103340149,2.9716780185699463,-0.36472561955451965
-0.9327354431152344,2.9965341091156006,-0.3706432580947876
-0.9203885197639465,3.0323472023010254,-0.37792739272117615
-0.9099899530410767,3.0755016803741455,-0.38618040084838867
-0.9335722923278809,3.237828493118286,-0.40957480669021606
-0.9483953714370728,3.3782730102539062,-0.4302884638309479
-0.9989719390869141,3.65745210647583,-0.46892082691192627
-0.9785714745521545,3.686518907546997,-0.4758058488368988
-0.9712297916412354,3.764056444168091,-0.4889501631259918
-0.9580702185630798,3.82287859916687,-0.4996970593929291
-0.9393208026885986,3.8629515171051025,-0.5077815055847168
-0.9209415912628174,3.906707763671875,-0.5164282917976379
-0.9008177518844604,3.9466710090637207,-0.5246855616569519
-0.8865520358085632,4.012899398803711,-0.5364753007888794
-0.8598729372024536,4.026164531707764,-0.5409045815467834
-0.8353371024131775,4.050652503967285,-0.546780526638031
-0.814339280128479,4.093964099884033,-0.5552551746368408
-0.7976411581039429,4.163825035095215,-0.5674459338188171
-0.775557279586792,4.206923961639404,-0.5759029388427734
-0.7419124841690063,4.189001083374023,-0.5756861567497253
-0.716370701789856,4.216602802276611,-0.5817517638206482
-0.6856740117073059,4.2134599685668945,-0.5835992693901062
-0.6522063612937927,4.194863796234131,-0.5833552479743958
-0.6205825209617615,4.183663845062256,-0.5837238430976868
-0.5874750018119812,4.16076135635376,-0.5823180675506592
-0.5619160532951355,4.191289901733398,-0.5884188413619995
-0.5297917723655701,4.171745777130127,-0.58750981092453
-0.4860084652900696,4.052105903625488,-0.5724068880081177
-0.46453365683555603,4.120555400848389,-0.5834259986877441
-0.42798444628715515,4.050369739532471,-0.5748189091682434
-0.40126776695251465,4.068404197692871,-0.5787363648414612
-0.37082505226135254,4.047744274139404,-0.5771732926368713
-0.34194764494895935,4.04231595993042,-0.5775282979011536
-0.31740471720695496,4.098448276519775,-0.5864595174789429
-0.28199106454849243,4.003958225250244,-0.5738412737846375
-0.2558418810367584,4.032668113708496,-0.578889012336731
-0.2282169759273529,4.0419020652771,-0.5811771750450134
-0.2008485198020935,4.0587382316589355,-0.5841045379638672
-0.17173893749713898,4.052241325378418,-0.5836383700370789
-0.14202524721622467,4.010744094848633,-0.5781451463699341
-0.11413935571908951,4.011544227600098,-0.5787712335586548
-0.08662531524896622,4.031495094299316,-0.5820680260658264
-0.0589044950902462,4.055181503295898,-0.585506021976471
-0.03041892871260643,4.08641242980957,-0.5900630354881287
-0.002002313267439604,4.063315391540527,-0.5868031978607178
0.02635817416012287,4.086414813995361,-0.5902432799339294
0.0545198991894722,4.07070255279541,-0.5877835750579834
0.08175622671842575,4.020042896270752,-0.5800681710243225
0.1104007214307785,4.0464982986450195,-0.5835105776786804
0.14011147618293762,4.076595783233643,-0.587494432926178
0.16946761310100555,4.098766326904297,-0.5903658270835876
0.19888731837272644,4.116940498352051,-0.5921692252159119
0.22877828776836395,4.138770580291748,-0.5944706201553345
0.2575407922267914,4.137228488922119,-0.5934389233589172
0.28472232818603516,4.104588031768799,-0.5879658460617065
0.3285699486732483,4.303183078765869,-0.6154729723930359
0.37513044476509094,4.501440525054932,-0.6424292325973511
0.4122810959815979,4.564455986022949,-0.6500328183174133
0.448525607585907,4.607920169830322,-0.6548466682434082
0.4835474491119385,4.627967357635498,-0.6563203930854797
0.5169884562492371,4.6363325119018555,-0.6558002233505249
0.5482112169265747,4.625288963317871,-0.6523429751396179
0.5803067088127136,4.621706008911133,-0.6499703526496887
0.6098727583885193,4.59871768951416,-0.6449053883552551
0.6413443088531494,4.586957931518555,-0.641421914100647
0.6719627380371094,4.575160503387451,-0.6374185681343079
0.7024116516113281,4.563161849975586,-0.6334280371665955
0.7303747534751892,4.535656452178955,-0.6273230314254761
0.7607022523880005,4.523223876953125,-0.6233378648757935
0.7888069748878479,4.4991888999938965,-0.6175939440727234
0.8135446310043335,4.455911636352539,-0.6088948845863342
0.8523394465446472,4.492475986480713,-0.61118084192276
0.724980890750885,3.6814637184143066,-0.4986337125301361
0.7459759712219238,3.6539390087127686,-0.4927254915237427
0.7728901505470276,3.656682014465332,-0.49059540033340454
0.8002709746360779,3.6591577529907227,-0.48831892013549805
0.8239035606384277,3.6463985443115234,-0.4840737581253052
0.8493586778640747,3.6409852504730225,-0.48081234097480774
0.8747063279151917,3.6354219913482666,-0.4774531126022339
0.8997951745986938,3.629768133163452,-0.47383350133895874
0.9195478558540344,3.6012988090515137,-0.46722450852394104
0.9426600933074951,3.587772846221924,-0.4626270532608032
0.9657113552093506,3.5740740299224854,-0.4580320417881012
0.9925216436386108,3.5752670764923096,-0.4550970196723938
1.0150444507598877,3.561377763748169,-0.45018988847732544
1.0401486158370972,3.5546367168426514,-0.44614464044570923
1.0627297163009644,3.540354013442993,-0.44121283292770386
1.0873185396194458,3.53338885307312,-0.4371165633201599
1.1069767475128174,3.5115408897399902,-0.43100470304489136
1.1335091590881348,3.511744976043701,-0.4276310205459595
1.1535625457763672,3.4893996715545654,-0.4214308261871338
1.1804473400115967,3.48911452293396,-0.41797566413879395
1.2044322490692139,3.4814562797546387,-0.4133824110031128
1.2762116193771362,3.6090760231018066,-0.42472028732299805
1.4860085248947144,4.1119465827941895,-0.47950729727745056
1.5147796869277954,4.102081775665283,-0.47394078969955444
1.5353620052337646,4.070196151733398,-0.4656115770339966
1.5632545948028564,4.060225963592529,-0.45980995893478394
1.5940697193145752,4.057234764099121,-0.45478716492652893
1.6195770502090454,4.039411544799805,-0.4480490982532501
1.644628882408142,4.021544456481934,-0.4412480294704437
1.6785731315612793,4.025026798248291,-0.43657487630844116
1.7608685493469238,4.142884254455566,-0.4442288279533386
1.9691444635391235,4.544966220855713,-0.4815838634967804
1.9190603494644165,4.346939563751221,-0.45500773191452026
1.9327213764190674,4.299013137817383,-0.4442751109600067
1.9495556354522705,4.257937908172607,-0.4342578053474426
1.9793845415115356,4.2448811531066895,-0.4270937144756317
1.5783730745315552,3.324939727783203,-0.3299233615398407
1.63984215259552,3.3952982425689697,-0.3320765793323517
1.6594327688217163,3.3776674270629883,-0.3255343735218048
2.2197933197021484,4.4384989738464355,-0.421083003282547
2.2893471717834473,4.5000901222229,-0.4201783537864685
2.319772958755493,4.485246181488037,-0.4119393527507782
2.3629841804504395,4.494207382202148,-0.40582239627838135
1.7224037647247314,3.2213401794433594,-0.28574082255363464
1.7444010972976685,3.2100272178649902,-0.2795417308807373
1.7305363416671753,3.1337785720825195,-0.2676795721054077
1.7482308149337769,3.1155385971069336,-0.2608760893344879
1.799028754234314,3.154477834701538,-0.2586824893951416
1.3416564464569092,2.3166940212249756,-0.1859101951122284
0.950192391872406,1.6159639358520508,-0.1268201470375061
0.9556966423988342,1.5993841886520386,-0.12248753011226654
0.9686143398284912,1.5964198112487793,-0.11925448477268219
0.9730618000030518,1.5802502632141113,-0.11504361033439636
0.988028883934021,1.5803987979888916,-0.11192748695611954
0.9989678263664246,1.5737645626068115,-0.10824712365865707
1.0095179080963135,1.5672717094421387,-0.10450897365808487
1.01156747341156,1.5475901365280151,-0.09989802539348602
1.0309330224990845,1.5537657737731934,-0.09684089571237564
1.032328724861145,1.5343018770217896,-0.09218995273113251
1.058040976524353,1.5501044988632202,-0.08952174335718155
2.553410768508911,3.6855521202087402,-0.20363563299179077
2.5817251205444336,3.675856113433838,-0.1939992755651474
2.6157946586608887,3.671419858932495,-0.1841159164905548
2.599102020263672,3.597450017929077,-0.17061558365821838
2.6452014446258545,3.6126821041107178,-0.16136261820793152
2.6843082904815674,3.6134531497955322,-0.1503930687904358
2.640995740890503,3.7084555625915527,0.298166960477829
2.6087839603424072,3.7208006381988525,0.3083306849002838
2.594621181488037,3.758286952972412,0.32007554173469543
1.0614582300186157,1.563292384147644,0.13664548099040985
1.0544673204421997,1.577056646347046,0.14107650518417358
1.0471237897872925,1.590936303138733,0.14543017745018005
1.0387802124023438,1.6053292751312256,0.14985871315002441
1.022925615310669,1.605921745300293,0.1527600735425949
1.0113732814788818,1.612896203994751,0.1561632752418518
0.9908327460289001,1.6070046424865723,0.15822406113147736
0.9868558049201965,1.6273603439331055,0.162819504737854
0.9631800651550293,1.6140369176864624,0.16394083201885223
0.9629776477813721,1.640974760055542,0.16903437674045563
1.3411836624145508,2.3252925872802734,0.24279426038265228
1.8290177583694458,3.224374294281006,0.34099000692367554
1.7589219808578491,3.151665687561035,0.3373722434043884
1.7574427127838135,3.205242395401001,0.34710773825645447
1.772028923034668,3.2896735668182373,0.3602421283721924
1.7518892288208008,3.308675527572632,0.3661665916442871
2.3748042583465576,4.561593532562256,0.5099744200706482
2.337672472000122,4.57125186920166,0.5159043073654175
2.3063735961914062,4.595056533813477,0.5234447121620178
2.267617702484131,4.600571632385254,0.5287389159202576
2.240420341491699,4.626114368438721,0.5361729860305786
2.2106568813323975,4.648303508758545,0.5431218147277832
2.1762781143188477,4.663800239562988,0.5490820407867432
2.144981622695923,4.6861162185668945,0.5558860898017883
2.1110808849334717,4.700791835784912,0.5617246627807617
2.077989339828491,4.714833736419678,0.5674062371253967
2.0405449867248535,4.722044944763184,0.5719953775405884
1.7711031436920166,4.182229518890381,0.5098093748092651
1.7149912118911743,4.133626461029053,0.5070592761039734
1.6796655654907227,4.130799293518066,0.5097908973693848
1.6564685106277466,4.156324863433838,0.5159933567047119
1.6319299936294556,4.182168960571289,0.5219478607177734
1.6055312156677246,4.204320907592773,0.5274273157119751
1.5775755643844604,4.22265625,0.5324641466140747
1.5474355220794678,4.2332844734191895,0.5365027785301208
1.5177682638168335,4.243508338928223,0.540468156337738
1.4923325777053833,4.268481731414795,0.5460622310638428
1.4613093137741089,4.278735160827637,0.5497089624404907
1.4326682090759277,4.296116352081299,0.5543043613433838
1.3994194269180298,4.2984418869018555,0.5569581985473633
1.3740348815917969,4.322441101074219,0.56239253282547
1.345714807510376,4.3390212059021,0.5667239427566528
1.3166117668151855,4.355626106262207,0.570855975151062
1.2873384952545166,4.372033596038818,0.5749984979629517
1.2539684772491455,4.373246192932129,0.5771505236625671
1.229151964187622,4.404017448425293,0.5832285284996033
1.1983901262283325,4.412079811096191,0.5863045454025269
1.1717519760131836,4.438905239105225,0.5915139317512512
1.1379765272140503,4.439327716827393,0.5931980609893799
1.1117349863052368,4.469566822052002,0.5989024639129639
1.0815759897232056,4.484569549560547,0.6026023626327515
1.0502221584320068,4.49166202545166,0.6052337884902954
1.020418405532837,4.506126403808594,0.6087893843650818
0.988247811794281,4.512991428375244,0.6110056638717651
0.9560309648513794,4.519626140594482,0.6132216453552246
0.7823277115821838,3.8356540203094482,0.5215837955474854
0.7540906071662903,3.8331642150878906,0.5223826766014099
0.7302114963531494,3.853297710418701,0.5262939929962158
0.8350422382354736,4.581725597381592,0.6270191669464111
0.8058571815490723,4.606359958648682,0.6313837766647339
0.7738615870475769,4.619447708129883,0.6342219114303589
0.7399017214775085,4.616926670074463,0.634929358959198
0.7124082446098328,4.652338981628418,0.6408727169036865
0.6811017990112305,4.664608478546143,0.6436680555343628
0.6516401767730713,4.692047595977783,0.648388683795929
0.618899405002594,4.704102516174316,0.6507722735404968
0.5871495008468628,4.719690322875977,0.6536664962768555
0.5565118789672852,4.746598243713379,0.658167839050293
0.525183916091919,4.765560150146484,0.6615939736366272
0.49203062057495117,4.768917560577393,0.6628884673118591
0.46016332507133484,4.787491321563721,0.6661498546600342
0.4279773533344269,4.813665390014648,0.6702150702476501
0.3951180875301361,4.828003883361816,0.672661304473877
0.3611610531806946,4.830545902252197,0.6734989881515503
0.3285980820655823,4.848266124725342,0.676482081413269
0.29627546668052673,4.873488903045654,0.6805490255355835
0.2625744044780731,4.890817642211914,0.6834280490875244
0.22944918274879456,4.9156718254089355,0.6870224475860596
0.1955290138721466,4.928703308105469,0.6889991164207458
0.1618167757987976,4.953099727630615,0.6925994157791138
0.12733781337738037,4.954056262969971,0.692955732345581
0.09269647300243378,4.977990627288818,0.6965655088424683
0.05813375860452652,4.986207485198975,0.6979620456695557
0.023538250476121902,5.017458915710449,0.7021580934524536
-0.011445880867540836,5.029126167297363,0.703646183013916
-0.046644050627946854,5.052154064178467,0.7067573666572571
-0.08269574493169785,5.067188262939453,0.7087825536727905
-0.11812300235033035,5.074244499206543,0.7097275853157043
-0.15388630330562592,5.088786602020264,0.7117539048194885
-0.18918785452842712,5.087677955627441,0.7111714482307434
-0.22446992993354797,5.08633279800415,0.7105345129966736
-0.261913537979126,5.127243995666504,0.7158313393592834
-0.29852694272994995,5.133084774017334,0.7162560224533081
-0.2826778292655945,4.339513778686523,0.6052268743515015
-0.309477835893631,4.291213512420654,0.5982263088226318
-0.3403989374637604,4.304511070251465,0.5995531678199768
-0.37140628695487976,4.317613124847412,0.6007496118545532
-0.39814531803131104,4.276504993438721,0.5944241881370544
-0.4203586280345917,4.200628757476807,0.5833200216293335
-0.44423627853393555,4.147711753845215,0.5754440426826477
-0.4704698324203491,4.121578216552734,0.5713209509849548
-0.4938170909881592,4.076126575469971,0.5643358826637268
-0.5144560933113098,4.011338710784912,0.554506242275238
-0.5420522689819336,4.007882118225098,0.5532087683677673
-0.5570879578590393,3.9161038398742676,0.539763867855072
-0.5814613103866577,3.893169403076172,0.5358467102050781
-0.6025914549827576,3.8509573936462402,0.5293119549751282
-0.6233846545219421,3.8086249828338623,0.5226305723190308
-0.6435926556587219,3.7701425552368164,0.5163237452507019
-0.6640191674232483,3.7353639602661133,0.510564386844635
-0.6895897388458252,3.730943441390991,0.508988082408905
-0.7016469836235046,3.654031753540039,0.4975506365299225
-0.7194772958755493,3.6113033294677734,0.49082010984420776
-0.7393425107002258,3.579848051071167,0.48550668358802795
-0.745154619216919,3.4878687858581543,0.47185444831848145
-0.7655737996101379,3.467827320098877,0.4679926037788391
-0.7892321348190308,3.4627647399902344,0.46617716550827026
-0.8062209486961365,3.4272735118865967,0.4602753818035126
-0.8249971270561218,3.3991410732269287,0.455382376909256
-0.8436970710754395,3.374849796295166,0.45090168714523315
-0.8646661043167114,3.3618202209472656,0.44779160618782043
-0.8795869946479797,3.326176643371582,0.44170328974723816
-0.8961606621742249,3.2979421615600586,0.43663644790649414
-0.9153557419776917,3.2768616676330566,0.43250134587287903
-0.9306688904762268,3.244612216949463,0.42695435881614685
-0.9440737366676331,3.208730459213257,0.4207693636417389
-0.9590451121330261,3.1803112030029297,0.41551968455314636
-0.9782822728157043,3.1666367053985596,0.4122275412082672
-0.9137786030769348,2.886542320251465,0.37436404824256897
-1.0020335912704468,3.0906059741973877,0.39934462308883667
-1.0210713148117065,3.076503038406372,0.3960418105125427
-1.0342755317687988,3.047860860824585,0.390639066696167
-1.0547932386398315,3.041149139404297,0.3880749046802521
-1.0687894821166992,3.016018867492676,0.3831881284713745
-1.0822385549545288,2.986816883087158,0.377736896276474
-1.1031025648117065,2.979506015777588,0.3751109540462494
-1.1179548501968384,2.9577271938323975,0.37053582072257996
-1.116883635520935,2.896190643310547,0.36093664169311523
-1.1420233249664307,2.90340256690979,0.35994768142700195
-1.1362920999526978,2.8308699131011963,0.34904786944389343
-1.1501682996749878,2.808840274810791,0.3444480895996094
-1.1500509977340698,2.7546353340148926,0.33588531613349915
-1.1487091779708862,2.700793981552124,0.32730287313461304
-1.1389811038970947,2.629267454147339,0.3166745603084564
-1.157212257385254,2.621648073196411,0.31373271346092224
-1.175504207611084,2.613851308822632,0.31077226996421814
-1.2031892538070679,2.62723445892334,0.31026551127433777
-1.2272149324417114,2.6336216926574707,0.30875974893569946
-1.2446993589401245,2.62577486038208,0.3055894374847412
-1.2528190612792969,2.596435308456421,0.2998451888561249
-1.2675889730453491,2.5809836387634277,0.29572534561157227
-1.306076169013977,2.614347219467163,0.29708608984947205
-1.28648042678833,2.533224582672119,0.2853814959526062
-1.2997183799743652,2.518095016479492,0.28120532631874084
-1.3298311233520508,2.533494472503662,0.28032052516937256
-1.3203848600387573,2.472909927368164,0.27100464701652527
-1.3293026685714722,2.4508450031280518,0.26587381958961487
-1.3416721820831299,2.435612201690674,0.26150116324424744
-1.3486404418945312,2.4098973274230957,0.25596627593040466
-1.3617174625396729,2.3939929008483887,0.25140535831451416
-1.3703563213348389,2.371516227722168,0.24603921175003052
-1.3819516897201538,2.356163740158081,0.24144235253334045
-1.3937053680419922,2.3405816555023193,0.23679044842720032
-1.4222180843353271,2.351123094558716,0.2346177101135254
-1.433917760848999,2.3352956771850586,0.22972430288791656
-1.4493581056594849,2.3261687755584717,0.225386381149292
-1.4482941627502441,2.290482997894287,0.2184787392616272
-1.4601205587387085,2.2741427421569824,0.21332068741321564
-1.466413140296936,2.2519471645355225,0.20754753053188324
-1.4529645442962646,2.200629949569702,0.19916658103466034
-1.4641163349151611,2.184292793273926,0.1936868131160736
-1.509592890739441,2.2198333740234375,0.19270850718021393
-1.48395836353302,2.152808427810669,0.1827993243932724
-1.4895005226135254,2.1304147243499756,0.17660470306873322
-1.4927880764007568,2.1046993732452393,0.1699937880039215
-1.5107941627502441,2.1018519401550293,0.1651003211736679
-1.515749216079712,2.079453706741333,0.15844640135765076
-1.5204342603683472,2.0571107864379883,0.15159277617931366
-1.4967151880264282,2.0968363285064697,-0.09924661368131638
-1.5103037357330322,2.149078607559204,-0.10766531527042389
-1.4739875793457031,2.1312530040740967,-0.11251426488161087
-1.465527892112732,2.1509451866149902,-0.11887210607528687
-1.47956120967865,2.2070581912994385,-0.12737086415290833
-1.4763426780700684,2.236973762512207,-0.13429652154445648
-1.4599847793579102,2.2473368644714355,-0.13999240100383759
-1.4493499994277954,2.2677533626556396,-0.14624761044979095
-1.4413256645202637,2.2909605503082275,-0.1525191366672516
-1.4248119592666626,2.3009092807769775,-0.15782903134822845
-1.4197667837142944,2.3310928344726562,-0.16454586386680603
-1.4066805839538574,2.3477325439453125,-0.1702759712934494
-1.4018124341964722,2.3774642944335938,-0.17682556807994843
-1.3841500282287598,2.387408494949341,-0.1819107085466385
-1.3590524196624756,2.3834729194641113,-0.1858358383178711
-1.3461101055145264,2.399369716644287,-0.19116085767745972
-1.3319804668426514,2.4157543182373047,-0.19657039642333984
-1.3234654664993286,2.44221568107605,-0.20277449488639832
-1.3099292516708374,2.457948684692383,-0.20796014368534088
-1.295964241027832,2.4737462997436523,-0.21314552426338196
-1.2885438203811646,2.5035316944122314,-0.21953369677066803
-1.2701460123062134,2.5125081539154053,-0.22415421903133392
-1.2334240674972534,2.4826090335845947,-0.22509729862213135
-1.2274247407913208,2.5155441761016846,-0.23165613412857056
-1.1737737655639648,2.450289249420166,-0.22908633947372437
-1.1695691347122192,2.4863643646240234,-0.23586010932922363
-1.1831166744232178,2.56123423576355,-0.2464054971933365
-1.198000192642212,2.6438748836517334,-0.257839173078537
-1.1520003080368042,2.5916144847869873,-0.2560776174068451
-1.1787439584732056,2.7026968002319336,-0.2704499661922455
-1.1260789632797241,2.6318202018737793,-0.26663559675216675
-1.1130962371826172,2.653815746307373,-0.27201318740844727
-1.0935882329940796,2.6615025997161865,-0.2760111689567566
-1.0834938287734985,2.690391778945923,-0.2821238338947296
-1.076035737991333,2.7264392375946045,-0.28903692960739136
-1.0592771768569946,2.740931272506714,-0.29355528950691223
-1.0492111444473267,2.773503065109253,-0.300049751996994
-1.0400168895721436,2.8097243309020996,-0.3070230782032013
-1.0203152894973755,2.816530227661133,-0.31074729561805725
-1.0080212354660034,2.845299005508423,-0.31676462292671204
-0.9927565455436707,2.8667123317718506,-0.3219631016254425
-0.9811238646507263,2.8990325927734375,-0.3284214437007904
-0.9677734971046448,2.927659273147583,-0.3345368802547455
-0.954225480556488,2.956199884414673,-0.3405323624610901
-0.9413049221038818,2.9884564876556396,-0.3469049036502838
-0.9291582107543945,3.0243656635284424,-0.3537626266479492
-0.9080577492713928,3.030374526977539,-0.3571142852306366
-0.8977271914482117,3.0735130310058594,-0.3648507297039032
-0.8808914422988892,3.098179817199707,-0.37026074528694153
-0.869310736656189,3.1413514614105225,-0.37790244817733765
-0.8492428660392761,3.154491901397705,-0.38196900486946106
-0.8399125933647156,3.20876407623291,-0.3910709619522095
-0.8210434913635254,3.229290723800659,-0.3959035277366638
-0.8070334196090698,3.272416830062866,-0.4035199284553528
-0.8236128091812134,3.443624496459961,-0.42704489827156067
-0.826714813709259,3.5660109519958496,-0.4447072148323059
-0.8782192468643188,3.9118027687072754,-0.4904651641845703
-0.866252601146698,3.9894957542419434,-0.5026032328605652
-0.8479726910591125,4.044525623321533,-0.5120258927345276
-0.8211773633956909,4.057562351226807,-0.51613450050354
-0.8017619252204895,4.1084418296813965,-0.5251059532165527
-0.7807573080062866,4.15550422668457,-0.5333390235900879
-0.7611284255981445,4.213932037353516,-0.5429742336273193
-0.7356026768684387,4.2456278800964355,-0.549267590045929
-0.7123587727546692,4.288511276245117,-0.5570116639137268
-0.6903485655784607,4.342758655548096,-0.5662370920181274
-0.6668469309806824,4.3931474685668945,-0.5746040940284729
-0.6421175003051758,4.439577102661133,-0.5825176239013672
-0.6179508566856384,4.497429370880127,-0.5920228362083435
-0.5911930203437805,4.535863399505615,-0.5989967584609985
-0.5661758184432983,4.593405246734619,-0.6082812547683716
-0.5381028652191162,4.631614685058594,-0.6147943139076233
-0.5099436044692993,4.673500061035156,-0.6218484044075012
-0.47418633103370667,4.6458659172058105,-0.6196832060813904
-0.3951399326324463,4.163147926330566,-0.5566990375518799
-0.36841097474098206,4.192634582519531,-0.5616083741188049
-0.3390901982784271,4.194942474365234,-0.5628365278244019
-0.3132094740867615,4.243377208709717,-0.5702900886535645
-0.287548303604126,4.3032307624816895,-0.5793264508247375
-0.2916703522205353,4.884669780731201,-0.6586626768112183
-0.22355391085147858,4.240875244140625,-0.5723337531089783
-0.19467070698738098,4.257706165313721,-0.5751169919967651
-0.16290098428726196,4.204710960388184,-0.5684905052185059
-0.1333344727754593,4.1940412521362305,-0.5676038265228271
-0.1014489009976387,4.10581636428833,-0.5559861063957214
-0.07390902191400528,4.164456367492676,-0.5640037059783936
-0.05307300388813019,4.915759563446045,-0.6658775806427002
-0.016011632978916168,4.180522441864014,-0.5664162635803223
0.013233254663646221,4.230832099914551,-0.5733940601348877
0.043267395347356796,4.238409519195557,-0.5741806626319885
0.07086063176393509,4.125814914703369,-0.5586098432540894
0.09872257709503174,4.090442657470703,-0.5535328388214111
0.12786686420440674,4.112921714782715,-0.5563125610351562
0.16082273423671722,4.228038311004639,-0.5715996623039246
0.19259800016880035,4.281083583831787,-0.5780116319656372
0.223838210105896,4.299071311950684,-0.579692542552948
0.27785173058509827,4.707195281982422,-0.6339502334594727
0.3128888010978699,4.74005126953125,-0.6376241445541382
0.34751856327056885,4.761096000671387,-0.639504611492157
0.3783518671989441,4.731771469116211,-0.6342806816101074
0.40840283036231995,4.690624237060547,-0.6274968981742859
0.44171127676963806,4.6955952644348145,-0.6269422769546509
0.47206926345825195,4.669500827789307,-0.6222711205482483
0.5019558072090149,4.643274307250977,-0.6172332763671875
0.5327887535095215,4.628425598144531,-0.6135711073875427
0.5635334849357605,4.609462261199951,-0.6093737483024597
0.5866712331771851,4.53656530380249,-0.598127543926239
0.624523937702179,4.578703880310059,-0.602078378200531
0.5423581600189209,3.7808644771575928,-0.49542492628097534
0.5650728940963745,3.75431752204895,-0.490237832069397
0.5964105129241943,3.781137466430664,-0.49200600385665894
0.6151481866836548,3.731304168701172,-0.4838562607765198
0.6410675644874573,3.7272398471832275,-0.4815307557582855
0.6668142676353455,3.723052978515625,-0.47894781827926636
0.6911143064498901,3.711066722869873,-0.4753885269165039
0.7154588103294373,3.6988866329193115,-0.471821665763855
0.7416974902153015,3.6940512657165527,-0.46917980909347534
0.7649177312850952,3.677799701690674,-0.4648619294166565
0.7903361320495605,3.6727960109710693,-0.46189531683921814
0.8106706142425537,3.644904136657715,-0.45608675479888916
0.8413060903549194,3.662203550338745,-0.4559338390827179
0.8618764877319336,3.633892059326172,-0.450025737285614
0.8851125836372375,3.6207287311553955,-0.4457709789276123
0.9082071185112,3.607412815093994,-0.4415297210216522
0.9332475066184998,3.6014232635498047,-0.43819689750671387
0.9543637633323669,3.580233097076416,-0.4330347776412964
0.9816275238990784,3.581334114074707,-0.43034711480140686
1.0062763690948486,3.5749239921569824,-0.42670032382011414
1.026629090309143,3.5534110069274902,-0.42127662897109985
1.0536267757415771,3.554033041000366,-0.4184712767601013
1.0761406421661377,3.539604902267456,-0.413870632648468
1.092827558517456,3.506502389907837,-0.4068205654621124
1.145277738571167,3.5881307125091553,-0.41310134530067444
1.244997262954712,3.809408187866211,-0.4351636469364166
1.3948220014572144,4.169430732727051,-0.472540944814682
1.4110161066055298,4.123509883880615,-0.4634052813053131
1.4444254636764526,4.1289567947387695,-0.460003525018692
1.476011037826538,4.126599311828613,-0.4556404650211334
1.5021718740463257,4.109442234039307,-0.44968318939208984
1.5279542207717896,4.092203140258789,-0.44364264607429504
1.5587279796600342,4.08948278427124,-0.43902912735939026
1.5838671922683716,4.072049140930176,-0.43286123871803284
1.6128144264221191,4.061264514923096,-0.4272575080394745
1.6352994441986084,4.036067962646484,-0.4202108085155487
1.6687572002410889,4.039775848388672,-0.4159930348396301
1.6993496417999268,4.036030292510986,-0.41099780797958374
1.9452320337295532,4.532256603240967,-0.45625367760658264
1.9166473150253296,4.379969120025635,-0.4356953203678131
1.9194841384887695,4.307065486907959,-0.42316734790802
1.9245905876159668,4.24140739440918,-0.41151291131973267
1.965416669845581,4.253305912017822,-0.4073244631290436
1.5825436115264893,3.363175630569458,-0.31780633330345154
2.1051316261291504,4.395336151123047,-0.4094553589820862
2.1587586402893066,4.430612564086914,-0.40687569975852966
2.2292449474334717,4.496418476104736,-0.4068038761615753
2.2799923419952393,4.519606590270996,-0.4026727080345154
2.310441732406616,4.50479793548584,-0.39497581124305725
2.344390869140625,4.4966816902160645,-0.3878738582134247
1.7265496253967285,3.2554919719696045,-0.2759195566177368
1.7380478382110596,3.2233264446258545,-0.26836642622947693
1.7203762531280518,3.140287399291992,-0.256664901971817
1.7340139150619507,3.1154167652130127,-0.24982893466949463
1.7711291313171387,3.1308090686798096,-0.2460470199584961
1.3227219581604004,2.3011937141418457,-0.1770428717136383
1.2771282196044922,2.188295364379883,-0.16476142406463623
0.9522102475166321,1.6063357591629028,-0.11820760369300842
0.9573447704315186,1.5898808240890503,-0.11421515047550201
0.978042721748352,1.6003587245941162,-0.11212856322526932
0.9827956557273865,1.583926796913147,-0.1080634817481041
1.0001416206359863,1.587112307548523,-0.10525985807180405
1.0065016746520996,1.5740621089935303,-0.10136692225933075
1.0147531032562256,1.5643270015716553,-0.0977039560675621
1.0278388261795044,1.560659646987915,-0.09423688799142838
1.0383836030960083,1.5538846254348755,-0.09052087366580963
1.0419387817382812,1.5375913381576538,-0.0863255187869072
2.545448064804077,3.700786590576172,-0.19932734966278076
2.5696218013763428,3.684536933898926,-0.18997427821159363
2.602800130844116,3.6807949542999268,-0.1810702532529831
2.6104559898376465,3.63749623298645,-0.1695263385772705
2.606011152267456,3.583371639251709,-0.1578175127506256
2.6720712184906006,3.6225476264953613,-0.14951829612255096
2.623389482498169,3.7127456665039062,0.280223548412323
2.5926554203033447,3.7240452766418457,0.2893046736717224
2.563751220703125,3.743253707885742,0.29883766174316406
1.0605216026306152,1.5740323066711426,0.1289493292570114
1.0623369216918945,1.6006481647491455,0.13416065275669098
1.0371689796447754,1.5889227390289307,0.13607724010944366
1.029342532157898,1.6029713153839111,0.14011982083320618
1.018031358718872,1.6098929643630981,0.14336484670639038
0.9974546432495117,1.604114055633545,0.14543406665325165
0.9892176985740662,1.6180520057678223,0.1492231786251068
0.9777241349220276,1.624748945236206,0.15217803418636322
0.96206134557724,1.624755859375,0.1544509083032608
1.337476372718811,2.2978556156158447,0.2215258777141571
1.345167875289917,2.3514459133148193,0.229842871427536
1.7943847179412842,3.187988519668579,0.3155607581138611
1.7522976398468018,3.166410207748413,0.31721603870391846
1.7823635339736938,3.2781150341033936,0.33220455050468445
1.761823058128357,3.297515630722046,0.33790817856788635
2.3930141925811768,4.556173324584961,0.4718770980834961
2.3565104007720947,4.565736293792725,0.47762468457221985
2.3206746578216553,4.5790300369262695,0.48359933495521545
2.288377285003662,4.598930835723877,0.49027907848358154
2.2543137073516846,4.610757827758789,0.49588072299957275
2.2261548042297363,4.6367082595825195,0.5030597448348999
2.188478708267212,4.645397186279297,0.5079955458641052
2.160576581954956,4.674948215484619,0.5152466297149658
2.127027750015259,4.689696788787842,0.5207791924476624
2.0972797870635986,4.710981845855713,0.5269834399223328
2.0602786540985107,4.718213081359863,0.531441867351532
2.0020697116851807,4.679297924041748,0.5305600762367249
1.734838604927063,4.137986660003662,0.47223642468452454
1.7026811838150024,4.1424360275268555,0.47568389773368835
1.6765327453613281,4.160975933074951,0.4807547628879547
1.643672227859497,4.165248870849609,0.48395848274230957
1.612680435180664,4.176877975463867,0.4879807233810425
1.5889989137649536,4.206241130828857,0.4940670132637024
1.5621250867843628,4.224126815795898,0.4987436830997467
1.5299468040466309,4.227181911468506,0.5016803741455078
1.5022330284118652,4.244919300079346,0.5061435699462891
1.4734119176864624,4.262801647186279,0.5105568766593933
1.4400068521499634,4.2655930519104,0.5131492018699646
1.41712486743927,4.297366619110107,0.5192059278488159
1.3870940208435059,4.306747913360596,0.5225672721862793
1.36357581615448,4.3382673263549805,0.5285121202468872
1.3294113874435425,4.340366363525391,0.5306978225708008
1.298099160194397,4.349462985992432,0.5337279438972473
1.2713525295257568,4.3731489181518555,0.538564145565033
1.2429035902023315,4.389019966125488,0.5424323081970215
1.2121899127960205,4.397236347198486,0.5453868508338928
1.1847020387649536,4.420459270477295,0.5498693585395813
1.1523905992507935,4.42866325378418,0.5525144934654236
1.121548056602478,4.440249919891357,0.5555827617645264
1.0921883583068848,4.45522928237915,0.5590735077857971
1.0664842128753662,4.485050201416016,0.5644534826278687
1.0349762439727783,4.492119789123535,0.5668833255767822
1.0056837797164917,4.514379024505615,0.57099848985672
0.9685651063919067,4.498424530029297,0.5702833533287048
0.9349267482757568,4.497344493865967,0.5714722871780396
0.7709305882453918,3.8422038555145264,0.4893518388271332
0.7411968111991882,3.832031726837158,0.4892030358314514
0.8456172347068787,4.545751571655273,0.5814933776855469
0.8222439289093018,4.601007461547852,0.5895570516586304
0.789569616317749,4.606504917144775,0.5912865996360779
0.758306086063385,4.619388580322266,0.593989372253418
0.7284876704216003,4.639656066894531,0.5976637601852417
0.6990377902984619,4.667470455169678,0.6023663878440857
0.6672786474227905,4.6797590255737305,0.604796290397644
0.6352648138999939,4.691865921020508,0.6070755124092102
0.6040489673614502,4.711444854736328,0.6103566288948059
0.571340799331665,4.7192583084106445,0.6121435165405273
0.540268063545227,4.738348484039307,0.6154168844223022
0.5091280341148376,4.765003204345703,0.61972576379776
0.476484090089798,4.776033878326416,0.6217322945594788
0.44364234805107117,4.786866664886475,0.623587965965271
0.41128143668174744,4.8051958084106445,0.6264540553092957
0.3787873685359955,4.823297500610352,0.6293229460716248
0.34547409415245056,4.837335586547852,0.6317005157470703
0.31279873847961426,4.854972839355469,0.6345731616020203
0.27978479862213135,4.872429370880127,0.6371852159500122
0.2464609593153,4.889690399169922,0.6396043300628662
0.21329770982265472,4.914459228515625,0.6430380344390869
0.17860350012779236,4.9235405921936035,0.6444562077522278
0.1446971744298935,4.936226844787598,0.646373450756073
0.11100258678197861,4.968040466308594,0.650829553604126
0.07666049897670746,4.984158039093018,0.6530524492263794
0.04201320558786392,5.0000715255737305,0.6550238132476807
0.006619367748498917,5.023489952087402,0.6580085754394531
-0.028496699407696724,5.035040855407715,0.6594719290733337
-0.06346466392278671,5.034729480743408,0.6594134569168091
-0.09903538227081299,5.065154075622559,0.6634126305580139
-0.13439173996448517,5.072114944458008,0.6642265915870667
-0.17031045258045197,5.094357490539551,0.6667357683181763
-0.20626096427440643,5.093100070953369,0.6661928296089172
-0.2424655705690384,5.110963344573975,0.6681888103485107
-0.28093135356903076,5.16337251663208,0.6747277975082397
-0.3149164021015167,5.130436420440674,0.6701452732086182
-0.2942717373371124,4.305064678192139,0.5620684623718262
-0.3233810365200043,4.287550449371338,0.5591878294944763
-0.35362133383750916,4.293046474456787,0.5593470931053162
-0.385377436876297,4.313758850097656,0.5615109801292419
-0.40824246406555176,4.237826824188232,0.5511260628700256
-0.43255096673965454,4.1848978996276855,0.5437719225883484
-0.45708370208740234,4.135631561279297,0.5369076728820801
-0.4796721637248993,4.082520484924316,0.5292243957519531
-0.5020297169685364,4.033137321472168,0.5220677852630615
-0.5257502198219299,3.999004364013672,0.5169240832328796
-0.5529131889343262,3.9915785789489746,0.515259325504303
-0.568851113319397,3.903364896774292,0.5031917095184326
-0.5907379388809204,3.8649837970733643,0.4976043999195099
-0.6111246347427368,3.822763204574585,0.4912185072898865
-0.6303094625473022,3.776623010635376,0.4843607246875763
-0.6535395979881287,3.7571239471435547,0.48095664381980896
-0.6712014675140381,3.706939458847046,0.47365492582321167
-0.6924341320991516,3.675615072250366,0.46878132224082947
-0.7120209336280823,3.6404623985290527,0.4634722173213959
-0.7291451692581177,3.597748041152954,0.45691993832588196
-0.7401712536811829,3.528404474258423,0.44702771306037903
-0.7551798224449158,3.4818124771118164,0.44007280468940735
-0.7796539068222046,3.4766311645507812,0.43835294246673584
-0.8003461360931396,3.456223249435425,0.4347498416900635
-0.81894850730896,3.4281632900238037,0.4301937222480774
-0.8366896510124207,3.400167942047119,0.4253983199596405
-0.8531355857849121,3.3683269023895264,0.42015987634658813
-0.8725196123123169,3.3475749492645264,0.41631796956062317
-0.8856326341629028,3.3042359352111816,0.4097065031528473
-0.9065585136413574,3.2907521724700928,0.40682631731033325
-0.9218664169311523,3.2585372924804688,0.40157565474510193
-0.9395755529403687,3.237590789794922,0.3975484371185303
-0.9507753849029541,3.19413423538208,0.39077430963516235
-0.9656448364257812,3.1656041145324707,0.385891318321228
-0.9865061044692993,3.155369281768799,0.38323265314102173
-0.9990159869194031,3.1191165447235107,0.3774454593658447
-1.0106066465377808,3.0830070972442627,0.371547132730484
-1.024342656135559,3.054211378097534,0.3664640486240387
-1.0474621057510376,3.0548524856567383,0.36496424674987793
-1.0620192289352417,3.0295517444610596,0.3603595197200775
-1.075221061706543,3.0004491806030273,0.3553215563297272
-1.0985827445983887,3.000537157058716,0.35371243953704834
-1.1078282594680786,2.9643075466156006,0.34765833616256714
-1.1169533729553223,2.9279661178588867,0.3416135609149933
-1.1184343099594116,2.873594284057617,0.33354103565216064
-1.132771372795105,2.8515706062316895,0.3292188048362732
-1.1439616680145264,2.822272539138794,0.3240928649902344
-1.1584426164627075,2.804075002670288,0.320063978433609
-1.1428722143173218,2.714075803756714,0.30787354707717896
-1.1457687616348267,2.6709344387054443,0.30112481117248535
-1.1550679206848145,2.6418137550354004,0.29593729972839355
-1.1592706441879272,2.6020374298095703,0.28960901498794556
-1.1879159212112427,2.619307279586792,0.28947925567626953
-1.2056792974472046,2.6115050315856934,0.28651493787765503
-1.243010401725769,2.6458988189697266,0.2881850302219391
-1.2514121532440186,2.6164379119873047,0.2828095257282257
-1.2866277694702148,2.642949104309082,0.28347325325012207
-1.2937707901000977,2.613800048828125,0.2779845893383026
-1.2816323041915894,2.546315908432007,0.268465518951416
-1.291814923286438,2.524041175842285,0.263773649930954
-1.3023587465286255,2.5014357566833496,0.25900232791900635
-1.3157967329025269,2.4859414100646973,0.2549213171005249
-1.3248589038848877,2.4638164043426514,0.2501121163368225
-1.3337020874023438,2.441664218902588,0.2453366219997406
-1.3453556299209595,2.422279119491577,0.240693598985672
-1.3582580089569092,2.406486749649048,0.23645943403244019
-1.3662203550338745,2.38440203666687,0.23151439428329468
-1.381778597831726,2.3757691383361816,0.22790108621120453
-1.4021539688110352,2.373215436935425,0.2247089147567749
-1.3909226655960083,2.3168294429779053,0.21637381613254547
-1.4060174226760864,2.308061361312866,0.21248479187488556
-1.4128634929656982,2.2859385013580322,0.20739306509494781
-1.4494507312774658,2.3094100952148438,0.20621390640735626
-1.4443289041519165,2.2669332027435303,0.1990910768508911
-1.463409423828125,2.264320135116577,0.19537660479545593
-1.4868794679641724,2.2680091857910156,0.19216206669807434
-1.4941586256027222,2.2449071407318115,0.18645767867565155
-1.471721887588501,2.1805644035339355,0.17736880481243134
-1.5032726526260376,2.1971888542175293,0.17489956319332123
-1.4832134246826172,2.135657548904419,0.16586793959140778
-1.4905165433883667,2.1166529655456543,0.16025055944919586
-1.5038350820541382,2.107576370239258,0.1553741842508316
-1.513871431350708,2.091148614883423,0.14954695105552673
-1.5274007320404053,2.0816688537597656,0.14413321018218994
-1.5219788551330566,2.047255277633667,0.1369459629058838
-1.4936974048614502,2.1086533069610596,-0.09758295118808746
-1.4822932481765747,2.1259260177612305,-0.1038501039147377
-1.4737603664398193,2.1457905769348145,-0.10991284996271133
-1.4920862913131714,2.208554744720459,-0.11840969324111938
-1.480546474456787,2.2253899574279785,-0.12420336902141571
-1.468500018119812,2.242387056350708,-0.12993764877319336
-1.455726146697998,2.2596702575683594,-0.13571539521217346
-1.4418946504592896,2.272836685180664,-0.14093752205371857
-1.433198094367981,2.2964205741882324,-0.1468924880027771
-1.4241528511047363,2.320038080215454,-0.152822345495224
-1.391669511795044,2.3029747009277344,-0.1557961106300354
-1.3988783359527588,2.3528847694396973,-0.1632939875125885
-1.389256477355957,2.3763251304626465,-0.1690409630537033
-1.3758876323699951,2.3927507400512695,-0.17423699796199799
-1.3549420833587646,2.395385265350342,-0.17830130457878113
-1.3372200727462769,2.404982566833496,-0.1828390210866928
-1.3309752941131592,2.4347853660583496,-0.18888339400291443
-1.3138480186462402,2.443729877471924,-0.19323377311229706
-1.3047951459884644,2.4702792167663574,-0.1990145891904831
-1.2938320636749268,2.4932568073272705,-0.20448334515094757
-1.2797490358352661,2.5089173316955566,-0.2092570960521698
-1.275970458984375,2.545396089553833,-0.21577858924865723
-1.2333449125289917,2.5053350925445557,-0.2157149314880371
-1.179273247718811,2.440364122390747,-0.213397815823555
-1.1654998064041138,2.455260753631592,-0.21782344579696655
-1.1858538389205933,2.544306993484497,-0.22890423238277435
-1.2046328783035278,2.6339056491851807,-0.24018684029579163
-1.1761093139648438,2.620826005935669,-0.24216720461845398
-1.157740831375122,2.6286380290985107,-0.24598084390163422
-1.1387279033660889,2.6365714073181152,-0.24979470670223236
-1.1197117567062378,2.644352436065674,-0.2534821927547455
-1.1007558107376099,2.6519463062286377,-0.25714707374572754
-1.0879768133163452,2.6736719608306885,-0.26215454936027527
-1.1078330278396606,2.778547525405884,-0.27537691593170166
-1.0846107006072998,2.7789814472198486,-0.2783152461051941
-1.0646486282348633,2.786330461502075,-0.2818918228149414
-1.0397230386734009,2.778773307800293,-0.2838836908340454
-1.028173565864563,2.8075737953186035,-0.2895546555519104
-1.0159868001937866,2.8364529609680176,-0.2951512336730957
-1.0030702352523804,2.8654143810272217,-0.30085983872413635
-0.9867320656776428,2.8830604553222656,-0.30533355474472046
-0.9788292050361633,2.926410436630249,-0.3125761151313782
-0.965172529220581,2.9551429748535156,-0.31811487674713135
-0.9464111924171448,2.9690189361572266,-0.3220979869365692
-0.9308913350105286,2.993922472000122,-0.3273237943649292
-0.9212591648101807,3.0371744632720947,-0.3345528841018677
-0.9064165949821472,3.065615653991699,-0.3400435745716095
-0.8889570236206055,3.0865654945373535,-0.3446713984012604
-0.8744637370109558,3.1186137199401855,-0.35057881474494934
-0.8608052730560303,3.154290199279785,-0.3569299280643463
-0.8422530889511108,3.1750290393829346,-0.3616076707839966
-0.8265001177787781,3.206927537918091,-0.3673482835292816
-0.8150733113288879,3.257577657699585,-0.3753000497817993
