X,Y,Z
0.34097206592559814,1.9634062051773071,-0.43191447854042053
0.35495489835739136,1.9615147113800049,-0.4292354881763458
0.3722360134124756,1.9783730506896973,-0.4304518699645996
0.391958087682724,2.0063765048980713,-0.43389979004859924
0.4151255786418915,2.0491995811462402,-0.4404754042625427
0.4302898645401001,2.050654411315918,-0.43811386823654175
0.4611595869064331,2.1230032444000244,-0.45059967041015625
0.4852786362171173,2.161552667617798,-0.45559462904930115
0.5021811723709106,2.1663317680358887,-0.4534227252006531
0.5263296365737915,2.200763702392578,-0.45740747451782227
0.5610628128051758,2.2759087085723877,-0.4696124196052551
0.5896012187004089,2.3210158348083496,-0.47510021924972534
0.621441662311554,2.3770411014556885,-0.48273420333862305
0.6531195640563965,2.4290614128112793,-0.489389568567276
0.6896397471427917,2.495581865310669,-0.49875229597091675
0.7270685434341431,2.5618317127227783,-0.507516086101532
0.7647315263748169,2.623955726623535,-0.5151636004447937
0.8019223213195801,2.6821048259735107,-0.5219010710716248
0.8467432856559753,2.7619283199310303,-0.5326206684112549
0.8926218152046204,2.8414032459259033,-0.5426454544067383
0.937293529510498,2.9131100177764893,-0.5508944988250732
0.9907135367393494,3.0061631202697754,-0.5627516508102417
1.0476335287094116,3.1060497760772705,-0.5756166577339172
1.102083444595337,3.1945412158966064,-0.5857250690460205
1.1693154573440552,3.3151838779449463,-0.6012576222419739
1.2096976041793823,3.3553640842437744,-0.601839005947113
1.226844072341919,3.3300399780273438,-0.5906089544296265
1.438054084777832,3.820495128631592,-0.6695221066474915
1.5257214307785034,3.9703409671783447,-0.687421441078186
1.5917255878448486,4.058160305023193,-0.6940420866012573
1.6362669467926025,4.087917327880859,-0.6904257535934448
1.662003517150879,4.070956707000732,-0.6786766052246094
1.690921425819397,4.060825824737549,-0.6678519248962402
1.7753387689590454,4.182149887084961,-0.6784772872924805
1.4458566904067993,3.3412396907806396,-0.5345239639282227
1.4661476612091064,3.325380563735962,-0.5243297815322876
1.486167311668396,3.309434175491333,-0.5141064524650574
1.5066189765930176,3.2931087017059326,-0.5036841630935669
1.5299901962280273,3.2837228775024414,-0.4944268465042114
1.5495864152908325,3.267352342605591,-0.48403069376945496
1.5756077766418457,3.2648653984069824,-0.4756864905357361
1.6020112037658691,3.2620058059692383,-0.4671524465084076
1.6290804147720337,3.2586371898651123,-0.4583078622817993
1.6481293439865112,3.2417075634002686,-0.4476105272769928
1.615341305732727,3.1247451305389404,-0.42339953780174255
1.6680911779403687,3.1729111671447754,-0.42153728008270264
1.716115951538086,3.21024227142334,-0.4179050028324127
1.7270416021347046,3.1791887283325195,-0.40526142716407776
1.7136876583099365,3.1036670207977295,-0.3870125412940979
1.7756597995758057,3.1637744903564453,-0.38556480407714844
1.8130379915237427,3.1795878410339355,-0.3784363567829132
1.314714789390564,2.270303726196289,-0.26368987560272217
0.959976851940155,1.6319414377212524,-0.1847265362739563
0.8919374942779541,1.4920778274536133,-0.16430023312568665
0.9484856128692627,1.5630220174789429,-0.16734381020069122
0.9714034795761108,1.5769482851028442,-0.1639663130044937
0.9888082146644592,1.580474615097046,-0.15921781957149506
1.0121593475341797,1.5939381122589111,-0.15538166463375092
1.0083141326904297,1.5646063089370728,-0.14730364084243774
1.0193284749984741,1.5580090284347534,-0.14130239188671112
1.0257132053375244,1.5450044870376587,-0.1347179412841797
1.031638264656067,1.5321780443191528,-0.12820333242416382
1.0511324405670166,1.5383057594299316,-0.12298180907964706
2.543534278869629,3.668407678604126,-0.279053658246994
2.5721843242645264,3.6590447425842285,-0.26431143283843994
2.602351665496826,3.648379325866699,-0.24852308630943298
2.587892770767212,3.5781922340393066,-0.22875887155532837
2.650660276412964,3.615541934967041,-0.2156962752342224
2.6899843215942383,3.6166250705718994,-0.19903546571731567
2.6323904991149902,3.7046542167663574,0.552525520324707
2.6080901622772217,3.728954315185547,0.5688483715057373
2.591097354888916,3.766669988632202,0.5871527791023254
1.04932701587677,1.5485776662826538,0.24602441489696503
1.054685354232788,1.581392765045166,0.2558116316795349
1.0420399904251099,1.5888310670852661,0.26148101687431335
1.0257257223129272,1.589318871498108,0.26579955220222473
1.026621699333191,1.61543869972229,0.27420905232429504
1.0016121864318848,1.6029233932495117,0.2758742570877075
0.997103750705719,1.623035192489624,0.2831496000289917
0.9974262118339539,1.649173378944397,0.29124221205711365
0.973246157169342,1.6358314752578735,0.29237136244773865
0.9449609518051147,1.615865707397461,0.29201892018318176
1.3342779874801636,2.321423053741455,0.4241214692592621
1.8530361652374268,3.2765603065490723,0.6046209335327148
1.7861475944519043,3.210900068283081,0.598304271697998
1.7684708833694458,3.236785650253296,0.6086673736572266
1.7855124473571777,3.3268702030181885,0.6312056183815002
1.754097580909729,3.324707269668579,0.6360962986946106
2.3810176849365234,4.590032577514648,0.8853570818901062
2.350221633911133,4.612633228302002,0.8964387774467468
2.3111274242401123,4.621836185455322,0.9048873782157898
2.281392812728882,4.647572994232178,0.9164634346961975
2.24835205078125,4.661865711212158,0.925479531288147
2.218507766723633,4.682857513427734,0.9358813166618347
2.183452844619751,4.697595119476318,0.9444244503974915
2.151411533355713,4.719085693359375,0.954359769821167
2.11572265625,4.7334513664245605,0.9629650712013245
2.0852162837982178,4.7537102699279785,0.9724787473678589
2.0423407554626465,4.745568752288818,0.9762222170829773
1.7506388425827026,4.150883674621582,0.8580523729324341
1.7284971475601196,4.183714866638184,0.8690024614334106
1.698237419128418,4.198838233947754,0.8764188885688782
1.674168586730957,4.223690032958984,0.8856493234634399
1.641586422920227,4.226927280426025,0.8903871774673462
1.6137003898620605,4.244600772857666,0.897834062576294
1.5851025581359863,4.2623291015625,0.9050775766372681
1.5531483888626099,4.2728376388549805,0.9109066724777222
1.524901032447815,4.2899322509765625,0.9180580377578735
1.4971388578414917,4.306628704071045,0.9251083731651306
1.4692583084106445,4.323123931884766,0.9321680665016174
1.4424494504928589,4.347201347351074,0.9402706027030945
1.4076930284500122,4.349443435668945,0.9437558650970459
1.378179907798767,4.3658294677734375,0.950306236743927
1.3539670705795288,4.396361827850342,0.9599139094352722
1.3241682052612305,4.408371925354004,0.9655159711837769
1.2951714992523193,4.423913955688477,0.9718272089958191
1.2610139846801758,4.424900054931641,0.974414587020874
1.2325048446655273,4.44784688949585,0.9819331765174866
1.2002817392349243,4.4557204246521,0.986144483089447
1.1688276529312134,4.463166236877441,0.9902480840682983
1.1431217193603516,4.492557525634766,0.9992708563804626
1.1115020513534546,4.499591827392578,1.0032827854156494
1.0802985429763794,4.514248371124268,1.0084725618362427
1.0512646436691284,4.535994052886963,1.0152734518051147
1.0203032493591309,4.550100803375244,1.0204265117645264
0.9881817698478699,4.556416988372803,1.0238500833511353
0.9515787363052368,4.540054798126221,1.0222026109695435
0.7832090854644775,3.8730127811431885,0.8738141059875488
0.7541457414627075,3.870478630065918,0.8744632005691528
0.869107723236084,4.636053562164307,1.048895239830017
0.8346771001815796,4.634006977081299,1.049943447113037
0.8044244050979614,4.65421199798584,1.0560792684555054
0.7763645052909851,4.689263343811035,1.0656548738479614
0.7436103820800781,4.693952560424805,1.0683674812316895
0.7128710150718689,4.71360445022583,1.0741372108459473
0.6794295907020569,4.718074321746826,1.0761826038360596
0.6495751142501831,4.748730182647705,1.0842609405517578
0.6163257956504822,4.760365962982178,1.0880777835845947
0.5849077701568604,4.779215335845947,1.093567967414856
0.5524936318397522,4.790274620056152,1.0973304510116577
0.5207001566886902,4.8087005615234375,1.1028037071228027
0.4883733093738556,4.82710075378418,1.1075953245162964
0.4546870291233063,4.833911895751953,1.1097861528396606
0.4206972122192383,4.844324588775635,1.1128721237182617
0.3873131275177002,4.85444450378418,1.115933895111084
0.35464251041412354,4.871910095214844,1.1207358837127686
0.3227475881576538,4.904348373413086,1.1290441751480103
0.2894296944141388,4.921453475952148,1.1335340738296509
0.25578415393829346,4.949864387512207,1.1402539014816284
0.22148030996322632,4.959004878997803,1.1425893306732178
0.18734747171401978,4.975513935089111,1.1466797590255737
0.15316908061504364,4.991782188415527,1.1507710218429565
0.11859270930290222,5.000203609466553,1.1531105041503906
0.08363901823759079,5.027420997619629,1.1598516702651978
0.04872119054198265,5.035494804382324,1.161602258682251
0.013744302093982697,5.066198825836182,1.1684685945510864
-0.021652422845363617,5.081432819366455,1.1718218326568604
-0.057201433926820755,5.096419811248779,1.175174355506897
-0.09355726093053818,5.111147403717041,1.1785231828689575
-0.12936969101428986,5.121826171875,1.1809966564178467
-0.16519992053508759,5.128467082977295,1.1825144290924072
-0.20191067457199097,5.157844066619873,1.1885974407196045
-0.23938676714897156,5.194564342498779,1.1964210271835327
-0.2763732969760895,5.212006568908691,1.1998549699783325
-0.2620290517807007,4.358888626098633,1.003010630607605
-0.29237285256385803,4.357141494750977,1.0022157430648804
-0.3184848129749298,4.298227787017822,0.9883246421813965
-0.3516916036605835,4.3379011154174805,0.9968741536140442
-0.37964221835136414,4.312936782836914,0.990219235420227
-0.4052363932132721,4.261212348937988,0.9774681925773621
-0.4292498528957367,4.205589771270752,0.9639049172401428
-0.4572012722492218,4.191468715667725,0.9599080085754395
-0.47755685448646545,4.1128339767456055,0.941196620464325
-0.5000534653663635,4.060580730438232,0.9285898804664612
-0.5255700945854187,4.034727096557617,0.9215716123580933
-0.546487033367157,3.982398748397827,0.9084411263465881
-0.5672999620437622,3.933729887008667,0.8962137699127197
-0.5880401134490967,3.8887224197387695,0.8848872780799866
-0.6079873442649841,3.8397862911224365,0.8727171421051025
-0.627047598361969,3.7869338989257812,0.8597099781036377
-0.6494629383087158,3.7603886127471924,0.8526414036750793
-0.6677523255348206,3.715117931365967,0.8409188389778137
-0.6889535784721375,3.6885039806365967,0.8334835171699524
-0.7127248048782349,3.676743507385254,0.8294549584388733
-0.7306007146835327,3.63486647605896,0.8186745643615723
-0.7361660003662109,3.5330235958099365,0.7944415807723999
-0.7575916647911072,3.5133962631225586,0.7887980341911316
-0.7717541456222534,3.464001417160034,0.776155412197113
-0.7953768968582153,3.4592669010162354,0.7734174728393555
-0.8154101967811584,3.4395198822021484,0.767368733882904
-0.8311667442321777,3.401002883911133,0.7571578025817871
-0.8493343591690063,3.373505115509033,0.7494555711746216
-0.8652412295341492,3.3385162353515625,0.740149736404419
-0.8814612030982971,3.3072428703308105,0.7315535545349121
-0.8999123573303223,3.2871220111846924,0.7251588702201843
-0.9102386236190796,3.23736834526062,0.7122628092765808
-0.9364941120147705,3.2464659214019775,0.7123984694480896
-0.9493321180343628,3.2075648307800293,0.7020022869110107
-0.9629191160202026,3.1722490787506104,0.6924498081207275
-0.9759030938148499,3.1369481086730957,0.6828911304473877
-0.9928838014602661,3.1163361072540283,0.6761563420295715
-1.0056833028793335,3.084827184677124,0.6671574711799622
-1.0217636823654175,3.064155340194702,0.6605576872825623
-1.0381439924240112,3.043233871459961,0.6539008617401123
-1.054469108581543,3.0221638679504395,0.6472455263137817
-1.0729814767837524,3.008282423019409,0.6420989632606506
-1.079252004623413,2.9620769023895264,0.6297121644020081
-1.101980209350586,2.962693214416504,0.6273766756057739
-1.1192948818206787,2.948814868927002,0.6220040917396545
-1.1316033601760864,2.9202990531921387,0.613515317440033
-1.1338095664978027,2.866739273071289,0.5998388528823853
-1.1726140975952148,2.905787229537964,0.6053512692451477
-1.146944284439087,2.7887251377105713,0.578230619430542
-1.1212316751480103,2.675611734390259,0.5521666407585144
-1.1273994445800781,2.640493631362915,0.5423259735107422
-1.133760690689087,2.605151653289795,0.5324313044548035
-1.1586849689483643,2.6118288040161133,0.531119167804718
-1.1826632022857666,2.6188175678253174,0.5295803546905518
-1.2130725383758545,2.639636516571045,0.5307740569114685
-1.2356715202331543,2.6427671909332275,0.5283910036087036
-1.2492672204971313,2.6245357990264893,0.5216238498687744
-1.2681708335876465,2.6164066791534424,0.5168228149414062
-1.2758656740188599,2.5879111289978027,0.5078886151313782
-1.3156014680862427,2.624990463256836,0.5116753578186035
-1.292984962463379,2.5381970405578613,0.4913843274116516
-1.3036317825317383,2.5163917541503906,0.4836747646331787
-1.3394272327423096,2.5421297550201416,0.4850471615791321
-1.3298040628433228,2.4828312397003174,0.4699687063694
-1.3352946043014526,2.454592704772949,0.4608302116394043
-1.347900390625,2.4398751258850098,0.45429718494415283
-1.353830337524414,2.4111227989196777,0.4449782967567444
-1.3671985864639282,2.395717144012451,0.4381578266620636
-1.3738232851028442,2.370710611343384,0.42929697036743164
-1.3895865678787231,2.3625376224517822,0.423580139875412
-1.397783875465393,2.3407704830169678,0.41535940766334534
-1.4104479551315308,2.325206756591797,0.40810626745224
-1.438486099243164,2.3363192081451416,0.4053708016872406
-1.4295504093170166,2.2883808612823486,0.39222678542137146
-1.4613971710205078,2.305962085723877,0.3903684616088867
-1.4779505729675293,2.296539068222046,0.38353675603866577
-1.449341058731079,2.2193846702575684,0.3654400706291199
-1.4831700325012207,2.239938259124756,0.36340782046318054
-1.5115200281143188,2.250108242034912,0.35934150218963623
-1.50579833984375,2.208394765853882,0.34680455923080444
-1.520442008972168,2.1995036602020264,0.3393372595310211
-1.4968758821487427,2.1367604732513428,0.3236735463142395
-1.4939486980438232,2.102048635482788,0.31197279691696167
-1.5132553577423096,2.098975419998169,0.3046758770942688
-1.5198936462402344,2.080940008163452,0.29521381855010986
-1.5296732187271118,2.06532883644104,0.28563743829727173
-1.4944963455200195,2.0961203575134277,-0.13960449397563934
-1.5122722387313843,2.154522657394409,-0.1528071165084839
-1.5048408508300781,2.1779847145080566,-0.16359905898571014
-1.493639349937439,2.1944022178649902,-0.1734129935503006
-1.4812264442443848,2.2114274501800537,-0.18334044516086578
-1.4691964387893677,2.2280075550079346,-0.19300144910812378
-1.463358998298645,2.2543046474456787,-0.20347349345684052
-1.4462509155273438,2.2644970417022705,-0.21241651475429535
-1.4421247243881226,2.293942451477051,-0.22294928133487701
-1.3989896774291992,2.2603800296783447,-0.2270859330892563
-1.3780018091201782,2.263282537460327,-0.23472119867801666
-1.3450970649719238,2.2459287643432617,-0.2401384562253952
-1.3113027811050415,2.2244515419006348,-0.2446204274892807
-1.2947081327438354,2.2332935333251953,-0.25232994556427
-1.2877637147903442,2.258823871612549,-0.2619503438472748
-1.2830208539962769,2.287415027618408,-0.2718016505241394
-1.2772296667099,2.316385507583618,-0.28190937638282776
-1.263723611831665,2.3316898345947266,-0.29031506180763245
-1.2505466938018799,2.346658706665039,-0.29854607582092285
-1.246393084526062,2.37864351272583,-0.30894017219543457
-1.2324491739273071,2.393670082092285,-0.3171670138835907
-1.2215871810913086,2.415632724761963,-0.3264753222465515
-1.2302273511886597,2.475377321243286,-0.3407970368862152
-1.2616357803344727,2.5841848850250244,-0.3622215986251831
-1.2242802381515503,2.553851842880249,-0.36425381898880005
-1.2090425491333008,2.5686111450195312,-0.3726012408733368
-1.1810027360916138,2.5550029277801514,-0.3767026662826538
-1.1749658584594727,2.590752601623535,-0.3881175220012665
-1.1560853719711304,2.598161220550537,-0.3952274024486542
-1.1343284845352173,2.5982236862182617,-0.40113845467567444
-1.3107036352157593,3.0600616931915283,-0.4793112874031067
-1.279604434967041,3.046807050704956,-0.48387610912323
-1.2262611389160156,2.9798331260681152,-0.47981104254722595
-1.18618643283844,2.940716505050659,-0.4797900319099426
-1.1355150938034058,2.8724310398101807,-0.4747318923473358
-1.0828083753585815,2.7965660095214844,-0.46788737177848816
-1.0312258005142212,2.7201590538024902,-0.46062329411506653
-0.9833052754402161,2.650499105453491,-0.45425206422805786
-0.9407817125320435,2.5910937786102295,-0.44926297664642334
-0.8899257779121399,2.5059475898742676,-0.43928247690200806
-0.8630678653717041,2.4857900142669678,-0.44047674536705017
-0.8231053948402405,2.4252190589904785,-0.43431249260902405
-0.79231858253479,2.389887809753418,-0.4325462281703949
-0.7574878334999084,2.339625358581543,-0.4276091158390045
-0.7245689630508423,2.2926995754241943,-0.423075407743454
-0.6958368420600891,2.2564611434936523,-0.420352965593338
-0.6665937900543213,2.216261625289917,-0.41675299406051636
-0.6411237120628357,2.18691349029541,-0.4148595333099365
-0.6168617010116577,2.161111354827881,-0.41354307532310486
-0.5953750610351562,2.1424190998077393,-0.41345033049583435
-0.5732579827308655,2.1198179721832275,-0.4125276505947113
-0.5465694665908813,2.07851243019104,-0.4076824486255646
-0.5261504054069519,2.059298276901245,-0.4069673717021942
-0.5048952698707581,2.036229372024536,-0.40548351407051086
-0.48338255286216736,2.0091941356658936,-0.4030863344669342
-0.46748414635658264,2.0044004917144775,-0.40496835112571716
-0.44490450620651245,1.969624638557434,-0.40055808424949646
-0.42365530133247375,1.9383935928344727,-0.39679408073425293
-0.4082077443599701,1.9332385063171387,-0.3983708322048187
-0.39615267515182495,1.9429454803466797,-0.40289589762687683
-0.37510934472084045,1.9075642824172974,-0.39778849482536316
-0.3588542640209198,1.8945577144622803,-0.3973050117492676
-0.339413046836853,1.862602949142456,-0.39280280470848083
-0.3261495530605316,1.864417552947998,-0.39542192220687866
-0.31056031584739685,1.8510993719100952,-0.3944460153579712
-0.29517316818237305,1.8376600742340088,-0.39343342185020447
-0.27710384130477905,1.8052175045013428,-0.3883199095726013
-0.2633754014968872,1.7990858554840088,-0.38884294033050537
-0.24532651901245117,1.7626792192459106,-0.38251057267189026
-0.23601306974887848,1.7866827249526978,-0.38920021057128906
-0.22257418930530548,1.780327320098877,-0.38930970430374146
-0.21102380752563477,1.7890344858169556,-0.39273205399513245
-0.19599170982837677,1.767372488975525,-0.3892548084259033
-0.18364138901233673,1.7683966159820557,-0.39062386751174927
-0.1703563630580902,1.7617536783218384,-0.3903319239616394
-0.15670031309127808,1.7474024295806885,-0.3883166015148163
-0.14578258991241455,1.7633885145187378,-0.39289262890815735
-0.12918807566165924,1.7071149349212646,-0.381124883890152
-0.12069924175739288,1.7572095394134521,-0.3931201696395874
-0.10780441761016846,1.7501909732818604,-0.3923896551132202
-0.09605273604393005,1.758312702178955,-0.3949774205684662
-0.0827459767460823,1.7359706163406372,-0.3903976082801819
-0.07051662355661392,1.7325725555419922,-0.39009058475494385
-0.059109508991241455,1.751940131187439,-0.3949323892593384
-0.04630127549171448,1.7369508743286133,-0.3920583426952362
-0.03415124863386154,1.7333862781524658,-0.3913520276546478
-0.02224736101925373,1.7449790239334106,-0.3940791189670563
-0.01006073597818613,1.7374379634857178,-0.3925045430660248
0.0020425282418727875,1.7602938413619995,-0.39781713485717773
0.014436976052820683,1.752652645111084,-0.39592939615249634
0.026982281357049942,1.7754284143447876,-0.40082842111587524
0.03933880478143692,1.7752574682235718,-0.40056315064430237
0.05234663560986519,1.7978549003601074,-0.405452162027359
0.06402455270290375,1.7747085094451904,-0.39980989694595337
0.07702431082725525,1.7896026372909546,-0.40256166458129883
0.09140075743198395,1.8234291076660156,-0.4095654785633087
0.10386812686920166,1.8190990686416626,-0.40801870822906494
0.11823415756225586,1.8451488018035889,-0.4131527841091156
0.13163922727108002,1.8521361351013184,-0.41373202204704285
0.14513373374938965,1.8590282201766968,-0.41430309414863586
0.16152635216712952,1.896209716796875,-0.4216059744358063
0.1726236492395401,1.8725168704986572,-0.4153496325016022
0.1864222288131714,1.8792048692703247,-0.4154762923717499
0.2003222405910492,1.8857927322387695,-0.4155900180339813
0.21519598364830017,1.8998621702194214,-0.41735532879829407
0.23369668424129486,1.94032621383667,-0.4248770475387573
0.2491832971572876,1.9542286396026611,-0.42619529366493225
0.26947611570358276,2.002081871032715,-0.43483981490135193
0.28452596068382263,2.008167266845703,-0.4343869090080261
0.2963002622127533,1.9914681911468506,-0.4290330708026886
0.3116268515586853,1.9973783493041992,-0.42825648188591003
0.33050960302352905,2.025864362716675,-0.43220269680023193
0.3459692597389221,2.031578302383423,-0.4312693476676941
0.365549236536026,2.059767007827759,-0.4350862205028534
0.38901203870773315,2.1066396236419678,-0.4426002502441406
0.4174729883670807,2.175898790359497,-0.45448142290115356
0.43449240922927856,2.1810357570648193,-0.4528474509716034
0.46060341596603394,2.2310853004455566,-0.46053871512413025
0.4802273213863373,2.247213840484619,-0.46106022596359253
0.5025809407234192,2.2744638919830322,-0.4635203182697296
0.5236160159111023,2.2940545082092285,-0.46437352895736694
0.5584661364555359,2.369377851486206,-0.47632917761802673
0.5868797898292542,2.414613723754883,-0.48211830854415894
0.618690013885498,2.4708399772644043,-0.48960381746292114
0.6446278691291809,2.500755786895752,-0.4917552173137665
0.686794102191925,2.5898008346557617,-0.5053597688674927
0.7225334644317627,2.648709535598755,-0.5127946138381958
0.7649523615837097,2.729625701904297,-0.52402263879776
0.8063814043998718,2.8027594089508057,-0.533467710018158
0.8435123562812805,2.85703706741333,-0.5391066670417786
0.8915162086486816,2.9440717697143555,-0.5506954789161682
0.9433531165122986,3.037950277328491,-0.5629130005836487
0.9938281178474426,3.124098539352417,-0.5733495354652405
1.0539236068725586,3.2353546619415283,-0.5880469679832458
1.1072227954864502,3.320387125015259,-0.5976079702377319
1.1690865755081177,3.4268343448638916,-0.6104987263679504
1.2273319959640503,3.5181522369384766,-0.6201509833335876
1.2317121028900146,3.4526171684265137,-0.6019816398620605
1.4358177185058594,3.9378387928009033,-0.6790913343429565
1.4877822399139404,3.9942467212677,-0.6810714602470398
1.5596330165863037,4.100742816925049,-0.6910462379455566
1.5911307334899902,4.098543167114258,-0.6824926733970642
1.6149221658706665,4.074280738830566,-0.6700884699821472
1.6493701934814453,4.078757286071777,-0.6624699234962463
1.664522647857666,4.036645889282227,-0.6471496224403381
1.4455093145370483,3.4385898113250732,-0.5440297722816467
1.4287480115890503,3.3336668014526367,-0.5202862620353699
1.4557021856307983,3.3317854404449463,-0.5126434564590454
1.481998085975647,3.3299801349639893,-0.5049895644187927
1.5051805973052979,3.320887327194214,-0.4962244927883148
1.5255122184753418,3.3043973445892334,-0.4862476587295532
1.5487687587738037,3.2948756217956543,-0.4772598445415497
1.5720338821411133,3.2851665019989014,-0.46803438663482666
1.5915471315383911,3.268427610397339,-0.4579443037509918
1.611266851425171,3.2513861656188965,-0.4477405846118927
1.6339590549468994,3.2413110733032227,-0.43845874071121216
1.6297355890274048,3.1794307231903076,-0.42227306962013245
1.6375683546066284,3.141657829284668,-0.40940165519714355
1.7020686864852905,3.209839344024658,-0.4099484086036682
1.7168461084365845,3.1855454444885254,-0.3986092209815979
1.7069944143295288,3.1169464588165283,-0.3819088339805603
1.7175571918487549,3.085658073425293,-0.3698088824748993
1.76799738407135,3.1253437995910645,-0.36605697870254517
1.3345062732696533,2.3221285343170166,-0.26548054814338684
0.966286838054657,1.6555434465408325,-0.18465912342071533
0.9403488039970398,1.5856707096099854,-0.172268807888031
0.9231501221656799,1.533063530921936,-0.16207966208457947
0.9761524200439453,1.5970195531845093,-0.16414578258991241
0.9834511280059814,1.5839494466781616,-0.15785931050777435
0.9924099445343018,1.574297547340393,-0.15198387205600739
1.00509512424469,1.5713804960250854,-0.14676082134246826
1.0159236192703247,1.5649242401123047,-0.14107801020145416
1.0268926620483398,1.558265209197998,-0.13525016605854034
1.0352516174316406,1.5485410690307617,-0.12908852100372314
1.047994613647461,1.545143961906433,-0.12340717762708664
2.5265865325927734,3.6705498695373535,-0.27974051237106323
2.559654951095581,3.6676955223083496,-0.2660343050956726
2.593698501586914,3.663912534713745,-0.251653790473938
2.6011881828308105,3.6213181018829346,-0.23389339447021484
2.6155333518981934,3.592663049697876,-0.2174983024597168
2.6683201789855957,3.612996816635132,-0.2029285877943039
2.6257524490356445,3.7217793464660645,0.5334830284118652
2.595580816268921,3.7407093048095703,0.5485235452651978
2.5799763202667236,3.777580499649048,0.5656372904777527
1.0618860721588135,1.5788905620574951,0.2410532534122467
1.045040488243103,1.5799624919891357,0.2455725222826004
1.0411944389343262,1.6001683473587036,0.25299885869026184
1.0213240385055542,1.5937696695327759,0.255914568901062
1.0297863483428955,1.6334490776062012,0.2661546766757965
1.0045242309570312,1.6210393905639648,0.26794669032096863
0.992506206035614,1.6276557445526123,0.2725831866264343
0.9768407940864563,1.6273410320281982,0.275948166847229
0.9682223796844482,1.6407209634780884,0.28144896030426025
1.3489423990249634,2.325754404067993,0.4035123884677887
1.3908963203430176,2.4386885166168213,0.4276890158653259
1.8192723989486694,3.2420401573181152,0.5744136571884155
1.76852548122406,3.2070834636688232,0.5735961198806763
1.7825450897216797,3.2904045581817627,0.5939423441886902
1.7726199626922607,3.3294124603271484,0.606316089630127
2.3938074111938477,4.5740203857421875,0.8401371836662292
2.367227077484131,4.603402137756348,0.8523047566413879
2.3253743648529053,4.605676651000977,0.8591755628585815
2.2904577255249023,4.621382236480713,0.8685821890830994
2.2641408443450928,4.649798393249512,0.8800792694091797
2.238823890686035,4.6816792488098145,0.8923863172531128
2.200798988342285,4.689551830291748,0.899543821811676
2.163987398147583,4.700807571411133,0.9072463512420654
2.1303763389587402,4.718742370605469,0.9162750840187073
2.1000759601593018,4.7391815185546875,0.9255503416061401
2.0695881843566895,4.75941276550293,0.9348469972610474
2.0204052925109863,4.741420269012451,0.9362078309059143
1.7438918352127075,4.176866054534912,0.8288597464561462
1.712880253791809,4.188398361206055,0.8353070020675659
1.683078646659851,4.1992292404174805,0.8414857983589172
1.6561743021011353,4.216930866241455,0.849068820476532
1.6265064477920532,4.231368064880371,0.8557825088500977
1.600717544555664,4.2564544677734375,0.8643326759338379
1.5666557550430298,4.259784698486328,0.8685224056243896
1.5411015748977661,4.284277439117432,0.8770023584365845
1.513459324836731,4.301143169403076,0.8839004635810852
1.485131025314331,4.3179826736450195,0.8909058570861816
1.4511386156082153,4.320428371429443,0.8942984342575073
1.4220085144042969,4.337159156799316,0.9006916880607605
1.3949998617172241,4.360997676849365,0.9086279273033142
1.3663421869277954,4.377093315124512,0.9149274230003357
1.332790732383728,4.378411769866943,0.9182103276252747
1.3104372024536133,4.4161529541015625,0.9289798736572266
1.27835214138031,4.4246673583984375,0.9331628084182739
1.2472474575042725,4.436629295349121,0.9381240010261536
1.214064359664917,4.440973281860352,0.9415200352668762
1.1877318620681763,4.4670281410217285,0.9495013356208801
1.1578373908996582,4.481897354125977,0.9551970362663269
1.126175045967102,4.489128589630127,0.9590864181518555
1.095719337463379,4.503796577453613,0.9641170501708984
1.0668649673461914,4.525696754455566,0.9707552790641785
1.0343494415283203,4.532497406005859,0.9742110967636108
1.0018901824951172,4.5390424728393555,0.977655827999115
0.9733277559280396,4.560161113739014,0.9842478036880493
0.797831654548645,3.8700056076049805,0.8369864225387573
0.7641810774803162,3.8451268672943115,0.8328189253807068
0.7410222887992859,3.8724992275238037,0.840006947517395
0.8475890755653381,4.609889030456543,1.0015320777893066
0.8203962445259094,4.645246982574463,1.0108002424240112
0.7905607223510742,4.665323257446289,1.0167903900146484
0.7592089772224426,4.677671432495117,1.0211563110351562
0.7249923348426819,4.674890995025635,1.0216978788375854
0.6968047022819519,4.717312812805176,1.0320618152618408
0.66231769323349,4.714113712310791,1.0324833393096924
0.6314950585365295,4.737143039703369,1.0387022495269775
0.5984765291213989,4.740978717803955,1.0407509803771973
0.5690480470657349,4.774899482727051,1.0494626760482788
0.5364845395088196,4.78594970703125,1.0529439449310303
0.5029950737953186,4.796950817108154,1.056013584136963
0.47215521335601807,4.830451965332031,1.0640842914581299
0.43742385506629944,4.825753688812256,1.063796043395996
0.4059198796749115,4.8550028800964355,1.0710405111312866
0.3721010088920593,4.857408046722412,1.0724170207977295
0.33924049139022827,4.882447719573975,1.0788636207580566
0.3064662218093872,4.907373428344727,1.0846953392028809
0.2728988230228424,4.924487590789795,1.0887336730957031
0.23873774707317352,4.933750629425049,1.0910909175872803
0.204990416765213,4.954206943511963,1.0959782600402832
0.17075391113758087,4.978251934051514,1.1017210483551025
0.13655781745910645,4.994420051574707,1.1057708263397217
0.1022835299372673,5.018014907836914,1.1113466024398804
0.06742438673973083,5.026244163513184,1.1129851341247559
0.0324801430106163,5.038043975830078,1.1154680252075195
-0.00321302842348814,5.053414821624756,1.118794322013855
-0.03859180212020874,5.083791732788086,1.1254984140396118
-0.07417137175798416,5.098665714263916,1.1288248300552368
-0.11012370139360428,5.12091588973999,1.1338393688201904
-0.1461706906557083,5.139198303222656,1.137576937675476
-0.18182624876499176,5.138235569000244,1.1367840766906738
-0.21871666610240936,5.152246952056885,1.1393488645553589
-0.2552163302898407,5.166019916534424,1.1419222354888916
-0.2928362786769867,5.194766044616699,1.1478556394577026
-0.27612537145614624,4.359044075012207,0.9628845453262329
-0.3024556338787079,4.300083637237549,0.9496034383773804
-0.33263570070266724,4.298131942749023,0.9483469128608704
-0.3658738136291504,4.33782958984375,0.9562923312187195
-0.391300767660141,4.286087512969971,0.9441272616386414
-0.4164527654647827,4.23798942565918,0.9328250288963318
-0.43920081853866577,4.170745849609375,0.9173659682273865
-0.4678531289100647,4.1602277755737305,0.9144307374954224
-0.48812881112098694,4.085196018218994,0.8971636891365051
-0.5114254951477051,4.044271945953369,0.8870472311973572
-0.5306481719017029,3.9767277240753174,0.8711618781089783
-0.5569747090339661,3.965803384780884,0.8677387833595276
-0.5776708722114563,3.9130709171295166,0.8552013039588928
-0.596760630607605,3.8565053939819336,0.8419044017791748
-0.6132593750953674,3.788546323776245,0.826188862323761
-0.639302670955658,3.7847044467926025,0.8240516781806946
-0.6599381566047668,3.7506260871887207,0.815267026424408
-0.6780731678009033,3.7051610946655273,0.8040711879730225
-0.6968611478805542,3.663276433944702,0.7936914563179016
-0.7223350405693054,3.658817768096924,0.7914803624153137
-0.7393524050712585,3.6129961013793945,0.7803736925125122
-0.7461168766021729,3.5223019123077393,0.7594724893569946
-0.7717281579971313,3.52516770362854,0.7584747076034546
-0.7860676050186157,3.4755468368530273,0.7462059259414673
-0.8079934120178223,3.4632151126861572,0.7420323491096497
-0.8221884369850159,3.4171791076660156,0.7306643724441528
-0.8404964208602905,3.3896381855010986,0.7233070731163025
-0.8565579056739807,3.3545899391174316,0.7143984436988831
-0.8729287981987,3.323331117630005,0.7058430314064026
-0.8915135264396667,3.3031725883483887,0.6997334361076355
-0.9057746529579163,3.268153190612793,0.6905323266983032
-0.9262315630912781,3.255084991455078,0.6859941482543945
-0.9404203295707703,3.219750165939331,0.6767920851707458
-0.9534329175949097,3.180593252182007,0.6668253540992737
-0.9728428721427917,3.1673903465270996,0.6619842648506165
-0.9851205348968506,3.13217830657959,0.6525323987007141
-1.0004870891571045,3.1078741550445557,0.6454147100448608
-1.0122568607330322,3.072488784790039,0.6360293030738831
-1.0341733694076538,3.0658953189849854,0.6325786113739014
-1.0456291437149048,3.0302727222442627,0.6232281923294067
-1.06110417842865,3.009380578994751,0.6165934801101685
-1.067116379737854,2.963196277618408,0.6047967672348022
-1.0990647077560425,2.989062547683716,0.6077358722686768
-1.1156421899795532,2.971384286880493,0.6017850637435913
-1.1079890727996826,2.8888509273529053,0.5827175378799438
-1.1253970861434937,2.874624729156494,0.5775282979011536
-1.1362038850784302,2.846381902694702,0.5692180395126343
-1.1495476961135864,2.8252341747283936,0.562389075756073
-1.146493911743164,2.7649707794189453,0.5478575229644775
-1.1318141222000122,2.6761019229888916,0.5276581048965454
-1.1385037899017334,2.640584945678711,0.5181452631950378
-1.15975821018219,2.6405224800109863,0.5154308676719666
-1.174356460571289,2.6264612674713135,0.509844183921814
-1.1856518983840942,2.605300188064575,0.5029213428497314
-1.2378977537155151,2.6710774898529053,0.5126196146011353
-1.250223994255066,2.6491832733154297,0.5054238438606262
-1.2603501081466675,2.6239097118377686,0.49755701422691345
-1.267793893814087,2.595522165298462,0.4889094829559326
-1.3108954429626465,2.639592409133911,0.49389368295669556
-1.2892853021621704,2.5522143840789795,0.4742198586463928
-1.300294041633606,2.5302093029022217,0.4667799770832062
-1.3536690473556519,2.590313196182251,0.4743511378765106
-1.325689435005188,2.497026205062866,0.45363789796829224
-1.3349794149398804,2.4754703044891357,0.4461202025413513
-1.340886116027832,2.4468400478363037,0.4372754693031311
-1.354838490486145,2.43127703666687,0.4306379556655884
-1.363910436630249,2.4094231128692627,0.42285212874412537
-1.3722034692764282,2.387864112854004,0.4150402545928955
-1.3783180713653564,2.3629441261291504,0.40671345591545105
-1.391114592552185,2.3474435806274414,0.39979806542396545
-1.407947301864624,2.338388204574585,0.3938969075679779
-1.411263108253479,2.3102335929870605,0.38465988636016846
-1.4223971366882324,2.2952730655670166,0.37769266963005066
-1.4507555961608887,2.305954933166504,0.37467160820961
-1.4380486011505127,2.250880241394043,0.36092111468315125
-1.4741042852401733,2.274763822555542,0.35954469442367554
-1.47624671459198,2.2466351985931396,0.35001054406166077
-1.4641121625900269,2.1953301429748535,0.3366476893424988
-1.4751882553100586,2.179607629776001,0.3287216126918793
-1.5135198831558228,2.2061479091644287,0.32692375779151917
-1.4863687753677368,2.136420965194702,0.31071895360946655
-1.4972100257873535,2.1204450130462646,0.30218198895454407
-1.5066410303115845,2.1052966117858887,0.29364219307899475
-1.5133236646652222,2.087181806564331,0.2847132682800293
-1.5236711502075195,2.071150064468384,0.27538490295410156
-1.5373344421386719,2.062148332595825,0.26687106490135193
-1.4958467483520508,2.1142075061798096,-0.14180369675159454
-1.4822025299072266,2.127897024154663,-0.15148451924324036
-1.5020930767059326,2.1893246173858643,-0.16433152556419373
-1.4850282669067383,2.2002124786376953,-0.17374436557292938
-1.4862843751907349,2.236185312271118,-0.18466441333293915
-1.4698995351791382,2.2462565898895264,-0.19337481260299683
-1.4549835920333862,2.259815216064453,-0.20240344107151031
-1.4386934041976929,2.2694644927978516,-0.21071834862232208
-1.4300057888031006,2.2925310134887695,-0.22038114070892334
-1.3984676599502563,2.279191017150879,-0.2263905107975006
-1.3860660791397095,2.295058488845825,-0.23493485152721405
-1.3575990200042725,2.284097194671631,-0.24058803915977478
-1.3091959953308105,2.239570140838623,-0.24248340725898743
-1.292565941810608,2.248386859893799,-0.24999427795410156
-1.2956147193908691,2.290581703186035,-0.261082261800766
-1.2747808694839478,2.2925093173980713,-0.2676182687282562
-1.268959641456604,2.3214774131774902,-0.2773358225822449
-1.2561272382736206,2.3364200592041016,-0.2852063775062561
-1.2425466775894165,2.3515758514404297,-0.2932142913341522
-1.2413409948349,2.3907570838928223,-0.30419719219207764
-1.220518708229065,2.391846179962158,-0.31030774116516113
-1.2174113988876343,2.427297592163086,-0.32084551453590393
-1.2065097093582153,2.4491212368011475,-0.32960548996925354
-1.19500732421875,2.471036434173584,-0.3385520577430725
-1.1923093795776367,2.510072946548462,-0.34972476959228516
-1.197256326675415,2.566736936569214,-0.3635118305683136
-1.18175208568573,2.581455707550049,-0.37138667702674866
-1.1565883159637451,2.574864387512207,-0.376194030046463
-1.1554964780807495,2.620975971221924,-0.38862094283103943
-1.3084286451339722,3.02607798576355,-0.4552839994430542
-1.3257756233215332,3.1269044876098633,-0.4770144522190094
-1.3002545833587646,3.1280324459075928,-0.4837138056755066
-1.2765916585922241,3.132399320602417,-0.4908141493797302
-1.228420615196228,3.075636863708496,-0.48810192942619324
-1.1819380521774292,3.0222113132476807,-0.4856557250022888
-1.1256965398788452,2.9393060207366943,-0.47807571291923523
-1.0763697624206543,2.8701887130737305,-0.4723716080188751
-1.0252954959869385,2.7933831214904785,-0.46500489115715027
-0.9882575273513794,2.7524361610412598,-0.4632425308227539
-0.9388081431388855,2.6748170852661133,-0.4551616311073303
-0.8948594331741333,2.6074559688568115,-0.44841304421424866
-0.8604205846786499,2.5652740001678467,-0.44568735361099243
-0.8241164684295654,2.515503168106079,-0.44130560755729675
-0.7920835614204407,2.476384162902832,-0.4386473000049591
-0.7593398094177246,2.4333271980285645,-0.4351962208747864
-0.7241690754890442,2.3788528442382812,-0.42938897013664246
-0.7028250694274902,2.3683784008026123,-0.4312129020690918
-0.6763224005699158,2.3392460346221924,-0.42958635091781616
-0.6400492191314697,2.2728095054626465,-0.4209231436252594
-0.6179806590080261,2.2542219161987305,-0.42096132040023804
-0.5938472747802734,2.2281572818756104,-0.41931387782096863
-0.5713768005371094,2.205533742904663,-0.41819536685943604
-0.5445669889450073,2.1640923023223877,-0.41342875361442566
-0.5256568789482117,2.1522486209869385,-0.41425183415412903
-0.5042369365692139,2.129112958908081,-0.41255801916122437
-0.4820554554462433,2.1021080017089844,-0.4100746214389801
-0.4622590243816376,2.0823442935943604,-0.4088994860649109
-0.4460456669330597,2.0774054527282715,-0.41060563921928406
-0.4267804026603699,2.0573763847351074,-0.4090677499771118
-0.4055330753326416,2.0259382724761963,-0.40511080622673035
-0.38961902260780334,2.0206925868988037,-0.4063987731933594
-0.3726717531681061,2.0077502727508545,-0.4060891270637512
-0.3545726239681244,1.9871680736541748,-0.40404096245765686
-0.3387115001678467,1.9778045415878296,-0.40405645966529846
-0.32547828555107117,1.9834309816360474,-0.40714699029922485
-0.3095583915710449,1.9738701581954956,-0.40716779232025146
-0.2911907434463501,1.9452545642852783,-0.40311795473098755
-0.2732326090335846,1.9165531396865845,-0.3987068235874176
-0.2577587962150574,1.902868628501892,-0.39740103483200073
-0.2454540878534317,1.911821961402893,-0.4008313715457916
-0.23211564123630524,1.9130992889404297,-0.40267813205718994
-0.2163892686367035,1.8953866958618164,-0.4001736640930176
-0.20237071812152863,1.888940453529358,-0.4000106155872345
-0.18919967114925385,1.889999270439148,-0.40145280957221985
-0.17671780288219452,1.8985756635665894,-0.40451765060424805
-0.16283249855041504,1.8918979167938232,-0.40406158566474915
-0.14881163835525513,1.885161280632019,-0.40349313616752625
-0.1340356320142746,1.863069772720337,-0.399628221988678
-0.12305456399917603,1.8942275047302246,-0.4072076082229614
-0.10943540185689926,1.8872267007827759,-0.4064280390739441
-0.09473774582147598,1.857297420501709,-0.40047895908355713
-0.08193382620811462,1.8654145002365112,-0.40275561809539795
-0.06839658319950104,1.8505427837371826,-0.4000772535800934
-0.056229569017887115,1.8737528324127197,-0.40557751059532166
-0.04302762448787689,1.8664188385009766,-0.40413665771484375
-0.02994418703019619,1.858992338180542,-0.40269380807876587
-0.016842206940054893,1.866746425628662,-0.4045628309249878
-0.0038687398191541433,1.8744075298309326,-0.4064297080039978
0.009138699620962143,1.8667902946472168,-0.40460795164108276
0.02205405943095684,1.859089970588684,-0.402753084897995
0.0351223349571228,1.8665690422058105,-0.4042067229747772
0.04849239066243172,1.881589651107788,-0.4073110818862915
0.06203646957874298,1.8889356851577759,-0.4084828794002533
0.07517307996749878,1.8885924816131592,-0.40786269307136536
0.08795112371444702,1.8805289268493652,-0.405597060918808
0.10185019671916962,1.8952584266662598,-0.4082651138305664
0.11597437411546707,1.9099198579788208,-0.4107644557952881
0.13183261454105377,1.9435765743255615,-0.41706252098083496
0.14279307425022125,1.908554196357727,-0.4086596369743347
0.16012601554393768,1.957239031791687,-0.41819334030151367
0.1764543503522873,1.9867643117904663,-0.4235649108886719
0.19138625264167786,1.9972195625305176,-0.42448705434799194
0.20788614451885223,2.0189523696899414,-0.42778250575065613
0.22278818488121033,2.025378465652466,-0.4278580844402313
0.23778975009918213,2.0316953659057617,-0.42792192101478577
0.2528940737247467,2.037976026535034,-0.427621454000473
0.27356937527656555,2.0858752727508545,-0.43596822023391724
0.2873304784297943,2.076725959777832,-0.4323480725288391
0.30127909779548645,2.0712976455688477,-0.4295617341995239
0.3174714744091034,2.0809571743011475,-0.42966580390930176
0.34590020775794983,2.1661317348480225,-0.44511649012565613
0.36858731508255005,2.209501028060913,-0.45187056064605713
0.39060041308403015,2.245126485824585,-0.4569798707962036
0.4099978804588318,2.261704206466675,-0.45799458026885986
0.4300633370876312,2.281989812850952,-0.45950478315353394
0.4555836319923401,2.328443765640259,-0.4662257432937622
0.4825536906719208,2.3784265518188477,-0.47355887293815613
0.5055280327796936,2.405653715133667,-0.4762546122074127
0.5315894484519958,2.4439632892608643,-0.48065441846847534
0.5537160038948059,2.463376522064209,-0.4813326597213745
0.5892105102539062,2.5386788845062256,-0.49281638860702515
0.6258259415626526,2.613633632659912,-0.5040505528450012
0.6459846496582031,2.61747145652771,-0.5011385083198547
0.6750492453575134,2.6546096801757812,-0.5044314861297607
0.725777268409729,2.773336172103882,-0.5230807065963745
0.758243978023529,2.8173043727874756,-0.5274102091789246
0.8056423664093018,2.91292142868042,-0.5409703254699707
0.8449344038963318,2.9748003482818604,-0.5478807687759399
0.8908973932266235,3.054680347442627,-0.5578159689903259
0.9433225393295288,3.152594566345215,-0.5708296298980713
0.9914513230323792,3.2316243648529053,-0.579985499382019
1.0521601438522339,3.3469953536987305,-0.5951215028762817
1.1098299026489258,3.4470672607421875,-0.6071815490722656
1.1707552671432495,3.550044536590576,-0.6192816495895386
1.2696940898895264,3.7621231079101562,-0.6498874425888062
1.3349416255950928,3.867537021636963,-0.6612333655357361
1.4209703207015991,4.0268473625183105,-0.6813285946846008
1.482121467590332,4.108912467956543,-0.6878456473350525
1.528464674949646,4.146909236907959,-0.6867238283157349
1.5497493743896484,4.1158223152160645,-0.6736699342727661
1.5784481763839722,4.106414794921875,-0.6643836498260498
1.607378363609314,4.096688747406006,-0.6549986600875854
1.6176396608352661,4.040072917938232,-0.6382051706314087
1.379722237586975,3.3787996768951416,-0.5270055532455444
1.3946982622146606,3.3487918376922607,-0.5155224204063416
1.4212898015975952,3.347240686416626,-0.5085089802742004
1.4449365139007568,3.3383328914642334,-0.5003589987754822
1.4649360179901123,3.3223876953125,-0.4909746050834656
1.4911209344863892,3.3204331398010254,-0.4836812913417816
1.5084768533706665,3.2968029975891113,-0.4730251431465149
1.5383434295654297,3.3012940883636475,-0.4665012061595917
1.5644663572311401,3.2987918853759766,-0.4588230848312378
1.5771609544754028,3.268129587173462,-0.44727423787117004
1.6139365434646606,3.28592848777771,-0.4421987235546112
1.6010737419128418,3.2026007175445557,-0.42345738410949707
1.6160855293273926,3.178805351257324,-0.4128459692001343
1.6202032566070557,3.1342101097106934,-0.3996455669403076
1.6731038093566895,3.18219256401062,-0.3980185389518738
1.7245945930480957,3.2263545989990234,-0.39561226963996887
1.7281321287155151,3.181450366973877,-0.38220855593681335
1.7186329364776611,3.1124656200408936,-0.36592209339141846
1.7692071199417114,3.152125120162964,-0.36240822076797485
1.8100814819335938,3.174753189086914,-0.35667043924331665
1.3075019121170044,2.258141279220581,-0.24772754311561584
0.9683710932731628,1.6461654901504517,-0.176070436835289
0.9381407499313354,1.569664478302002,-0.163437619805336
0.9608526229858398,1.5837587118148804,-0.16045556962490082
0.9778792262077332,1.5875532627105713,-0.15626439452171326
0.9932633638381958,1.5876884460449219,-0.15153294801712036
1.0081099271774292,1.5880407094955444,-0.146795392036438
1.0042563676834106,1.5586390495300293,-0.1392441689968109
1.0152957439422607,1.5519623756408691,-0.13365034759044647
1.0300723314285278,1.5520297288894653,-0.12862446904182434
1.0404036045074463,1.5455780029296875,-0.12303590029478073
1.0513191223144531,1.5386371612548828,-0.11710062623023987
2.552245616912842,3.682307243347168,-0.2670641541481018
2.585625171661377,3.6790459156036377,-0.2536427974700928
2.5979955196380615,3.64263653755188,-0.23710772395133972
2.5874063968658447,3.5791478157043457,-0.21910826861858368
2.646111011505127,3.609727144241333,-0.20631669461727142
2.689363956451416,3.6175076961517334,-0.19121529161930084
2.655221700668335,3.7342374324798584,0.5016056895256042
2.612811803817749,3.7336485385894775,0.5137149691581726
2.5827460289001465,3.7524867057800293,0.528290331363678
1.0514262914657593,1.5506788492202759,0.2227228581905365
1.039501428604126,1.5579264163970947,0.22805653512477875
1.035599946975708,1.5783156156539917,0.23529678583145142
1.0280429124832153,1.5917298793792725,0.2412896305322647
1.0163270235061646,1.5985020399093628,0.24610529839992523
1.003816843032837,1.605652093887329,0.25085896253585815
0.9996529817581177,1.6257227659225464,0.2575909197330475
0.992005467414856,1.6387553215026855,0.2630419433116913
0.9676316976547241,1.6256005764007568,0.26421284675598145
0.9472429156303406,1.6189775466918945,0.26625460386276245
1.3419123888015747,2.3324615955352783,0.3879367709159851
1.8507698774337769,3.2693889141082764,0.5495525598526001
1.7663720846176147,3.1736817359924316,0.5388324856758118
1.7657543420791626,3.2301106452941895,0.5537750720977783
1.7760885953903198,3.3067097663879395,0.5722237825393677
1.7669696807861328,3.345344305038452,0.5839775204658508
2.3812613487243652,4.586441993713379,0.8074344396591187
2.343031644821167,4.5958051681518555,0.8154203295707703
2.3076107501983643,4.612029552459717,0.8247760534286499
2.277570962905884,4.633955478668213,0.8348248600959778
2.2513973712921143,4.6623005867004395,0.8459694385528564
2.22054123878479,4.684083461761475,0.8556220531463623
2.185436725616455,4.699065208435059,0.8638171553611755
