X,Y,Z
-1.0712579488754272,3.442420721054077,-0.03936039283871651
-1.0443991422653198,3.442498207092285,-0.03957497328519821
-1.0245349407196045,3.464755058288574,-0.0400443933904171
-1.0026048421859741,3.4792916774749756,-0.04042480140924454
-0.9804946780204773,3.4936978816986084,-0.04080529883503914
-0.9556301832199097,3.500577449798584,-0.04107518866658211
-0.9342915415763855,3.5224967002868652,-0.04152779281139374
-0.9124583005905151,3.5403144359588623,-0.04192988947033882
-0.8869078159332275,3.542772054672241,-0.0421503521502018
-0.8649942278862,3.5602428913116455,-0.04254961013793945
-0.8397783637046814,3.566272258758545,-0.042778078466653824
-0.8175119161605835,3.587465524673462,-0.04319429770112038
-0.794012188911438,3.6007373332977295,-0.04351389408111572
-0.7689315676689148,3.606173515319824,-0.04374004155397415
-0.7485087513923645,3.6343958377838135,-0.04424592852592468
-0.7258256673812866,3.654921531677246,-0.044635433703660965
-0.6980129480361938,3.6523797512054443,-0.04474775865674019
-0.6737642884254456,3.6648712158203125,-0.04504287987947464
-0.6510351300239563,3.6848413944244385,-0.045431338250637054
-0.6274082660675049,3.7008209228515625,-0.045773833990097046
-0.6014419794082642,3.705127239227295,-0.0459451824426651
-0.5749332904815674,3.7093312740325928,-0.04611208289861679
-0.5523017048835754,3.7364583015441895,-0.046564895659685135
-0.5262949466705322,3.7402076721191406,-0.046728283166885376
-0.5033320188522339,3.767010450363159,-0.047182846814394
-0.4769645035266876,3.7704381942749023,-0.04733181372284889
-0.4513727128505707,3.7814531326293945,-0.04756525531411171
-0.42428427934646606,3.7845864295959473,-0.04770393669605255
-0.39954811334609985,3.802985906600952,-0.048035088926553726
-0.3742663264274597,3.8173298835754395,-0.04831777885556221
-0.3497893810272217,3.843181848526001,-0.04873896390199661
-0.3235189914703369,3.853320598602295,-0.04892748221755028
-0.29665225744247437,3.8633158206939697,-0.049117933958768845
-0.27129220962524414,3.888671398162842,-0.04950535669922829
-0.24419774115085602,3.890465497970581,-0.04959545284509659
-0.21752648055553436,3.8998706340789795,-0.04978511482477188
-0.19139987230300903,3.924703359603882,-0.05014466866850853
-0.1636250913143158,3.92986798286438,-0.0502517893910408
-0.1372523307800293,3.9621429443359375,-0.05070766806602478
-0.1099386066198349,3.970808982849121,-0.050864044576883316
-0.08315888792276382,4.01052713394165,-0.05142119899392128
-0.0550980307161808,3.99538516998291,-0.05125483125448227
-0.026914779096841812,4.011297702789307,-0.05146405100822449
0.0009949191007763147,4.019199848175049,-0.051572948694229126
0.029041405767202377,4.030813694000244,-0.05173201113939285
0.05726664513349533,4.046136379241943,-0.051941245794296265
0.08553823083639145,4.053451061248779,-0.05204746499657631
0.11434230208396912,4.076186180114746,-0.05231111869215965
0.14392967522144318,4.09869909286499,-0.052573736757040024
0.172389417886734,4.097601413726807,-0.05253633111715317
0.20298390090465546,4.139217853546143,-0.05304885655641556
0.23219949007034302,4.145506381988525,-0.05311092361807823
0.25778988003730774,4.093118190765381,-0.052397504448890686
0.2890837788581848,4.126267910003662,-0.052766792476177216
0.31555095314979553,4.096907615661621,-0.0523400716483593
0.3367970287799835,4.0089898109436035,-0.05116899684071541
0.36427178978919983,4.0026655197143555,-0.05104288458824158
0.38518229126930237,3.9300708770751953,-0.05006467550992966
0.40824565291404724,3.8845443725585938,-0.0494052954018116
0.43152979016304016,3.8505866527557373,-0.04889826849102974
0.4545430541038513,3.8164725303649902,-0.04839229956269264
0.4757075607776642,3.7705917358398438,-0.047740645706653595
0.4978383779525757,3.7362136840820312,-0.04723821207880974
0.5191750526428223,3.697815179824829,-0.04665254056453705
0.5423815250396729,3.67869234085083,-0.04631168767809868
0.5629971027374268,3.6439805030822754,-0.04577789455652237
0.5777169466018677,3.5744309425354004,-0.04481054097414017
0.6025475859642029,3.570330858230591,-0.044667571783065796
0.6190662384033203,3.5199241638183594,-0.043925389647483826
0.6386814713478088,3.4886279106140137,-0.043408315628767014
0.6597023606300354,3.468813419342041,-0.04303967207670212
0.6762251853942871,3.425827741622925,-0.042386025190353394
0.6898645758628845,3.371295690536499,-0.0415944829583168
0.34807220101356506,1.6431031227111816,-0.020209694281220436
0.7349183559417725,3.3537697792053223,-0.041095390915870667
0.7474814653396606,3.30295467376709,-0.040324464440345764
0.7676722407341003,3.2862906455993652,-0.039973024278879166
0.779521644115448,3.23530912399292,-0.0392080657184124
0.7981556057929993,3.2146689891815186,-0.03881126269698143
0.8146398663520813,3.186349868774414,-0.03830237686634064
0.8293885588645935,3.154282569885254,-0.037755731493234634
0.8429654240608215,3.118326187133789,-0.03716535121202469
0.8563025593757629,3.082273244857788,-0.036577094346284866
0.8777066469192505,3.076249361038208,-0.036345645785331726
0.8868967890739441,3.0288710594177246,-0.03559942543506622
0.9030035138130188,3.0078020095825195,-0.0351705476641655
0.9190950393676758,2.986583709716797,-0.03474133089184761
0.9351663589477539,2.965214729309082,-0.034311823546886444
0.9521166086196899,2.94750714302063,-0.033924270421266556
0.9626045227050781,2.911207914352417,-0.03329848125576973
0.9748042225837708,2.8824193477630615,-0.03276735544204712
0.9895455837249756,2.860867738723755,-0.03231915459036827
1.004225730895996,2.839183807373047,-0.03187115117907524
1.014501929283142,2.806474447250366,-0.03129860386252403
1.0280369520187378,2.7848994731903076,-0.03084115870296955
1.041617512702942,2.7631609439849854,-0.03038225881755352
1.0579321384429932,2.748589515686035,-0.030003298074007034
1.0641405582427979,2.7084593772888184,-0.02934945933520794
1.0825618505477905,2.701152801513672,-0.029039889574050903
1.097726583480835,2.686591863632202,-0.02864244394004345
1.1071743965148926,2.657344102859497,-0.02808648720383644
1.1164571046829224,2.6280159950256348,-0.027532527223229408
1.131589412689209,2.613027811050415,-0.02713271975517273
1.15217924118042,2.612558603286743,-0.02687462978065014
1.1632128953933716,2.590550184249878,-0.0263968575745821
1.1780649423599243,2.5752453804016113,-0.025978853926062584
1.1942747831344604,2.5634632110595703,-0.025600703433156013
1.1848376989364624,2.4988462924957275,-0.024686794728040695
1.1980433464050293,2.483874559402466,-0.024261994287371635
1.2114044427871704,2.4686901569366455,-0.023832691833376884
1.2165766954421997,2.4356229305267334,-0.023223936557769775
1.2260462045669556,2.413361072540283,-0.0227225199341774
1.2347970008850098,2.3913280963897705,-0.02221726067364216
1.2435379028320312,2.369166135787964,-0.021710941568017006
1.2600226402282715,2.360443592071533,-0.02131856232881546
1.2649551630020142,2.331176996231079,-0.020741164684295654
1.2787024974822998,2.3192086219787598,-0.02030913345515728
1.2904372215270996,2.303753137588501,-0.01984892040491104
1.3063774108886719,2.294755220413208,-0.019435854628682137
1.3217546939849854,2.285936117172241,-0.01901639625430107
1.3247730731964111,2.257056951522827,-0.018425237387418747
1.324327826499939,2.2210161685943604,-0.01776328682899475
1.351874828338623,2.2318079471588135,-0.017475565895438194
1.3541669845581055,2.2029569149017334,-0.016870055347681046
1.3685730695724487,2.194040060043335,-0.01641714759171009
1.396309494972229,2.2042911052703857,-0.01608186401426792
1.381688117980957,2.1487514972686768,-0.01526036486029625
1.3954789638519287,2.139824390411377,-0.014782282523810863
3.1394588947296143,4.7424092292785645,-0.03177109733223915
3.1213138103485107,4.646531105041504,-0.030129387974739075
2.5902295112609863,3.803224802017212,-0.023819562047719955
2.629911184310913,3.8044273853302,-0.022904470562934875
2.2469394207000732,3.2048094272613525,-0.018512185662984848
2.2535037994384766,3.171494245529175,-0.01753377728164196
2.284640073776245,3.1684274673461914,-0.01664252020418644
2.3094213008880615,3.1600968837738037,-0.01570953242480755
2.3999247550964355,3.2389979362487793,-0.01512656919658184
2.288067579269409,3.1995656490325928,0.026244286447763443
2.2733633518218994,3.229146957397461,0.02751350961625576
2.291461706161499,3.3070228099823,0.029180454090237617
2.6075000762939453,3.819732904434204,0.03477665036916733
3.1160576343536377,4.640543460845947,0.04354079067707062
3.145073890686035,4.757314205169678,0.045870862901210785
3.1277689933776855,4.806022644042969,0.047555603086948395
3.091329336166382,4.829528331756592,0.048967573791742325
1.6304612159729004,2.5876383781433105,0.026827432215213776
1.6246237754821777,2.6189205646514893,0.02773100882768631
1.5968387126922607,2.617661952972412,0.02829037234187126
1.5976771116256714,2.662799835205078,0.029345953837037086
1.5592697858810425,2.6401984691619873,0.029626695439219475
1.5320128202438354,2.638047695159912,0.03011014685034752
1.5008158683776855,2.628960132598877,0.030503233894705772
1.4786523580551147,2.632526397705078,0.03100997768342495
1.4672337770462036,2.6567630767822266,0.03177027776837349
1.4513038396835327,2.6743826866149902,0.032444000244140625
1.4355980157852173,2.6916961669921875,0.03310869634151459
1.4022787809371948,2.673962116241455,0.03332436457276344
2.462104082107544,4.777554988861084,0.06029309332370758
2.3927581310272217,4.729623794555664,0.06041853874921799
1.2011522054672241,2.4170310497283936,0.03123205527663231
1.1877747774124146,2.432323932647705,0.03177592530846596
1.1739078760147095,2.447707414627075,0.03231990709900856
1.1810073852539062,2.5091943740844727,0.03347716107964516
1.1859064102172852,2.567239761352539,0.03459922969341278
1.1725094318389893,2.5862512588500977,0.035201095044612885
1.166996717453003,2.6229751110076904,0.03603929281234741
1.1447596549987793,2.624229907989502,0.03637172654271126
1.125658392906189,2.6324737071990967,0.03680175915360451
1.0907127857208252,2.6006085872650146,0.03665468469262123
1.069307804107666,2.6010327339172363,0.03696455806493759
1.9903576374053955,4.941901206970215,0.07076968997716904
1.9689526557922363,4.992468357086182,0.07202889770269394
2.0361921787261963,5.272289752960205,0.07662220299243927
2.3297040462493896,6.159458160400391,0.09015336632728577
2.2573351860046387,6.098947048187256,0.089900441467762
2.188110589981079,6.0452470779418945,0.08968152850866318
1.9868844747543335,5.615289688110352,0.08383654803037643
1.8479384183883667,5.34113073348999,0.08023789525032043
1.9058583974838257,5.635038375854492,0.08517337590456009
1.847053050994873,5.59290885925293,0.08503793179988861
1.889630675315857,5.862490177154541,0.08961564302444458
1.8792307376861572,5.976463317871094,0.09184843301773071
1.8592976331710815,6.060351848602295,0.09362422674894333
1.8326878547668457,6.125539779663086,0.09512557089328766
1.7905172109603882,6.142056941986084,0.09585212171077728
1.7692819833755493,6.237563610076904,0.09779848158359528
1.740216612815857,6.306521892547607,0.09933647513389587
1.707458734512329,6.359954833984375,0.10062927007675171
1.6770007610321045,6.4245734214782715,0.1021106019616127
1.6280279159545898,6.421031475067139,0.10248249769210815
1.5778313875198364,6.417453765869141,0.10281527042388916
1.5285937786102295,6.4132914543151855,0.10313517600297928
1.4600400924682617,6.321049213409424,0.10203016549348831
1.415186882019043,6.327231407165527,0.1025109514594078
0.353476345539093,1.6338651180267334,0.026566041633486748
1.2972500324249268,6.212858200073242,0.10133001953363419
1.259360432624817,6.252519130706787,0.10228866338729858
1.2050676345825195,6.207509994506836,0.10186276584863663
1.1553435325622559,6.181192398071289,0.10174206644296646
1.1081178188323975,6.166017532348633,0.10180679708719254
1.055779218673706,6.127633571624756,0.10143397748470306
1.0092661380767822,6.115667819976807,0.10149165242910385
0.9704542756080627,6.149620532989502,0.10231570899486542
0.9154453873634338,6.075109481811523,0.10133471339941025
0.8703446388244629,6.062000274658203,0.10137887299060822
0.8239082098007202,6.044830322265625,0.10131274908781052
0.7733409404754639,5.988498210906982,0.10055004805326462
0.7301717400550842,5.986041069030762,0.10069505870342255
0.4695809483528137,4.085808753967285,0.0688585564494133
0.4445570707321167,4.12003231048584,0.06956791132688522
0.4084739685058594,4.049184799194336,0.06849991530179977
0.3872643709182739,4.133652210235596,0.07001423090696335
0.3569737672805786,4.120695114135742,0.06988172978162766
0.32541322708129883,4.088043689727783,0.06941729784011841
0.2923858165740967,4.027883529663086,0.06848684698343277
0.2643417716026306,4.029819011688232,0.06861399114131927
0.23614908754825592,4.039392471313477,0.0688418447971344
0.20828373730182648,4.048745632171631,0.06904444843530655
0.17991302907466888,4.05010461807251,0.06911426782608032
0.2897196412086487,7.735637187957764,0.13210198283195496
0.23508937656879425,7.706228256225586,0.13170024752616882
0.1803818941116333,7.699886798858643,0.13169680535793304
0.12619467079639435,7.665808200836182,0.13114650547504425
0.07252777367830276,7.627444744110107,0.13052885234355927
0.01942608319222927,7.6277642250061035,0.13057935237884521
-0.0334131121635437,7.584751129150391,0.12989404797554016
-0.08675730973482132,7.560892581939697,0.12954354286193848
-0.1389942318201065,7.544487476348877,0.12926946580410004
-0.19057109951972961,7.512106895446777,0.12866559624671936
-0.24208365380764008,7.491085529327393,0.12826278805732727
-0.2935393452644348,7.473611831665039,0.1279270499944687
-0.3463875353336334,7.490900039672852,0.1281924992799759
-0.2897186279296875,5.432892799377441,0.09295576810836792
-0.3273257613182068,5.430758953094482,0.09283667057752609
-0.3643765449523926,5.420572280883789,0.09257680177688599
-0.3868562579154968,5.215383529663086,0.08899416774511337
-0.4057115912437439,4.998462200164795,0.08522138744592667
-0.438908189535141,4.972134590148926,0.08470459282398224
-0.4415096640586853,4.634599208831787,0.0788741335272789
-0.47104111313819885,4.608138561248779,0.07830601930618286
-0.501076877117157,4.589256763458252,0.0778714045882225
-0.5310503244400024,4.570160388946533,0.07743699103593826
-0.5595253705978394,4.53528356552124,0.07673785090446472
-0.5905086398124695,4.5274176597595215,0.07650221139192581
-0.6216974258422852,4.523244380950928,0.07628527283668518
-0.6516307592391968,4.511140823364258,0.0759277418255806
-0.6814699769020081,4.498833179473877,0.07557068765163422
-0.7096152901649475,4.470757007598877,0.07494917511940002
-0.7381279468536377,4.4503068923950195,0.07446303218603134
-0.7702749371528625,4.452786922454834,0.0743434727191925
-0.7938501238822937,4.408969879150391,0.07341618835926056
-0.8233271241188049,4.39959192276001,0.07306769490242004
-0.8477445840835571,4.363130569458008,0.07227280735969543
-0.7403009533882141,3.671715259552002,0.060659877955913544
-0.7657540440559387,3.6664955615997314,0.06041889637708664
-0.7957079410552979,3.6840946674346924,0.06051405519247055
-0.9611504673957825,4.307570457458496,0.07052653282880783
-0.9905737638473511,4.300905227661133,0.0701911449432373
-1.0245510339736938,4.309003829956055,0.07009172439575195
-1.0488383769989014,4.2790374755859375,0.06938114017248154
-1.0743260383605957,4.2566046714782715,0.06876319646835327
-1.1002527475357056,4.237878322601318,0.0681881308555603
-1.1340699195861816,4.249176502227783,0.06809847056865692
-1.1620036363601685,4.233529090881348,0.0675688236951828
-1.1882580518722534,4.21406888961792,0.06698708981275558
-1.2107203006744385,4.183285713195801,0.06620946526527405
-1.2324206829071045,4.152512073516846,0.06540452688932419
-1.267399549484253,4.166478157043457,0.06530729681253433
-1.2942745685577393,4.150033950805664,0.06472474336624146
-1.3230323791503906,4.14096212387085,0.06426458060741425
-1.3466296195983887,4.116921901702881,0.06356298178434372
-1.3767935037612915,4.115178108215332,0.06317784637212753
-1.401973009109497,4.0984206199646,0.06256461143493652
-1.427580714225769,4.081304550170898,0.06194246932864189
-1.453781008720398,4.063757419586182,0.061308324337005615
-1.4789899587631226,4.046342849731445,0.06066908314824104
-1.5006922483444214,4.02168083190918,0.05988935008645058
-1.5332509279251099,4.026112079620361,0.059545572847127914
-1.5582423210144043,4.008133888244629,0.05886034667491913
-1.5764458179473877,3.97161602973938,0.057900235056877136
-1.6005715131759644,3.9535369873046875,0.05720498412847519
-1.6269947290420532,3.9427454471588135,0.056603170931339264
-1.6535015106201172,3.931711435317993,0.055997781455516815
-1.6807746887207031,3.9201385974884033,0.055373091250658035
-1.6990768909454346,3.886686086654663,0.05443621054291725
-1.7251031398773193,3.875213623046875,0.05378446727991104
-1.7444355487823486,3.849411964416504,0.05293350666761398
-1.7772340774536133,3.851602554321289,0.052457425743341446
-1.7857259511947632,3.800262451171875,0.05124850943684578
-1.8238705396652222,3.8124451637268066,0.05087718367576599
-1.5346739292144775,3.1540119647979736,0.041636016219854355
-1.5592397451400757,3.1506664752960205,0.04113238304853439
-1.5740671157836914,3.12580943107605,0.04033393785357475
-1.595611572265625,3.114875078201294,0.03971543535590172
-1.9516088962554932,3.7487099170684814,0.047188665717840195
-1.6552116870880127,3.1278951168060303,0.03885488957166672
-1.6695200204849243,3.1025586128234863,0.03800537809729576
-1.7059803009033203,3.118335485458374,0.03765805810689926
-1.6960597038269043,3.052447557449341,0.036317337304353714
-0.8369447588920593,1.4831912517547607,0.017379874363541603
-0.7619043588638306,1.3281543254852295,0.015305044129490852
-0.7749308943748474,1.329649806022644,0.015063625760376453
-0.7756184339523315,1.311131238937378,0.014585074037313461
-0.8687982559204102,1.4465810060501099,0.015786971896886826
-0.8829286694526672,1.447163462638855,0.0154722286388278
-0.8927358388900757,1.441138505935669,0.015078557655215263
-0.9062168598175049,1.441938877105713,0.014759445562958717
-0.8950648307800293,1.40277099609375,0.014019626192748547
-1.36105215549469,1.9842582941055298,0.017164643853902817
-1.354239583015442,1.9462416172027588,0.016240239143371582
-1.3890336751937866,2.0028867721557617,-0.02089180238544941
-1.2682942152023315,1.8583664894104004,-0.02008901908993721
-1.2640759944915771,1.8800873756408691,-0.020979024469852448
-1.245609998703003,1.8830039501190186,-0.02165679633617401
-1.3083460330963135,2.010016679763794,-0.023784089833498
-0.8915151357650757,1.414233684539795,-0.017607543617486954
-0.8545047044754028,1.3774827718734741,-0.017551951110363007
-0.8917281031608582,1.460057020187378,-0.019011573866009712
-0.8726481795310974,1.453339695930481,-0.019328758120536804
-0.7786048054695129,1.3184010982513428,-0.017884977161884308
-0.7733423113822937,1.3305325508117676,-0.01838529482483864
-0.7675834894180298,1.3428629636764526,-0.018889591097831726
-1.2588868141174316,2.240687608718872,-0.032068945467472076
-1.6376187801361084,2.964154005050659,-0.0431220680475235
-1.643022894859314,3.023533582687378,-0.04467581957578659
-1.6207791566848755,3.0355031490325928,-0.04551668465137482
-1.569641351699829,2.991848945617676,-0.045507270842790604
-1.6257401704788208,3.151972532272339,-0.048592180013656616
-1.5924471616744995,3.142660140991211,-0.04910096898674965
-1.5693893432617188,3.1542255878448486,-0.04991215094923973
-1.5500593185424805,3.1724531650543213,-0.050822384655475616
-1.5314099788665771,3.190152406692505,-0.05170609429478645
-1.5056242942810059,3.193756580352783,-0.05235665664076805
-1.4890176057815552,3.218742609024048,-0.05334123596549034
-1.4654550552368164,3.2295258045196533,-0.05410109832882881
-1.4397188425064087,3.2325191497802734,-0.05470544844865799
-1.4170581102371216,3.2425050735473633,-0.05542425438761711
-1.3996914625167847,3.267030954360962,-0.05636177957057953
-1.3729459047317505,3.2698776721954346,-0.056929945945739746
-1.3527599573135376,3.286717176437378,-0.05773192271590233
-1.3298894166946411,3.2960257530212402,-0.05839666724205017
-1.3091869354248047,3.3126931190490723,-0.05916833505034447
-1.286726474761963,3.3256583213806152,-0.05987090244889259
-1.261833667755127,3.3309953212738037,-0.06043028086423874
-1.2382607460021973,3.3398184776306152,-0.06105593964457512
-1.2188217639923096,3.359417676925659,-0.06186385080218315
-1.1947481632232666,3.3680434226989746,-0.06244419887661934
-1.1731442213058472,3.3838870525360107,-0.06316297501325607
-1.1520189046859741,3.3993749618530273,-0.06386884301900864
-1.1279140710830688,3.407438039779663,-0.06444568186998367
-1.103770136833191,3.415325164794922,-0.06498955935239792
-1.0840251445770264,3.4380171298980713,-0.0658048465847969
-1.0641289949417114,3.4605653285980225,-0.06662221252918243
-1.040039300918579,3.4678711891174316,-0.06714235246181488
-1.0202536582946777,3.4900126457214355,-0.06795510649681091
-0.9950276613235474,3.4972786903381348,-0.06844751536846161
-0.9742396473884583,3.519329786300659,-0.06921958178281784
-0.949371874332428,3.5261096954345703,-0.06969291716814041
-0.9258136749267578,3.5363962650299072,-0.07023431360721588
-0.9002019166946411,3.538963556289673,-0.07062620669603348
-0.8774831295013428,3.55672550201416,-0.07128097116947174
-0.85768061876297,3.5856428146362305,-0.07215604931116104
-0.8324127197265625,3.5915844440460205,-0.07257205247879028
-0.8091005682945251,3.604905128479004,-0.07313796132802963
-0.782296359539032,3.602815628051758,-0.07339514046907425
-0.7579676508903503,3.6159861087799072,-0.07392038404941559
-0.7370004653930664,3.6442205905914307,-0.07474933564662933
-0.7083643078804016,3.6339733600616455,-0.07479160279035568
-0.6845255494117737,3.646479606628418,-0.075302354991436
-0.6591920256614685,3.651136636734009,-0.07565487176179886
-0.6390791535377502,3.6903812885284424,-0.0766863003373146
-0.6098538041114807,3.6755247116088867,-0.07658199220895767
-0.5870919227600098,3.698995590209961,-0.07727926969528198
-0.5625119209289551,3.710707426071167,-0.07773426175117493
-0.5367141962051392,3.714520215988159,-0.07802770286798477
-0.6244480013847351,4.550101280212402,-0.09580029547214508
-0.581903338432312,4.473040580749512,-0.09436258673667908
-0.5571534037590027,4.531277179718018,-0.09578268975019455
-0.5269641876220703,4.546676158905029,-0.09630297869443893
-0.4961649477481842,4.5579915046691895,-0.09674226492643356
-0.4682680368423462,4.600193500518799,-0.09782110899686813
-0.44793862104415894,4.735605716705322,-0.10084924846887589
-0.4365028738975525,4.987618446350098,-0.1063750609755516
-0.4058143198490143,5.041140079498291,-0.10768122225999832
-0.3951101303100586,5.3748955726623535,-0.11499083787202835
-0.3605966567993164,5.420371055603027,-0.11614789813756943
-0.3225489854812622,5.43058967590332,-0.11645643413066864
-0.2924423813819885,5.58090353012085,-0.11977601796388626
-0.2722461521625519,5.996347427368164,-0.12880180776119232
-0.2270372360944748,5.908337593078613,-0.12702518701553345
-0.18699632585048676,5.944902420043945,-0.12793199717998505
-0.14119477570056915,5.7977190017700195,-0.1248229369521141
-0.10018602758646011,5.767323970794678,-0.12420304119586945
-0.06009535491466522,5.783502101898193,-0.12459210306406021
-0.019771890714764595,5.748631000518799,-0.12388711422681808
0.02007882297039032,5.733007431030273,-0.12360242009162903
0.06056259572505951,5.732722282409668,-0.12361833453178406
0.10010896623134613,5.716545104980469,-0.12322892248630524
0.13938024640083313,5.700098037719727,-0.12283986061811447
0.17828918993473053,5.675570964813232,-0.1222827360033989
0.21491673588752747,5.600048065185547,-0.12063320726156235
0.25156381726264954,5.547701358795166,-0.11948922276496887
0.22118543088436127,4.219794273376465,-0.09080030024051666
0.24746114015579224,4.167479515075684,-0.089591383934021
0.27789467573165894,4.189047336578369,-0.0899757593870163
0.31014537811279297,4.229860782623291,-0.09077642858028412
0.334886759519577,4.169210433959961,-0.08940411359071732
0.48362359404563904,5.53232479095459,-0.11849316954612732
0.5104532837867737,5.408326625823975,-0.11567740142345428
0.5296860933303833,5.225945472717285,-0.11162709444761276
0.5369787812232971,4.954238414764404,-0.10568571090698242
0.5714190602302551,4.9503889083862305,-0.1054709181189537
0.6790329813957214,5.539322853088379,-0.1178411915898323
0.7212076187133789,5.5655035972595215,-0.11815740913152695
0.7584894299507141,5.552668571472168,-0.11764996498823166
0.8108267784118652,5.643930435180664,-0.11934875696897507
0.8634578585624695,5.7269816398620605,-0.12087112665176392
0.8558390736579895,5.415985107421875,-0.11408424377441406
0.9076749682426453,5.4986090660095215,-0.11550240963697433
0.9520732760429382,5.53073787689209,-0.11585790663957596
0.988838255405426,5.516356945037842,-0.11524160206317902
1.027230978012085,5.5093464851379395,-0.11478234827518463
1.0714644193649292,5.53275203704834,-0.11496104300022125
0.66545170545578,3.3120200634002686,-0.06859003007411957
0.3500455915927887,1.6823686361312866,-0.03472238406538963
1.1686060428619385,5.429221153259277,-0.11167488247156143
0.719374418258667,3.232764482498169,-0.06626982241868973
0.7523506283760071,3.2733614444732666,-0.06687583029270172
0.7662436962127686,3.2300193309783936,-0.0657341405749321
0.7808539271354675,3.194371223449707,-0.0647445097565651
0.802695631980896,3.188960075378418,-0.06437259912490845
0.8179775476455688,3.156848907470703,-0.06346294283866882
0.833885669708252,3.128446102142334,-0.06263463944196701
0.8495607972145081,3.0999438762664795,-0.061775512993335724
0.8653647303581238,3.07529616355896,-0.06098095327615738
0.8776220083236694,3.0393214225769043,-0.05996941775083542
0.8987450003623962,3.0331506729125977,-0.0595453679561615
0.9175532460212708,3.019359588623047,-0.058975331485271454
0.9293264150619507,2.983055591583252,-0.05794054642319679
0.9436163306236267,2.9580841064453125,-0.0571216344833374
0.9540225267410278,2.921902656555176,-0.056093521416187286
0.9693922400474548,2.900381326675415,-0.05534687265753746
0.9870120882987976,2.8861873149871826,-0.05474567413330078
0.9989476203918457,2.857274055480957,-0.053842321038246155
1.012015700340271,2.831951856613159,-0.05299687013030052
1.020581841468811,2.7956461906433105,-0.05195801332592964
1.0372943878173828,2.7811622619628906,-0.051324211061000824
1.0510516166687012,2.7592899799346924,-0.05055984854698181
1.0582976341247559,2.7230329513549805,-0.04950864240527153
1.0726107358932495,2.7048354148864746,-0.048786506056785583
1.0794646739959717,2.6684412956237793,-0.04774288833141327
1.103954553604126,2.675320863723755,-0.04747346043586731
1.1101564168930054,2.638896942138672,-0.04642556235194206
1.118575930595398,2.6098718643188477,-0.04549594223499298
1.1458271741867065,2.623624801635742,-0.045304082334041595
1.1544835567474365,2.594207286834717,-0.04436367377638817
1.1724834442138672,2.5861315727233887,-0.04379348084330559
1.1815634965896606,2.560513496398926,-0.04290537163615227
1.1886595487594604,2.5313704013824463,-0.04196573793888092
1.1861507892608643,2.4807040691375732,-0.04066024720668793
1.2033792734146118,2.472402572631836,-0.04006247594952583
1.211357831954956,2.44674015045166,-0.03916945680975914
1.2275683879852295,2.438657283782959,-0.03855464607477188
1.229942798614502,2.402419090270996,-0.03748837485909462
1.2466095685958862,2.3938229084014893,-0.03685186803340912
1.2630367279052734,2.385206460952759,-0.036198053508996964
1.2713677883148193,2.3630595207214355,-0.03534640744328499
1.2948867082595825,2.368086576461792,-0.03488824889063835
1.2885152101516724,2.318086624145508,-0.033615950495004654
1.3020421266555786,2.3060412406921387,-0.0328914113342762
1.3057267665863037,2.2769901752471924,-0.031915269792079926
1.313436508178711,2.254497528076172,-0.03102513775229454
1.3210810422897339,2.2318994998931885,-0.030135132372379303
1.3315757513046265,2.216555595397949,-0.0293288417160511
1.3461356163024902,2.2077529430389404,-0.028605401515960693
1.3534798622131348,2.184910297393799,-0.027660297229886055
1.3597804307937622,2.1625702381134033,-0.026736875995993614
1.373740792274475,2.153738498687744,-0.02598118595778942
1.3863517045974731,2.141000270843506,-0.02514171227812767
1.4009066820144653,2.131514310836792,-0.02432890608906746
1.416943907737732,2.1255927085876465,-0.023531291633844376
1.4159783124923706,2.093315601348877,-0.02242223732173443
1.4301509857177734,2.083667278289795,-0.021543631330132484
1.4723098278045654,2.116267442703247,-0.021079080179333687
1.448396921157837,2.0519485473632812,-0.019595161080360413
1.4758270978927612,2.0612127780914307,-0.01879439502954483
1.4888981580734253,2.051800012588501,-0.017814919352531433
2.3206582069396973,3.151787519454956,-0.025853559374809265
2.273115873336792,3.2052669525146484,0.040644172579050064
2.261867046356201,3.2370471954345703,0.04254637658596039
2.560624361038208,3.7238152027130127,0.050651680678129196
3.1498706340789795,4.655183792114258,0.06537986546754837
3.1498255729675293,4.725757598876953,0.06829085946083069
3.1180994510650635,4.756062030792236,0.07061257213354111
3.1048765182495117,4.8112263679504395,0.0732271745800972
1.6403589248657227,2.5812015533447266,0.04020661488175392
1.6246899366378784,2.6002910137176514,0.041424982249736786
1.5976245403289795,2.598668098449707,0.0422644279897213
1.549136757850647,2.5596015453338623,0.042443886399269104
1.5721256732940674,2.6414482593536377,0.04462478309869766
1.5328036546707153,2.619285821914673,0.04505176842212677
1.4966771602630615,2.5995941162109375,0.04546989127993584
1.470432162284851,2.5965733528137207,0.046145666390657425
1.454951524734497,2.6142067909240723,0.04717104882001877
1.443673849105835,2.638258695602417,0.04829711467027664
1.4271427392959595,2.651658296585083,0.04921439662575722
1.4112967252731323,2.6689491271972656,0.05020643025636673
2.4807798862457275,4.776203155517578,0.09100864827632904
2.4220547676086426,4.744912147521973,0.09151868522167206
2.352172613143921,4.688326835632324,0.09149960428476334
1.192809820175171,2.420889139175415,0.047784224152565
1.1679390668869019,2.4156301021575928,0.04821731150150299
1.1826204061508179,2.49086594581604,0.050244417041540146
1.1949479579925537,2.5627453327178955,0.05222472921013832
1.178244709968567,2.574749231338501,0.0529777891933918
1.1578401327133179,2.579694986343384,0.05356783792376518
1.147210717201233,2.6057770252227783,0.05459333583712578
1.1287508010864258,2.6138126850128174,0.05524103343486786
1.0997717380523682,2.5964596271514893,0.05533664673566818
1.0854438543319702,2.615159034729004,0.0561748705804348
2.006471633911133,4.9347310066223145,0.1068306714296341
1.9805870056152344,4.970386505126953,0.10841134935617447
2.0347487926483154,5.213485240936279,0.11457471549510956
2.3558027744293213,6.165403842926025,0.13643954694271088
2.2852721214294434,6.112708568572998,0.13617505133152008
2.2106168270111084,6.04451847076416,0.13554246723651886
2.1553189754486084,6.0229668617248535,0.13592080771923065
1.8829975128173828,5.38191556930542,0.12224015593528748
1.8393678665161133,5.380453109741211,0.12292372435331345
1.945353388786316,5.8269147872924805,0.13389459252357483
1.9294097423553467,5.918509483337402,0.13677503168582916
1.900068759918213,5.968966007232666,0.13871130347251892
1.869334101676941,6.0195417404174805,0.14068134129047394
1.8410013914108276,6.081307888031006,0.1428067684173584
1.8118036985397339,6.142995834350586,0.144947350025177
1.7770347595214844,6.185632705688477,0.14664502441883087
1.7476824522018433,6.246700286865234,0.1487850695848465
1.7165405750274658,6.303887844085693,0.150850310921669
1.683893084526062,6.365193843841553,0.15294010937213898
1.6521483659744263,6.4299492835998535,0.15510977804660797
0.8146870136260986,3.2661871910095215,0.07910247892141342
1.5480231046676636,6.395512580871582,0.15549837052822113
0.7878956198692322,3.357024908065796,0.08194318413734436
1.4254274368286133,6.275821208953857,0.1537158340215683
1.3858890533447266,6.308644771575928,0.15501299500465393
0.3519100546836853,1.6578823328018188,0.040867771953344345
1.2791333198547363,6.239459037780762,0.1542966216802597
1.234130859375,6.240536689758301,0.15482039749622345
1.1823028326034546,6.210798740386963,0.15454351902008057
1.1235227584838867,6.13833475112915,0.15313681960105896
1.0739972591400146,6.111497402191162,0.15286804735660553
1.0260769128799438,6.08803129196167,0.15268200635910034
0.9849316477775574,6.102719783782959,0.15345709025859833
0.923213541507721,5.989889144897461,0.15102487802505493
0.8900401592254639,6.058055400848389,0.15302547812461853
0.7797583341598511,5.580737590789795,0.14123466610908508
0.790846586227417,5.965436935424805,0.15126071870326996
0.7473390102386475,5.9552903175354,0.15129762887954712
0.5993537306785583,5.060660362243652,0.12882444262504578
0.46226537227630615,4.156625270843506,0.10598906129598618
0.42740726470947266,4.105386734008789,0.10483022034168243
0.400793194770813,4.13160514831543,0.10565353184938431
0.36676475405693054,4.075951099395752,0.10438548773527145
0.33970555663108826,4.093963623046875,0.10500729084014893
0.31395360827445984,4.139091968536377,0.1063314750790596
0.2766713500022888,4.020415782928467,0.10337121784687042
0.24901297688484192,4.030045032501221,0.10371248424053192
0.21999135613441467,4.016086101531982,0.10345146805047989
0.19357123970985413,4.048718452453613,0.10439545661211014
0.3159315288066864,7.756612300872803,0.20021404325962067
0.26142552495002747,7.743007183074951,0.20000237226486206
0.20682835578918457,7.721217155456543,0.19949600100517273
0.15223819017410278,7.683426856994629,0.1985854208469391
0.0985107347369194,7.664774417877197,0.1981784999370575
0.04411293938755989,7.626227378845215,0.197267547249794
-0.008860822767019272,7.60291862487793,0.19675816595554352
-0.061540208756923676,7.5831499099731445,0.19622184336185455
-0.11388646066188812,7.559113025665283,0.1955603063106537
-0.16555777192115784,7.519100666046143,0.19449520111083984
-0.21735700964927673,7.502156734466553,0.1940363496541977
-0.2693871259689331,7.473117351531982,0.19327406585216522
-0.32093992829322815,7.463266372680664,0.19298429787158966
-0.37584564089775085,7.5271759033203125,0.19448783993721008
-0.3093249201774597,5.438619613647461,0.14042235910892487
-0.34653016924858093,5.428554534912109,0.14006802439689636
-0.3752848207950592,5.289637565612793,0.1363963782787323
-0.3905128538608551,5.0104899406433105,0.12912341952323914
-0.4222736358642578,4.972648620605469,0.12801697850227356
-0.42980605363845825,4.677975654602051,0.12027404457330704
-0.45710575580596924,4.624383449554443,0.11874663829803467
-0.4889223873615265,4.613280296325684,0.11831464618444443
-0.5191478729248047,4.594263553619385,0.11768877506256104
-0.5482414364814758,4.567291736602783,0.1168641671538353
-0.5786409378051758,4.555675029754639,0.1163472905755043
-0.6067885756492615,4.52838134765625,0.11543726921081543
-0.6379657983779907,4.520158767700195,0.11501584947109222
-0.6647894978523254,4.4847211837768555,0.11391082406044006
-0.6971028447151184,4.487723350524902,0.11378902941942215
-0.7242809534072876,4.459691524505615,0.11284328997135162
-0.7561473250389099,4.462330341339111,0.11263153702020645
-0.7880415916442871,4.464750289916992,0.11241895705461502
-0.8137924671173096,4.428379058837891,0.11122898757457733
-0.8379639387130737,4.388103485107422,0.10995367914438248
-0.7272138595581055,3.6697018146514893,0.09173614531755447
-0.7530580759048462,3.668482542037964,0.09142123907804489
-0.7772626876831055,3.6594486236572266,0.0909162163734436
-0.9377112984657288,4.268019199371338,0.10570581257343292
-0.9837546944618225,4.3337721824646,0.10700535029172897
-1.0137888193130493,4.32685661315918,0.1065107062458992
-1.034279227256775,4.281853675842285,0.10504229366779327
-1.0615112781524658,4.267149925231934,0.10429789125919342
-1.08614981174469,4.2408061027526855,0.10327011346817017
-1.1185128688812256,4.244515419006348,0.10297884792089462
-1.152039647102356,4.251739025115967,0.10277491062879562
-1.1771539449691772,4.228655815124512,0.1018158346414566
-1.2004098892211914,4.201825141906738,0.10071693360805511
-1.2293329238891602,4.193470001220703,0.10005989670753479
-1.2559860944747925,4.177424430847168,0.09922435134649277
-1.2781341075897217,4.146203994750977,0.09803229570388794
-1.3068495988845825,4.137258052825928,0.09736304730176926
-1.3275808095932007,4.106050968170166,0.0961138904094696
-1.360749363899231,4.1116533279418945,0.09572189301252365
-1.3889408111572266,4.102232933044434,0.09498477727174759
-1.4071613550186157,4.062986850738525,0.09355945885181427
-1.4378070831298828,4.060547351837158,0.09298199415206909
-1.4677183628082275,4.058156967163086,0.09234491735696793
-1.4949564933776855,4.048220157623291,0.09153924137353897
-1.5204192399978638,4.030397891998291,0.09053824841976166
-1.5455718040466309,4.0124688148498535,0.08954428881406784
-1.57322096824646,4.001728057861328,0.08870308101177216
-1.5970896482467651,3.9838671684265137,0.087666817009449
-1.6222994327545166,3.969468832015991,0.08671165257692337
-1.6500732898712158,3.958024024963379,0.08579724282026291
-1.6652886867523193,3.9177393913269043,0.08427274227142334
-1.7043166160583496,3.935011148452759,0.08395788073539734
-1.7178517580032349,3.895017623901367,0.08239328861236572
-1.7375394105911255,3.8691768646240234,0.08113380521535873
-1.7648890018463135,3.856799364089966,0.08012356609106064
-1.7884033918380737,3.8373565673828125,0.07898418605327606
-1.8039008378982544,3.804198741912842,0.07751920074224472
-1.8325327634811401,3.799184560775757,0.07663261145353317
-1.8585506677627563,3.786545753479004,0.07556888461112976
-1.895737886428833,3.794301748275757,0.07488672435283661
-1.9141441583633423,3.7675559520721436,0.07350801676511765
-1.9317973852157593,3.7409827709198,0.07212082296609879
-1.960677146911621,3.734774589538574,0.07110970467329025
-1.6794486045837402,3.145665407180786,0.05911694094538689
-1.6839932203292847,3.103318214416504,0.057537760585546494
-1.7084821462631226,3.0988454818725586,0.0566381998360157
-1.7254953384399414,3.0804731845855713,0.055481456220149994
-0.8425191640853882,1.4799013137817383,0.026244958862662315
-0.7664113640785217,1.3254451751708984,0.023130150511860847
-0.7789888978004456,1.3271665573120117,0.022775528952479362
-0.8341416716575623,1.3989237546920776,0.02357519045472145
-0.8782426118850708,1.449896216392517,0.023981325328350067
-0.8877028822898865,1.4441328048706055,0.02342122234404087
-0.8929226994514465,1.431721806526184,0.022752879187464714
-0.8987022042274475,1.4188722372055054,0.02204834669828415
-2.4111979007720947,3.589214563369751,0.05031471326947212
-1.5012764930725098,2.1721537113189697,0.028583960607647896
-1.4128202199935913,2.014819383621216,0.02558579109609127
-1.3651657104492188,1.9527839422225952,-0.027447404339909554
-1.164499044418335,1.6926519870758057,-0.024739323183894157
-1.1894222497940063,1.7842390537261963,-0.027919413521885872
-1.217212200164795,1.8548184633255005,-0.029913920909166336
-0.8600870370864868,1.396881103515625,-0.024975791573524475
-0.877968430519104,1.4500184059143066,-0.026509245857596397
-0.8295078277587891,1.392546534538269,-0.025997115299105644
-0.8079439401626587,1.378057837486267,-0.026237728074193
-0.7820456624031067,1.356959581375122,-0.02633749507367611
-0.843280553817749,1.488394856452942,-0.0294204019010067
-1.0116443634033203,1.8148962259292603,-0.03648510202765465
-1.6314334869384766,2.9761667251586914,-0.06081841140985489
-1.6280072927474976,3.0224525928497314,-0.06274718791246414
-1.5840175151824951,2.9927868843078613,-0.06309062242507935
-1.6406760215759277,3.1526877880096436,-0.06742282956838608
-1.6073358058929443,3.143493890762329,-0.06815852224826813
-1.580798625946045,3.148158550262451,-0.0691760778427124
-1.5619629621505737,3.166233539581299,-0.07046116888523102
-1.5395219326019287,3.1771798133850098,-0.0715939924120903
-1.516696810722351,3.1881144046783447,-0.07268768548965454
-1.4967825412750244,3.2061095237731934,-0.07393790036439896
-1.4708621501922607,3.2094690799713135,-0.07482996582984924
-1.4549115896224976,3.2338438034057617,-0.07620563358068466
-1.4349981546401978,3.2512450218200684,-0.07739560306072235
-1.407914400100708,3.2545318603515625,-0.07824642956256866
-1.3878278732299805,3.2716100215911865,-0.07940495014190674
-1.3695697784423828,3.291964292526245,-0.0806349366903305
-1.3463811874389648,3.301492691040039,-0.08159276098012924
-1.3211153745651245,3.3074560165405273,-0.0824359729886055
-1.298364281654358,3.3206229209899902,-0.08347221463918686
-1.273827075958252,3.3259081840515137,-0.08428172767162323
-1.254791259765625,3.3456292152404785,-0.08546184748411179
-1.2308638095855713,3.3544838428497314,-0.0863180011510849
-1.2094001770019531,3.370558977127075,-0.08735954761505127
-1.185211420059204,3.3791182041168213,-0.08821144700050354
-1.16165030002594,3.3872687816619873,-0.08903919905424118
-1.140341877937317,3.4027180671691895,-0.09004596620798111
-1.1183775663375854,3.4181981086730957,-0.09102001786231995
-1.0891236066818237,3.411217451095581,-0.09139940142631531
-1.0719249248504639,3.441188097000122,-0.092768095433712
-1.0457367897033691,3.441054582595825,-0.0933215469121933
-1.0214899778366089,3.448310613632202,-0.09403717517852783
-1.2026199102401733,4.168320655822754,-0.11426598578691483
-1.1730300188064575,4.176721096038818,-0.1150931790471077
-1.1459416151046753,4.19230842590332,-0.1161150336265564
-1.1242061853408813,4.230497360229492,-0.11778425425291061
-1.09912109375,4.257230281829834,-0.11907107383012772
-1.0707050561904907,4.272496223449707,-0.12002287805080414
-1.0478112697601318,4.310302257537842,-0.12161599844694138
-1.0232127904891968,4.340261459350586,-0.12299035489559174
-0.9942378997802734,4.35498046875,-0.12395194172859192
-0.9652178883552551,4.36948299407959,-0.12483687698841095
-0.9399667382240295,4.402918815612793,-0.12625467777252197
-0.9120829701423645,4.424708843231201,-0.127346932888031
-0.8828496932983398,4.4385786056518555,-0.1282133311033249
-0.851444661617279,4.444690704345703,-0.12887118756771088
-0.8216037154197693,4.45822811126709,-0.1296611875295639
-0.7915405631065369,4.471578598022461,-0.13042402267456055
-0.7626773715019226,4.492419242858887,-0.13141323626041412
-0.7332584857940674,4.509167194366455,-0.13228751718997955
-0.7049115896224976,4.537379264831543,-0.1335141956806183
-0.6742233633995056,4.54992151260376,-0.1342242807149887
-0.6410723924636841,4.546811103820801,-0.13444262742996216
-0.6121416687965393,4.57442045211792,-0.13557705283164978
-0.5813509225845337,4.586294174194336,-0.13624931871891022
-0.5513110756874084,4.605719089508057,-0.13715456426143646
-0.5208024382591248,4.628902912139893,-0.13813473284244537
-0.4883369505405426,4.632430076599121,-0.13845910131931305
-0.4589473009109497,4.666812419891357,-0.13971368968486786
-0.4448508024215698,4.87208366394043,-0.14610180258750916
-0.41357502341270447,4.90617561340332,-0.14737477898597717
-0.37126317620277405,4.811652183532715,-0.14477317035198212
-0.34277915954589844,4.888128757476807,-0.14722511172294617
-0.3048832416534424,4.831949234008789,-0.1456892192363739
-0.26984676718711853,4.8105621337890625,-0.14520637691020966
-0.23636142909526825,4.812317371368408,-0.1454278826713562
-0.20195850729942322,4.806060791015625,-0.14541713893413544
-0.16760794818401337,4.783937454223633,-0.14481477439403534
-0.1338300108909607,4.769374370574951,-0.14443431794643402
-0.10038367658853531,4.7623820304870605,-0.14428992569446564
-0.0676148384809494,4.786386489868164,-0.14509163796901703
-0.033370472490787506,4.735986232757568,-0.14364595711231232
-0.00040425537736155093,4.7439117431640625,-0.1439022570848465
0.03189784288406372,4.638382911682129,-0.14067482948303223
0.06418942660093307,4.638049125671387,-0.14064525067806244
0.09639191627502441,4.6374921798706055,-0.14061574637889862
0.12956394255161285,4.671838760375977,-0.14165127277374268
0.16444233059883118,4.725439071655273,-0.1432461142539978
0.19212408363819122,4.60325813293457,-0.13943898677825928
0.20858986675739288,4.285935401916504,-0.12973691523075104
0.23553331196308136,4.233706951141357,-0.12807288765907288
0.26135075092315674,4.173515796661377,-0.12617598474025726
0.29195812344551086,4.187146186828613,-0.12651677429676056
0.32544562220573425,4.243424892425537,-0.12804755568504333
0.3840944766998291,4.591259479522705,-0.1383623331785202
0.41734778881073,4.60404634475708,-0.1385718435049057
0.4485624432563782,4.593271732330322,-0.13807834684848785
0.4827221930027008,4.605519771575928,-0.13828015327453613
0.5028235912322998,4.497314929962158,-0.13480064272880554
0.5366173386573792,4.5170111656188965,-0.13512781262397766
0.5809416174888611,4.617808818817139,-0.13788026571273804
0.6145973205566406,4.625278472900391,-0.1378440260887146
0.6337677240371704,4.524155616760254,-0.1345786452293396
0.6633801460266113,4.508081912994385,-0.13380874693393707
0.7080361247062683,4.592186450958252,-0.1359429955482483
0.7321675419807434,4.540961265563965,-0.13407361507415771
0.7746704816818237,4.601245403289795,-0.1354987621307373
0.8080450296401978,4.603445529937744,-0.1352129876613617
0.8447042107582092,4.620694160461426,-0.13534697890281677
0.8749833106994629,4.607125282287598,-0.13451267778873444
0.8922422528266907,4.528240203857422,-0.1317857801914215
0.9462025165557861,4.632922649383545,-0.13440074026584625
0.35225340723991394,1.6656028032302856,-0.04816492646932602
1.0394166707992554,4.748934745788574,-0.13687746226787567
1.0589581727981567,4.684607028961182,-0.13448816537857056
1.0856513977050781,4.6544599533081055,-0.13309553265571594
1.1323562860488892,4.707622051239014,-0.13408245146274567
1.1679232120513916,4.7110161781311035,-0.13364540040493011
1.2071057558059692,4.725335121154785,-0.1335100531578064
1.2393361330032349,4.7170090675354,-0.13264593482017517
1.2868200540542603,4.764998912811279,-0.13336336612701416
1.323781967163086,4.77109956741333,-0.1329004019498825
1.3654974699020386,4.791843414306641,-0.1328394114971161
1.4158350229263306,4.838298320770264,-0.13347025215625763
1.4767550230026245,4.922091960906982,-0.1350225955247879
0.9031301140785217,2.937474489212036,-0.0801294669508934
0.9162904024124146,2.908857822418213,-0.0788983628153801
0.9413087964057922,2.917292594909668,-0.07867221534252167
0.9410138726234436,2.847571849822998,-0.07633428275585175
0.9815476536750793,2.904036521911621,-0.07734928280115128
0.9833275675773621,2.8456714153289795,-0.0753079503774643
0.9938568472862244,2.813054323196411,-0.07395488023757935
1.0054686069488525,2.784043550491333,-0.0727044939994812
1.0299962759017944,2.791736125946045,-0.07239377498626709
1.046426773071289,2.7772936820983887,-0.07146406173706055
1.0595968961715698,2.7555854320526123,-0.07036400586366653
1.0658648014068604,2.715463638305664,-0.06879256665706635
1.0818129777908325,2.700756072998047,-0.06787572801113129
1.0941627025604248,2.678929328918457,-0.06675826013088226
1.1034497022628784,2.6497726440429688,-0.06545001268386841
1.1245763301849365,2.649381399154663,-0.06485918909311295
1.1305859088897705,2.6128346920013428,-0.06338004022836685
1.1516950130462646,2.612156629562378,-0.06276300549507141
1.1595805883407593,2.583021402359009,-0.06143205240368843
1.1756051778793335,2.5714941024780273,-0.06051557883620262
1.1901235580444336,2.556213617324829,-0.05950731411576271
1.1877392530441284,2.5055744647979736,-0.0576920360326767
1.197593092918396,2.483567237854004,-0.05652294680476189
