X,Y,Z
0.2768304646015167,7.671367168426514,1.9883242845535278
0.22232235968112946,7.642701625823975,1.9811617136001587
0.1684872806072235,7.62121057510376,1.9759525060653687
0.1151798740029335,7.595558166503906,1.9697555303573608
0.062081288546323776,7.550631046295166,1.9586502313613892
0.00865353737026453,7.535582065582275,1.955398440361023
-0.043548356741666794,7.516705513000488,1.9499156475067139
-0.09505444765090942,7.463441848754883,1.9356024265289307
-0.1467159241437912,7.4551920890808105,1.9330602884292603
-0.19815565645694733,7.439022064208984,1.9285584688186646
-0.2487427294254303,7.40360164642334,1.9191607236862183
-0.30372974276542664,7.46604061126709,1.9352216720581055
-0.2571805417537689,5.3977484703063965,1.399013638496399
-0.2935023903846741,5.377296447753906,1.3928194046020508
-0.3302501440048218,5.367922782897949,1.3895658254623413
-0.36578473448753357,5.343206882476807,1.3824129104614258
-0.40296152234077454,5.333286762237549,1.379143476486206
-0.43882009387016296,5.315609455108643,1.3739486932754517
-0.4110119342803955,4.589321136474609,1.18574059009552
-0.44355088472366333,4.594218730926514,1.18642258644104
-0.4736364781856537,4.576483249664307,1.1806659698486328
-0.502791702747345,4.547213077545166,1.1719810962677002
-0.5350000262260437,4.5516357421875,1.1720606088638306
-0.5637664198875427,4.525760650634766,1.1643903255462646
-0.593294084072113,4.507193565368652,1.1586617231369019
-0.6225373148918152,4.488439559936523,1.1529483795166016
-0.6563817858695984,4.499476432800293,1.1546292304992676
-0.6837614178657532,4.473076343536377,1.1462950706481934
-0.7114596962928772,4.45023775100708,1.1389390230178833
-0.7419941425323486,4.445903778076172,1.1363787651062012
-0.770319938659668,4.426366806030273,1.129972219467163
-0.7957589626312256,4.391724586486816,1.1197761297225952
-0.8254737257957458,4.379192352294922,1.1152617931365967
-0.7122383117675781,3.641428232192993,0.9259405732154846
-0.7393714785575867,3.6483094692230225,0.9260576963424683
-0.7658112049102783,3.6512889862060547,0.9252219796180725
-0.9395787119865417,4.332231044769287,1.09591543674469
-0.9670560359954834,4.31148624420166,1.0888065099716187
-0.9988791942596436,4.3128461837768555,1.0873700380325317
-1.0219944715499878,4.277061462402344,1.076622486114502
-1.0493050813674927,4.2636189460754395,1.0708297491073608
-1.0727509260177612,4.2352776527404785,1.061361312866211
-1.1078667640686035,4.250772476196289,1.062886357307434
-1.1354315280914307,4.236633777618408,1.0570409297943115
-1.161023736000061,4.214941024780273,1.0493593215942383
-1.192573070526123,4.215022087097168,1.0471540689468384
-1.2173376083374023,4.1931939125061035,1.0391744375228882
-1.2430329322814941,4.1749186515808105,1.031762957572937
-1.272518277168274,4.171144485473633,1.02803373336792
-1.301100492477417,4.1634674072265625,1.0233659744262695
-1.329153060913086,4.151777267456055,1.017698049545288
-1.3535035848617554,4.12905740737915,1.0093929767608643
-1.3802717924118042,4.113381385803223,1.0026295185089111
-1.4080801010131836,4.105243682861328,0.99729984998703
-1.425805926322937,4.068148612976074,0.9849992394447327
-1.4637621641159058,4.088319301605225,0.9865946173667908
-1.4820576906204224,4.05061674118042,0.9741608500480652
-1.5132367610931396,4.04853630065918,0.9703603386878967
-1.536556601524353,4.0247979164123535,0.9612187743186951
-1.5693085193634033,4.02996301651001,0.9585418701171875
-1.5908933877944946,4.006519317626953,0.9491098523139954
-1.6153348684310913,3.9899401664733887,0.9413339495658875
-1.6377078294754028,3.9657840728759766,0.9316951632499695
-1.6692273616790771,3.9624171257019043,0.9269220232963562
-1.693701148033142,3.945228338241577,0.918769896030426
-1.7187625169754028,3.9317877292633057,0.911153256893158
-1.7452691793441772,3.921668767929077,0.9043516516685486
-1.7724272012710571,3.911079168319702,0.8973636627197266
-1.797435998916626,3.892893075942993,0.8884971141815186
-1.8218215703964233,3.8747169971466064,0.879770040512085
-1.8447436094284058,3.8570775985717773,0.8706870675086975
-1.870688796043396,3.846271276473999,0.8631013035774231
-1.896740198135376,3.8352034091949463,0.8554613590240479
-1.9313907623291016,3.8368594646453857,0.8503289818763733
-1.9552183151245117,3.8179450035095215,0.8407614231109619
-1.9778531789779663,3.799445152282715,0.8309851884841919
-1.9817951917648315,3.747230291366577,0.8137051463127136
-1.9996792078018188,3.7221121788024902,0.8024232983589172
-2.033648729324341,3.7230825424194336,0.796423614025116
-1.7213279008865356,3.099017858505249,0.6576643586158752
-1.734943151473999,3.0754013061523438,0.6471908688545227
-0.8443047404289246,1.4743057489395142,0.30755528807640076
-0.8427347540855408,1.449360966682434,0.2996429204940796
-0.8531602025032043,1.4440640211105347,0.2956884503364563
-0.8716073036193848,1.4518167972564697,0.2943302392959595
-0.8852725625038147,1.4533798694610596,0.29154297709465027
-0.8868535757064819,1.4351588487625122,0.28481048345565796
-0.8970381617546082,1.429678201675415,0.2804458737373352
-0.8948914408683777,1.4045324325561523,0.2722390294075012
-0.896138608455658,1.3862727880477905,0.2652348279953003
-0.9052806496620178,1.3811631202697754,0.26080983877182007
-0.9107571840286255,1.3691842555999756,0.25487178564071655
-0.9293274283409119,1.376230239868164,0.25237083435058594
-2.44663143157959,3.573904275894165,0.6450005173683167
-1.3377436399459839,1.927560567855835,0.34210729598999023
-1.4051728248596191,1.9950296878814697,0.34756359457969666
-1.3327926397323608,1.7900688648223877,0.28603747487068176
-1.3162981271743774,2.0725438594818115,-0.21766297519207
-1.2784740924835205,2.0448572635650635,-0.22257877886295319
-1.1431928873062134,1.8888384103775024,-0.21966148912906647
-1.0998250246047974,1.8460114002227783,-0.22113770246505737
-0.8571105003356934,1.4868918657302856,-0.1885002851486206
-0.8673195838928223,1.5295052528381348,-0.19902658462524414
-0.9395236968994141,1.684009313583374,-0.2246469408273697
-0.8953620791435242,1.6322399377822876,-0.2230347841978073
-0.8519701957702637,1.5799765586853027,-0.22098001837730408
-0.8186087608337402,1.5442628860473633,-0.2208731323480606
-0.7966487407684326,1.5287498235702515,-0.22337540984153748
-0.7800037264823914,1.5234702825546265,-0.22726725041866302
-0.7549692988395691,1.5006523132324219,-0.2283603698015213
-0.7270810604095459,1.470542311668396,-0.22808444499969482
-0.697619616985321,1.4368137121200562,-0.2270885705947876
-0.6804330945014954,1.4271560907363892,-0.2296554148197174
-0.6570119857788086,1.4032713174819946,-0.22976842522621155
-0.63564532995224,1.3826255798339844,-0.23024989664554596
-0.6128609776496887,1.3583197593688965,-0.2299291491508484
0.6180222630500793,1.35641610622406,-0.22733773291110992
0.6652945280075073,1.408339262008667,-0.22831690311431885
0.692054271697998,1.4391511678695679,-0.22930532693862915
0.6952956318855286,1.4211257696151733,-0.22242094576358795
0.7347927689552307,1.47573721408844,-0.2266785055398941
0.7523448467254639,1.4850090742111206,-0.22377550601959229
0.7770282626152039,1.5079429149627686,-0.22280573844909668
0.8072986602783203,1.540998101234436,-0.22311662137508392
0.8290835618972778,1.55655837059021,-0.2206745147705078
0.8678842186927795,1.6025102138519287,-0.22227121889591217
0.909188985824585,1.6514618396759033,-0.223861426115036
0.9527777433395386,1.7035040855407715,-0.2256089150905609
0.9936296939849854,1.7481340169906616,-0.22588986158370972
1.0177388191223145,1.7620007991790771,-0.22194157540798187
1.0632416009902954,1.8127398490905762,-0.2223706692457199
1.1217432022094727,1.8828213214874268,-0.22457954287528992
1.171423316001892,1.9354695081710815,-0.22415079176425934
1.2276593446731567,1.997681975364685,-0.2243930846452713
1.2886173725128174,2.066028356552124,-0.22482317686080933
1.3344203233718872,2.1070761680603027,-0.22158342599868774
1.3663654327392578,2.124539852142334,-0.21539095044136047
1.3891806602478027,2.1291868686676025,-0.2079063057899475
1.4039524793624878,2.120347738265991,-0.19881616532802582
1.3973276615142822,2.0787975788116455,-0.18656811118125916
1.75144362449646,2.5692062377929688,-0.22018596529960632
1.829229474067688,2.6444363594055176,-0.21538405120372772
1.968896508216858,2.804685592651367,-0.21622110903263092
1.9601925611495972,2.7545223236083984,-0.20028918981552124
1.4243541955947876,1.9734629392623901,-0.1344059556722641
1.4681082963943481,2.005019426345825,-0.12688298523426056
1.481144666671753,1.9960349798202515,-0.11661092191934586
1.569410800933838,2.2084953784942627,0.39709168672561646
1.7946487665176392,2.5631303787231445,0.4699884355068207
1.5600963830947876,2.2633254528045654,0.4228576123714447
1.5134680271148682,2.2326154708862305,0.42462030053138733
1.5117888450622559,2.2646210193634033,0.437625527381897
1.499371886253357,2.280426502227783,0.4474605321884155
1.4849435091018677,2.297334909439087,0.4573298990726471
1.4627939462661743,2.300729513168335,0.46428385376930237
1.4378641843795776,2.2967002391815186,0.46927037835121155
1.4833259582519531,2.4073028564453125,0.49781158566474915
1.4762619733810425,2.437046766281128,0.5096715092658997
1.4374805688858032,2.413879632949829,0.5104271173477173
1.4083527326583862,2.402820348739624,0.5132223963737488
1.3946363925933838,2.4181888103485107,0.5215985774993896
1.3758103847503662,2.427487850189209,0.528357207775116
1.36813485622406,2.45672607421875,0.5395216345787048
1.3390026092529297,2.4451117515563965,0.5414919853210449
2.8500566482543945,5.2912397384643555,1.1813479661941528
2.8372180461883545,5.360311508178711,1.2058535814285278
2.8120203018188477,5.409521102905273,1.2257546186447144
2.778202533721924,5.441251754760742,1.241692304611206
2.771016836166382,5.523515701293945,1.269092321395874
2.731334686279297,5.540393352508545,1.2814881801605225
1.2140626907348633,2.5088608264923096,0.583794116973877
1.1916954517364502,2.509873628616333,0.5874599814414978
1.1826432943344116,2.5382487773895264,0.5975177884101868
1.158170461654663,2.5315475463867188,0.5992117524147034
1.1585297584533691,2.580479383468628,0.6142033934593201
2.5926380157470703,5.888051509857178,1.4084206819534302
2.557525157928467,5.9257683753967285,1.4241384267807007
2.536837100982666,5.998373985290527,1.448408603668213
2.507214307785034,6.045488357543945,1.4663617610931396
2.4748785495758057,6.089166164398193,1.4837336540222168
2.4465973377227783,6.143229961395264,1.5034087896347046
2.417436361312866,6.201488971710205,1.5234276056289673
2.3862462043762207,6.256027698516846,1.54268479347229
2.3618807792663574,6.327950954437256,1.5662943124771118
2.3228328227996826,6.360300064086914,1.5801841020584106
2.2957515716552734,6.424372673034668,1.601995825767517
2.2682182788848877,6.4923577308654785,1.6243679523468018
2.23760724067688,6.5570855140686035,1.6455153226852417
2.2026312351226807,6.610833644866943,1.6640571355819702
2.1636745929718018,6.653486251831055,1.6799254417419434
2.102961301803589,6.623036861419678,1.6772288084030151
2.0394110679626465,6.581203937530518,1.6716586351394653
1.981246829032898,6.557365417480469,1.670070767402649
1.9152636528015137,6.507917881011963,1.6614058017730713
1.8584611415863037,6.487058639526367,1.6600699424743652
1.8008995056152344,6.462112903594971,1.657745361328125
1.743465781211853,6.428984642028809,1.6532130241394043
0.8380125164985657,3.1775283813476562,0.819092333316803
0.8324259519577026,3.248640775680542,0.8393241167068481
1.5749553442001343,6.334848403930664,1.6396398544311523
0.7868225574493408,3.2662887573242188,0.8470009565353394
1.4698299169540405,6.2988457679748535,1.636475682258606
1.4205795526504517,6.285454273223877,1.6360732316970825
1.3635728359222412,6.234695911407471,1.6259791851043701
1.3198716640472412,6.242714881896973,1.631264328956604
1.2585959434509277,6.173114776611328,1.615358829498291
1.2172902822494507,6.195716857910156,1.6234477758407593
1.1623719930648804,6.147418022155762,1.6130269765853882
1.110878825187683,6.109732627868652,1.6054023504257202
1.0649545192718506,6.097651481628418,1.604537844657898
1.0116759538650513,6.044318199157715,1.5929063558578491
0.9668803811073303,6.0353569984436035,1.5926696062088013
0.9223798513412476,6.030063152313232,1.5926833152770996
0.8730267286300659,5.9907965660095215,1.5837925672531128
0.8253138661384583,5.9586310386657715,1.5768381357192993
0.7795771956443787,5.9373393058776855,1.5728237628936768
0.622651219367981,5.012165546417236,1.3291493654251099
0.5912582278251648,5.045750617980957,1.3395329713821411
0.5636889338493347,5.12057638168335,1.3604655265808105
0.42007872462272644,4.0796589851379395,1.0844682455062866
0.389848917722702,4.067143440246582,1.0817534923553467
0.3663789629936218,4.133424282073975,1.1000694036483765
0.33945801854133606,4.158109664916992,1.1073640584945679
0.30991315841674805,4.152501106262207,1.1066484451293945
0.28000321984291077,4.139147758483887,1.1039167642593384
0.25764715671539307,4.250060558319092,1.1338615417480469
0.4142213761806488,7.745651721954346,2.0667738914489746
0.35848432779312134,7.717915058135986,2.059802770614624
0.3030451834201813,7.682232856750488,2.0508060455322266
0.2490125298500061,7.665010929107666,2.0468294620513916
0.19484461843967438,7.628544330596924,2.037806987762451
0.14032460749149323,7.599259853363037,2.030810832977295
0.08729323744773865,7.581173896789551,2.0258047580718994
0.034357912838459015,7.551466941833496,2.0175161361694336
-0.01802297681570053,7.502521991729736,2.0041885375976562
-0.07020077109336853,7.494725704193115,2.0019519329071045
-0.12283876538276672,7.471460342407227,1.9956809282302856
-0.17389601469039917,7.432754993438721,1.9853838682174683
-0.22524715960025787,7.423882484436035,1.983150839805603
-0.2762880325317383,7.411169528961182,1.978851079940796
-0.3276379108428955,7.409469127655029,1.9773828983306885
-0.27560245990753174,5.386866092681885,1.4369373321533203
-0.3131399154663086,5.377542018890381,1.4338411092758179
-0.34881284832954407,5.34915018081665,1.4257426261901855
-0.38600897789001465,5.346879005432129,1.4246774911880493
-0.4208061695098877,5.314239501953125,1.4155921936035156
-0.40596964955329895,4.713570594787598,1.2545430660247803
-0.4281819760799408,4.594514846801758,1.2218005657196045
-0.45836806297302246,4.576866626739502,1.2161316871643066
-0.48924484848976135,4.566516876220703,1.2124615907669067
-0.5205925107002258,4.559694290161133,1.2097840309143066
-0.549595832824707,4.533904552459717,1.2021375894546509
-0.5807188153266907,4.522861957550049,1.1984308958053589
-0.6097342371940613,4.504434108734131,1.1920380592346191
-0.6417190432548523,4.50826358795166,1.1915946006774902
-0.6670863032341003,4.467010021209717,1.1793001890182495
-0.6962675452232361,4.451717376708984,1.1739189624786377
-0.7266135811805725,4.439857482910156,1.1694748401641846
-0.7563026547431946,4.427865505218506,1.1650798320770264
-0.7830371856689453,4.400849342346191,1.156632900238037
-0.8131611943244934,4.396205902099609,1.1534994840621948
-0.8360731601715088,4.35421085357666,1.1406383514404297
-0.7255126237869263,3.644120216369629,0.9531184434890747
-0.7489337921142578,3.628488779067993,0.9475307464599609
-0.924461305141449,4.327175617218018,1.1282695531845093
-0.9546050429344177,4.321447849273682,1.125115156173706
-0.9826250672340393,4.308302402496338,1.119712233543396
-1.014540195465088,4.313564300537109,1.1187609434127808
-1.0399208068847656,4.289038181304932,1.1101020574569702
-1.0655884742736816,4.268105506896973,1.1024694442749023
-1.0954184532165527,4.2615556716918945,1.0985651016235352
-1.1212830543518066,4.240145683288574,1.0908949375152588
-1.148938775062561,4.225879192352295,1.0851234197616577
-1.1741303205490112,4.204370975494385,1.076819658279419
-1.2006036043167114,4.190150737762451,1.0704478025436401
-1.2333545684814453,4.197599411010742,1.0696568489074707
-1.2559609413146973,4.168289661407471,1.0594931840896606
-1.2852150201797485,4.160542011260986,1.0548508167266846
-1.3137787580490112,4.148825168609619,1.0492115020751953
-1.3329613208770752,4.112030029296875,1.0369311571121216
-1.3656322956085205,4.118624687194824,1.035345196723938
-1.3911298513412476,4.103371620178223,1.0283089876174927
-1.4218981266021729,4.102189540863037,1.024796962738037
-1.4355413913726807,4.050405979156494,1.0086528062820435
-1.4749581813812256,4.069967746734619,1.0102800130844116
-1.4978729486465454,4.0467658042907715,1.0010963678359985
-1.5252634286880493,4.037995338439941,0.995137631893158
-1.5498625040054321,4.021925449371338,0.9874325394630432
-1.5691477060317993,3.9913761615753174,0.976188600063324
-1.603493571281433,3.9956653118133545,0.97335284948349
-1.6345971822738647,3.9927895069122314,0.9688671231269836
-1.6533573865890503,3.961848735809326,0.9572962522506714
-1.6830744743347168,3.9592230319976807,0.9522875547409058
-1.7097954750061035,3.9493701457977295,0.9455763101577759
-1.7315702438354492,3.9248733520507812,0.9352124929428101
-1.7578516006469727,3.9106616973876953,0.9273539781570435
-1.7729209661483765,3.8719379901885986,0.913759171962738
-1.8056546449661255,3.8753905296325684,0.9096262454986572
-1.8383232355117798,3.8786861896514893,0.9053519368171692
-1.85836923122406,3.8539392948150635,0.8944697976112366
-1.8892310857772827,3.8492701053619385,0.8881141543388367
-1.9064708948135376,3.8169476985931396,0.8754355907440186
-1.9364179372787476,3.8122923374176025,0.8688706755638123
-1.9690947532653809,3.814666748046875,0.8635985255241394
-1.9840887784957886,3.7828454971313477,0.8506342172622681
-2.0149154663085938,3.777209997177124,0.8432211875915527
-2.0162410736083984,3.7175159454345703,0.8239085674285889
-1.7087715864181519,3.100706100463867,0.6820017099380493
-1.7182058095932007,3.0708041191101074,0.6699843406677246
-0.8380696177482605,1.4753713607788086,0.31927528977394104
-0.8449772000312805,1.463424801826477,0.31385180354118347
-0.8555191159248352,1.4581290483474731,0.3099161684513092
-0.8654985427856445,1.4530808925628662,0.3058917224407196
-0.8791775107383728,1.4546934366226196,0.303203284740448
-0.8851757645606995,1.4429054260253906,0.29763922095298767
-0.8591194748878479,1.3784770965576172,0.281177818775177
-0.8976353406906128,1.418808937072754,0.2861233055591583
-0.9070562720298767,1.4137006998062134,0.28166303038597107
-0.9081716537475586,1.3955214023590088,0.27459219098091125
-0.9097731709480286,1.3769699335098267,0.2672688364982605
-0.9454572796821594,1.4097710847854614,0.26973631978034973
-2.384660482406616,3.507953643798828,0.6612391471862793
-1.4223427772521973,2.0633444786071777,0.3828428387641907
-1.2447175979614258,1.778995394706726,0.32442256808280945
-1.3687701225280762,1.9292975664138794,0.3454959988594055
-1.2778253555297852,2.0274527072906494,-0.21595633029937744
-1.1625254154205322,1.9049310684204102,-0.21720170974731445
-1.0985684394836426,1.8291622400283813,-0.21523742377758026
-0.8273065090179443,1.423794150352478,-0.17758995294570923
-0.8479382991790771,1.4829109907150269,-0.18993937969207764
-0.9455229640007019,1.6811416149139404,-0.22092409431934357
-0.9084011912345886,1.643235683441162,-0.22146448493003845
-0.8668793439865112,1.5944185256958008,-0.2199794501066208
-0.8389506340026855,1.5690332651138306,-0.22143429517745972
-0.8056964874267578,1.5332266092300415,-0.22116252779960632
-0.7819663882255554,1.514219045639038,-0.2230936884880066
-0.7639278769493103,1.5052622556686401,-0.22635063529014587
-0.7236718535423279,1.4510818719863892,-0.22250588238239288
-0.7061992287635803,1.4416899681091309,-0.22529439628124237
-0.685681164264679,1.4250973463058472,-0.22681348025798798
-0.6655600070953369,1.4082435369491577,-0.22813262045383453
-0.6520888805389404,1.4052677154541016,-0.23158517479896545
0.6324760913848877,1.3757452964782715,-0.22809164226055145
0.6504979133605957,1.3893989324569702,-0.22659605741500854
0.6836702823638916,1.4343196153640747,-0.22989624738693237
0.7004650235176086,1.4441441297531128,-0.22746767103672028
0.7330279350280762,1.4849507808685303,-0.22968964278697968
0.7540044784545898,1.5012025833129883,-0.2279314398765564
0.7750157117843628,1.5173578262329102,-0.2260027974843979
0.8016887903213501,1.5435899496078491,-0.22541503608226776
0.8273774981498718,1.5659151077270508,-0.22391843795776367
0.8622775673866272,1.6051949262619019,-0.22470730543136597
0.9030966758728027,1.6544305086135864,-0.22658474743366241
0.9354265928268433,1.6861474514007568,-0.2257034331560135
0.9779688119888306,1.7343131303787231,-0.2266615331172943
1.0192185640335083,1.778684139251709,-0.22667789459228516
1.0607643127441406,1.8227843046188354,-0.22643962502479553
1.123122215270996,1.8996587991714478,-0.2296629399061203
1.164560317993164,1.9391677379608154,-0.2279156893491745
1.2121596336364746,1.9884713888168335,-0.22697973251342773
1.277390956878662,2.0633926391601562,-0.2282300591468811
1.3273134231567383,2.1111016273498535,-0.22591324150562286
1.3627170324325562,2.1356348991394043,-0.22080709040164948
1.3814808130264282,2.1337087154388428,-0.21279607713222504
1.3880786895751953,2.111696243286133,-0.20246900618076324
1.3898744583129883,2.0833377838134766,-0.19152994453907013
1.709424376487732,2.5265374183654785,-0.22242136299610138
1.7957350015640259,2.614893913269043,-0.2192668616771698
1.9540460109710693,2.804957151412964,-0.2233746498823166
1.929850459098816,2.7324366569519043,-0.20600341260433197
1.9632282257080078,2.7384064197540283,-0.19362466037273407
1.4518277645111084,1.9972012042999268,-0.13195639848709106
1.4605151414871216,1.981816053390503,-0.12147335708141327
3.1835296154022217,4.50841760635376,0.7818070650100708
3.353544235229492,4.824800491333008,0.8537850379943848
1.5306426286697388,2.2390928268432617,0.40396595001220703
1.513985276222229,2.248791217803955,0.41276904940605164
1.497089147567749,2.2584877014160156,0.42136648297309875
1.4831665754318237,2.275277853012085,0.43107685446739197
1.4741324186325073,2.297945976257324,0.44165506958961487
1.4656357765197754,2.3201308250427246,0.4519466161727905
1.459701418876648,2.349593162536621,0.4636344015598297
1.4491190910339355,2.372678279876709,0.4739343822002411
1.5147571563720703,2.520467519760132,0.5091638565063477
1.473039150238037,2.490079402923584,0.5084943175315857
1.4445289373397827,2.4830386638641357,0.5122459530830383
1.4095901250839233,2.4662039279937744,0.5138465762138367
1.3722769021987915,2.4417850971221924,0.513504683971405
1.3658252954483032,2.4704208374023438,0.5241389274597168
1.3477200269699097,2.4789962768554688,0.5304790139198303
2.847050189971924,5.331359386444092,1.1498907804489136
2.823052406311035,5.384555816650391,1.1706604957580566
2.8001887798309326,5.432642936706543,1.1897128820419312
2.7785484790802,5.48402214050293,1.2096394300460815
2.7566823959350586,5.5394792556762695,1.2301334142684937
1.2186201810836792,2.494892120361328,0.5575658082962036
1.2126432657241821,2.5305933952331543,0.5691863298416138
1.1880545616149902,2.5241811275482178,0.571122944355011
1.1732449531555176,2.5383872985839844,0.5777444839477539
1.1577752828598022,2.552766799926758,0.5842229723930359
1.1416795253753662,2.567288875579834,0.5905711650848389
2.574528455734253,5.9060540199279785,1.3656136989593506
2.549531936645508,5.96432638168335,1.3859660625457764
2.518908977508545,6.008045673370361,1.4029313325881958
2.488783597946167,6.055342674255371,1.4206751585006714
2.4636428356170654,6.120970726013184,1.442022442817688
2.4390556812286377,6.190056800842285,1.4643640518188477
2.40134859085083,6.226991653442383,1.4792368412017822
2.3693089485168457,6.273708343505859,1.4962910413742065
2.3433949947357178,6.338100433349609,1.5177050828933716
2.31422758102417,6.399349689483643,1.537889003753662
2.287308692932129,6.4716081619262695,1.5604188442230225
2.2524003982543945,6.526020050048828,1.5788997411727905
2.2215378284454346,6.586772441864014,1.598816990852356
2.191814661026001,6.650787830352783,1.6196056604385376
2.135650396347046,6.6349897384643555,1.621055006980896
2.0706074237823486,6.5938920974731445,1.6155163049697876
2.0083322525024414,6.5635666847229,1.6123601198196411
1.9485652446746826,6.53611946105957,1.609866976737976
1.8860613107681274,6.493314266204834,1.6035226583480835
1.8362096548080444,6.490056991577148,1.6069282293319702
1.7784250974655151,6.457120895385742,1.603026270866394
1.719422459602356,6.420396327972412,1.5975418090820312
0.8436664938926697,3.2450966835021973,0.8091253042221069
1.6041076183319092,6.357176780700684,1.588370442390442
0.8050869703292847,3.288578748703003,0.8233794569969177
1.4921613931655884,6.284053802490234,1.5766568183898926
1.446402668952942,6.2855544090271,1.5803860425949097
1.393019437789917,6.257390022277832,1.5764487981796265
1.3425348997116089,6.240118503570557,1.5744459629058838
1.2869716882705688,6.196462631225586,1.5658373832702637
1.239547610282898,6.189523696899414,1.5665614604949951
1.186963677406311,6.148538589477539,1.5586566925048828
1.13762629032135,6.125904560089111,1.5554991960525513
1.092179775238037,6.11768102645874,1.556008219718933
1.0404473543167114,6.075827598571777,1.54718017578125
0.9910995960235596,6.044849872589111,1.5409389734268188
0.9468644857406616,6.043435096740723,1.5423022508621216
0.8996184468269348,6.023005485534668,1.538893461227417
0.8511748909950256,5.983333110809326,1.530575156211853
0.8039057850837708,5.947033882141113,1.5231643915176392
0.7614431381225586,5.944214344024658,1.5242537260055542
0.6054033041000366,5.005630970001221,1.284389615058899
0.5772892832756042,5.073248386383057,1.3026292324066162
0.545293390750885,5.118175029754639,1.3151414394378662
0.403840035200119,4.059454917907715,1.0439039468765259
0.37906932830810547,4.099471569061279,1.0550546646118164
0.35532262921333313,4.158183574676514,1.0710898637771606
0.3257067799568176,4.152698040008545,1.0703890323638916
0.2946709990501404,4.135840892791748,1.0663436651229858
0.26826417446136475,4.1791300773620605,1.0778560638427734
0.4426967203617096,7.745814800262451,1.9985016584396362
0.3876763880252838,7.725656986236572,1.994135856628418
0.33263128995895386,7.697552680969238,1.9878100156784058
0.27730488777160645,7.6728644371032715,1.9824717044830322
0.22275035083293915,7.636598110198975,1.973504662513733
0.16897796094417572,7.611444473266602,1.9668655395507812
0.11587842553853989,7.6123857498168945,1.9670653343200684
0.06255323439836502,7.575137615203857,1.9574919939041138
0.008845909498631954,7.53751802444458,1.947920322418213
-0.043398696929216385,7.510873794555664,1.9412752389907837
-0.09521788358688354,7.472522258758545,1.9316961765289307
-0.1468103528022766,7.456705570220947,1.9272055625915527
-0.19795727729797363,7.433087348937988,1.9203189611434937
-0.248745396733284,7.405334949493408,1.912460207939148
-0.303027868270874,7.452792644500732,1.924107313156128
-0.25587567687034607,5.372716426849365,1.3867233991622925
-0.29398974776268005,5.386109828948975,1.38988196849823
-0.33090782165527344,5.376579761505127,1.3871914148330688
-0.36648815870285034,5.3518781661987305,1.3799623250961304
-0.40180617570877075,5.3194146156311035,1.3705381155014038
-0.43723616003990173,5.301848411560059,1.365046501159668
-0.40886327624320984,4.571707248687744,1.1762797832489014
-0.4417479932308197,4.580411434173584,1.1777898073196411
-0.47321560978889465,4.573822498321533,1.1754231452941895
-0.5047418475151062,4.563200950622559,1.172068476676941
-0.5343925952911377,4.545104503631592,1.1661628484725952
-0.5628393888473511,4.519326210021973,1.158258080482483
-0.5949064493179321,4.523396968841553,1.15806245803833
-0.6251375675201416,4.512217998504639,1.1540114879608154
-0.6548938155174255,4.493245601654053,1.1480016708374023
-0.6838843822479248,4.47414493560791,1.1420422792434692
-0.713198184967041,4.458615303039551,1.1369956731796265
-0.7412254214286804,4.439399719238281,1.1303597688674927
-0.7702702283859253,4.427477836608887,1.125645399093628
-0.7978875041007996,4.407895088195801,1.1190418004989624
-0.8219817876815796,4.365635871887207,1.106705665588379
-0.7157009243965149,3.6610424518585205,0.9267983436584473
-0.7412470579147339,3.6565585136413574,0.924416720867157
-0.7642185688018799,3.6408584117889404,0.9190118908882141
-0.9370786547660828,4.31833028793335,1.0878956317901611
-0.9703774452209473,4.327416896820068,1.0880703926086426
-0.9982703328132629,4.314160346984863,1.082706093788147
-1.0213265419006348,4.27844762802124,1.0717352628707886
-1.0475597381591797,4.257354259490967,1.0644992589950562
-1.0773268938064575,4.250805377960205,1.06095552444458
-1.1011282205581665,4.222188472747803,1.0513362884521484
-1.1337547302246094,4.230311393737793,1.050826907157898
-1.1625086069107056,4.223536014556885,1.0466563701629639
-1.1916887760162354,4.2164459228515625,1.0424171686172485
-1.2169619798660278,4.194453239440918,1.0345209836959839
-1.2447097301483154,4.179445266723633,1.0283657312393188
-1.2724615335464478,4.16821813583374,1.0229436159133911
-1.2984412908554077,4.153423309326172,1.0162941217422485
-1.3265961408615112,4.1457061767578125,1.0114284753799438
-1.345495581626892,4.108782768249512,0.9994767308235168
-1.3821179866790771,4.121946811676025,0.9996345043182373
-1.406150221824646,4.098931312561035,0.9911128878593445
-1.434727668762207,4.090260028839111,0.9859663844108582
-1.4598426818847656,4.074615478515625,0.9786599278450012
-1.4821900129318237,4.051648139953613,0.969658374786377
-1.5017483234405518,4.021366596221924,0.9589657187461853
-1.5387177467346191,4.033260345458984,0.958194375038147
-1.561626672744751,4.009449481964111,0.9490392208099365
-1.586748480796814,3.9927566051483154,0.9414758086204529
-1.6136711835861206,3.9834282398223877,0.9352079033851624
-1.636165738105774,3.963322877883911,0.9264629483222961
-1.6608003377914429,3.9462850093841553,0.9183671474456787
-1.6932339668273926,3.946476936340332,0.9142584800720215
-1.716561198234558,3.9253957271575928,0.9052673578262329
-1.7466961145401,3.9220175743103027,0.9000732898712158
-1.7730995416641235,3.9117677211761475,0.8930246829986572
-1.796675443649292,3.894204616546631,0.8842775225639343
-1.8076575994491577,3.84853458404541,0.8691373467445374
-1.8416013717651367,3.8510515689849854,0.8648781776428223
-1.8755378723144531,3.8533506393432617,0.8605272769927979
-1.894586205482483,3.8286752700805664,0.8496452569961548
-1.9138563871383667,3.8036861419677734,0.8386714458465576
-1.954058051109314,3.819441318511963,0.8366518020629883
-1.9847936630249023,3.814030647277832,0.829809844493866
-1.9904497861862183,3.7608747482299805,0.8126654624938965
-2.0048205852508545,3.728961944580078,0.7996987700462341
-2.0371170043945312,3.7307658195495605,0.7939828634262085
-1.7091525793075562,3.0800909996032715,0.650218665599823
-1.7349979877471924,3.07604718208313,0.6439670920372009
-0.837333083152771,1.46089768409729,0.30324631929397583
-0.8509487509727478,1.4627004861831665,0.30082380771636963
-0.8607089519500732,1.4577598571777344,0.2970150411128998
-0.8711971640586853,1.4523508548736572,0.29290616512298584
-0.8696351647377014,1.4271222352981567,0.2848530411720276
-0.8713182806968689,1.4088268280029297,0.27813977003097534
-0.8970603942871094,1.4299250841140747,0.2791133224964142
-0.9110583066940308,1.431046962738037,0.27600541710853577
-0.9006049633026123,1.3928183317184448,0.2651748061180115
-0.8975363373756409,1.3680413961410522,0.2570120394229889
-0.9065386056900024,1.3629354238510132,0.252505362033844
-0.9699308276176453,1.4375569820404053,0.2623947262763977
-2.4213478565216064,3.5355608463287354,0.6351196765899658
-1.26888906955719,1.8026766777038574,0.31282272934913635
-1.3020265102386475,2.0499260425567627,-0.20961180329322815
-1.2577630281448364,2.0125319957733154,-0.213405579328537
-1.1437145471572876,1.8891948461532593,-0.21380221843719482
-1.1038222312927246,1.8533521890640259,-0.21621960401535034
-0.841887891292572,1.4604212045669556,-0.18021941184997559
-0.9190391898155212,1.621354103088379,-0.20543277263641357
-0.9470486640930176,1.698358416557312,-0.220564603805542
-0.9143311381340027,1.66688072681427,-0.22168050706386566
-0.8688437938690186,1.6113483905792236,-0.21927297115325928
-0.8332156538963318,1.5724483728408813,-0.21884897351264954
-0.8040435314178467,1.5432391166687012,-0.21934935450553894
-0.7628061175346375,1.489659309387207,-0.2160973995923996
-0.7622660398483276,1.5152522325515747,-0.22420638799667358
-0.7341464757919312,1.485269546508789,-0.2239849716424942
-0.7013455033302307,1.444573163986206,-0.2219640016555786
-0.6908004879951477,1.44892418384552,-0.22662390768527985
-0.6637848615646362,1.4181932210922241,-0.22570015490055084
-0.6390858888626099,1.3905956745147705,-0.2250225841999054
-0.6259706020355225,1.387373924255371,-0.22818370163440704
-0.603361964225769,1.362940788269043,-0.22769556939601898
0.6083043813705444,1.3858596086502075,-0.2325628250837326
0.6148989796638489,1.375171422958374,-0.22729797661304474
0.6344829201698303,1.3924583196640015,-0.22652415931224823
0.6622307300567627,1.4271827936172485,-0.2284797877073288
0.6920125484466553,1.4651758670806885,-0.23070856928825378
0.7140635251998901,1.485377311706543,-0.22993746399879456
0.7416546940803528,1.51572847366333,-0.2305438071489334
0.7628725171089172,1.5318996906280518,-0.22875086963176727
0.7892665863037109,1.5583778619766235,-0.228406623005867
0.8215410113334656,1.594840407371521,-0.22927269339561462
0.8419212102890015,1.6068443059921265,-0.22640912234783173
0.8786736726760864,1.649570107460022,-0.22767086327075958
0.9177852869033813,1.6953632831573486,-0.22906655073165894
0.9561898708343506,1.7370823621749878,-0.22942616045475006
0.9856041669845581,1.761499047279358,-0.2273370325565338
1.0207208395004272,1.795972228050232,-0.22631052136421204
1.0816612243652344,1.8737599849700928,-0.230339914560318
1.1244810819625854,1.9171030521392822,-0.2295425683259964
1.1758986711502075,1.9733352661132812,-0.22981642186641693
1.217508316040039,2.0126707553863525,-0.22787714004516602
1.2968056201934814,2.110938787460327,-0.2318948656320572
1.3283097743988037,2.1289210319519043,-0.22655275464057922
1.3552145957946777,2.140446662902832,-0.22038757801055908
1.3744268417358398,2.1382923126220703,-0.2124657779932022
1.3917485475540161,2.132563352584839,-0.20405149459838867
1.3868736028671265,2.0946362018585205,-0.19266049563884735
1.7420648336410522,2.593719482421875,-0.2287871390581131
1.7780150175094604,2.6080081462860107,-0.21965083479881287
1.9356225728988647,2.7986114025115967,-0.2242887169122696
1.9207903146743774,2.7386422157287598,-0.2082686573266983
1.9311513900756836,2.713174343109131,-0.19446909427642822
1.4493170976638794,2.008469343185425,-0.13511820137500763
1.453653335571289,1.9866650104522705,-0.12453756481409073
1.467547059059143,1.9770408868789673,-0.11432430893182755
1.5516277551651,2.179595947265625,0.3572036921977997
3.3708653450012207,4.811361789703369,0.8057663440704346
3.33668851852417,4.841042995452881,0.8274773955345154
1.5290249586105347,2.251875400543213,0.39196842908859253
1.5117406845092773,2.26200270652771,0.40060263872146606
1.5019980669021606,2.285466432571411,0.41149383783340454
1.488937497138977,2.301737070083618,0.4207465648651123
1.497113823890686,2.3500900268554688,0.4357633888721466
1.5953055620193481,2.546698570251465,0.478524386882782
1.524733304977417,2.4754855632781982,0.47119516134262085
1.9365265369415283,3.1935887336730957,0.6150327324867249
1.912909984588623,3.2059288024902344,0.6246628761291504
1.8995648622512817,3.2388672828674316,0.6377925276756287
1.906982183456421,3.3084218502044678,0.6583226919174194
1.953430414199829,3.4441328048706055,0.6918748021125793
2.031752586364746,3.640986204147339,0.7383303642272949
1.9924988746643066,3.634430408477783,0.7435451745986938
1.9645252227783203,3.6477673053741455,0.7526139616966248
2.830876350402832,5.347918510437012,1.1123138666152954
2.8173422813415527,5.413167476654053,1.1346540451049805
2.7867233753204346,5.447974681854248,1.1505756378173828
2.77205228805542,5.521687030792236,1.1743111610412598
2.745234727859497,5.571028709411621,1.1929250955581665
1.2313988208770752,2.5438554286956787,0.548231840133667
1.2000998258590698,2.5237491130828857,0.547353982925415
1.1915282011032104,2.552122116088867,0.5568767786026001
1.1659501791000366,2.546015739440918,0.5586281418800354
1.1621447801589966,2.5887176990509033,0.5712020397186279
2.5816917419433594,5.86112642288208,1.3001285791397095
2.565802574157715,5.936738014221191,1.3237937688827515
2.5352530479431152,5.980782985687256,1.3404966592788696
2.5097084045410156,6.0432305335998535,1.3605700731277466
2.4724924564361572,6.081072807312012,1.3753550052642822
2.447868585586548,6.146475791931152,1.3962881565093994
2.4223310947418213,6.207786560058594,1.4162814617156982
2.389223575592041,6.251157283782959,1.4323257207870483
2.3611505031585693,6.312771320343018,1.4520496129989624
2.329437494277954,6.3712897300720215,1.4708881378173828
2.299062490463257,6.432987213134766,1.490527629852295
2.265746831893921,6.4832377433776855,1.5074779987335205
2.236003875732422,6.54399299621582,1.526959776878357
2.205512046813965,6.604609966278076,1.5465625524520874
2.168471336364746,6.655102729797363,1.563053011894226
2.104773998260498,6.621729850769043,1.5596778392791748
2.0405502319335938,6.58416223526001,1.5553313493728638
1.9863260984420776,6.571128845214844,1.556654691696167
1.9228371381759644,6.524749279022217,1.5500855445861816
1.8696255683898926,6.510748863220215,1.551221489906311
1.803314447402954,6.456754684448242,1.5419871807098389
1.7455788850784302,6.427753448486328,1.538499116897583
1.6911975145339966,6.4093241691589355,1.5375899076461792
0.8286028504371643,3.23195219039917,0.7770977020263672
1.585209846496582,6.366888523101807,1.5343652963638306
0.7997536659240723,3.312138080596924,0.8000848889350891
1.47953200340271,6.323202610015869,1.530362606048584
1.4189507961273193,6.2657575607299805,1.5190410614013672
1.3665879964828491,6.241208553314209,1.5157313346862793
1.315932273864746,6.21986722946167,1.5132213830947876
1.2617771625518799,6.179529666900635,1.5061366558074951
1.2141690254211426,6.164712429046631,1.5052666664123535
1.165212631225586,6.1421661376953125,1.502318263053894
1.113924264907837,6.108335018157959,1.4958586692810059
1.0677595138549805,6.100278854370117,1.4957698583602905
1.014713168144226,6.054548740386963,1.486533761024475
0.9633877277374268,6.004414081573486,1.476181983947754
0.9214397072792053,6.0101494789123535,1.4796192646026611
0.8734889030456543,5.9742751121521,1.4728673696517944
0.8302983641624451,5.972086429595947,1.4737794399261475
0.7823059558868408,5.939682483673096,1.46697199344635
0.6315088272094727,5.071057319641113,1.2534990310668945
0.5838665962219238,4.973143577575684,1.2303884029388428
0.5716798305511475,5.180184364318848,1.2827988862991333
0.5293500423431396,5.123165130615234,1.269912838935852
0.3919212818145752,4.0692620277404785,1.009701132774353
0.36685195565223694,4.117033958435059,1.0219676494598389
0.34129807353019714,4.160835266113281,1.0332880020141602
0.3100448250770569,4.136415481567383,1.0277189016342163
0.2824312448501587,4.157146453857422,1.0334141254425049
0.25579556822776794,4.196606159210205,1.043821096420288
0.41648924350738525,7.733662128448486,1.9248077869415283
0.36233416199684143,7.728407382965088,1.9244951009750366
0.30661097168922424,7.688936710357666,1.9147295951843262
0.2518312931060791,7.660433292388916,1.9077879190444946
0.1973673403263092,7.627753734588623,1.899897813796997
0.14295203983783722,7.606069564819336,1.8948416709899902
0.08975864946842194,7.583990573883057,1.8897716999053955
0.03676851838827133,7.538800239562988,1.8790299892425537
-0.015565414912998676,7.527474880218506,1.8763089179992676
-0.06772218644618988,7.5046000480651855,1.8700149059295654
-0.12021005153656006,7.46619176864624,1.859937310218811
-0.17144493758678436,7.438805103302002,1.852709412574768
-0.2229621857404709,7.430008888244629,1.8502024412155151
-0.2737167775630951,7.405706882476807,1.8439247608184814
-0.3273935317993164,7.453009128570557,1.8555644750595093
-0.2739187479019165,5.383711814880371,1.3398406505584717
-0.31131696701049805,5.374414443969727,1.336626648902893
-0.3480246365070343,5.364889621734619,1.3334364891052246
-0.38461533188819885,5.3551130294799805,1.3302500247955322
-0.42002272605895996,5.3299560546875,1.3233084678649902
-0.4489404261112213,5.232779026031494,1.298563838005066
-0.4294244647026062,4.621858596801758,1.1464594602584839
-0.4579083025455475,4.585232734680176,1.1363831758499146
-0.487836629152298,4.567343711853027,1.1308051347732544
-0.5175405144691467,4.549257278442383,1.1252388954162598
-0.5489442348480225,4.546029090881348,1.1234015226364136
-0.5782409310340881,4.519911766052246,1.1159418821334839
-0.6076288223266602,4.501194477081299,1.110390067100525
-0.641107439994812,4.512333869934082,1.1122562885284424
-0.6669909358024597,4.474663734436035,1.101439118385315
-0.6976290941238403,4.47061014175415,1.098917841911316
-0.7263667583465576,4.4512763023376465,1.0926704406738281
-0.7546113133430481,4.431793212890625,1.086461067199707
-0.7828254103660583,4.412094593048096,1.0802515745162964
-0.8094225525856018,4.3847432136535645,1.0722322463989258
-0.8362911939620972,4.361021518707275,1.0649763345718384
-0.727536678314209,3.659173011779785,0.8919413089752197
-0.7491165995597839,3.636082887649536,0.8846935629844666
-0.9181860685348511,4.308011054992676,1.0463345050811768
-0.9571126699447632,4.343136310577393,1.0530232191085815
-0.9831681251525879,4.318607807159424,1.0452836751937866
-1.0114877223968506,4.305034160614014,1.0402601957321167
-1.043310523033142,4.306161403656006,1.038309097290039
-1.0689038038253784,4.285133361816406,1.0308811664581299
-1.0923194885253906,4.256587505340576,1.0217159986495972
-1.1215980052947998,4.2499003410339355,1.0178275108337402
-1.1493600606918335,4.235536575317383,1.0121135711669922
-1.1733982563018799,4.20619010925293,1.0028464794158936
-1.202614665031433,4.198905944824219,0.9987512230873108
-1.2257871627807617,4.173429012298584,0.9898973703384399
-1.258506178855896,4.180663108825684,0.9888547658920288
-1.2870218753814697,4.173044204711914,0.9843224287033081
-1.3121525049209595,4.150338649749756,0.9761693477630615
-1.3341846466064453,4.120361804962158,0.9664248824119568
-1.3678107261657715,4.12648344039917,0.9651690125465393
-1.3932616710662842,4.111119270324707,0.9582921862602234
-1.4110727310180664,4.073958396911621,0.9464070200920105
-1.4437199831008911,4.079896450042725,0.9445890784263611
-1.4624987840652466,4.042003154754639,0.9325001239776611
-1.4962791204452515,4.04714298248291,0.9304460883140564
-1.522070288658142,4.030586242675781,0.9234248995780945
-1.549336552619934,4.0215277671813965,0.9175560474395752
-1.573751449584961,4.005163669586182,0.9100691080093384
-1.6013758182525635,3.9955551624298096,0.9040947556495667
-1.626683235168457,3.978440046310425,0.8963850736618042
-1.6547695398330688,3.968214511871338,0.8902794122695923
-1.677921175956726,3.9474058151245117,0.8816946744918823
-1.7044957876205444,3.9374725818634033,0.8751124143600464
-1.7129236459732056,3.8851382732391357,0.8591201305389404
-1.755330204963684,3.9096567630767822,0.860152542591095
-1.7766693830490112,3.884680986404419,0.8501811623573303
-1.8042100667953491,3.8734750747680664,0.8432823419570923
-1.8273544311523438,3.855698585510254,0.8345540165901184
-1.8570551872253418,3.85160756111145,0.8285974264144897
-1.883018136024475,3.8405606746673584,0.8212470412254333
-1.9034110307693481,3.814998149871826,0.810590922832489
-1.9339203834533691,3.809870719909668,0.804333508014679
-1.9636482000350952,3.8049511909484863,0.7978346943855286
-1.9747599363327026,3.766226053237915,0.7840476632118225
-1.9931398630142212,3.7408297061920166,0.7730242609977722
-2.0160932540893555,3.7215347290039062,0.7630648612976074
-1.7124282121658325,3.10917067527771,0.6324967741966248
-1.722468614578247,3.0786876678466797,0.6210734844207764
-1.7354133129119873,3.055211305618286,0.610964298248291
-0.8464875817298889,1.4673173427581787,0.2907581329345703
-0.8647724390029907,1.4752594232559204,0.28954216837882996
-0.8634951710700989,1.4499174356460571,0.2818208932876587
-0.8770937323570251,1.4515076875686646,0.27916592359542847
-0.8826842904090881,1.4398317337036133,0.27397143840789795
-0.8767017126083374,1.4080581665039062,0.26479434967041016
-0.8991965055465698,1.4220597743988037,0.26424741744995117
-0.900467574596405,1.403738021850586,0.2575531601905823
-0.892885684967041,1.3726372718811035,0.24856778979301453
-0.9025009274482727,1.367141604423523,0.24409040808677673
-0.912528395652771,1.361302375793457,0.23939891159534454
-2.3866336345672607,3.511486291885376,0.6078651547431946
-2.3701205253601074,3.4404938220977783,0.5859873294830322
-1.5034494400024414,2.1504693031311035,0.35964271426200867
-1.309556484222412,2.0774645805358887,-0.21132296323776245
-1.2982054948806763,2.09287691116333,-0.22035640478134155
-1.209586501121521,1.9821093082427979,-0.21566787362098694
-1.1571413278579712,1.9266586303710938,-0.2161669135093689
-0.8278869986534119,1.424477458000183,-0.16920779645442963
-0.8407367467880249,1.470257043838501,-0.1792784035205841
-0.9767333269119263,1.7362295389175415,-0.2171158492565155
-0.9297427535057068,1.681634783744812,-0.21556426584720612
-0.9081410765647888,1.6705905199050903,-0.21918563544750214
-0.8742506504058838,1.6352280378341675,-0.2193281352519989
-0.8425030708312988,1.6030346155166626,-0.21964310109615326
-0.8093302249908447,1.567124605178833,-0.21921691298484802
-0.790814995765686,1.5584571361541748,-0.22243165969848633
-0.7571836113929749,1.5182846784591675,-0.22088946402072906
-0.7426239848136902,1.5161327123641968,-0.22469177842140198
-0.7214341163635254,1.499886393547058,-0.2263270616531372
-0.6859450936317444,1.4518110752105713,-0.22286491096019745
-0.6690447926521301,1.4419573545455933,-0.2250954508781433
-0.6455421447753906,1.418027639389038,-0.22502762079238892
-0.6289649605751038,1.407872200012207,-0.22696639597415924
-0.6080665588378906,1.3868829011917114,-0.22701869904994965
0.5909522771835327,1.385043740272522,-0.23084868490695953
0.5946539640426636,1.3672795295715332,-0.22457043826580048
0.6309294700622559,1.4237290620803833,-0.2304086834192276
0.6505928039550781,1.4409968852996826,-0.2297004610300064
0.6639062762260437,1.444091796875,-0.2266215980052948
0.6985589861869812,1.4926429986953735,-0.23051251471042633
0.7093007564544678,1.4882633686065674,-0.22598353028297424
0.7469359636306763,1.5395737886428833,-0.22981980443000793
0.7662429809570312,1.5523780584335327,-0.22767893970012665
0.7909241318702698,1.5754040479660034,-0.2269188016653061
0.8197283744812012,1.6049656867980957,-0.2268531620502472
0.8543800115585327,1.6445204019546509,-0.2279845029115677
0.8931074142456055,1.6906384229660034,-0.229638934135437
0.9195002913475037,1.7124760150909424,-0.227852001786232
0.9539970755577087,1.7475037574768066,-0.2275083065032959
0.9907668232917786,1.7856214046478271,-0.2273281365633011
1.0316141843795776,1.8302700519561768,-0.22768650949001312
1.0851677656173706,1.894450068473816,-0.22992758452892303
1.1299375295639038,1.9411879777908325,-0.22966857254505157
1.176977276802063,1.990999460220337,-0.2294294536113739
1.2205687761306763,2.0337154865264893,-0.22805459797382355
1.297753095626831,2.1287660598754883,-0.23181475698947906
1.329304575920105,2.1467654705047607,-0.22663718461990356
1.3541423082351685,2.1550261974334717,-0.2204282134771347
1.3670464754104614,2.1430752277374268,-0.21189089119434357
1.3695437908172607,2.1145095825195312,-0.20165713131427765
