X,Y,Z
-1.754616141319275,3.081131935119629,0.09094344079494476
-0.7802858948707581,1.3486400842666626,0.039221033453941345
-0.7830976247787476,1.3334625959396362,0.03818188235163689
-0.8140866160392761,1.3650596141815186,0.038447305560112
-0.8741726875305176,1.442873239517212,0.039937492460012436
-0.9002246260643005,1.4635963439941406,0.03978738933801651
-0.8972948789596558,1.4378715753555298,0.03836442530155182
-0.915413498878479,1.444955825805664,0.03778640925884247
-1.3478714227676392,1.9502291679382324,0.043974462896585464
-1.6238232851028442,2.314936876296997,0.05057118460536003
-1.293299674987793,1.850427269935608,-0.0318107046186924
-1.5007752180099487,2.1818251609802246,-0.039166007190942764
-1.3362911939620972,1.9725022315979004,-0.0368182398378849
-1.1891666650772095,1.7842938899993896,-0.034529320895671844
-1.553377628326416,2.367525577545166,-0.04734162986278534
-1.3459089994430542,2.083125114440918,-0.04293932393193245
-0.8722912073135376,1.4167598485946655,-0.03167528286576271
-0.8617324233055115,1.4231863021850586,-0.03258506953716278
-0.817477285861969,1.3722988367080688,-0.032131120562553406
-0.8157621622085571,1.3914384841918945,-0.033274780958890915
-0.7643676400184631,1.326431393623352,-0.032376937568187714
-0.856602132320404,1.5120973587036133,-0.037630386650562286
-1.1103662252426147,1.99214506149292,-0.05046843737363815
-1.6387219429016113,2.9896183013916016,-0.07705698162317276
-1.6463724374771118,3.0565311908721924,-0.08010152727365494
-1.5949140787124634,3.0131337642669678,-0.08024536818265915
-1.6405912637710571,3.1523008346557617,-0.08523257821798325
-1.6107629537582397,3.1500697135925293,-0.08641000837087631
-1.5842047929763794,3.1547300815582275,-0.08775226026773453
-1.558456301689148,3.158781051635742,-0.08903521299362183
-1.5394530296325684,3.176725149154663,-0.0907188281416893
-1.5165401697158813,3.187685966491699,-0.09214511513710022
-1.4999510049819946,3.212730646133423,-0.09397336095571518
-1.4740692377090454,3.2160584926605225,-0.09513834118843079
-1.4548574686050415,3.2333202362060547,-0.09670913219451904
-1.4348924160003662,3.2507283687591553,-0.09824992716312408
-1.4140406847000122,3.2683229446411133,-0.0998033732175827
-1.39090096950531,3.278198003768921,-0.10108863562345505
-1.3680899143218994,3.2877440452575684,-0.10235189646482468
-1.610275387763977,3.948060989379883,-0.12403567135334015
-1.5818132162094116,3.9595048427581787,-0.1254763901233673
-1.558678388595581,3.9853978157043457,-0.1273961067199707
-1.5280934572219849,3.9888181686401367,-0.1285599023103714
-1.5098564624786377,4.024916172027588,-0.13078531622886658
-1.488987684249878,4.057602882385254,-0.1328195333480835
-1.470331072807312,4.09755802154541,-0.13511191308498383
-1.4462404251098633,4.12263298034668,-0.1369233876466751
-1.4200687408447266,4.1399335861206055,-0.13846419751644135
-1.3908729553222656,4.149791717529297,-0.13971984386444092
-1.3612017631530762,4.159578323364258,-0.14093135297298431
-1.333940863609314,4.1765570640563965,-0.14239223301410675
-1.305484652519226,4.189587116241455,-0.14372391998767853
-1.2831103801727295,4.22094202041626,-0.14568117260932922
-1.2509328126907349,4.222408771514893,-0.14652539789676666
-1.2294795513153076,4.261184215545654,-0.14865218102931976
-1.1972705125808716,4.2621989250183105,-0.14946579933166504
-1.1717199087142944,4.285447597503662,-0.15105660259723663
-1.1373682022094727,4.278497219085693,-0.1516035497188568
-1.1167848110198975,4.324214458465576,-0.15389743447303772
-1.0823136568069458,4.316840171813965,-0.1543121486902237
-1.0584149360656738,4.350856781005859,-0.15621015429496765
-1.0254311561584473,4.346683025360107,-0.1567402333021164
-0.9963358640670776,4.361418724060059,-0.15795934200286865
-0.9637705087661743,4.360706329345703,-0.15848176181316376
-0.9353426694869995,4.378839015960693,-0.1596975475549698
-0.9046496152877808,4.38525390625,-0.1604897677898407
-0.8787171840667725,4.414379596710205,-0.16211964190006256
-0.8422849178314209,4.393625736236572,-0.16192525625228882
-0.8055796027183533,4.368727207183838,-0.16145825386047363
-0.773391604423523,4.366586685180664,-0.16183587908744812
-0.7402000427246094,4.356473922729492,-0.16192002594470978
-0.7049119472503662,4.330661773681641,-0.16142013669013977
-0.6700803637504578,4.308511257171631,-0.16106677055358887
-0.6398071646690369,4.313092231750488,-0.16157764196395874
-0.6073195338249207,4.301999092102051,-0.16150785982608795
-0.5709866881370544,4.259695529937744,-0.16026794910430908
-0.5349363088607788,4.213205814361572,-0.15886855125427246
-0.5065315961837769,4.224559307098389,-0.1596544235944748
-0.4829196333885193,4.286236763000488,-0.16224604845046997
-0.44584938883781433,4.223515510559082,-0.160109743475914
-0.42123761773109436,4.277021408081055,-0.1623860001564026
-0.3914729654788971,4.279834270477295,-0.16274680197238922
-0.3607429265975952,4.270768165588379,-0.16266271471977234
-0.3307066261768341,4.277103900909424,-0.1630852073431015
-0.2972538471221924,4.228682518005371,-0.16137318313121796
-0.26815274357795715,4.238440990447998,-0.16188812255859375
-0.23776917159557343,4.224608421325684,-0.16150878369808197
-0.20278581976890564,4.113090991973877,-0.1573980450630188
-0.16490118205547333,3.9077231884002686,-0.14964139461517334
-0.13678452372550964,3.8853707313537598,-0.1488204151391983
-0.11240088939666748,3.983774185180664,-0.15263286232948303
-0.0853518694639206,4.015676975250244,-0.15390607714653015
-0.05901835486292839,4.125453472137451,-0.15817326307296753
-0.0299757719039917,4.141378879547119,-0.15883080661296844
-0.001175959245301783,4.118068218231201,-0.15787751972675323
0.027700768783688545,4.149205207824707,-0.1590191125869751
0.0568661168217659,4.172332763671875,-0.15986083447933197
0.08539041876792908,4.148423194885254,-0.15890808403491974
0.11340797692537308,4.116515159606934,-0.1576569676399231
0.14016607403755188,4.049300670623779,-0.15494447946548462
0.1692640483379364,4.07163667678833,-0.1556534618139267
0.19754372537136078,4.070369720458984,-0.15546679496765137
0.2249860167503357,4.053314685821533,-0.15468494594097137
0.25366124510765076,4.059450626373291,-0.15479585528373718
0.2828758955001831,4.06535530090332,-0.1548226773738861
0.3104250431060791,4.0555267333984375,-0.15421248972415924
0.33720195293426514,4.0377326011657715,-0.15330812335014343
0.36382079124450684,4.0197553634643555,-0.15240533649921417
0.39554715156555176,4.055991172790527,-0.15356385707855225
0.4184175729751587,3.9987661838531494,-0.15114183723926544
0.4503036141395569,4.034597396850586,-0.1521703004837036
0.48503899574279785,4.089554786682129,-0.1539192497730255
0.5070787072181702,4.035757541656494,-0.15157996118068695
0.5361712574958801,4.039887428283691,-0.15142624080181122
0.5690259337425232,4.066944122314453,-0.15211080014705658
0.6066821813583374,4.128604888916016,-0.15398173034191132
0.6202616691589355,4.027894973754883,-0.14980724453926086
0.6549737453460693,4.065917015075684,-0.15080319344997406
0.681286096572876,4.049737453460693,-0.14979128539562225
0.7141852378845215,4.071832180023193,-0.1502002775669098
0.7440322041511536,4.0744476318359375,-0.14977148175239563
0.7763417363166809,4.092283725738525,-0.14991071820259094
0.8188791871070862,4.15963077545166,-0.15185609459877014
0.8509343266487122,4.169157028198242,-0.15168213844299316
0.8783178329467773,4.155520915985107,-0.15067188441753387
0.9215334057807922,4.214140892028809,-0.15216904878616333
0.4936920702457428,2.185748338699341,-0.07859905809164047
0.5140389800071716,2.205127000808716,-0.07896803319454193
1.003000020980835,4.17150354385376,-0.14876554906368256
1.045082449913025,4.217520713806152,-0.1497843861579895
1.0985417366027832,4.304748058319092,-0.15214912593364716
1.1357792615890503,4.327406406402588,-0.1522088199853897
1.176613450050354,4.361013889312744,-0.1526438146829605
1.2153213024139404,4.382842063903809,-0.15264935791492462
1.2640146017074585,4.438133239746094,-0.15381161868572235
1.294874906539917,4.429268836975098,-0.15264463424682617
1.3205686807632446,4.4054155349731445,-0.15097010135650635
1.3702983856201172,4.45972204208374,-0.1519654542207718
1.415388822555542,4.4948015213012695,-0.15228019654750824
1.46698796749115,4.548057556152344,-0.15319812297821045
1.498354434967041,4.537866592407227,-0.151839941740036
1.5416176319122314,4.564625263214111,-0.15173299610614777
1.5819391012191772,4.57977819442749,-0.15121899545192719
1.634621024131775,4.627593040466309,-0.15175963938236237
1.6533058881759644,4.579507827758789,-0.14913608133792877
1.0062435865402222,2.7292308807373047,-0.08821558207273483
1.0277767181396484,2.729569911956787,-0.0875510722398758
1.0466681718826294,2.7224106788635254,-0.08664453774690628
1.0541627407073975,2.6860179901123047,-0.08481670171022415
1.066628336906433,2.6643049716949463,-0.08343485742807388
1.0963342189788818,2.686018705368042,-0.0833938866853714
1.099911093711853,2.642340660095215,-0.0813073217868805
1.118272066116333,2.6346523761749268,-0.08033886551856995
1.1240737438201904,2.598210334777832,-0.07849843055009842
1.1509196758270264,2.6120834350585938,-0.07814469188451767
1.1620181798934937,2.59008526802063,-0.07671920210123062
1.1769953966140747,2.5747597217559814,-0.07546240091323853
1.1899199485778809,2.5559263229370117,-0.07412295788526535
1.186978816986084,2.505568504333496,-0.07185591012239456
1.1968756914138794,2.483557939529419,-0.07041531056165695
1.2070043087005615,2.4612960815429688,-0.06895679235458374
1.2156598567962646,2.4352593421936035,-0.06738090515136719
1.2285274267196655,2.420067548751831,-0.06611128896474838
1.2409738302230835,2.4049527645111084,-0.06484293937683105
1.253727674484253,2.3895418643951416,-0.06355003267526627
1.2555886507034302,2.3532419204711914,-0.06170174852013588
1.2676323652267456,2.3379244804382324,-0.06039672717452049
1.2795257568359375,2.3225529193878174,-0.05907100439071655
1.285858392715454,2.296729564666748,-0.05747314542531967
1.3268976211547852,2.3318932056427,-0.05737852305173874
1.324681043624878,2.292677164077759,-0.05543375760316849
1.319933533668518,2.250279426574707,-0.05343879386782646
1.327852487564087,2.227477788925171,-0.051854200661182404
1.3592168092727661,2.245112657546997,-0.05122128129005432
1.357482671737671,2.2096023559570312,-0.04936571419239044
1.3640929460525513,2.187166213989258,-0.047787923365831375
1.3750604391098022,2.1710753440856934,-0.046329982578754425
1.385152816772461,2.1553990840911865,-0.044859301298856735
1.3929286003112793,2.1364357471466064,-0.043325308710336685
1.3991196155548096,2.113703966140747,-0.04166717827320099
1.4041637182235718,2.09159255027771,-0.04003411531448364
1.408974528312683,2.0695083141326904,-0.03839346021413803
1.4368892908096313,2.0788047313690186,-0.03722897917032242
1.4277629852294922,2.0375962257385254,-0.035186443477869034
1.4547463655471802,2.0472638607025146,-0.03397386893630028
1.4777530431747437,2.050037384033203,-0.032556965947151184
1.4766496419906616,2.0219082832336426,-0.03065258078277111
1.4858931303024292,2.005436658859253,-0.028786949813365936
2.301720142364502,3.2183032035827637,0.052029501646757126
2.2865676879882812,3.248169422149658,0.0548008531332016
2.3268957138061523,3.3581206798553467,0.05888524278998375
2.6027424335479736,3.813051462173462,0.06921131908893585
3.150438070297241,4.692119598388672,0.08799832314252853
3.131863832473755,4.7372894287109375,0.09149482101202011
3.114473581314087,4.786003112792969,0.09505091607570648
3.061234712600708,4.783114910125732,0.09750563651323318
1.6343481540679932,2.593997001647949,0.0541459284722805
1.6242389678955078,2.6187093257904053,0.0558989979326725
1.5882664918899536,2.6041221618652344,0.056773312389850616
2.8609495162963867,4.769184589385986,0.10608512908220291
2.7819855213165283,4.711594581604004,0.10677061975002289
2.751091957092285,4.738679885864258,0.10929043591022491
2.628725528717041,4.606281757354736,0.10805955529212952
2.455095052719116,4.372430324554443,0.10418803244829178
2.4443235397338867,4.427546977996826,0.1071440801024437
2.418935537338257,4.459199905395508,0.10947904735803604
2.379196882247925,4.462784767150879,0.1110987514257431
2.442336082458496,4.65906286239624,0.1175156682729721
2.4609811305999756,4.776955604553223,0.12202024459838867
2.3969810009002686,4.739421844482422,0.12254882603883743
2.333281993865967,4.697041034698486,0.12286687642335892
1.1802399158477783,2.4179768562316895,0.06395270675420761
1.1833587884902954,2.4684998989105225,0.06598937511444092
1.1868672370910645,2.5230090618133545,0.06812991946935654
1.1784007549285889,2.552779197692871,0.06961626559495926
1.1683688163757324,2.578812599182129,0.0709993988275528
1.1535309553146362,2.5940091609954834,0.07208096235990524
1.1440293788909912,2.623769998550415,0.07352851331233978
1.1187877655029297,2.6176300048828125,0.07397620379924774
2.0301969051361084,4.8438401222229,0.13799838721752167
2.013633966445923,4.901402473449707,0.14076979458332062
1.988890290260315,4.940930366516113,0.14297223091125488
1.9759628772735596,5.013288497924805,0.14610661566257477
2.0172533988952637,5.227659702301025,0.15343113243579865
1.9808663129806519,5.241512775421143,0.15488551557064056
1.9572731256484985,5.2919769287109375,0.1574556827545166
1.9312528371810913,5.338874340057373,0.15980856120586395
1.905811071395874,5.389401912689209,0.1622759997844696
1.8573423624038696,5.373216152191162,0.16273052990436554
1.8585916757583618,5.50066614151001,0.16754181683063507
1.9137672185897827,5.799172401428223,0.17765246331691742
1.9175364971160889,5.953962802886963,0.18329991400241852
1.8841241598129272,5.997328758239746,0.18555133044719696
1.8611806631088257,6.0739054679870605,0.18883901834487915
1.8333780765533447,6.13530969619751,0.19166839122772217
1.7993950843811035,6.177862167358398,0.1939273327589035
1.7671865224838257,6.2358269691467285,0.1965521275997162
1.7319767475128174,6.282119274139404,0.19881412386894226
1.7108129262924194,6.380897045135498,0.20275436341762543
1.676184892654419,6.430399417877197,0.2051430642604828
0.8262262940406799,3.262572765350342,0.10450024902820587
1.5755056142807007,6.415536403656006,0.20619544386863708
0.8019608855247498,3.3690056800842285,0.10863705724477768
1.4587854146957397,6.326869487762451,0.20469169318675995
1.400298833847046,6.2720489501953125,0.20358288288116455
1.3517119884490967,6.258703231811523,0.2038208544254303
1.313293218612671,6.298757553100586,0.20572198927402496
1.2447198629379272,6.189231872558594,0.20266246795654297
1.2023324966430664,6.205533027648926,0.2037232518196106
1.1576217412948608,6.206059455871582,0.2042676955461502
1.0964806079864502,6.114024639129639,0.20176547765731812
1.0491012334823608,6.098539352416992,0.2017659693956375
1.0085245370864868,6.121188640594482,0.20290414988994598
0.9524937868118286,6.047152042388916,0.20084330439567566
0.9077143669128418,6.038222789764404,0.20094580948352814
0.8568140864372253,5.98253870010376,0.19949369132518768
0.8097307085990906,5.953614234924316,0.1989438682794571
0.7649466395378113,5.93589973449707,0.19865036010742188
0.724036693572998,5.948879718780518,0.19934794306755066
0.5763843655586243,5.030681610107422,0.16880916059017181
0.5509572625160217,5.123837947845459,0.17217499017715454
0.5199670195579529,5.174150466918945,0.17411592602729797
0.3856877386569977,4.132047653198242,0.13923923671245575
0.3546747863292694,4.111307621002197,0.1386413425207138
0.3323359787464142,4.195414066314697,0.1415872871875763
0.3021324574947357,4.185948371887207,0.14138394594192505
0.2715209126472473,4.164565086364746,0.14078311622142792
0.24367666244506836,4.193655490875244,0.14189772307872772
0.21605663001537323,4.226438045501709,0.14308494329452515
0.3433339297771454,7.780941486358643,0.26349037885665894
0.2881501317024231,7.759735584259033,0.2628535032272339
0.23300249874591827,7.726429462432861,0.2618187665939331
0.17766380310058594,7.696654796600342,0.2609170973300934
0.12365313619375229,7.670374870300293,0.2601441442966461
0.07015383243560791,7.655436038970947,0.2595687508583069
0.016736526042222977,7.616700649261475,0.2581782937049866
-0.036099985241889954,7.585403919219971,0.2570531964302063
-0.08962695300579071,7.573249340057373,0.25658881664276123
-0.1417204588651657,7.541218280792236,0.25546467304229736
-0.19314469397068024,7.501027584075928,0.2540322542190552
-0.24449631571769714,7.480007171630859,0.2531217336654663
-0.29610320925712585,7.470335960388184,0.25260788202285767
-0.3479510545730591,7.468109607696533,0.2523581385612488
-0.2906133532524109,5.4149065017700195,0.18285778164863586
-0.3296113610267639,5.436145782470703,0.18346571922302246
-0.3635387122631073,5.37921142578125,0.18136543035507202
-0.38587602972984314,5.178027629852295,0.1743616759777069
-0.40645304322242737,4.988470077514648,0.16777358949184418
-0.4381769001483917,4.946601390838623,0.1661660373210907
-0.44321513175964355,4.636422634124756,0.15556958317756653
-0.4726562201976776,4.606051921844482,0.15438197553157806
-0.5052460432052612,4.610459327697754,0.15424728393554688
-0.5333331823348999,4.575865268707275,0.15280772745609283
-0.5644610524177551,4.564276218414307,0.15214064717292786
-0.5961995720863342,4.5602521896362305,0.15173597633838654
-0.6257773041725159,4.5405378341674805,0.15081742405891418
-0.6549855470657349,4.520651340484619,0.14986275136470795
-0.685457706451416,4.512199878692627,0.14921574294567108
-0.714523434638977,4.491893768310547,0.14817935228347778
-0.7442325353622437,4.479168891906738,0.14740651845932007
-0.7725954055786133,4.458532333374023,0.1463807225227356
-0.7979351282119751,4.422349452972412,0.14485511183738708
-0.8267441987991333,4.4091291427612305,0.14401239156723022
-0.8501253128051758,4.3689093589782715,0.14227618277072906
-0.7406138777732849,3.6702191829681396,0.11916732043027878
-0.7677448987960815,3.6726343631744385,0.11889322102069855
-0.8139315247535706,3.7626185417175293,0.12144996970891953
-0.9677268266677856,4.328453540802002,0.13927645981311798
-0.9955004453659058,4.314160346984863,0.1383143812417984
-1.01636803150177,4.269190311431885,0.13637253642082214
-1.049489974975586,4.277274131774902,0.1361379772424698
-1.0705329179763794,4.235844135284424,0.1343328356742859
-1.0998589992523193,4.228346824645996,0.13361486792564392
-1.1356024742126465,4.24721097946167,0.1336434930562973
-1.1648778915405273,4.239300727844238,0.1328175961971283
-1.1905728578567505,4.220012664794922,0.13164974749088287
-1.217715859413147,4.204156875610352,0.13058657944202423
-1.246882438659668,4.195624828338623,0.12975893914699554
-1.2709112167358398,4.172111988067627,0.12841658294200897
-1.2926242351531982,4.140927791595459,0.1268109679222107
-1.330175757408142,4.1618523597717285,0.12681585550308228
-1.3469451665878296,4.115418434143066,0.1247590184211731
-1.3755370378494263,4.105978488922119,0.12383546680212021
-1.406132459640503,4.103886604309082,0.1230848953127861
-1.4311800003051758,4.086975574493408,0.12185567617416382
-1.4565852880477905,4.069727420806885,0.12061095237731934
-1.4821670055389404,4.052196502685547,0.11935719847679138
-1.5103092193603516,4.0418219566345215,0.11832135915756226
-1.5378053188323975,4.031472682952881,0.11724656820297241
-1.559167742729187,4.006535053253174,0.11572425067424774
-1.5895024538040161,4.0030341148376465,0.11481023579835892
-1.6113616228103638,3.9774696826934814,0.11326161026954651
-1.625454068183899,3.9337637424468994,0.11121241003274918
-1.6609835624694824,3.944361925125122,0.11065605282783508
-1.6810916662216187,3.9188764095306396,0.10907623171806335
-1.708055019378662,3.907233238220215,0.10786110907793045
-1.7287979125976562,3.88103985786438,0.10624559223651886
-1.755596399307251,3.8690247535705566,0.10501709580421448
-1.7681632041931152,3.8289482593536377,0.10298122465610504
-1.8035542964935303,3.838344097137451,0.10228119045495987
-1.8203803300857544,3.8044698238372803,0.10037882626056671
-1.843430995941162,3.7847037315368652,0.09886965900659561
-1.8688867092132568,3.7722339630126953,0.09751558303833008
-1.89034104347229,3.7528202533721924,0.09596892446279526
-1.9300172328948975,3.7677433490753174,0.09527359902858734
-1.952536940574646,3.7473533153533936,0.0936586782336235
-1.6876333951950073,3.1851396560668945,0.07863415777683258
-1.6900395154953003,3.1396114826202393,0.07654000073671341
-1.7016706466674805,3.111114978790283,0.07486235350370407
-1.7270383834838867,3.1060760021209717,0.07371975481510162
-1.7288447618484497,3.0603244304656982,0.07161201536655426
-0.7832326292991638,1.3651816844940186,0.031471945345401764
-0.7707600593566895,1.3227826356887817,0.03002866357564926
-0.7759563326835632,1.310685396194458,0.02927420288324356
-0.8732134699821472,1.4527784585952759,0.03190457820892334
-0.8826274871826172,1.4470930099487305,0.031230540946125984
-0.8927035331726074,1.4409143924713135,0.030506134033203125
-0.8860388994216919,1.408255934715271,0.029232917353510857
-0.8909083604812622,1.3959373235702515,0.028381289914250374
-2.367658853530884,3.500549793243408,0.06460035592317581
-1.5650995969772339,2.279797077178955,0.04087241366505623
-1.3789947032928467,1.981131911277771,0.03446574509143829
-1.2487590312957764,1.800624966621399,-0.024750694632530212
-1.1957505941390991,1.7800265550613403,-0.02645905874669552
-1.241531252861023,1.8762377500534058,-0.02884536422789097
-1.1120764017105103,1.7088959217071533,-0.027136515825986862
-0.8749417662620544,1.4335919618606567,-0.02532200515270233
-0.8567413687705994,1.4263356924057007,-0.025777019560337067
-0.8085010051727295,1.3686821460723877,-0.02527238056063652
-0.7866752743721008,1.3542964458465576,-0.02552792616188526
-0.7927330136299133,1.3868560791015625,-0.026645654812455177
-0.9110514521598816,1.620572566986084,-0.0317133292555809
-1.6126585006713867,2.9196624755859375,-0.05817033350467682
-1.649718999862671,3.0373849868774414,-0.06152668595314026
-1.6065113544464111,3.0074000358581543,-0.06189551576972008
-1.6137022972106934,3.074277400970459,-0.06423337012529373
-1.6144421100616455,3.131098985671997,-0.06638732552528381
-1.5886142253875732,3.135502815246582,-0.06741801649332047
-1.570241928100586,3.153446912765503,-0.06872329115867615
-1.5540931224822998,3.1788103580474854,-0.07015720009803772
-1.5308880805969238,3.190025806427002,-0.07128603756427765
-1.508613109588623,3.2005953788757324,-0.07236593216657639
-1.486264944076538,3.211009979248047,-0.07344581186771393
-1.4657477140426636,3.228982925415039,-0.07467210292816162
-1.4422684907913208,3.239514112472534,-0.07571539282798767
-1.4195891618728638,3.249492883682251,-0.0767199695110321
-1.400039792060852,3.266439199447632,-0.07789035141468048
-1.379644513130188,3.2835562229156494,-0.07903052866458893
-1.3495734930038452,3.2791202068328857,-0.07965321093797684
-1.3292962312698364,3.295793056488037,-0.08076412230730057
-1.3092104196548462,3.3122005462646484,-0.08186471462249756
-1.2872174978256226,3.3249752521514893,-0.08285626769065857
-1.2632681131362915,3.3341262340545654,-0.08372341841459274
-1.2389854192733765,3.3432037830352783,-0.08460023999214172
-1.2157394886016846,3.35170578956604,-0.08543740957975388
-1.1950201988220215,3.3674156665802,-0.0864645466208458
-1.1735552549362183,3.3832039833068848,-0.08744204044342041
-1.1518436670303345,3.3988845348358154,-0.0884159728884697
-1.1299394369125366,3.4144363403320312,-0.089394211769104
-1.1062054634094238,3.4221794605255127,-0.09015645831823349
-1.0799083709716797,3.4223599433898926,-0.09070936590433121
-1.0888142585754395,3.5381815433502197,-0.09429460018873215
-1.2352427244186401,4.118096351623535,-0.11035250127315521
-1.215172290802002,4.1565985679626465,-0.11198480427265167
-1.1835410594940186,4.157573223114014,-0.11262285709381104
-1.158474087715149,4.180816650390625,-0.1138191819190979
-1.136832356452942,4.219094753265381,-0.11538064479827881
-1.1137151718139648,4.25349760055542,-0.11684894561767578
-1.0859824419021606,4.26870059967041,-0.1177888736128807
-1.0669695138931274,4.321753025054932,-0.11979407072067261
-1.0347590446472168,4.321528911590576,-0.12027844786643982
-1.007586121559143,4.3439621925354,-0.12135881185531616
-0.9802237749099731,4.366209030151367,-0.12244213372468948
-0.9540058970451355,4.391975402832031,-0.12362511456012726
-0.9277336597442627,4.421522617340088,-0.12493329495191574
-0.8967406153678894,4.427896022796631,-0.1255287081003189
-0.8655075430870056,4.434091091156006,-0.12606953084468842
-0.8356336951255798,4.447749137878418,-0.12682989239692688
-0.807438313961029,4.46881103515625,-0.12780432403087616
-0.7770931124687195,4.48209810256958,-0.12857142090797424
-0.7489145994186401,4.506670951843262,-0.12962482869625092
-0.7183935046195984,4.51953125,-0.1302945464849472
-0.6876872777938843,4.532191276550293,-0.13096636533737183
-0.656050443649292,4.536866188049316,-0.13141122460365295
-0.6271587014198303,4.5645856857299805,-0.13253577053546906
-0.5973213911056519,4.584324836730957,-0.13340350985527039
-0.5641852021217346,4.580643177032471,-0.13350877165794373
-0.5355888605117798,4.615512847900391,-0.13474565744400024
-0.5063201785087585,4.646300315856934,-0.13587133586406708
-0.47237783670425415,4.634165287017822,-0.13574835658073425
-0.4487573802471161,4.734563827514648,-0.13893409073352814
-0.43329206109046936,4.93984842300415,-0.14510908722877502
-0.39801904559135437,4.93497371673584,-0.145123690366745
-0.3629266023635864,4.9298415184021,-0.14513687789440155
-0.33178719878196716,4.978987693786621,-0.1467553675174713
-0.2884717881679535,4.84478235244751,-0.14297643303871155
-0.2588060796260834,4.924654483795166,-0.14541195333003998
-0.22338677942752838,4.902933597564697,-0.14482201635837555
-0.18888510763645172,4.896565914154053,-0.14469227194786072
-0.15148966014385223,4.792388916015625,-0.1416776329278946
-0.1199670061469078,4.890921592712402,-0.1446639448404312
-0.08550503104925156,4.868213653564453,-0.14401809871196747
-0.051709383726119995,4.876499652862549,-0.14423269033432007
-0.017430748790502548,4.7947468757629395,-0.14179150760173798
0.016058573499321938,4.8455119132995605,-0.14327630400657654
0.05027112364768982,4.845278263092041,-0.14325979351997375
0.08332802355289459,4.809677600860596,-0.14218765497207642
0.1172376349568367,4.832408428192139,-0.14273834228515625
0.14976181089878082,4.800262928009033,-0.14167511463165283
0.18252985179424286,4.78350305557251,-0.14107359945774078
0.2171841710805893,4.813327312469482,-0.1418524533510208
0.22356966137886047,4.281375408172607,-0.12609036266803741
0.24796675145626068,4.1900787353515625,-0.12324869632720947
0.2764608561992645,4.18047571182251,-0.12280236929655075
0.3074342906475067,4.205723762512207,-0.1233847588300705
0.3432134687900543,4.285225868225098,-0.12556032836437225
0.4173194468021393,4.784481525421143,-0.1400173157453537
0.4526647925376892,4.804807662963867,-0.14038844406604767
0.48742425441741943,4.81711483001709,-0.1404721438884735
0.5114575624465942,4.728240489959717,-0.13761582970619202
0.5433939695358276,4.71682596206665,-0.13702444732189178
0.5871843099594116,4.798140048980713,-0.13912461698055267
0.6249796748161316,4.828812122344971,-0.13973526656627655
0.6703781485557556,4.913388252258301,-0.1418202519416809
0.6876262426376343,4.792707443237305,-0.13798882067203522
0.7091821432113647,4.710619926452637,-0.13528773188591003
0.7614333033561707,4.825052738189697,-0.13822631537914276
0.7880201935768127,4.777268886566162,-0.13652457296848297
0.8360844850540161,4.8602614402771,-0.1384531706571579
0.8702251315116882,4.858249187469482,-0.13795781135559082
0.9066097140312195,4.867496490478516,-0.1377858966588974
0.9448655843734741,4.884097576141357,-0.13782255351543427
0.9778618216514587,4.869650840759277,-0.13698069751262665
1.0192590951919556,4.901064395904541,-0.13734178245067596
1.093851923942566,5.084864616394043,-0.14193515479564667
1.0991158485412598,4.9438371658325195,-0.1374596208333969
0.5112383961677551,2.2263810634613037,-0.06165952980518341
1.1791768074035645,4.973567008972168,-0.13719457387924194
1.2234735488891602,5.007106781005859,-0.13751225173473358
1.2671109437942505,5.036540985107422,-0.13768725097179413
1.293766736984253,4.997520923614502,-0.135993093252182
1.3405628204345703,5.033703804016113,-0.1363404244184494
1.3792997598648071,5.035398960113525,-0.13574129343032837
1.4286291599273682,5.07846736907959,-0.13620054721832275
1.445892572402954,5.00860595703125,-0.13360990583896637
0.8747518658638,2.9542481899261475,-0.07838572561740875
0.9077569842338562,2.989210605621338,-0.07888102531433105
0.9184279441833496,2.9491753578186035,-0.07739268988370895
0.9337837100028992,2.9279747009277344,-0.07637537270784378
0.9608991742134094,2.943861722946167,-0.07631568610668182
0.9661768674850464,2.892786741256714,-0.0745231881737709
0.9837594628334045,2.8786187171936035,-0.07368551939725876
0.9960379004478455,2.8496007919311523,-0.07247614115476608
1.0116915702819824,2.831660747528076,-0.07150626927614212
1.0228039026260376,2.802753448486328,-0.07027412205934525
1.0365902185440063,2.781036615371704,-0.06922437250614166
1.0503709316253662,2.7591702938079834,-0.06817305088043213
1.0693954229354858,2.7518699169158936,-0.06747640669345856
1.0767260789871216,2.715447187423706,-0.06603402644395828
1.0876859426498413,2.690042495727539,-0.06488148123025894
1.0973832607269287,2.660789728164673,-0.06363173574209213
1.106748104095459,2.631523847579956,-0.062392983585596085
1.118367075920105,2.60963773727417,-0.06131291389465332
1.1423521041870117,2.616300344467163,-0.06088627129793167
1.1490411758422852,2.583495616912842,-0.059545714408159256
1.1750434637069702,2.5932445526123047,-0.0591781921684742
1.1780917644500732,2.5532195568084717,-0.057670410722494125
1.1818132400512695,2.517043113708496,-0.05624542757868767
1.1821489334106445,2.473687171936035,-0.05466302111744881
1.1976044178009033,2.4619171619415283,-0.05378047376871109
1.2145910263061523,2.453598737716675,-0.052974600344896317
1.2238259315490723,2.431546688079834,-0.05185232311487198
1.2363630533218384,2.416442394256592,-0.05088672414422035
1.2387293577194214,2.380079746246338,-0.04945328086614609
1.2518259286880493,2.3644003868103027,-0.04845018684864044
1.274810552597046,2.369859218597412,-0.04787502437829971
1.2792384624481201,2.3408191204071045,-0.04660497233271599
1.2954745292663574,2.331890344619751,-0.04570966958999634
1.2942076921463013,2.2923288345336914,-0.04422161728143692
1.3308404684066772,2.3209331035614014,-0.044022683054208755
1.3247005939483643,2.2748782634735107,-0.04240821301937103
1.3245362043380737,2.2387611865997314,-0.04097409173846245
1.339520812034607,2.229844808578491,-0.040037792176008224
1.3499308824539185,2.2144312858581543,-0.03898097947239876
1.3529784679412842,2.1850717067718506,-0.037635330110788345
1.3576163053512573,2.1591758728027344,-0.0363650918006897
1.3715330362319946,2.150379180908203,-0.03538145869970322
1.3858768939971924,2.141179323196411,-0.034363359212875366
1.4007558822631836,2.1314921379089355,-0.03330259770154953
1.4147734642028809,2.1222307682037354,-0.03223058581352234
1.439700722694397,2.129033327102661,-0.0313865952193737
1.4257224798202515,2.077131509780884,-0.029641835018992424
1.4255260229110718,2.048794984817505,-0.028265774250030518
1.4390788078308105,2.039313793182373,-0.02711368165910244
1.4667631387710571,2.0484044551849365,-0.026131803169846535
2.298412322998047,3.1679153442382812,-0.03871718421578407
2.373326063156128,3.22446608543396,-0.03749549388885498
2.3036375045776367,3.2458996772766113,0.0390133373439312
2.2793686389923096,3.2629644870758057,0.040899332612752914
2.544229745864868,3.697194814682007,0.048103220760822296
2.591871500015259,3.8301644325256348,0.05165557190775871
3.1298344135284424,4.696870803833008,0.06536433100700378
3.1366629600524902,4.781291961669922,0.06852348893880844
3.0917437076568604,4.791844367980957,0.07062474638223648
1.6316441297531128,2.568246603012085,0.038810040801763535
1.629502296447754,2.6065139770507812,0.04035487398505211
1.6098700761795044,2.6186673641204834,0.04147839546203613
2.94392728805542,4.865671157836914,0.0786994993686676
1.5149186849594116,2.5437002182006836,0.041971080005168915
1.5038228034973145,2.568380355834961,0.043177973479032516
1.4555045366287231,2.5286705493927,0.04328988865017891
1.4340243339538574,2.5319244861602783,0.044073935598134995
1.432865858078003,2.572875738143921,0.04550684243440628
1.4212843179702759,2.5970993041992188,0.04664255306124687
1.3990825414657593,2.6002442836761475,0.047376297414302826
1.3988573551177979,2.64461612701416,0.04886944591999054
2.474607229232788,4.761835098266602,0.08914757519960403
2.4323654174804688,4.765989303588867,0.09036138653755188
2.3812637329101562,4.748045921325684,0.09109896421432495
1.1965328454971313,2.4277782440185547,0.0471242293715477
1.182044267654419,2.4435317516326904,0.04795840382575989
1.1708489656448364,2.466207265853882,0.04891854152083397
1.1880353689193726,2.54874849319458,0.051069650799036026
1.1784024238586426,2.574694871902466,0.052099522203207016
1.158385157585144,2.5794687271118164,0.0526895746588707
1.147445559501648,2.605691909790039,0.05370962247252464
1.1408286094665527,2.642648220062256,0.054962385445833206
1.0995705127716064,2.5965631008148193,0.05446480214595795
1.0783696174621582,2.596970796585083,0.054927077144384384
2.001359701156616,4.919981956481934,0.1048455536365509
1.9801477193832397,4.9705986976623535,0.10671893507242203
2.0185437202453613,5.173733234405518,0.11189446598291397
1.9880621433258057,5.202225208282471,0.11331260204315186
1.952449917793274,5.219842433929443,0.114461250603199
1.9335988759994507,5.285090446472168,0.11663465946912766
1.9061967134475708,5.3282060623168945,0.11833348125219345
1.8748624324798584,5.359980583190918,0.11978424340486526
1.8374948501586914,5.37288236618042,0.12080920487642288
1.8943994045257568,5.671051025390625,0.12820565700531006
1.9372283220291138,5.9406585693359375,0.1350032240152359
1.8949440717697144,5.954257965087891,0.13601404428482056
1.8573529720306396,5.982426643371582,0.13736368715763092
1.8417004346847534,6.081153392791748,0.14033973217010498
1.812706708908081,6.142788887023926,0.14239268004894257
1.7795206308364868,6.193106651306152,0.1441839635372162
1.7513585090637207,6.261956691741943,0.1464179903268814
1.7159823179244995,6.304106712341309,0.148031547665596
1.6922932863235474,6.395354270935059,0.1508278101682663
1.6567039489746094,6.444976806640625,0.1525571495294571
0.8148875832557678,3.2661736011505127,0.07758494466543198
1.542049765586853,6.372923374176025,0.15191929042339325
0.789419949054718,3.364729166030884,0.080489881336689
1.4325530529022217,6.306313991546631,0.15139824151992798
1.3847386837005615,6.300975322723389,0.15174151957035065
1.343250036239624,6.325904369354248,0.15277040004730225
1.280308485031128,6.247268199920654,0.15130089223384857
1.226118564605713,6.202393531799316,0.1506393402814865
1.1726547479629517,6.161037445068359,0.1500704288482666
1.1310216188430786,6.176741600036621,0.15085424482822418
1.0832445621490479,6.161498069763184,0.1507902443408966
1.028659462928772,6.103520393371582,0.14968299865722656
0.9759153723716736,6.048882961273193,0.14865601062774658
0.9413718581199646,6.1096649169921875,0.15047606825828552
0.8880994915962219,6.04263973236084,0.14914849400520325
0.8347768783569336,5.971375942230225,0.1476289927959442
0.7937138080596924,5.984841823577881,0.14819206297397614
0.7501295804977417,5.978644847869873,0.14827512204647064
0.4830540120601654,4.079626083374023,0.10134220868349075
0.463208943605423,4.164443016052246,0.10362468659877777
0.4256340563297272,4.086004734039307,0.10181654989719391
0.401846319437027,4.139415740966797,0.10324110090732574
0.3686186373233795,4.095454692840576,0.10224207490682602
0.33998045325279236,4.097927570343018,0.10240589082241058
0.31277886033058167,4.123587131500244,0.10315597057342529
0.2773597538471222,4.028265476226807,0.10088092088699341
0.2482590228319168,4.014510631561279,0.10059449076652527
0.22104287147521973,4.031742572784424,0.10107555240392685
0.1943439394235611,4.064391613006592,0.10194868594408035
0.31595712900161743,7.756752014160156,0.19468055665493011
0.2617623805999756,7.750951290130615,0.19465738534927368
0.20680120587348938,7.713544845581055,0.19381418824195862
0.15227842330932617,7.675755500793457,0.1928376704454422
0.09854353219270706,7.657106876373291,0.1923515498638153
0.04415515065193176,7.634182929992676,0.1917673945426941
-0.008841113187372684,7.595255374908447,0.19079074263572693
-0.06140007823705673,7.559865951538086,0.18991215527057648
-0.11384464800357819,7.551449298858643,0.18962432444095612
-0.1658075749874115,7.527054786682129,0.18887941539287567
-0.21713735163211823,7.494500160217285,0.18793995678424835
-0.26918652653694153,7.4654622077941895,0.1870965212583542
-0.32139983773231506,7.471218109130859,0.18713659048080444
-0.3758505582809448,7.519509792327881,0.1882503628730774
-0.30914556980133057,5.430920124053955,0.13579882681369781
-0.34572112560272217,5.41306734085083,0.13519316911697388
-0.3769446313381195,5.313121795654297,0.13254418969154358
-0.39291897416114807,5.041746139526367,0.12563727796077728
-0.42232492566108704,4.972751140594482,0.12378866970539093
-0.4321076273918152,4.701394081115723,0.11688048392534256
-0.4563996493816376,4.616705894470215,0.11457002907991409
-0.48797741532325745,4.605628490447998,0.11409185081720352
-0.5163478851318359,4.571103096008301,0.11304279416799545
-0.5462126135826111,4.551906108856201,0.11237964779138565
-0.5787887573242188,4.555757999420166,0.11229132115840912
-0.6080579161643982,4.536192893981934,0.11157115548849106
-0.6370330452919006,4.512505054473877,0.11073718219995499
-0.6657209396362305,4.492580890655518,0.11000719666481018
-0.6981028914451599,4.495574951171875,0.10984145104885101
-0.7268025279045105,4.4752092361450195,0.10911060124635696
-0.7564351558685303,4.462383270263672,0.10854615271091461
-0.7842461466789246,4.4417290687561035,0.10773546993732452
-0.8108986616134644,4.413130283355713,0.10673484206199646
-0.8391401171684265,4.395931243896484,0.10601992160081863
-0.7429344654083252,3.750274896621704,0.09019503742456436
-0.754837691783905,3.6761744022369385,0.08816838264465332
-0.7775576710700989,3.6594698429107666,0.08747221529483795
-0.9395796656608582,4.275703430175781,0.10184045881032944
-0.9800581932067871,4.318692684173584,0.10250834375619888
-1.0099945068359375,4.311802864074707,0.10198824852705002
-1.0380879640579224,4.297102928161621,0.10128850489854813
-1.0600379705429077,4.259565830230713,0.10002615302801132
-1.0788145065307617,4.210532188415527,0.09845930337905884
-1.1183634996414185,4.24465274810791,0.09884875267744064
-1.1517436504364014,4.251917362213135,0.09860542416572571
-1.1770925521850586,4.228770732879639,0.09765888005495071
-1.2009215354919434,4.201775074005127,0.09661906957626343
-1.2298414707183838,4.193416595458984,0.0959547832608223
-1.2492636442184448,4.155073165893555,0.09461940079927444
-1.2846882343292236,4.168797969818115,0.09446900337934494
-1.3018763065338135,4.122541427612305,0.0929601863026619
-1.3352245092391968,4.128297328948975,0.09262781590223312
-1.3586487770080566,4.104212284088135,0.0915575847029686
-1.3812799453735352,4.0801777839660645,0.09050645679235458
-1.4194331169128418,4.100155830383301,0.09042534232139587
-1.4374970197677612,4.060745716094971,0.08903097361326218
-1.4656561613082886,4.050683498382568,0.08828427642583847
-1.4901878833770752,4.033414840698242,0.0873265415430069
-1.517777919769287,4.023130893707275,0.08651509135961533
-1.5411196947097778,4.001712322235107,0.08546914160251617
-1.568823218345642,3.990950584411621,0.08465007692575455
-1.596267580986023,3.9800703525543213,0.08382100611925125
-1.6168938875198364,3.9548819065093994,0.08265743404626846
-1.6467421054840088,3.951028823852539,0.08193329721689224
-1.6739686727523804,3.939589262008667,0.08104465156793594
-1.6982308626174927,3.920699119567871,0.08000251650810242
-1.7185723781585693,3.8947741985321045,0.07880190014839172
-1.7317239046096802,3.8547353744506836,0.07730701565742493
-1.7548407316207886,3.8356974124908447,0.07622509449720383
-1.784727692604065,3.8305208683013916,0.0754128247499466
-1.8112386465072632,3.81807541847229,0.07445821911096573
-1.8364852666854858,3.806015729904175,0.07346926629543304
-1.5519496202468872,3.162659168243408,0.060422588139772415
-1.563637375831604,3.1307408809661865,0.059152793139219284
-1.9357593059539795,3.809204578399658,0.07117258757352829
-1.943305492401123,3.761471748352051,0.06946282833814621
-1.9717609882354736,3.755478620529175,0.06852219253778458
-1.6662335395812988,3.1217730045318604,0.056247010827064514
-1.6766945123672485,3.089545965194702,0.05494404211640358
-1.7127865552902222,3.105433702468872,0.05446900799870491
-1.6777229309082031,2.9953510761260986,0.05180838704109192
-0.8113476037979126,1.425754189491272,0.0242980495095253
-0.787998378276825,1.3626078367233276,0.022866077721118927
-0.7831572890281677,1.3337920904159546,0.02202725037932396
-0.7919809818267822,1.328579306602478,0.02157720923423767
-0.8820496201515198,1.4567370414733887,0.02324099838733673
-0.8961794972419739,1.457274317741394,0.022824225947260857
-0.8931789994239807,1.4315738677978516,0.021990111097693443
-0.8943041563034058,1.412421464920044,0.021256180480122566
-1.3498430252075195,1.9539473056793213,0.025277242064476013
-1.7648183107376099,2.516990900039673,0.03152469918131828
-1.3829776048660278,1.9785629510879517,-0.01894601434469223
-1.197417974472046,1.7412192821502686,-0.017414219677448273
-1.3668564558029175,2.0180857181549072,-0.020974110811948776
-1.2023231983184814,1.8039207458496094,-0.01942715235054493
-1.2704236507415771,1.9368265867233276,-0.02155468240380287
-0.882063090801239,1.4109487533569336,-0.017097584903240204
-0.904979944229126,1.4702707529067993,-0.018258141353726387
-0.8819750547409058,1.4568499326705933,-0.01852039061486721
-0.8132760524749756,1.3659683465957642,-0.017757944762706757
-0.7879734635353088,1.3446166515350342,-0.017842845991253853
-0.7820480465888977,1.3570895195007324,-0.018371641635894775
-0.8124290108680725,1.434194564819336,-0.019783401861786842
-1.6482454538345337,2.9582810401916504,-0.04152979701757431
-1.6613450050354004,3.0313568115234375,-0.043282922357320786
-1.6352914571762085,3.0366084575653076,-0.04405415058135986
-1.6016674041748047,3.027977466583252,-0.044625695794820786
-1.6328679323196411,3.1395065784454346,-0.04694002494215965
-1.607240915298462,3.1439197063446045,-0.047669313848018646
-1.577254056930542,3.141585350036621,-0.048272810876369476
-1.558017373085022,3.1598691940307617,-0.049186814576387405
-1.539048671722412,3.177821159362793,-0.05008852109313011
-1.5133254528045654,3.181490659713745,-0.05074835196137428
-1.4934614896774292,3.1994740962982178,-0.051613643765449524
-1.4736539125442505,3.2172279357910156,-0.05247458815574646
-1.4512535333633423,3.2273824214935303,-0.0531960166990757
-1.4287035465240479,3.2374162673950195,-0.05391457676887512
-1.4048486948013306,3.2478270530700684,-0.05461490526795387
-1.384368658065796,3.2650837898254395,-0.05542559549212456
-1.364595890045166,3.2818472385406494,-0.05621356517076492
-1.3417333364486694,3.2912490367889404,-0.0568787157535553
-1.3210498094558716,3.30800724029541,-0.057644300162792206
-1.296785593032837,3.317582845687866,-0.05828641355037689
-1.2732738256454468,3.3266663551330566,-0.05890686437487602
-1.2514411211013794,3.3391013145446777,-0.059582799673080444
-1.2279454469680786,3.3478024005889893,-0.06018204614520073
-1.2091375589370728,3.3712329864501953,-0.06101676821708679
-1.1818877458572388,3.372596025466919,-0.06146327033638954
-1.1609388589859009,3.3881123065948486,-0.06215037405490875
-1.1373505592346191,3.3960933685302734,-0.06270312517881393
-1.1181384325027466,3.418897867202759,-0.0634995773434639
-1.098426342010498,3.4416751861572266,-0.06428294628858566
-1.0688974857330322,3.4345924854278564,-0.06451574712991714
-1.0495609045028687,3.456871747970581,-0.06528913229703903
-1.0299371480941772,3.479055166244507,-0.06606739014387131
-1.0030816793441772,3.478755474090576,-0.06638506054878235
-0.982509434223175,3.5008416175842285,-0.06712883710861206
-0.9598592519760132,3.5152084827423096,-0.06772691011428833
-0.9369638562202454,3.529453992843628,-0.06832858920097351
-0.9133678674697876,3.539658546447754,-0.06885083764791489
-0.8882392048835754,3.5460400581359863,-0.06924455612897873
-0.8667392134666443,3.567427396774292,-0.0699341744184494
-0.8434111475944519,3.5810322761535645,-0.0704740583896637
-0.8197758197784424,3.5945208072662354,-0.07101806253194809
-0.7930701375007629,3.592500925064087,-0.07125427573919296
-0.7692650556564331,3.605654001235962,-0.07173895090818405
-0.7468728423118591,3.6263034343719482,-0.07237566262483597
-0.7213793992996216,3.6314542293548584,-0.07270585000514984
-0.6971548199653625,3.6441287994384766,-0.07319223880767822
-0.6718325018882751,3.6488754749298096,-0.07351931929588318
-0.6502602696418762,3.676574945449829,-0.07426167279481888
-0.628900408744812,3.708014965057373,-0.07507720589637756
-0.5997193455696106,3.693059206008911,-0.07495670020580292
-0.5723410248756409,3.6894915103912354,-0.07507140934467316
-0.5483387112617493,3.7049736976623535,-0.07557447999715805
-0.5245274901390076,3.724191904067993,-0.07611507177352905
-0.6038246750831604,4.517479419708252,-0.09248729050159454
-0.5764300227165222,4.556482315063477,-0.09345030039548874
-0.5406012535095215,4.52547025680542,-0.09297969937324524
-0.5099648237228394,4.5408101081848145,-0.0934678241610527
-0.48075902462005615,4.567553520202637,-0.09416117519140244
-0.44880542159080505,4.570800304412842,-0.09433023631572723
-0.45014795660972595,4.939418792724609,-0.10205281525850296
-0.41895952820777893,4.981350898742676,-0.10303990542888641
-0.4031330645084381,5.237293720245361,-0.10846832394599915
-0.3803010880947113,5.4347639083862305,-0.11268913745880127
-0.34272676706314087,5.44508695602417,-0.11295512318611145
-0.3037181794643402,5.431754112243652,-0.11273583024740219
-0.2965521812438965,6.061757564544678,-0.12588128447532654
-0.2536459267139435,6.06370210647583,-0.12599870562553406
-0.21124757826328278,6.057509422302246,-0.1259516030550003
-0.16858069598674774,6.043218612670898,-0.12566709518432617
-0.12552545964717865,6.001296520233154,-0.12479276955127716
-0.08360926806926727,5.99421501159668,-0.12464901059865952
-0.0411788746714592,5.994656085968018,-0.1246679350733757
0.00046352826757356524,5.940121650695801,-0.12354929000139236
0.041938647627830505,5.963407516479492,-0.12400752305984497
0.08300971984863281,5.939544200897217,-0.12342507392168045
0.1244606077671051,5.946634769439697,-0.12349192798137665
0.16459886729717255,5.902685165405273,-0.12250523269176483
0.20380745828151703,5.827215194702148,-0.12087049335241318
0.2512342631816864,5.989541053771973,-0.1241689994931221
0.20712214708328247,4.236220836639404,-0.08770755678415298
0.23609209060668945,4.226884841918945,-0.08740510046482086
0.2627386748790741,4.182271480560303,-0.08637864142656326
0.2922755181789398,4.180314064025879,-0.08623670786619186
0.3218507170677185,4.185977935791016,-0.08625786006450653
0.4813089966773987,5.740365505218506,-0.1180969849228859
0.5053214430809021,5.5657830238342285,-0.1142970472574234
0.5175021886825562,5.293971538543701,-0.10852182656526566
0.5277033448219299,5.029941082000732,-0.10292558372020721
0.5518656969070435,4.9291181564331055,-0.1006900891661644
0.6968427896499634,5.855913162231445,-0.11939103156328201
