X,Y,Z
2.5168397426605225,3.5106756687164307,-0.19885316491127014
2.5502383708953857,3.506535291671753,-0.1863810420036316
2.577289581298828,3.497079372406006,-0.17357684671878815
2.763827085494995,3.913881540298462,0.4504989683628082
2.7612361907958984,3.9710991382598877,0.4684801995754242
2.7233917713165283,3.976774215698242,0.4799160659313202
2.678328275680542,3.9775967597961426,0.4906056821346283
2.6529955863952637,4.002367973327637,0.5034459233283997
2.636993646621704,4.039320945739746,0.5175045728683472
2.620046615600586,4.081190586090088,0.5319451093673706
2.584615707397461,4.0930633544921875,0.5423532724380493
2.563112258911133,4.123432159423828,0.554783046245575
2.5324110984802246,4.140953540802002,0.5651707649230957
2.500373363494873,4.15896463394165,0.5754724144935608
2.455840826034546,4.152543067932129,0.5820292234420776
2.4399306774139404,4.192015171051025,0.5947809815406799
2.408060073852539,4.209057331085205,0.6042373180389404
2.398676872253418,4.2665114402771,0.61933833360672
2.341075897216797,4.23521614074707,0.6213206648826599
2.2573354244232178,4.151757717132568,0.6152451038360596
2.241417407989502,4.194313049316406,0.6275306344032288
2.209047317504883,4.210212707519531,0.6357899904251099
2.1811776161193848,4.23222017288208,0.6448236107826233
2.1582674980163574,4.260152339935303,0.6545193195343018
2.1315062046051025,4.281084060668945,0.6631684303283691
2.102854013442993,4.30271577835083,0.6715165376663208
2.0734293460845947,4.324394226074219,0.6800136566162109
2.0454506874084473,4.3451385498046875,0.6881601810455322
2.01478910446167,4.358348369598389,0.6950390934944153
1.9771164655685425,4.35751485824585,0.6995478272438049
2.0012567043304443,4.49813985824585,0.7265569567680359
1.9802043437957764,4.540110111236572,0.7378185391426086
1.9531457424163818,4.567553997039795,0.7467235922813416
1.9373770952224731,4.619321823120117,0.7595435380935669
1.8911854028701782,4.599834442138672,0.7605372071266174
1.867350697517395,4.637723922729492,0.7706419229507446
1.8444724082946777,4.679084300994873,0.7814098000526428
1.8018591403961182,4.669851303100586,0.7837513089179993
1.790818691253662,4.73919153213501,0.7991960644721985
1.7387334108352661,4.700028419494629,0.7963883280754089
1.3094112873077393,3.6199376583099365,0.6158810257911682
1.3047631978988647,3.6905412673950195,0.630465030670166
1.2585406303405762,3.6447157859802246,0.6252290606498718
1.6324325799942017,4.836289405822754,0.8329230546951294
1.6105608940124512,4.883338928222656,0.8443716168403625
1.5780436992645264,4.901191711425781,0.8505582213401794
1.5551408529281616,4.952150344848633,0.8622227311134338
1.5016510486602783,4.907400131225586,0.8573083281517029
1.468772530555725,4.924588203430176,0.8631386756896973
1.4418103694915771,4.959853172302246,0.8721422553062439
1.4259672164916992,5.035728454589844,0.8883825540542603
1.3735350370407104,4.985677719116211,0.8819987773895264
1.3166745901107788,4.9166483879089355,0.8720554709434509
1.276680827140808,4.910579681396484,0.8733261823654175
1.2532188892364502,4.963602066040039,0.8850799202919006
1.2203322649002075,4.9790449142456055,0.8901728987693787
1.1872903108596802,4.994266033172607,0.8952767252922058
1.157736897468567,5.0282487869262695,0.903300940990448
1.121061086654663,5.035966873168945,0.9065580368041992
1.0882253646850586,5.058329105377197,0.912470281124115
1.0493613481521606,5.050250053405762,0.9129113554954529
1.0262269973754883,5.117215633392334,0.9269565939903259
0.9860950708389282,5.101029396057129,0.9260014891624451
1.6851015090942383,9.065702438354492,1.648535966873169
1.6158978939056396,9.050143241882324,1.648171067237854
1.5533891916275024,9.07197093963623,1.6546984910964966
1.477566123008728,9.009814262390137,1.6459484100341797
1.4243367910385132,9.079852104187012,1.6613932847976685
1.3554414510726929,9.058491706848145,1.660251498222351
1.2854217290878296,9.021403312683105,1.6557234525680542
1.2139145135879517,8.972542762756348,1.648453950881958
1.1504868268966675,8.980306625366211,1.6516588926315308
1.086187720298767,8.97998046875,1.6534539461135864
1.0227547883987427,8.979111671447754,1.6552027463912964
0.959196925163269,8.9855318069458,1.6584068536758423
0.8973187208175659,8.999078750610352,1.6628828048706055
0.40536198019981384,4.376158237457275,0.809105396270752
0.36770081520080566,4.298341274261475,0.7952120304107666
0.33896759152412415,4.319790840148926,0.7997158765792847
0.3110228180885315,4.360223770141602,0.807786762714386
0.28361111879348755,4.408102989196777,0.8172773122787476
0.32284316420555115,5.629193305969238,1.0445135831832886
0.2846558690071106,5.6541829109191895,1.0495694875717163
0.24887850880622864,5.744194984436035,1.0664749145507812
0.20827336609363556,5.753397464752197,1.0684373378753662
0.1692793071269989,5.7968430519104,1.0768097639083862
0.12935538589954376,5.81313943862915,1.0801920890808105
0.08956585824489594,5.852199077606201,1.0878602266311646
0.04894750565290451,5.856439590454102,1.0890110731124878
0.007570642977952957,5.9027628898620605,1.09736967086792
-0.011122225783765316,1.9624500274658203,0.36476919054985046
-0.1119375228881836,8.86316204071045,1.6472177505493164
-0.17210601270198822,8.789271354675293,1.6333494186401367
-0.23043788969516754,8.6842622756958,1.6137785911560059
-0.28731852769851685,8.578869819641113,1.5942152738571167
-0.07269015163183212,1.7921117544174194,0.332904577255249
-0.17006340622901917,3.579399585723877,0.6645187139511108
-0.19485490024089813,3.578242778778076,0.6639420986175537
-0.2196791023015976,3.576911687850952,0.6633645296096802
-0.5385160446166992,7.875095844268799,1.4598360061645508
-0.5897955298423767,7.81387996673584,1.44789457321167
-0.5480719804763794,6.646027565002441,1.2309675216674805
-0.5907949209213257,6.608008861541748,1.2226849794387817
-0.6277879476547241,6.516183853149414,1.2045289278030396
-0.6588802933692932,6.378291130065918,1.1779508590698242
-0.7089048027992249,6.419660568237305,1.1845276355743408
-0.7536566257476807,6.414906024932861,1.182655930519104
-0.7926055788993835,6.3640899658203125,1.1723579168319702
-0.8280196189880371,6.294127941131592,1.158084750175476
-0.8671087622642517,6.258309841156006,1.149854063987732
-0.9108673930168152,6.252579689025879,1.1471890211105347
-0.9596967697143555,6.284638404846191,1.151528239250183
-1.008287787437439,6.308658599853516,1.1544159650802612
-1.062957525253296,6.366435527801514,1.1635147333145142
-1.1156039237976074,6.408683776855469,1.169631004333496
-1.1649247407913208,6.431803226470947,1.1716474294662476
-1.2203699350357056,6.480868339538574,1.1783784627914429
-1.27643620967865,6.533409118652344,1.1857993602752686
-1.331705093383789,6.574049472808838,1.1910474300384521
-1.3869538307189941,6.610450267791748,1.195548176765442
-1.4369890689849854,6.620104789733887,1.1952528953552246
-1.4686181545257568,6.546957969665527,1.1792629957199097
-1.5062509775161743,6.5076117515563965,1.1694231033325195
-0.6716413497924805,2.814805030822754,0.5046538710594177
-0.6883218884468079,2.7992334365844727,0.5007016658782959
-0.6984117031097412,2.7573938369750977,0.4920826852321625
-0.7160714268684387,2.745255947113037,0.4887865483760834
-0.736852765083313,2.7481071949005127,0.4879527688026428
-0.7616608738899231,2.7657039165496826,0.48965588212013245
-1.7348123788833618,6.1368889808654785,1.0833951234817505
-1.7770308256149292,6.125694274902344,1.0783119201660156
-1.8095190525054932,6.076916694641113,1.0665868520736694
-1.8417750597000122,6.031871795654297,1.0556604862213135
-1.8714444637298584,5.983345985412598,1.0436707735061646
-1.9012689590454102,5.9385247230529785,1.0322071313858032
-1.9317713975906372,5.89722204208374,1.0214402675628662
-1.968237280845642,5.869908332824707,1.0130335092544556
-1.9955377578735352,5.816873073577881,1.0002819299697876
-2.0234668254852295,5.767364501953125,0.9882333278656006
-2.0521278381347656,5.725538730621338,0.9769862294197083
-2.0814454555511475,5.687280654907227,0.9663397073745728
-2.108987808227539,5.645259380340576,0.9551368951797485
-2.14616060256958,5.624085903167725,0.9473353028297424
-2.191161632537842,5.624374866485596,0.9432311058044434
-2.254371404647827,5.671130657196045,0.9467653036117554
-2.3141825199127197,5.710715293884277,0.9485390782356262
-2.3509860038757324,5.692678928375244,0.9407492280006409
-2.3724308013916016,5.634748458862305,0.9262910485267639
-2.4181325435638428,5.633336544036865,0.9211218357086182
-2.477865695953369,5.663414478302002,0.921094536781311
-2.5349831581115723,5.690185546875,0.9199402928352356
-2.5763132572174072,5.681399822235107,0.9129028916358948
-2.5518596172332764,5.528122901916504,0.8827241659164429
-2.594015598297119,5.5183491706848145,0.8754599690437317
-2.636204242706299,5.50822639465332,0.868162214756012
-2.66170072555542,5.467217445373535,0.8556655049324036
-2.6775429248809814,5.409092426300049,0.8403983116149902
-2.6933071613311768,5.350697994232178,0.8251219391822815
-2.7309443950653076,5.33299446105957,0.815970242023468
-2.7452540397644043,5.270358085632324,0.8000302314758301
-2.7606685161590576,5.215573310852051,0.7849830985069275
-1.1297982931137085,2.1012661457061768,0.3134894073009491
-1.1773483753204346,2.1553795337677,0.3186723291873932
-1.192853569984436,2.1474649906158447,0.3144141435623169
-5.702075958251953,10.101027488708496,1.4644333124160767
-2.544156074523926,4.439434051513672,0.6368732452392578
-5.942281723022461,10.214990615844727,1.4498480558395386
-1.235047459602356,2.0900254249572754,0.2932656407356262
-1.2500697374343872,2.0817248821258545,0.2886170446872711
-2.9132168292999268,4.780932903289795,0.654557466506958
-2.95671010017395,4.783025741577148,0.646450936794281
-3.0020394325256348,4.7837629318237305,0.6376637816429138
-3.0066874027252197,4.718070983886719,0.6198579668998718
-3.0256083011627197,4.679808616638184,0.6052814722061157
-3.0453176498413086,4.645318031311035,0.5914044380187988
-3.056290626525879,4.593111515045166,0.5746594667434692
-3.0883569717407227,4.573208332061768,0.5618175864219666
-3.100217819213867,4.529116630554199,0.5457726120948792
-3.148646116256714,4.535128593444824,0.5352157354354858
-2.86726450920105,4.069192409515381,0.4695369601249695
-2.846113920211792,3.985521078109741,0.4490821361541748
-2.8924598693847656,3.9967780113220215,0.4391933083534241
-2.9392764568328857,4.002735614776611,0.42749568819999695
-2.9555749893188477,3.972853183746338,0.411695271730423
-2.4681754112243652,3.4819583892822266,-0.21527697145938873
-2.4329614639282227,3.4867637157440186,-0.22835542261600494
-2.8682644367218018,4.175846576690674,-0.28820422291755676
-2.322338104248047,3.4332149028778076,-0.24847589433193207
-2.209726333618164,3.320058584213257,-0.2511656880378723
-2.2175662517547607,3.3840601444244385,-0.2665088176727295
-2.2058520317077637,3.418657064437866,-0.27947330474853516
-2.140333652496338,3.3717410564422607,-0.28565821051597595
-1.2796061038970947,2.048387289047241,-0.17943322658538818
-1.27714204788208,2.0768380165100098,-0.18762867152690887
-2.0918586254119873,3.4584708213806152,-0.3218666911125183
-2.0945425033569336,3.5194361209869385,-0.3367837369441986
-2.091209888458252,3.5701262950897217,-0.3507119119167328
-1.207845687866211,2.0975687503814697,-0.21141178905963898
-1.2000747919082642,2.1193125247955322,-0.21883374452590942
-2.5764482021331787,4.624661922454834,-0.4884600341320038
-2.548454761505127,4.652101993560791,-0.5022405385971069
-2.5288097858428955,4.696779727935791,-0.5179541707038879
-2.4981796741485596,4.720539569854736,-0.5313250422477722
-2.4718878269195557,4.750500202178955,-0.5451485514640808
-2.4494237899780273,4.7912774085998535,-0.560155987739563
-2.417862892150879,4.814539432525635,-0.5731842517852783
-2.3939568996429443,4.8510422706604,-0.5875847935676575
-2.3720784187316895,4.894842147827148,-0.6031012535095215
-2.3428828716278076,4.924612998962402,-0.6166985034942627
-2.318737506866455,4.964545249938965,-0.6315563917160034
-2.2998404502868652,5.0145673751831055,-0.6476119756698608
-2.2766528129577637,5.057692050933838,-0.6627936363220215
-2.233725070953369,5.05834436416626,-0.6723147034645081
-1.0136749744415283,2.3408164978027344,-0.3155099153518677
-1.03347647190094,2.432840585708618,-0.33232778310775757
-0.9922101497650146,2.3822226524353027,-0.3296383321285248
-0.9837515354156494,2.4101479053497314,-0.3377053439617157
-0.9362981915473938,2.340894937515259,-0.33203446865081787
-0.9222853183746338,2.3540704250335693,-0.337975412607193
-0.9054955840110779,2.359895944595337,-0.3427145183086395
-0.9007511138916016,2.3982701301574707,-0.3521660566329956
-0.8836106061935425,2.4039461612701416,-0.3568590581417084
-0.8692807555198669,2.4166972637176514,-0.3625800907611847
-0.8595359921455383,2.444089889526367,-0.37053075432777405
-0.8445742130279541,2.456798553466797,-0.3761124610900879
-0.8319704532623291,2.4767229557037354,-0.3828429877758026
-0.8168993592262268,2.489179849624634,-0.38843247294425964
-0.7992869019508362,2.494201898574829,-0.39283302426338196
-0.7915392518043518,2.5324366092681885,-0.40237492322921753
-0.7734542489051819,2.5373404026031494,-0.40662911534309387
-0.7644437551498413,2.5716307163238525,-0.41559410095214844
-0.7528403401374817,2.5984818935394287,-0.42344728112220764
-0.7543420195579529,2.67364764213562,-0.4390121102333069
-0.7394880056381226,2.693127155303955,-0.44554999470710754
-0.7102202773094177,2.6604084968566895,-0.44348952174186707
-0.7060515284538269,2.72063946723938,-0.4569007456302643
-0.6839984655380249,2.7136924266815186,-0.4588691294193268
-0.7032594084739685,2.8750574588775635,-0.4893566071987152
-0.6998636722564697,2.9505066871643066,-0.5054923295974731
-0.6658565402030945,2.8984086513519287,-0.49985650181770325
-0.6630368828773499,2.9813084602355957,-0.5173553824424744
-0.9367139935493469,4.355566024780273,-0.7601142525672913
-0.8715241551399231,4.195286750793457,-0.7362954020500183
-0.8217534422874451,4.09849214553833,-0.7233537435531616
-0.7831333875656128,4.0542216300964355,-0.7196353077888489
-0.7371028065681458,3.9642879962921143,-0.7070286273956299
-0.6978114247322083,3.904240131378174,-0.6996192336082458
-0.6554954648017883,3.8211143016815186,-0.687980055809021
-0.6299710869789124,3.832484006881714,-0.6933205723762512
-0.4695819318294525,2.989204168319702,-0.5431140661239624
-0.4520101547241211,3.014763116836548,-0.5498765707015991
-0.4341493844985962,3.0402064323425293,-0.5566724538803101
-0.413488507270813,3.0464835166931152,-0.5599929094314575
-0.39322131872177124,3.0564427375793457,-0.5639596581459045
-0.3783795237541199,3.112116813659668,-0.5759454369544983
-0.358020156621933,3.129587411880493,-0.5809583067893982
-0.3374366760253906,3.143064022064209,-0.5852402448654175
-0.3163236379623413,3.1525771617889404,-0.5888214707374573
-0.17197883129119873,1.8429182767868042,-0.34504857659339905
-0.27139174938201904,3.14457106590271,-0.5900331735610962
-0.2524251937866211,3.188213348388672,-0.5995681285858154
-0.2307426482439041,3.1972508430480957,-0.6026236414909363
-0.20944303274154663,3.21382737159729,-0.6069832444190979
-0.18746943771839142,3.2226810455322266,-0.6094541549682617
-0.16540756821632385,3.231381416320801,-0.6119287610054016
-0.1421799212694168,3.2246057987213135,-0.6115167737007141
-0.11976613104343414,3.2253224849700928,-0.612537145614624
-0.09687303006649017,3.2106332778930664,-0.6101506352424622
-0.07451798021793365,3.2111520767211914,-0.610560953617096
-0.05233507975935936,3.2191882133483887,-0.6124300956726074
-0.0292199794203043,3.1810264587402344,-0.6055432558059692
-0.0071149663999676704,3.165766954421997,-0.6028132438659668
0.014872172847390175,3.1657772064208984,-0.6026172637939453
0.03685910999774933,3.165634870529175,-0.6024212837219238
0.05891856551170349,3.1653385162353516,-0.6022246479988098
0.08026423305273056,3.138035297393799,-0.5969200730323792
0.10273896157741547,3.145199775695801,-0.5976390242576599
0.12495104223489761,3.152228832244873,-0.5982977151870728
0.14739561080932617,3.1629369258880615,-0.5996810793876648
0.16978973150253296,3.1696529388427734,-0.6003327369689941
0.19227935373783112,3.1762607097625732,-0.60071861743927
0.21782371401786804,3.221053123474121,-0.6079648733139038
0.23848897218704224,3.1967597007751465,-0.6022119522094727
0.26322323083877563,3.2259035110473633,-0.6065509915351868
0.28939101099967957,3.2663350105285645,-0.6130162477493286
0.3105984926223755,3.2493369579315186,-0.608122706413269
0.3359341025352478,3.2703683376312256,-0.6103309988975525
0.36203768849372864,3.2988784313201904,-0.6139655709266663
0.38724303245544434,3.315739154815674,-0.6154347062110901
0.4178725779056549,3.3744139671325684,-0.624321460723877
0.4433605670928955,3.387164354324341,-0.6244112849235535
0.47206971049308777,3.4187140464782715,-0.6279266476631165
0.5025029182434082,3.4614946842193604,-0.6335203051567078
0.5289187431335449,3.473634958267212,-0.6334324479103088
0.5621314644813538,3.5274453163146973,-0.6403892040252686
0.5948540568351746,3.5733890533447266,-0.645862877368927
0.6289557218551636,3.6228413581848145,-0.6519137620925903
0.6608618497848511,3.6529972553253174,-0.6543976068496704
0.6976584792137146,3.7095224857330322,-0.6611960530281067
0.7330599427223206,3.7544312477111816,-0.6656582951545715
0.7653296589851379,3.7801718711853027,-0.6666756272315979
0.8202359080314636,3.9111320972442627,-0.686111330986023
0.8700857758522034,4.00763463973999,-0.6990828514099121
0.9106166958808899,4.058757305145264,-0.7036449313163757
0.9528005719184875,4.1132731437683105,-0.7086998224258423
1.0102118253707886,4.227358341217041,-0.7238461375236511
1.0665311813354492,4.329648971557617,-0.7367599010467529
1.106704831123352,4.360409736633301,-0.7367545366287231
1.1594387292861938,4.439471244812012,-0.7448265552520752
1.1994222402572632,4.465869903564453,-0.7439395785331726
1.2389044761657715,4.488187789916992,-0.7423167824745178
1.2744024991989136,4.495416641235352,-0.7378774285316467
1.3061964511871338,4.48747444152832,-0.730586588382721
1.3330119848251343,4.464633941650391,-0.7210214734077454
1.362099289894104,4.44893217086792,-0.712622880935669
1.386331558227539,4.418325901031494,-0.7018058896064758
1.413447380065918,4.3987627029418945,-0.6924394965171814
1.4481589794158936,4.40087890625,-0.6864049434661865
1.1867084503173828,3.523686408996582,-0.5445297360420227
1.2203009128570557,3.541785955429077,-0.542241632938385
1.242314100265503,3.5269265174865723,-0.5345765948295593
1.2615355253219604,3.5046489238739014,-0.5258258581161499
1.2860772609710693,3.496704339981079,-0.5192221403121948
1.3042999505996704,3.470283031463623,-0.5098095536231995
1.333985686302185,3.47656512260437,-0.5051056146621704
1.349589467048645,3.4465999603271484,-0.49508991837501526
1.3765058517456055,3.445270299911499,-0.4891935884952545
1.400740623474121,3.436476707458496,-0.48220211267471313
1.4220850467681885,3.4203195571899414,-0.47396764159202576
1.4456664323806763,3.411412000656128,-0.46676817536354065
1.4632326364517212,3.3880181312561035,-0.45758479833602905
1.4871220588684082,3.3785862922668457,-0.4502488970756531
1.49797523021698,3.3407952785491943,-0.4391070008277893
1.5278146266937256,3.3453125953674316,-0.4333612024784088
1.8897321224212646,4.063910961151123,-0.5187916159629822
1.9117687940597534,4.0376057624816895,-0.5076818466186523
1.9381654262542725,4.0218658447265625,-0.4978581368923187
1.9708449840545654,4.0200934410095215,-0.48968467116355896
1.9871125221252441,3.9828970432281494,-0.47699761390686035
2.015225410461426,3.9699015617370605,-0.4672904908657074
2.042656183242798,3.9569997787475586,-0.45751720666885376
2.0624406337738037,3.930300235748291,-0.44614309072494507
2.071476697921753,3.882657766342163,-0.4323570728302002
2.082169532775879,3.838271379470825,-0.41897860169410706
2.140693187713623,3.8827199935913086,-0.4150160849094391
2.13088321685791,3.8046875,-0.39813289046287537
2.1614584922790527,3.7974302768707275,-0.3884868621826172
2.176267623901367,3.7630655765533447,-0.37605929374694824
2.1976876258850098,3.7425947189331055,-0.3650514781475067
2.2317566871643066,3.7415573596954346,-0.3556271195411682
2.250074625015259,3.7133891582489014,-0.34352928400039673
2.2670679092407227,3.6857473850250244,-0.33153077960014343
2.3082401752471924,3.6978518962860107,-0.32307910919189453
2.3176162242889404,3.656111478805542,-0.3094293177127838
2.33050537109375,3.621093988418579,-0.2962839603424072
2.3758792877197266,3.639035940170288,-0.2876149117946625
2.383932113647461,3.5973305702209473,-0.2737627625465393
2.4043490886688232,3.5752151012420654,-0.2613525688648224
2.4498038291931152,3.592379331588745,-0.251752108335495
2.457308053970337,3.5502443313598633,-0.23721535503864288
2.4814984798431396,3.5342087745666504,-0.2245025336742401
2.5225369930267334,3.5442042350769043,-0.2133805751800537
2.533571481704712,3.508286476135254,-0.19858428835868835
2.570575714111328,3.511080503463745,-0.18590889871120453
2.1842806339263916,2.9431240558624268,-0.14469018578529358
2.806461811065674,3.9432737827301025,0.4752562940120697
2.7687854766845703,3.9537875652313232,0.4889277517795563
2.7315738201141357,3.9590344429016113,0.5008400678634644
2.700559139251709,3.978545665740967,0.514240026473999
2.6846141815185547,4.02033805847168,0.5303119421005249
2.6494925022125244,4.028039932250977,0.5410569906234741
2.6142618656158447,4.040112495422363,0.5523037910461426
2.578490734100342,4.052215576171875,0.5632255673408508
2.567485809326172,4.098904609680176,0.5784039497375488
2.542062997817993,4.1222920417785645,0.5902124643325806
2.514085292816162,4.146947860717773,0.6018452048301697
2.493468999862671,4.184890270233154,0.6155778765678406
2.4597370624542236,4.194370746612549,0.6244354844093323
2.4332773685455322,4.217259407043457,0.6352292895317078
2.3933329582214355,4.220810890197754,0.6427680850028992
2.3761775493621826,4.264523029327393,0.6564614176750183
2.280247449874878,4.1613569259643555,0.647068202495575
2.2470242977142334,4.169251441955566,0.6546595096588135
2.2226510047912598,4.1984992027282715,0.6651606559753418
2.197956085205078,4.227594375610352,0.6757141947746277
2.1708672046661377,4.248970985412598,0.6848328113555908
2.143683671951294,4.270111083984375,0.693947970867157
2.115955352783203,4.291287899017334,0.7027602791786194
2.0837290287017822,4.3057942390441895,0.7102822661399841
2.05478835105896,4.326993942260742,0.7189444899559021
2.03069806098938,4.354221343994141,0.7283856272697449
1.9998902082443237,4.3672637939453125,0.7355060577392578
1.9688727855682373,4.384393692016602,0.7430557608604431
1.9813157320022583,4.5002121925354,0.7672357559204102
1.9570997953414917,4.534853935241699,0.7777261734008789
1.934160828590393,4.568709373474121,0.7879354357719421
1.9241065979003906,4.634523391723633,0.8037736415863037
1.881212592124939,4.626011848449707,0.8064880967140198
1.8641771078109741,4.681664943695068,0.8201630711555481
3.5585412979125977,9.129755020141602,1.6071884632110596
1.7798939943313599,4.662753582000732,0.8246694207191467
1.7659093141555786,4.724660873413086,0.8395160436630249
1.3480169773101807,3.686988592147827,0.6581006050109863
1.3158222436904907,3.6814911365509033,0.6597133278846741
1.2913978099822998,3.6975367069244385,0.6652167439460754
1.63407564163208,4.788280010223389,0.864831805229187
1.6052851676940918,4.8133015632629395,0.8726935982704163
1.5804556608200073,4.852941513061523,0.8833332061767578
1.5630226135253906,4.918305397033691,0.8982322812080383
1.5295307636260986,4.936012268066406,0.9043353796005249
1.488128662109375,4.927689552307129,0.9057067036628723
2.654376983642578,9.0184326171875,1.6628254652023315
2.586829900741577,9.020492553710938,1.6684573888778687
2.506981134414673,8.981569290161133,1.66663658618927
2.4170472621917725,8.905271530151367,1.6566932201385498
1.2920829057693481,4.8991875648498535,0.9137256741523743
1.2643219232559204,4.93743896484375,0.9232258796691895
1.2369780540466309,4.9753265380859375,0.9326732754707336
1.1997275352478027,4.975799083709717,0.9351930022239685
1.172843337059021,5.0169997215271,0.9453790187835693
1.1386446952819824,5.032129287719727,0.9500844478607178
1.10751473903656,5.0620527267456055,0.9575967192649841
1.0744816064834595,5.084253311157227,0.9637081027030945
1.0395967960357666,5.098718643188477,0.9684140682220459
1.0069911479949951,5.12030553817749,0.9744781255722046
1.6687254905700684,8.808396339416504,1.6798393726348877
1.6077457666397095,8.826648712158203,1.6859312057495117
1.5343133211135864,8.77652359008789,1.6787588596343994
1.4733779430389404,8.801676750183105,1.6860977411270142
1.4082683324813843,8.79206371307373,1.686798095703125
1.3447301387786865,8.78565788269043,1.6881537437438965
1.2790343761444092,8.763619422912598,1.6865781545639038
1.2164620161056519,8.764057159423828,1.6888467073440552
1.1479665040969849,8.730116844177246,1.6839430332183838
1.0876296758651733,8.748838424682617,1.6892508268356323
1.0236129760742188,8.736647605895996,1.6886701583862305
0.9610307216644287,8.727725982666016,1.6887739896774292
0.9018673300743103,8.748873710632324,1.694774866104126
0.8358311057090759,8.700904846191406,1.6874140501022339
0.38692134618759155,4.3550567626953125,0.8450432419776917
0.3569479286670685,4.3651275634765625,0.847474992275238
0.3257092535495758,4.359694004058838,0.8469383120536804
0.2978211045265198,4.3999409675598145,0.8553187847137451
0.3445257544517517,5.676311016082764,1.1042119264602661
0.30330491065979004,5.659221172332764,1.1017271280288696
0.2657940089702606,5.703175067901611,1.1107343435287476
0.22713711857795715,5.7354512214660645,1.1171778440475464
0.18860037624835968,5.786627292633057,1.127360463142395
0.14952309429645538,5.841371536254883,1.1382973194122314
0.10808061808347702,5.834519863128662,1.1372929811477661
0.0678093433380127,5.861873149871826,1.1430073976516724
0.02703898213803768,5.862109184265137,1.1434898376464844
-0.004486843943595886,1.913175106048584,0.37308835983276367
-0.08111489564180374,8.729793548583984,1.7020044326782227
-0.14333045482635498,8.752089500427246,1.706034541130066
-0.2024238258600235,8.678139686584473,1.6913940906524658
-0.2614079713821411,8.630619049072266,1.6819883584976196
-0.06606893241405487,1.774013876914978,0.3457179665565491
-0.3589285910129547,8.120786666870117,1.582115888595581
-0.183854877948761,3.5958378314971924,0.7001017928123474
-0.20917581021785736,3.594583749771118,0.6994336843490601
-0.23357944190502167,3.5855228900909424,0.6972880959510803
-0.5668467879295349,7.860195159912109,1.5278301239013672
-0.5292412638664246,6.6903181076049805,1.2998427152633667
-0.5737699270248413,6.66378927230835,1.294161319732666
-0.6123893857002258,6.572150230407715,1.2751195430755615
-0.6415545344352722,6.407885551452637,1.241997480392456
-0.6840785145759583,6.388443946838379,1.2370363473892212
-0.7347698211669922,6.4411187171936035,1.2460875511169434
-0.7753725647926331,6.401973724365234,1.2374255657196045
-0.8114486336708069,6.324416160583496,1.221396803855896
-0.8490103483200073,6.273468017578125,1.2103056907653809
-0.8909316658973694,6.260438919067383,1.2060471773147583
-0.9384510517120361,6.285072326660156,1.2090919017791748
-0.9868725538253784,6.313152313232422,1.212842345237732
-1.0402377843856812,6.359591484069824,1.2201030254364014
-1.09158456325531,6.394371032714844,1.2251911163330078
-1.1428650617599487,6.42495584487915,1.2295129299163818
-1.195981502532959,6.466742992401123,1.2352255582809448
-1.2518171072006226,6.519452095031738,1.2429593801498413
-1.3031091690063477,6.545359134674072,1.2456116676330566
-1.3584401607513428,6.581910133361816,1.2502562999725342
-1.4163204431533813,6.629366397857666,1.257020115852356
-1.457526445388794,6.5975775718688965,1.2488073110580444
-1.4882951974868774,6.524566650390625,1.2323901653289795
-1.5291825532913208,6.500206470489502,1.224861741065979
-0.6865584254264832,2.830660581588745,0.5321182012557983
-0.693841814994812,2.7778027057647705,0.5209649205207825
-0.7113145589828491,2.7658305168151855,0.5175062417984009
-0.7325570583343506,2.7686188220977783,0.5168365240097046
-0.7516956329345703,2.7638907432556152,0.5146567225456238
-0.7728695273399353,2.766483783721924,0.5135966539382935
-1.761273980140686,6.144330024719238,1.1373745203018188
-1.7944345474243164,6.1036505699157715,1.1265733242034912
-1.825912356376648,6.055144309997559,1.1143375635147095
-1.8602715730667114,6.017491340637207,1.1041823625564575
-1.8909558057785034,5.9686126708984375,1.091758131980896
-1.9218171834945679,5.927491188049316,1.0803747177124023
-1.9485119581222534,5.87526798248291,1.0670679807662964
-1.9810055494308472,5.841092586517334,1.0571057796478271
-2.0130343437194824,5.802721977233887,1.0463541746139526
-2.043391466140747,5.760525703430176,1.0349944829940796
-2.0731899738311768,5.718263626098633,1.0233197212219238
-2.099705457687378,5.672816276550293,1.0108327865600586
-2.1297295093536377,5.638086795806885,1.000349521636963
-2.1683509349823,5.624539852142334,0.9936131238937378
-2.226163387298584,5.657019138336182,0.9949148297309875
-2.2924411296844482,5.7065958976745605,0.9991060495376587
-2.341310977935791,5.717214107513428,0.99596107006073
-2.3663923740386963,5.670609951019287,0.982763409614563
-2.4014620780944824,5.648777961730957,0.9739454984664917
-2.482353687286377,5.728792667388916,0.9824497103691101
-2.537325382232666,5.744060039520264,0.9796615839004517
-2.537276029586792,5.639834880828857,0.9564033150672913
-2.5637049674987793,5.5995988845825195,0.9437430500984192
-2.5946459770202637,5.569720268249512,0.9329032897949219
-2.6016011238098145,5.486814498901367,0.9131341576576233
-2.640984296798706,5.4694600105285645,0.9041494727134705
-2.680724859237671,5.455874919891357,0.8957698941230774
-2.6980528831481934,5.401358127593994,0.8802887201309204
-4.818747043609619,9.490482330322266,1.5352258682250977
-4.939166069030762,9.566216468811035,1.5354996919631958
-2.7532436847686768,5.242964744567871,0.834851861000061
-2.819166660308838,5.279670238494873,0.8335788249969482
-1.1622945070266724,2.1430845260620117,0.3353712558746338
-1.183952808380127,2.1495301723480225,0.3333735167980194
-5.522254943847656,9.864640235900879,1.5152934789657593
-2.539369583129883,4.463168621063232,0.6788896322250366
-2.9186246395111084,5.050874710083008,0.7601167559623718
-1.199566125869751,2.045337677001953,0.30450302362442017
-1.253133773803711,2.104382276535034,0.3097694218158722
-2.9153363704681396,4.819128036499023,0.7009392380714417
-2.9542956352233887,4.810646057128906,0.6909984350204468
-2.976106643676758,4.7760233879089355,0.6769484281539917
-3.018594741821289,4.773913383483887,0.6674540042877197
-3.0294063091278076,4.718146324157715,0.6500223278999329
-3.0316805839538574,4.653674602508545,0.6313329339027405
-3.0554587841033936,4.625827789306641,0.6175509095191956
-3.0572774410247803,4.561079978942871,0.598300576210022
-3.0897228717803955,4.540928363800049,0.5847609639167786
-3.1368746757507324,4.548046588897705,0.5743207335472107
-2.9102683067321777,4.163024425506592,0.5151477456092834
-2.8520963191986084,4.020270347595215,0.48623567819595337
-2.8928401470184326,4.02148962020874,0.4746328592300415
-2.9274349212646484,4.017245292663574,0.46238815784454346
-2.9375429153442383,3.9729726314544678,0.44410499930381775
-2.939614772796631,4.118524551391602,-0.25474241375923157
-2.445676565170288,3.4778616428375244,-0.22828373312950134
-2.887871265411377,4.171751022338867,-0.2893707752227783
-2.3712737560272217,3.4800047874450684,-0.2539273798465729
-2.23998761177063,3.337218999862671,-0.25480300188064575
-2.2338125705718994,3.382497549057007,-0.2696281671524048
-2.2127749919891357,3.4045958518981934,-0.2824869751930237
-2.7974512577056885,4.370964527130127,-0.37608933448791504
-1.251490592956543,1.9876242876052856,-0.17707139253616333
-1.2492784261703491,2.015958786010742,-0.18549670279026031
-1.2308720350265503,2.0175299644470215,-0.1913430392742157
-2.120628595352173,3.5349857807159424,-0.34532853960990906
-2.102566719055176,3.5627481937408447,-0.3577677011489868
-2.614678144454956,4.501694679260254,-0.46385499835014343
-1.1846579313278198,2.0739078521728516,-0.21907614171504974
-2.593683958053589,4.618310451507568,-0.4997386038303375
-2.5602149963378906,4.6354804039001465,-0.5131728649139404
-2.541621685028076,4.67964506149292,-0.5294355750083923
-2.514320135116577,4.710488796234131,-0.5442348718643188
-2.4945852756500244,4.754581451416016,-0.5604723691940308
-2.469736099243164,4.787879467010498,-0.5753298997879028
-2.4377810955047607,4.81136417388916,-0.5891515612602234
-2.409383773803711,4.841425895690918,-0.6036255359649658
-2.385056734085083,4.877830505371094,-0.6187007427215576
-2.3639190196990967,4.920986652374268,-0.634682834148407
-2.3396315574645996,4.961023807525635,-0.6501789689064026
-2.3099515438079834,4.990381717681885,-0.6644001603126526
-2.2804086208343506,5.019350528717041,-0.6785343885421753
-2.2541496753692627,5.055037021636963,-0.6934600472450256
-1.010899305343628,2.311142921447754,-0.321544349193573
-0.991119384765625,2.3105125427246094,-0.32593077421188354
-0.9687373638153076,2.302443504333496,-0.329151451587677
-0.9402554035186768,2.279994487762451,-0.33028656244277954
-0.9440736770629883,2.336233615875244,-0.342676043510437
-0.9243867993354797,2.3350183963775635,-0.34672123193740845
-0.9106619358062744,2.34795880317688,-0.352809339761734
-0.8994925022125244,2.368062734603882,-0.3599916100502014
-0.888918399810791,2.3919317722320557,-0.3677173852920532
-0.8770034313201904,2.412027359008789,-0.37487173080444336
-0.8625561594963074,2.424680233001709,-0.3808540403842926
-0.8479366302490234,2.4372494220733643,-0.3868536353111267
-0.8429262638092041,2.4790730476379395,-0.39735665917396545
-0.8199874758720398,2.4697155952453613,-0.3997829556465149
-0.8132564425468445,2.5077340602874756,-0.40980586409568787
-0.8002402186393738,2.527346611022949,-0.4169066846370697
-0.7913711667060852,2.561718225479126,-0.4262712895870209
-0.775355339050293,2.573920488357544,-0.431988924741745
-0.7636656761169434,2.600781202316284,-0.44020721316337585
-0.7481963038444519,2.6165285110473633,-0.4466659426689148
-0.7400121688842773,2.65814471244812,-0.4573378264904022
-0.7292073965072632,2.6923437118530273,-0.4667246639728546
-0.7140911221504211,2.7115864753723145,-0.4735889732837677
-0.7017260193824768,2.741899251937866,-0.4824405908584595
-0.7377488613128662,2.9702792167663574,-0.5264069437980652
-0.7230718731880188,3.0008511543273926,-0.5353268384933472
-0.6992467641830444,2.993872880935669,-0.5375922322273254
-0.6825053691864014,3.016695022583008,-0.5452173948287964
-0.6646508574485779,3.035660743713379,-0.5521925091743469
-0.7789512276649475,3.6829230785369873,-0.6737658977508545
-0.7338099479675293,3.593296527862549,-0.6610666513442993
-0.5659802556037903,2.8734960556030273,-0.5316125154495239
-0.5487255454063416,2.891822576522827,-0.5380039811134338
-0.5311770439147949,2.910109519958496,-0.544104814529419
-0.5150089859962463,2.9397146701812744,-0.5522831678390503
-0.4944223165512085,2.9426512718200684,-0.5554485321044922
-0.48115983605384827,2.99092698097229,-0.567237138748169
-0.4649207890033722,3.0239932537078857,-0.5760502219200134
-0.4437582790851593,3.026653289794922,-0.5787650346755981
-0.42220887541770935,3.029205560684204,-0.581527054309845
-0.4025970995426178,3.0429654121398926,-0.586431086063385
-0.3813835084438324,3.045172929763794,-0.5891457796096802
-0.36103320121765137,3.054955244064331,-0.5928049683570862
-0.3388458490371704,3.0493578910827637,-0.5934863090515137
-0.3124108612537384,3.0016438961029053,-0.5859641432762146
-0.2911266088485718,3.003361463546753,-0.5881208777427673
-0.26675909757614136,2.9667835235595703,-0.5824155211448669
-0.2444683462381363,2.9491724967956543,-0.5801820755004883
-0.22216878831386566,2.9275753498077393,-0.5771737694740295
-0.19915075600147247,2.8905208110809326,-0.5711183547973633
-0.17819878458976746,2.8839311599731445,-0.5710094571113586
-0.15665173530578613,2.858137845993042,-0.5666118860244751
-0.1384015530347824,2.893425703048706,-0.5743529200553894
-0.11747769266366959,2.874995708465576,-0.5714626312255859
-0.09720642119646072,2.867905378341675,-0.5708466172218323
-0.07668687403202057,2.8607687950134277,-0.5697911977767944
-0.056775495409965515,2.861168622970581,-0.5701165199279785
-0.03666487708687782,2.846107244491577,-0.5673872828483582
-0.01671915128827095,2.8155832290649414,-0.5615975260734558
0.00284633319824934,2.8309314250946045,-0.564769446849823
0.022871049121022224,2.8308911323547363,-0.564516007900238
0.04218045994639397,2.8077306747436523,-0.5596858859062195
0.06203244626522064,2.8227391242980957,-0.5624917149543762
0.08143036812543869,2.8146302700042725,-0.5607175827026367
0.10126686096191406,2.8218111991882324,-0.5614515542984009
0.12118532508611679,2.8288583755493164,-0.5621575713157654
0.14157678186893463,2.835749387741089,-0.5628436207771301
0.16172245144844055,2.84251070022583,-0.5635398030281067
0.18098747730255127,2.833893060684204,-0.5608962178230286
0.202845498919487,2.863422393798828,-0.5655637383460999
0.2227654755115509,2.862215757369995,-0.5641740560531616
0.24530132114887238,2.8875818252563477,-0.5680190920829773
0.2681986093521118,2.9166386127471924,-0.5725241303443909
0.288503497838974,2.9150898456573486,-0.5705350637435913
0.31201058626174927,2.9439072608947754,-0.5745013356208801
0.33337098360061646,2.949676752090454,-0.573974072933197
0.3583938181400299,2.981912612915039,-0.5785729289054871
0.3801116347312927,2.9874331951141357,-0.5775858759880066
0.40396055579185486,3.008033514022827,-0.5793832540512085
0.4297490119934082,3.0398473739624023,-0.5833250880241394
0.457714706659317,3.0828423500061035,-0.5893814563751221
0.48548752069473267,3.1180102825164795,-0.5936610102653503
0.5102828145027161,3.1341233253479004,-0.5939782857894897
0.539829432964325,3.176548480987549,-0.599254846572876
0.5693705677986145,3.2149364948272705,-0.6037174463272095
0.598777174949646,3.2492997646331787,-0.6073852181434631
0.6322669982910156,3.3023955821990967,-0.6139487624168396
0.6646607518196106,3.343829393386841,-0.6182019114494324
0.7011882662773132,3.4038734436035156,-0.6258668303489685
0.7354039549827576,3.4485433101654053,-0.6306180953979492
0.7776972055435181,3.526787042617798,-0.6410580277442932
0.8150694966316223,3.578434705734253,-0.6463243961334229
0.8572195172309875,3.6446352005004883,-0.6540221571922302
0.9000096321105957,3.7105138301849365,-0.6615846157073975
0.96516352891922,3.86194109916687,-0.6840280294418335
1.0016871690750122,3.8934590816497803,-0.6846187710762024
1.0515061616897583,3.973071336746216,-0.6935423612594604
1.105151891708374,4.05949592590332,-0.7033435106277466
1.1731058359146118,4.193753242492676,-0.7212503552436829
1.2246835231781006,4.2644829750061035,-0.7274580001831055
1.2859747409820557,4.3643317222595215,-0.7383869886398315
1.334409236907959,4.415530204772949,-0.7408484220504761
1.3762656450271606,4.440317153930664,-0.738658607006073
1.3967435359954834,4.3988118171691895,-0.7252440452575684
1.42857027053833,4.393964767456055,-0.7177679538726807
1.4580525159835815,4.381520748138428,-0.7090643644332886
1.481397271156311,4.350526332855225,-0.697390079498291
1.5016781091690063,4.312177658081055,-0.6844757199287415
1.52957022190094,4.2955241203308105,-0.6747056245803833
1.2687441110610962,3.48697829246521,-0.5420069694519043
1.2906283140182495,3.4717705249786377,-0.5339040756225586
1.3218873739242554,3.4817583560943604,-0.5296230316162109
1.344675064086914,3.469977617263794,-0.521784782409668
1.3663357496261597,3.454293966293335,-0.513303279876709
1.3848892450332642,3.4312987327575684,-0.5038118362426758
1.4090427160263062,3.4225285053253174,-0.4964413344860077
1.4326794147491455,3.4137940406799316,-0.4888731837272644
1.4501876831054688,3.3906261920928955,-0.47928139567375183
1.4775696992874146,3.3883392810821533,-0.47245171666145325
1.4983463287353516,3.3717949390411377,-0.46374550461769104
1.518396258354187,3.355381965637207,-0.45490720868110657
1.5415292978286743,3.3458778858184814,-0.4470411241054535
1.5551756620407104,3.3149325847625732,-0.43624159693717957
1.582289695739746,3.3117446899414062,-0.42899996042251587
1.9511442184448242,4.013856410980225,-0.5116080045700073
1.9752330780029297,3.9946506023406982,-0.5008391737937927
1.9929397106170654,3.961048126220703,-0.4881106913089752
2.0243327617645264,3.9550671577453613,-0.47879841923713684
2.054960250854492,3.9492337703704834,-0.46936747431755066
2.078916549682617,3.9291226863861084,-0.4580700993537903
2.0679738521575928,3.8436739444732666,-0.4392670691013336
2.0946898460388184,3.8303606510162354,-0.4288509488105774
2.1565890312194824,3.881758689880371,-0.4254826009273529
2.135640859603882,3.783221483230591,-0.40558165311813354
2.16676926612854,3.775624990463257,-0.3952558934688568
2.192586660385132,3.7618162631988525,-0.3843980133533478
2.2061617374420166,3.727858066558838,-0.37153589725494385
2.232377052307129,3.713325262069702,-0.3603099584579468
2.2663228511810303,3.712047815322876,-0.35029545426368713
2.2752583026885986,3.671041965484619,-0.3363727629184723
2.308823347091675,3.6694893836975098,-0.32603272795677185
2.3430871963500977,3.6672523021698,-0.31531861424446106
2.350543975830078,3.626383066177368,-0.3013039529323578
2.3707613945007324,3.6048483848571777,-0.28883397579193115
2.409640312194824,3.6081385612487793,-0.27764204144477844
2.4249138832092285,3.580010414123535,-0.26421892642974854
2.435640573501587,3.545281171798706,-0.25023379921913147
2.496338129043579,3.5800764560699463,-0.2404366135597229
2.488287925720215,3.519869565963745,-0.22428512573242188
2.5214524269104004,3.5162696838378906,-0.2112308293581009
2.573333501815796,3.53739070892334,-0.19910559058189392
2.248652935028076,3.050337553024292,-0.16003850102424622
2.7861645221710205,3.9484593868255615,0.5103760957717896
2.759373903274536,3.970088243484497,0.5251287221908569
2.729496955871582,3.988819122314453,0.5391405820846558
2.6905691623687744,3.9992239475250244,0.5519968867301941
2.661203145980835,4.0170488357543945,0.5647786855697632
2.636115550994873,4.0410590171813965,0.578154981136322
2.610640525817871,4.069614410400391,0.5919044017791748
2.5797019004821777,4.087548732757568,0.6038535833358765
2.5458598136901855,4.097893714904785,0.6143044829368591
2.508975028991699,4.105302810668945,0.6238542199134827
2.5070278644561768,4.172730922698975,0.6424670219421387
2.46838116645813,4.176103591918945,0.6509114503860474
2.446415424346924,4.205343723297119,0.6631543040275574
2.421970844268799,4.235700607299805,0.6754392385482788
2.385697841644287,4.245779991149902,0.684262752532959
2.34686279296875,4.248166561126709,0.6915856003761292
2.2593741416931152,4.1579437255859375,0.6834372282028198
2.2397072315216064,4.1934285163879395,0.6956204771995544
2.2072620391845703,4.209133625030518,0.7044220566749573
2.1861608028411865,4.244780540466309,0.71647047996521
2.1594889163970947,4.2656965255737305,0.7257644534111023
2.136098861694336,4.293327808380127,0.7362585663795471
2.103940486907959,4.307839870452881,0.7440469264984131
2.0676488876342773,4.31545352935791,0.7507345676422119
2.042588710784912,4.343114376068115,0.7607351541519165
2.0166947841644287,4.366662502288818,0.769907534122467
1.980857014656067,4.369049072265625,0.7753328084945679
2.010904550552368,4.523373126983643,0.8073752522468567
1.983363389968872,4.551069736480713,0.8170141577720642
1.9723384380340576,4.6175031661987305,0.8336979150772095
1.924831748008728,4.594532012939453,0.8340803980827332
1.9129133224487305,4.6566243171691895,0.8499549627304077
1.8814600706100464,4.676558971405029,0.857640266418457
1.8327940702438354,4.653321266174316,0.8574180006980896
1.8216289281845093,4.726719379425049,0.8751094341278076
1.7910490036010742,4.745486259460449,0.882561981678009
1.377562165260315,3.72822642326355,0.6965173482894897
1.340226173400879,3.708254098892212,0.6956372261047363
1.30277419090271,3.6881461143493652,0.6945185661315918
1.2702946662902832,3.6823673248291016,0.696145236492157
2.9644808769226074,8.794638633728027,1.668887734413147
2.91839861869812,8.860804557800293,1.6877154111862183
2.8561418056488037,8.879189491271973,1.6975681781768799
2.776721715927124,8.85031795501709,1.6972628831863403
2.697782516479492,8.824798583984375,1.6976698637008667
1.4856672286987305,4.988161087036133,0.9625813961029053
1.45698881149292,5.0196943283081055,0.9716116189956665
1.433321237564087,5.069491863250732,0.984248697757721
1.3702095746994019,4.978565692901611,0.9695070385932922
1.3114491701126099,4.9022369384765625,0.9569307565689087
1.2870572805404663,4.955501079559326,0.9697218537330627
1.2494690418243408,4.9564080238342285,0.9722937345504761
1.218313217163086,4.979190349578857,0.9791480898857117
1.187891960144043,5.0054802894592285,0.9867490530014038
1.156204342842102,5.027867794036865,0.9936134219169617
1.1245481967926025,5.05795431137085,1.0014209747314453
1.0899097919464111,5.072719573974609,1.0062267780303955
1.0550607442855835,5.087253570556641,1.011047124862671
1.0246082544326782,5.120197772979736,1.0195478200912476
0.9881070852279663,5.1228132247924805,1.0220586061477661
1.5964165925979614,8.603672981262207,1.7200068235397339
1.5225650072097778,8.542193412780762,1.710159182548523
1.4618593454360962,8.551931381225586,1.7144505977630615
1.4009959697723389,8.561250686645508,1.7187484502792358
1.3317686319351196,8.513273239135742,1.7115892171859741
1.2725169658660889,8.52922248840332,1.7173701524734497
1.209754467010498,8.51429271697998,1.7169722318649292
1.1469426155090332,8.499063491821289,1.7159830331802368
1.0897917747497559,8.52914047241211,1.7235972881317139
1.02071213722229,8.463785171508789,1.7120047807693481
0.9639310836791992,8.49681282043457,1.7203876972198486
0.9054228067398071,8.518041610717773,1.7264786958694458
0.43194955587387085,4.351309299468994,0.8828876614570618
0.39502328634262085,4.2814621925354,0.8696774840354919
0.3662399351596832,4.2992072105407715,0.8736797571182251
0.3360835313796997,4.301486015319824,0.8745827078819275
0.30721592903137207,4.330322265625,0.8809413909912109
0.2765062153339386,4.324536323547363,0.8802902102470398
0.32233619689941406,5.659949779510498,1.1528657674789429
0.2837352752685547,5.6771063804626465,1.1571595668792725
0.24679918587207794,5.739961624145508,1.1704663038253784
0.20719553530216217,5.775915145874023,1.1778980493545532
0.16794151067733765,5.8153977394104,1.1861076354980469
0.12764333188533783,5.8316521644592285,1.1896388530731201
0.08698590099811554,5.8246612548828125,1.188485026359558
0.047012221068143845,5.8901047706604,1.2021715641021729
0.005296935327351093,5.867240905761719,1.1979026794433594
-0.050904951989650726,8.431456565856934,1.7210577726364136
-0.11046318709850311,8.5037260055542,1.7353421449661255
-0.16912071406841278,8.479907035827637,1.730098843574524
-0.22806993126869202,8.478639602661133,1.729541301727295
-0.2877867817878723,8.49991512298584,1.7336652278900146
-0.33495602011680603,8.180356979370117,1.6683584451675415
-0.17216236889362335,3.5938830375671387,0.7328237295150757
-0.19749070703983307,3.600396156311035,0.7336516976356506
-0.22122350335121155,3.579988479614258,0.729031503200531
-0.42977094650268555,6.251905918121338,1.2723969221115112
-0.4765728712081909,6.283330917358398,1.278089165687561
-0.5240627527236938,6.32590913772583,1.2861155271530151
-0.5718252658843994,6.36431884765625,1.2933483123779297
-0.6143444180488586,6.34534215927124,1.288414478302002
