X,Y,Z
2.369157314300537,3.399810552597046,0.26521360874176025
2.353942394256592,3.4286365509033203,0.2745351791381836
2.3471808433532715,3.474992513656616,0.2853572964668274
2.3097448348999023,3.4759416580200195,0.29217225313186646
2.3215572834014893,3.5468597412109375,0.3043980598449707
1.603271722793579,2.4890787601470947,0.2179059535264969
1.6320737600326538,2.5765225887298584,0.2299172282218933
1.6093605756759644,2.58113956451416,0.23440027236938477
1.5703837871551514,2.559006690979004,0.23628312349319458
2.994960308074951,4.964267730712891,0.4656601846218109
2.9882447719573975,5.035492897033691,0.4794076383113861
2.952866554260254,5.055492401123047,0.4880569577217102
2.930706262588501,5.1034650802612305,0.499396413564682
2.9036943912506104,5.144872665405273,0.5099337697029114
2.8760128021240234,5.181846618652344,0.5198261737823486
2.869354724884033,5.255764961242676,0.5333860516548157
2.8345019817352295,5.282666206359863,0.5420286059379578
2.772395610809326,5.261997699737549,0.5457345843315125
2.7075345516204834,5.229273319244385,0.5478096604347229
2.704343557357788,5.313210487365723,0.5619893074035645
2.7235703468322754,5.446474075317383,0.58143550157547
2.7259256839752197,5.5530171394348145,0.5980086326599121
1.2232437133789062,2.539287567138672,0.2758493721485138
1.2037277221679688,2.543955087661743,0.27860772609710693
1.1792913675308228,2.5378973484039307,0.2801896035671234
1.171894907951355,2.570918083190918,0.28592947125434875
1.1623990535736084,2.6004505157470703,0.2913152277469635
1.13436758518219,2.5870349407196045,0.2918446362018585
2.5448927879333496,5.917562007904053,0.672195553779602
1.5927209854125977,3.77626633644104,0.4318158030509949
1.5620343685150146,3.7802133560180664,0.43487846851348877
1.5299172401428223,3.780311107635498,0.43750929832458496
1.4916372299194336,3.7617435455322266,0.4378892183303833
1.4733110666275024,3.793530225753784,0.44415444135665894
1.458997130393982,3.836042642593384,0.4516330659389496
1.4987578392028809,4.028082847595215,0.47659748792648315
2.299051284790039,6.31851053237915,0.7513118386268616
2.286647081375122,6.4254536628723145,0.7677382230758667
2.253584146499634,6.477563858032227,0.7777355909347534
2.22699236869812,6.547610282897949,0.7899089455604553
2.194270610809326,6.607122421264648,0.8003394603729248
2.159564971923828,6.662813663482666,0.8103758692741394
2.1012203693389893,6.644208908081055,0.8113908767700195
2.042492389678955,6.621293544769287,0.8118596076965332
1.983904242515564,6.593932628631592,0.8117273449897766
1.9217787981033325,6.555171012878418,0.8098477125167847
1.8649598360061646,6.53473424911499,0.8099905848503113
1.8074970245361328,6.510087013244629,0.8096243143081665
1.7506331205368042,6.480912685394287,0.8086365461349487
1.6928340196609497,6.447628974914551,0.8071671724319458
0.8282450437545776,3.2462875843048096,0.4077405333518982
1.585833191871643,6.405941009521484,0.8067062497138977
0.8007658123970032,3.336519718170166,0.4212803244590759
1.4793078899383545,6.362852573394775,0.8055387139320374
1.4204368591308594,6.312256336212158,0.8012871146202087
1.3623002767562866,6.257208347320557,0.796430230140686
1.3152275085449219,6.251025199890137,0.7976659536361694
1.2621428966522217,6.218109130859375,0.7950727343559265
1.2043874263763428,6.158134937286377,0.7890311479568481
1.1549893617630005,6.139638900756836,0.7883360981941223
1.1156628131866455,6.166261196136475,0.7934154868125916
1.0627533197402954,6.11627197265625,0.7886651754379272
1.0172843933105469,6.107974052429199,0.7891091704368591
0.9685377478599548,6.080317974090576,0.7867062091827393
0.9200485944747925,6.056224346160889,0.7848128080368042
0.8706930875778198,6.016281604766846,0.7808623313903809
0.8167035579681396,5.933655738830566,0.7713659405708313
0.7728709578514099,5.919735431671143,0.7708181142807007
0.7358054518699646,5.959360599517822,0.7770803570747375
0.5823450088500977,5.006092071533203,0.6534215211868286
0.5603335499763489,5.137057304382324,0.6712207198143005
0.5309750437736511,5.206214904785156,0.6809893846511841
0.3921956717967987,4.129911422729492,0.5408073663711548
0.35869473218917847,4.078397274017334,0.5346812009811401
0.3393057584762573,4.192646026611328,0.5502196550369263
0.3076772391796112,4.171706676483154,0.547767162322998
0.2778879702091217,4.165957927703857,0.5473293662071228
0.2514691650867462,4.214120388031006,0.5540041327476501
0.4095748960971832,7.770016193389893,1.0221587419509888
0.35520654916763306,7.764797210693359,1.0222046375274658
0.2990894913673401,7.736024379730225,1.0191222429275513
0.24376575648784637,7.695298671722412,1.0138496160507202
0.18931172788143158,7.665794372558594,1.0101038217544556
0.13541844487190247,7.643651962280273,1.0073758363723755
0.08192482590675354,7.61338472366333,1.0036238431930542
0.0279423538595438,7.5788750648498535,0.9993641376495361
-0.024688273668289185,7.555606365203857,0.9966282248497009
-0.07697724550962448,7.532063961029053,0.9932122826576233
-0.12900523841381073,7.5120391845703125,0.9902530908584595
-0.1804783046245575,7.480041027069092,0.9857653975486755
-0.2317533940076828,7.4554338455200195,0.9823011159896851
-0.284464955329895,7.453661918640137,0.9818912744522095
-0.3366260528564453,7.45929479598999,0.9825075268745422
-0.2817000448703766,5.410898685455322,0.7122769355773926
-0.31913256645202637,5.408924579620361,0.71148282289505
-0.3565513491630554,5.406691074371338,0.7106887698173523
-0.39295968413352966,5.380972862243652,0.7068353295326233
-0.42974042892456055,5.370493412017822,0.705027163028717
-0.46135783195495605,5.301881790161133,0.6956270933151245
-0.4353313446044922,4.6315412521362305,0.607128381729126
-0.4649104177951813,4.6054534912109375,0.6029847860336304
-0.49598532915115356,4.590670108795166,0.6003426313400269
-0.5268300175666809,4.5795793533325195,0.5982259511947632
-0.557691216468811,4.568264007568359,0.5961078405380249
-0.5884208083152771,4.556740760803223,0.5939934849739075
-0.6167662143707275,4.529697418212891,0.5897265672683716
-0.6472243666648865,4.517819881439209,0.5871842503547668
-0.6770249605178833,4.5058112144470215,0.5846726894378662
-0.7068332433700562,4.493584156036377,0.5821592807769775
-0.7336921095848083,4.4619903564453125,0.5771619081497192
-0.7647325396537781,4.456972599029541,0.5756354928016663
-0.7914460897445679,4.428901195526123,0.5710439085960388
-0.8137845396995544,4.377809047698975,0.5632157921791077
-0.8436786532402039,4.372389316558838,0.5613270401954651
-0.73075932264328,3.652243137359619,0.46789300441741943
-0.7576513290405273,3.654881715774536,0.46725964546203613
-0.791157603263855,3.6876349449157715,0.4704854190349579
-0.9647872447967529,4.348272800445557,0.553516149520874
-0.9916908144950867,4.3305768966674805,0.5497840642929077
-1.0193331241607666,4.316478252410889,0.5465380549430847
-1.0452135801315308,4.294616222381592,0.5423314571380615
-1.0750908851623535,4.287528991699219,0.5399983525276184
-1.1016048192977905,4.265074253082275,0.5357345342636108
-1.1289854049682617,4.25019645690918,0.5323111414909363
-1.159871220588684,4.250247001647949,0.530571699142456
-1.1803034543991089,4.212737560272217,0.5241795778274536
-1.2039088010787964,4.186211109161377,0.5191734433174133
-1.239051342010498,4.196514129638672,0.5187090635299683
-1.26603102684021,4.180685043334961,0.5150644183158875
-1.2945094108581543,4.172320365905762,0.5120940804481506
-1.3202954530715942,4.156466007232666,0.508128821849823
-1.3375685214996338,4.114607334136963,0.5010243654251099
-1.3714776039123535,4.12017822265625,0.499641090631485
-1.4026727676391602,4.118244647979736,0.4973863661289215
-1.4235363006591797,4.086812496185303,0.4915466010570526
-1.4457547664642334,4.0629401206970215,0.486369788646698
-1.4783605337142944,4.068123817443848,0.48469018936157227
-1.497969388961792,4.036520957946777,0.47862255573272705
-1.5293006896972656,4.033487319946289,0.4758835434913635
-1.5546088218688965,4.015892028808594,0.4714870750904083
-1.5817443132400513,4.005720615386963,0.4677407741546631
-1.608525276184082,3.995485305786133,0.4639383554458618
-1.629481554031372,3.9706385135650635,0.45845580101013184
-1.6546471118927002,3.9522600173950195,0.45361265540122986
-1.6761279106140137,3.926759958267212,0.4480333924293518
-1.7120906114578247,3.9371135234832764,0.4463704228401184
-1.7382928133010864,3.926091432571411,0.4421626627445221
-1.7581018209457397,3.900691032409668,0.43635839223861694
-1.782632827758789,3.8814899921417236,0.43108704686164856
-1.8098127841949463,3.869379758834839,0.4266824424266815
-1.8242974281311035,3.832956552505493,0.4194509983062744
-1.8565657138824463,3.8352181911468506,0.4163743555545807
-1.8788851499557495,3.816171884536743,0.4109649062156677
-1.9060131311416626,3.8032240867614746,0.40604183077812195
-1.9255253076553345,3.776444435119629,0.39973485469818115
-1.9540820121765137,3.7710392475128174,0.3954535126686096
-1.964415431022644,3.7310574054718018,0.38757291436195374
-2.0046582221984863,3.7454659938812256,0.38520997762680054
-2.0234696865081787,3.7181754112243652,0.3784731924533844
-1.7101582288742065,3.0917294025421143,0.3112718164920807
-1.7304517030715942,3.0808756351470947,0.306701123714447
-0.8369743824005127,1.4672141075134277,0.1443651020526886
-0.8472395539283752,1.4615387916564941,0.14203549921512604
-0.8690951466560364,1.4760479927062988,0.1416238397359848
-0.8708714246749878,1.4571207761764526,0.13790123164653778
-0.8886187672615051,1.464845061302185,0.136701300740242
-0.8866408467292786,1.4389086961746216,0.13226492702960968
-0.8964400291442871,1.4330612421035767,0.1296745240688324
-0.90989089012146,1.4340291023254395,0.1276480108499527
-0.9155036211013794,1.4214386940002441,0.12429512292146683
-0.8998666405677795,1.3760945796966553,0.1181098222732544
-0.9023704528808594,1.3606842756271362,0.11451827734708786
-2.411421060562134,3.5866494178771973,0.29578283429145813
-2.4586288928985596,3.6024043560028076,0.2903231978416443
-1.3026351928710938,1.881211280822754,0.1479586511850357
-1.3504093885421753,1.924276351928711,0.14760722219944
-1.3637478351593018,1.951365351676941,-0.10079982876777649
-1.2412258386611938,1.8033490180969238,-0.09773877263069153
-1.2096970081329346,1.7867913246154785,-0.10141639411449432
-1.205783724784851,1.8079575300216675,-0.10676968842744827
-1.2812045812606812,2.0139853954315186,-0.13215677440166473
-1.7460635900497437,2.8808517456054688,-0.20635052025318146
-1.6223187446594238,2.8122801780700684,-0.21695272624492645
-0.8501061201095581,1.498123288154602,-0.11816948652267456
-1.5014760494232178,2.6917738914489746,-0.21692746877670288
-1.4484761953353882,2.6405184268951416,-0.21713793277740479
-1.3818572759628296,2.561037302017212,-0.21470730006694794
-1.333664059638977,2.5157201290130615,-0.2149302363395691
-1.295491337776184,2.4869766235351562,-0.2163444459438324
-1.2495908737182617,2.4401650428771973,-0.21591411530971527
-1.2025011777877808,2.3894476890563965,-0.2149558961391449
-1.1591465473175049,2.345430374145508,-0.21438181400299072
-1.1147667169570923,2.297433614730835,-0.21330563724040985
-1.0935941934585571,2.2942984104156494,-0.21617543697357178
-1.0442395210266113,2.2311697006225586,-0.21324555575847626
-1.0166596174240112,2.2135818004608154,-0.21450339257717133
-0.9912647604942322,2.199143171310425,-0.2159658670425415
-0.9459257125854492,2.1381001472473145,-0.21270054578781128
-0.918024480342865,2.1160154342651367,-0.2131856083869934
-0.8935974836349487,2.1007866859436035,-0.21420763432979584
-0.8651725053787231,2.074462413787842,-0.2140062153339386
-0.8359018564224243,2.0441689491271973,-0.21328958868980408
-0.8156082630157471,2.035299777984619,-0.21470271050930023
-0.7879334688186646,2.008331298828125,-0.21413791179656982
-0.7624719142913818,1.9845640659332275,-0.21379652619361877
-0.7375767230987549,1.9604761600494385,-0.21333782374858856
-0.7089393138885498,1.9252411127090454,-0.21156063675880432
-0.6898629665374756,1.9153748750686646,-0.2124273031949997
-0.6681959629058838,1.898070216178894,-0.21246927976608276
-0.6485791802406311,1.8840675354003906,-0.21277907490730286
-0.6328972578048706,1.8809329271316528,-0.21429601311683655
-0.6097773313522339,1.8556292057037354,-0.21312618255615234
-0.5846921801567078,1.822700023651123,-0.21102815866470337
-0.5739939212799072,1.8339859247207642,-0.21403641998767853
-0.5532171726226807,1.811720848083496,-0.21308977901935577
-0.5337703227996826,1.7930282354354858,-0.21241886913776398
-0.5145390033721924,1.7741838693618774,-0.21165283024311066
-0.4978078007698059,1.7626047134399414,-0.21172203123569489
-0.4803323745727539,1.747114658355713,-0.21129299700260162
-0.46385490894317627,1.735284686088562,-0.21127454936504364
-0.44569554924964905,1.7158002853393555,-0.21016134321689606
-0.43164360523223877,1.7111908197402954,-0.21085718274116516
-0.4178687036037445,1.706425666809082,-0.21151338517665863
-0.40238848328590393,1.6940068006515503,-0.21121463179588318
-0.3902701437473297,1.696655511856079,-0.2126878947019577
-0.37494581937789917,1.6840476989746094,-0.21218107640743256
-0.35904255509376526,1.6675130128860474,-0.21116453409194946
-0.3505348563194275,1.684989333152771,-0.21445930004119873
-0.33720508217811584,1.679630160331726,-0.21483367681503296
-0.3236607015132904,1.6742430925369263,-0.21507033705711365
-0.3075922727584839,1.6534725427627563,-0.213308185338974
-0.2960447371006012,1.6554292440414429,-0.2144666165113449
-0.28320038318634033,1.6496630907058716,-0.214628666639328
-0.27417826652526855,1.6667571067810059,-0.21767288446426392
-0.25746914744377136,1.6379255056381226,-0.21465221047401428
-0.24484378099441528,1.6319013833999634,-0.21460017561912537
-0.23127233982086182,1.6181061267852783,-0.2135227620601654
-0.21894769370555878,1.6118789911270142,-0.21344389021396637
-0.20618389546871185,1.6017476320266724,-0.2126697450876236
-0.19635923206806183,1.6145881414413452,-0.2149392068386078
-0.1844438761472702,1.6119952201843262,-0.21517544984817505
-0.1723991483449936,1.6054413318634033,-0.21487729251384735
-0.1573515683412552,1.5679856538772583,-0.2103915810585022
-0.14855743944644928,1.5921061038970947,-0.21402277052402496
-0.13677182793617249,1.5853188037872314,-0.2135133296251297
-0.12493246048688889,1.5784566402435303,-0.2130061537027359
-0.11340391635894775,1.5714939832687378,-0.21248392760753632
-0.10245265066623688,1.5721893310546875,-0.212901309132576
-0.09194526821374893,1.580549716949463,-0.21427494287490845
-0.07934759557247162,1.5501813888549805,-0.21040478348731995
-0.06906098872423172,1.5661276578903198,-0.21283283829689026
-0.058461062610149384,1.5742617845535278,-0.21420888602733612
-0.04680567607283592,1.5513955354690552,-0.21121038496494293
-0.036199815571308136,1.55940580368042,-0.2123856395483017
-0.025471899658441544,1.5673433542251587,-0.2135622501373291
-0.014298265799880028,1.5597269535064697,-0.21263176202774048
-0.003421391360461712,1.5442925691604614,-0.21062618494033813
0.007476626895368099,1.5752525329589844,-0.21477110683918
0.01835240237414837,1.5674325227737427,-0.21363794803619385
0.029106779024004936,1.5595381259918213,-0.21250562369823456
0.039752259850502014,1.551569938659668,-0.21137410402297974
0.04984261468052864,1.5241905450820923,-0.2075391560792923
0.06088802218437195,1.535447120666504,-0.20884650945663452
0.07299333810806274,1.5659568309783936,-0.2127765715122223
0.083065927028656,1.5499873161315918,-0.21039876341819763
0.09385593235492706,1.549409031867981,-0.21012242138385773
0.10481629520654678,1.5487606525421143,-0.2097202092409134
0.11672298610210419,1.563501000404358,-0.2113366723060608
0.12759223580360413,1.562716007232666,-0.21086056530475616
0.13777247071266174,1.5541421175003052,-0.2093455046415329
0.1485770046710968,1.5532102584838867,-0.2088717222213745
0.16032372415065765,1.5599145889282227,-0.20925109088420868
0.17113018035888672,1.5588552951812744,-0.20858396589756012
0.18375226855278015,1.5731031894683838,-0.20996873080730438
0.19565440714359283,1.5795621871948242,-0.21031518280506134
0.20763185620307922,1.5859394073486328,-0.21062178909778595
0.21773548424243927,1.576882243156433,-0.2087194174528122
0.23086778819561005,1.590785026550293,-0.2098751664161682
0.2419363260269165,1.589255452156067,-0.20899435877799988
0.2542400062084198,1.5952959060668945,-0.20911440253257751
0.2614976763725281,1.5706896781921387,-0.2051415890455246
0.27767887711524963,1.5995169878005981,-0.20805788040161133
0.28964245319366455,1.6014741659164429,-0.20745612680912018
0.30078813433647156,1.5995585918426514,-0.20637157559394836
0.31639015674591064,1.6203845739364624,-0.20821833610534668
0.32913947105407715,1.625913143157959,-0.20794180035591125
0.3435431718826294,1.638939619064331,-0.20859423279762268
0.3551196753978729,1.6366379261016846,-0.20727311074733734
0.371613472700119,1.6569852828979492,-0.2088305950164795
0.3848803639411926,1.6620861291885376,-0.20841826498508453
0.3981291949748993,1.6671239137649536,-0.2078680396080017
0.40777161717414856,1.6569913625717163,-0.20543476939201355
0.4119127690792084,1.6241638660430908,-0.2001899629831314
0.43108069896698,1.6514571905136108,-0.20238696038722992
0.4405069351196289,1.6411324739456177,-0.19986237585544586
0.44563573598861694,1.615811824798584,-0.19549207389354706
0.47480782866477966,1.6763503551483154,-0.201480433344841
0.481305330991745,1.654506802558899,-0.19750699400901794
0.5161435008049011,1.729417085647583,-0.20504631102085114
0.5280275344848633,1.726053237915039,-0.2031228393316269
0.5422245860099792,1.7300108671188354,-0.20206232368946075
0.5626097321510315,1.7522855997085571,-0.20309901237487793
0.5823521018028259,1.7706022262573242,-0.20361430943012238
0.599524974822998,1.7815021276474,-0.2031809389591217
0.6231290102005005,1.8106411695480347,-0.20474961400032043
0.6434044241905212,1.828514575958252,-0.20498500764369965
0.6614386439323425,1.8388468027114868,-0.2043333500623703
0.6795756816864014,1.8490477800369263,-0.2036057859659195
0.7020171284675598,1.870001196861267,-0.20390857756137848
0.7204127907752991,1.8799184560775757,-0.20300504565238953
0.7392159104347229,1.8895833492279053,-0.20201647281646729
0.7668273448944092,1.9207439422607422,-0.20327773690223694
0.7857819199562073,1.9301564693450928,-0.20206817984580994
0.8215399980545044,1.9788100719451904,-0.20485708117485046
0.838374674320221,1.980482816696167,-0.20270882546901703
0.8691549897193909,2.0141496658325195,-0.20378822088241577
0.8985646963119507,2.0440750122070312,-0.20431241393089294
0.9188178181648254,2.0524230003356934,-0.2026091068983078
0.9510961174964905,2.0851240158081055,-0.20314881205558777
0.9820915460586548,2.114013195037842,-0.20325863361358643
1.0181773900985718,2.153301239013672,-0.20419913530349731
1.0428951978683472,2.167715072631836,-0.2026812732219696
1.075058937072754,2.1957108974456787,-0.20229707658290863
1.1341222524642944,2.2754416465759277,-0.20643876492977142
1.1654338836669922,2.299276828765869,-0.2053365856409073
1.198785424232483,2.326317071914673,-0.20441824197769165
1.234825849533081,2.356231451034546,-0.20355826616287231
1.254942536354065,2.354773759841919,-0.19991137087345123
1.2744454145431519,2.353501558303833,-0.1961974948644638
1.3375061750411987,2.4304141998291016,-0.1987842619419098
1.335472583770752,2.3873562812805176,-0.19140338897705078
1.3076432943344116,2.3005104064941406,-0.18068695068359375
1.322971224784851,2.2920775413513184,-0.17622537910938263
1.3326985836029053,2.273237466812134,-0.17089606821537018
1.400758147239685,2.3511059284210205,-0.17253848910331726
1.4528672695159912,2.402031421661377,-0.1719825714826584
1.468822717666626,2.3926618099212646,-0.1669924110174179
1.4896824359893799,2.389289379119873,-0.16218562424182892
1.5289156436920166,2.415661096572876,-0.15930503606796265
1.5661499500274658,2.4385340213775635,-0.15596650540828705
1.6511789560317993,2.532557964324951,-0.1567407101392746
1.707285761833191,2.5800890922546387,-0.15423555672168732
1.3936306238174438,2.0767784118652344,-0.11971364915370941
1.4166802167892456,2.0803327560424805,-0.11519995331764221
1.439940094947815,2.0836002826690674,-0.11044936627149582
1.4623150825500488,2.087327718734741,-0.1057482659816742
1.44515860080719,2.032839775085449,-0.09779367595911026
1.4449000358581543,2.0044872760772705,-0.09123284369707108
1.451106309890747,1.985767126083374,-0.08504468202590942
1.4717811346054077,1.985347032546997,-0.07928671687841415
2.3968183994293213,3.3606655597686768,0.2713479697704315
2.377117872238159,3.3833963871002197,0.2812083959579468
2.3695554733276367,3.425893545150757,0.2925878167152405
2.3888323307037354,3.511093854904175,0.3076799809932709
2.318443775177002,3.4591660499572754,0.3100575804710388
2.2797718048095703,3.4560670852661133,0.3165454864501953
2.341414213180542,3.61041259765625,0.33773157000541687
1.6242867708206177,2.5431857109069824,0.24230223894119263
1.63899827003479,2.607086181640625,0.2528262734413147
1.590320348739624,2.572678804397583,0.2537270188331604
3.023655414581299,4.971240997314453,0.49804311990737915
2.9839940071105957,4.985107421875,0.5070233345031738
2.9684596061706543,5.0431437492370605,0.5201680660247803
2.9496166706085205,5.098211765289307,0.5330398678779602
2.913332462310791,5.118106842041016,0.5418559312820435
2.909541606903076,5.19524621963501,0.5567743182182312
2.866225004196167,5.209449291229248,0.5648117065429688
2.8417680263519287,5.25728178024292,0.5763944387435913
2.824463129043579,5.314180850982666,0.5887193083763123
2.7978501319885254,5.353666305541992,0.599152684211731
2.7796592712402344,5.4147186279296875,0.6117979288101196
2.7646684646606445,5.486823081970215,0.6258223652839661
2.7509634494781494,5.5579304695129395,0.6395659446716309
1.231919527053833,2.5330514907836914,0.2939843535423279
1.2204697132110596,2.555422306060791,0.2990272045135498
1.1949396133422852,2.549924612045288,0.30067551136016846
1.179310917854309,2.5653529167175293,0.3047989010810852
1.160978078842163,2.5733227729797363,0.30797937512397766
1.1492059230804443,2.595221519470215,0.3128146529197693
2.560800552368164,5.897039413452148,0.7155076265335083
1.6068133115768433,3.775381088256836,0.4609937071800232
1.571823000907898,3.7685439586639404,0.4630468189716339
1.539084792137146,3.7647576332092285,0.46541088819503784
1.5126855373382568,3.77493953704834,0.4694683849811554
1.474032998085022,3.7563955783843994,0.4697052240371704
1.463246464729309,3.810054063796997,0.4789147973060608
1.456060767173767,3.874555826187134,0.48955780267715454
1.4927034378051758,4.059089660644531,0.5154954195022583
2.304736375808716,6.404485702514648,0.8174415826797485
2.274385452270508,6.463943958282471,0.828822910785675
2.239993095397949,6.516242027282715,0.8391292691230774
2.211127996444702,6.586745738983154,0.8518751859664917
2.177354574203491,6.6421589851379395,0.862703263759613
2.135591506958008,6.671274185180664,0.8701149821281433
2.07354998588562,6.637343406677246,0.8691939115524292
2.011960506439209,6.607027053833008,0.8682519197463989
1.9498800039291382,6.5724406242370605,0.8667472004890442
1.8923429250717163,6.548283576965332,0.8665767312049866
1.8362971544265747,6.527375221252441,0.8668475151062012
1.7763646841049194,6.487104415893555,0.8644947409629822
1.7191983461380005,6.45783805847168,0.8632003664970398
1.659264087677002,6.416964054107666,0.8601405024528503
0.8192973136901855,3.2648115158081055,0.43886345624923706
1.5534603595733643,6.3825602531433105,0.8604098558425903
0.7873640060424805,3.335829257965088,0.45096105337142944
1.4460618495941162,6.323323726654053,0.8572767972946167
1.3767204284667969,6.223381996154785,0.8456012010574341
1.3274176120758057,6.209904670715332,0.8456299304962158
1.2838586568832397,6.226531505584717,0.8498304486274719
1.2366578578948975,6.215926170349121,0.8502753973007202
1.186086654663086,6.185945987701416,0.8480907082557678
1.1295756101608276,6.121325969696045,0.8411429524421692
1.087525486946106,6.136469841003418,0.844590961933136
1.032871961593628,6.082760334014893,0.8386179208755493
0.9885091185569763,6.08195686340332,0.8399403095245361
0.9383804202079773,6.038658142089844,0.8353978395462036
0.8952113389968872,6.037064075469971,0.8366495966911316
0.8510124683380127,6.027502059936523,0.8368157148361206
0.8041004538536072,6.0063700675964355,0.8348202705383301
0.7558110356330872,5.965598106384277,0.8301100730895996
0.6002721786499023,5.021559715270996,0.6995849609375
0.5717572569847107,5.08310079574585,0.7090292572975159
0.5465260744094849,5.182951927185059,0.7238772511482239
0.39904481172561646,4.054423809051514,0.5670072436332703
0.37221574783325195,4.080175876617432,0.5710160732269287
0.35167038440704346,4.178964614868164,0.5852457284927368
0.32232218980789185,4.181225776672363,0.5859953165054321
0.29156339168548584,4.160110950469971,0.5834913849830627
0.2631082832813263,4.169655799865723,0.5853138566017151
0.23533426225185394,4.202206134796143,0.5904075503349304
0.381107360124588,7.777592658996582,1.0931634902954102
0.32541409134864807,7.749062538146973,1.0894242525100708
0.2701385021209717,7.720136642456055,1.0856802463531494
0.21534259617328644,7.686947822570801,1.0813854932785034
0.1602746993303299,7.649518013000488,1.076548457145691
0.10657491534948349,7.6116862297058105,1.071696162223816
0.05365355685353279,7.600610733032227,1.0702604055404663
0.0007805032073520124,7.585351467132568,1.0679117441177368
-0.0516892708837986,7.554253578186035,1.0633862018585205
-0.10471130162477493,7.5227813720703125,1.058858871459961
-0.15647286176681519,7.494822978973389,1.054880142211914
-0.20795822143554688,7.470377445220947,1.051446795463562
-0.2587974965572357,7.437875270843506,1.0467326641082764
-0.30995678901672363,7.428304195404053,1.0447356700897217
-0.2634730339050293,5.413096904754639,0.7608737349510193
-0.3021349012851715,5.418920516967773,0.7612829208374023
-0.3387906551361084,5.401341915130615,0.7584487795829773
-0.3752753734588623,5.383511543273926,0.7556173801422119
-0.4115241765975952,5.365436553955078,0.7527816295623779
-0.4478566348552704,5.3549275398254395,0.7505156397819519
-0.42638927698135376,4.700662612915039,0.6581411361694336
-0.4509381949901581,4.616888523101807,0.6457890868186951
-0.4813452661037445,4.598401069641113,0.6426099538803101
-0.5120459198951721,4.583548069000244,0.6399713754653931
-0.5438827276229858,4.58002233505249,0.6389475464820862
-0.571094810962677,4.53790807723999,0.6321862936019897
-0.6032567620277405,4.5417561531066895,0.6317880153656006
-0.6312596797943115,4.51470947265625,0.6271236538887024
-0.6602354645729065,4.49512243270874,0.6235272288322449
-0.6915174126625061,4.490621089935303,0.6220511794090271
-0.7208303213119507,4.470536708831787,0.6184358596801758
-0.749631941318512,4.454265594482422,0.6150997877120972
-0.7787915468215942,4.441662311553955,0.6121522784233093
-0.8049888610839844,4.413642883300781,0.6071187853813171
-0.8267903923988342,4.3625993728637695,0.5989542603492737
-0.7240663766860962,3.680856704711914,0.5044072866439819
-0.7469845414161682,3.6606931686401367,0.5007060170173645
-0.7688908576965332,3.640571355819702,0.49684879183769226
-0.9464401602745056,4.335379600524902,0.5902115106582642
-0.9785313606262207,4.340469837188721,0.589462399482727
-0.9987173676490784,4.2924580574035645,0.5815262794494629
-1.0291095972061157,4.285593032836914,0.5791646838188171
-1.0514384508132935,4.248568534851074,0.5727922916412354
-1.0881778001785278,4.271635055541992,0.5742904543876648
-1.1171140670776367,4.264520168304443,0.5716025233268738
-1.1460033655166626,4.25720739364624,0.5689143538475037
-1.1697100400924683,4.227011680603027,0.5631417632102966
-1.1949571371078491,4.20419979095459,0.5584079623222351
-1.2220708131790161,4.188689708709717,0.554682731628418
-1.250583291053772,4.180667877197266,0.551641583442688
-1.2765761613845825,4.165106773376465,0.5475643873214722
-1.3052626848220825,4.156620979309082,0.5444087982177734
-1.3305336236953735,4.1368021965026855,0.5397859811782837
-1.3617749214172363,4.135202407836914,0.537559986114502
-1.3903814554214478,4.126092433929443,0.5343214273452759
-1.400442123413086,4.065768718719482,0.5241934657096863
-1.4278161525726318,4.0566840171813965,0.5207214951515198
-1.463807463645935,4.069033622741699,0.5199453234672546
-1.476102352142334,4.015496730804443,0.5107750296592712
-1.5095393657684326,4.020079135894775,0.509039580821991
-1.5423574447631836,4.02470588684082,0.507071316242218
-1.5636627674102783,4.000308513641357,0.5013576745986938
-1.596673846244812,4.004456996917725,0.4991983473300934
-1.6188037395477295,3.979315757751465,0.493344247341156
-1.640694260597229,3.954040288925171,0.48751378059387207
-1.6708712577819824,3.950326681137085,0.48422300815582275
-1.6911488771438599,3.92531681060791,0.4781460165977478
-1.7131977081298828,3.903562307357788,0.4724522829055786
-1.7418367862701416,3.8956613540649414,0.46840915083885193
-1.7690389156341553,3.883925437927246,0.46390166878700256
-1.780948281288147,3.8405301570892334,0.45554083585739136
-1.8097543716430664,3.8361899852752686,0.4516559839248657
-1.8474254608154297,3.8489420413970947,0.44971731305122375
-1.8725000619888306,3.8330626487731934,0.44433119893074036
-1.8923767805099487,3.806516647338867,0.4377296268939972
-1.9041274785995483,3.766432762145996,0.42946165800094604
-1.9432189464569092,3.7819931507110596,0.42742857336997986
-1.964897632598877,3.7625997066497803,0.4213983416557312
-1.9880595207214355,3.7422356605529785,0.4150397777557373
-2.0179004669189453,3.7356772422790527,0.41030433773994446
-1.702040672302246,3.102444887161255,0.3371882140636444
-1.7186418771743774,3.084890842437744,0.3317248821258545
-1.732324481010437,3.059893846511841,0.3253113031387329
-0.8537976741790771,1.4835232496261597,0.15585051476955414
-0.8440616726875305,1.4444538354873657,0.14987751841545105
-0.8693838119506836,1.4659212827682495,0.15017767250537872
-0.8834493160247803,1.4668481349945068,0.14824147522449493
-0.8856282234191895,1.447582483291626,0.14423103630542755
-0.891282856464386,1.4352229833602905,0.14083458483219147
-0.8964407444000244,1.4230759143829346,0.13749614357948303
-0.8937219977378845,1.3974056243896484,0.132749542593956
-0.8908125758171082,1.3717544078826904,0.12803584337234497
-0.9124992489814758,1.3857605457305908,0.1269521415233612
-0.9261225461959839,1.386348843574524,0.12449893355369568
-2.387705087661743,3.521167516708374,0.30951371788978577
-1.2959651947021484,1.8846592903137207,0.16198433935642242
-1.5997952222824097,2.2955987453460693,0.19275197386741638
-1.3887253999710083,1.9718852043151855,-0.10396349430084229
-1.416649580001831,2.042499542236328,-0.1133299395442009
-1.240517258644104,1.8176034688949585,-0.10580191761255264
-1.3451989889144897,2.000844717025757,-0.1214832291007042
-1.3582252264022827,2.0527660846710205,-0.12973256409168243
-1.3660763502120972,2.1307101249694824,-0.14466126263141632
-1.6343343257904053,2.7195866107940674,-0.20787686109542847
-1.5578199625015259,2.6778452396392822,-0.21512410044670105
-1.4363354444503784,2.5533835887908936,-0.2146611511707306
-1.389656901359558,2.512056589126587,-0.21569958329200745
-1.3439229726791382,2.470061779022217,-0.21639852225780487
-1.3037307262420654,2.438199758529663,-0.21777255833148956
-1.2480379343032837,2.374737501144409,-0.21608197689056396
-1.2045153379440308,2.331144332885742,-0.21589502692222595
-1.1733789443969727,2.3116776943206787,-0.2178424894809723
-1.1304230690002441,2.267517566680908,-0.21725063025951385
-1.0714906454086304,2.1877193450927734,-0.21294492483139038
-1.0426130294799805,2.1667468547821045,-0.2141595333814621
-1.0136590003967285,2.1456868648529053,-0.21521665155887604
-0.9866092205047607,2.1278998851776123,-0.21651339530944824
-0.9551982879638672,2.0991482734680176,-0.2165871560573578
-0.9198088645935059,2.0592799186706543,-0.2153460532426834
-0.8893424272537231,2.029883623123169,-0.21499525010585785
-0.8654344081878662,2.0144736766815186,-0.2160540670156479
-0.8437045216560364,2.002250909805298,-0.21733933687210083
-0.8116020560264587,1.964759111404419,-0.2158498913049698
-0.7828994989395142,1.9341809749603271,-0.21488147974014282
-0.7532258629798889,1.8996996879577637,-0.213383749127388
-0.7342213988304138,1.8901455402374268,-0.21458059549331665
-0.7085367441177368,1.8622496128082275,-0.21363988518714905
-0.6869044899940491,1.8451825380325317,-0.21382176876068115
-0.6683648824691772,1.8351548910140991,-0.21472269296646118
-0.6449695229530334,1.8102707862854004,-0.213819220662117
-0.6271476745605469,1.7997920513153076,-0.2145664542913437
-0.6131333708763123,1.800227165222168,-0.21652798354625702
-0.5926929712295532,1.7822527885437012,-0.2162248194217682
-0.5704589486122131,1.7566070556640625,-0.21490398049354553
-0.547577440738678,1.7270067930221558,-0.21302707493305206
-0.5308274030685425,1.715727686882019,-0.21333599090576172
-0.516357958316803,1.711785078048706,-0.2144279181957245
-0.4932350516319275,1.6779561042785645,-0.21174396574497223
-0.4834252893924713,1.6886274814605713,-0.21465881168842316
-0.46745240688323975,1.6767781972885132,-0.214687317609787
-0.4576297700405121,1.6872897148132324,-0.21744225919246674
-0.4397656321525574,1.6677658557891846,-0.21629835665225983
-0.4213029146194458,1.6443098783493042,-0.21460747718811035
-0.4096103608608246,1.6470351219177246,-0.21633803844451904
-0.3944081664085388,1.6345878839492798,-0.21598361432552338
-0.3810872435569763,1.6295875310897827,-0.21650221943855286
-0.3661711812019348,1.6169203519821167,-0.21599391102790833
-0.3548966348171234,1.619234323501587,-0.21747323870658875
-0.3385871946811676,1.5987770557403564,-0.21590954065322876
-0.3250279128551483,1.589557409286499,-0.21566753089427948
-0.3093433082103729,1.5688396692276,-0.21383409202098846
-0.3026846647262573,1.5936172008514404,-0.21820779144763947
-0.29015323519706726,1.5879034996032715,-0.21842435002326965
-0.27348995208740234,1.5592622756958008,-0.21542935073375702
-0.25995171070098877,1.5457350015640259,-0.21436206996440887
-0.24907726049423218,1.5473802089691162,-0.21540160477161407
-0.23593881726264954,1.5336360931396484,-0.21429388225078583
-0.22862116992473602,1.5580686330795288,-0.2185351699590683
-0.2132546305656433,1.5288738012313843,-0.2151321917772293
-0.2045721411705017,1.5455541610717773,-0.2181214690208435
-0.19089588522911072,1.5237973928451538,-0.21569125354290009
-0.1802946925163269,1.524972677230835,-0.21650560200214386
-0.1696823537349701,1.5260766744613647,-0.21730239689350128
-0.15703128278255463,1.5079021453857422,-0.21517156064510345
-0.14780732989311218,1.5242884159088135,-0.21799075603485107
-0.13649292290210724,1.5174906253814697,-0.2174980491399765
-0.12336286902427673,1.4874885082244873,-0.2136777639389038
-0.11620772629976273,1.530650019645691,-0.22029215097427368
-0.10418801009654999,1.5120781660079956,-0.21792395412921906
-0.08290298283100128,1.5132763385772705,-0.21874263882637024
-0.07237257808446884,1.5137578248977661,-0.2191474735736847
-0.06086727976799011,1.4910142421722412,-0.21603327989578247
-0.05073694884777069,1.4991014003753662,-0.21734710037708282
-0.01927868090569973,1.4997539520263672,-0.21791262924671173
-0.008892389945685863,1.5075846910476685,-0.21902303397655487
0.012189473025500774,1.4998338222503662,-0.21787406504154205
0.022621197625994682,1.4997146129608154,-0.21786129474639893
0.0432591587305069,1.4915724992752075,-0.21642214059829712
0.05362595245242119,1.491267442703247,-0.21620379388332367
0.0646660178899765,1.5063395500183105,-0.21822336316108704
0.07454737275838852,1.4904320240020752,-0.21576297283172607
0.08534332364797592,1.4976507425308228,-0.21651224792003632
0.095250703394413,1.4893661737442017,-0.2149752378463745
0.1183486133813858,1.5188593864440918,-0.21857082843780518
0.12843839824199677,1.5103425979614258,-0.2170141041278839
0.13678553700447083,1.4864013195037842,-0.2130713313817978
0.15014176070690155,1.5162934064865112,-0.2168533056974411
0.16946470737457275,1.498868465423584,-0.21339423954486847
0.18189717829227448,1.5130966901779175,-0.2148604840040207
0.19043272733688354,1.4965672492980957,-0.21185733377933502
0.2028547078371048,1.510664939880371,-0.21320085227489471
0.21230550110340118,1.50166916847229,-0.21128760278224945
0.2239016890525818,1.5079243183135986,-0.21153126657009125
0.23455508053302765,1.5064427852630615,-0.21054083108901978
0.24810929596424103,1.5240201950073242,-0.21217577159404755
0.2599981427192688,1.5300337076187134,-0.21219468116760254
0.2720072269439697,1.5359516143798828,-0.21220062673091888
0.28271180391311646,1.5341655015945435,-0.2111266851425171
0.29187944531440735,1.5247348546981812,-0.2088501900434494
0.30865827202796936,1.5531905889511108,-0.21174167096614838
0.3179023265838623,1.5435901880264282,-0.20945313572883606
0.3286547362804413,1.5415065288543701,-0.20819838345050812
0.3410119116306305,1.5469341278076172,-0.20787307620048523
0.36029401421546936,1.5825004577636719,-0.21149253845214844
0.3714493215084076,1.5801182985305786,-0.20999912917613983
0.3852144777774811,1.5889778137207031,-0.21001368761062622
0.39441296458244324,1.57892906665802,-0.20753785967826843
0.41110408306121826,1.5989009141921997,-0.20883837342262268
0.42412200570106506,1.6037342548370361,-0.20814178884029388
0.44565609097480774,1.6383142471313477,-0.21124358475208282
0.4550325572490692,1.6279091835021973,-0.20854684710502625
0.4620739817619324,1.6100255250930786,-0.20484626293182373
0.46879738569259644,1.5921534299850464,-0.20110248029232025
0.4887850284576416,1.6188037395477295,-0.20297321677207947
0.49799486994743347,1.6081172227859497,-0.20011191070079803
0.518619179725647,1.6344122886657715,-0.20186245441436768
0.5406454205513,1.6642701625823975,-0.2038634866476059
0.5643301606178284,1.697590947151184,-0.2062273919582367
0.5786709189414978,1.70122230052948,-0.20492486655712128
0.5969414710998535,1.7157251834869385,-0.2049117535352707
0.6168057322502136,1.7337076663970947,-0.2051643580198288
0.6313637495040894,1.7370049953460693,-0.2036389708518982
0.6596161723136902,1.7765517234802246,-0.20629966259002686
0.6816956996917725,1.7975932359695435,-0.2067229002714157
0.6998141407966614,1.8075847625732422,-0.20579563081264496
0.7238419651985168,1.8318668603897095,-0.20633183419704437
0.7451592087745667,1.8487659692764282,-0.20601554214954376
0.7595580220222473,1.8474105596542358,-0.2036091536283493
0.7844652533531189,1.8710451126098633,-0.20391149818897247
0.820118248462677,1.9195901155471802,-0.2067398726940155
0.8396478891372681,1.9284332990646362,-0.20516811311244965
0.8626163601875305,1.9441540241241455,-0.2042677253484726
0.9002434015274048,1.9915502071380615,-0.2066083550453186
0.9202796220779419,1.9998562335968018,-0.20470626652240753
0.9569817185401917,2.043203115463257,-0.20630963146686554
0.98993980884552,2.0753233432769775,-0.20653462409973145
1.0248472690582275,2.110701560974121,-0.20702679455280304
1.0546358823776245,2.135479688644409,-0.20629474520683289
1.0865509510040283,2.163433074951172,-0.20578059554100037
1.1318315267562866,2.2150580883026123,-0.20726704597473145
1.158063292503357,2.228203296661377,-0.20502975583076477
1.2115534543991089,2.292881965637207,-0.20726332068443298
1.2492470741271973,2.326145648956299,-0.2065177708864212
1.2711176872253418,2.327995777130127,-0.2027989774942398
1.2814438343048096,2.309372663497925,-0.19728092849254608
1.3026257753372192,2.311311721801758,-0.19348272681236267
1.3149031400680542,2.2957777976989746,-0.18804630637168884
1.3133571147918701,2.25656795501709,-0.1807325929403305
1.3364840745925903,2.2614595890045166,-0.17695534229278564
1.3555957078933716,2.259528636932373,-0.17260032892227173
1.4363802671432495,2.3568475246429443,-0.1753949075937271
1.4733455181121826,2.3803000450134277,-0.17232954502105713
1.5015497207641602,2.390674114227295,-0.16827695071697235
1.5578441619873047,2.4431309700012207,-0.16683007776737213
1.589565396308899,2.4556009769439697,-0.16240105032920837
1.7169417142868042,2.6150810718536377,-0.16726326942443848
1.7393829822540283,2.6100170612335205,-0.16088105738162994
1.7749968767166138,2.6241159439086914,-0.15553772449493408
1.4146537780761719,2.062652349472046,-0.11733168363571167
1.4510046243667603,2.0852885246276855,-0.1133480817079544
1.4697620868682861,2.0819897651672363,-0.10771624743938446
1.4651894569396973,2.0472357273101807,-0.10041484981775284
1.4656341075897217,2.018345355987549,-0.09318041056394577
1.4741748571395874,2.002711296081543,-0.08660171926021576
2.3801333904266357,3.360800266265869,0.2964015007019043
2.5627307891845703,3.679105758666992,0.33384111523628235
2.5275967121124268,3.683539867401123,0.3426241874694824
2.3341064453125,3.456296682357788,0.32926687598228455
2.2898013591766357,3.4475996494293213,0.33589380979537964
2.318514823913574,3.544419288635254,0.3522517681121826
1.6183315515518188,2.51320481300354,0.25456807017326355
1.630075454711914,2.57436203956604,0.26553574204444885
1.6150891780853271,2.59236741065979,0.2719663083553314
3.067483901977539,5.000596046447754,0.532958447933197
2.999481201171875,4.972559452056885,0.5379166007041931
2.979510545730591,5.024176597595215,0.5514119863510132
2.9558050632476807,5.064140319824219,0.5631675720214844
2.930694341659546,5.104545593261719,0.5751346349716187
2.909193754196167,5.155977725982666,0.5879523754119873
2.8931918144226074,5.217302322387695,0.6019450426101685
2.871290922164917,5.2638044357299805,0.6139395236968994
2.839524269104004,5.2932047843933105,0.6239879727363586
2.817206621170044,5.348028182983398,0.6368241906166077
2.7877542972564697,5.388657569885254,0.6479661464691162
2.760200262069702,5.427989959716797,0.6586688160896301
2.7583491802215576,5.519243240356445,0.6757941842079163
2.733106851577759,5.569747447967529,0.6877076625823975
1.2241437435150146,2.5428266525268555,0.31656932830810547
1.2007313966751099,2.5406525135040283,0.31877800822257996
1.1828863620758057,2.548581600189209,0.3221830725669861
1.1664454936981201,2.559983968734741,0.3260177969932556
1.1633474826812744,2.603531837463379,0.3338036835193634
1.141011118888855,2.6045079231262207,0.33617115020751953
2.5381813049316406,5.9088215827941895,0.7676743865013123
1.5856248140335083,3.7633466720581055,0.492032527923584
1.5484702587127686,3.7488596439361572,0.4931289851665497
1.5208796262741089,3.759589910507202,0.4972878694534302
1.4903926849365234,3.7628912925720215,0.5004822015762329
1.4576528072357178,3.758527994155884,0.5026160478591919
1.4478293657302856,3.8115875720977783,0.5123982429504395
1.4844508171081543,3.9918723106384277,0.5393873453140259
2.3068504333496094,6.343564987182617,0.8610445261001587
2.280146360397339,6.414100170135498,0.8745763301849365
2.256410598754883,6.495518207550049,0.8897073268890381
2.222156524658203,6.543328285217285,0.900192379951477
2.1933789253234863,6.609363079071045,0.9132847189903259
2.1588261127471924,6.664755821228027,0.9244434237480164
2.105837345123291,6.664684772491455,0.9278690218925476
2.035276412963867,6.60886287689209,0.9235799908638
1.9789810180664062,6.588834762573242,0.9241262674331665
1.9219770431518555,6.564632415771484,0.924096405506134
1.8554188013076782,6.5066118240356445,0.9190835356712341
1.8044425249099731,6.504230976104736,0.9214787483215332
1.7444597482681274,6.467843055725098,0.9190807342529297
1.6859445571899414,6.434712886810303,0.917161226272583
0.8295760154724121,3.258474349975586,0.4658237099647522
1.5728001594543457,6.362481594085693,0.9122996926307678
0.7981259822845459,3.32940936088562,0.4786379635334015
1.4742401838302612,6.349225997924805,0.9149190783500671
1.4093774557113647,6.276222229003906,0.9066025018692017
1.3627369403839111,6.274133205413818,0.9084698557853699
1.312613844871521,6.252697944641113,0.9075465798377991
1.2628557682037354,6.23087215423584,0.9065894484519958
1.2090588808059692,6.189887523651123,0.9023847579956055
1.1506688594818115,6.125858783721924,0.8946800231933594
1.098848819732666,6.087821960449219,0.8907573223114014
1.0614069700241089,6.125458717346191,0.897925078868866
1.016215205192566,6.117048263549805,0.8983781337738037
0.9620227217674255,6.051051616668701,0.8903949856758118
0.9116777777671814,6.011597633361816,0.8858890533447266
0.8691653609275818,6.017592906951904,0.8879143595695496
0.8123612403869629,5.919907093048096,0.8746670484542847
0.7769342064857483,5.971142768859863,0.8834406137466431
0.7353608012199402,5.976112365722656,0.88541579246521
0.581989049911499,5.017262935638428,0.7444285750389099
0.5595983266830444,5.144013404846191,0.7640544176101685
0.5280731916427612,5.193784236907959,0.772072434425354
0.38895928859710693,4.112360954284668,0.6118392944335938
0.360818475484848,4.1225457191467285,0.6139076948165894
0.3368109464645386,4.182587623596191,0.6234351396560669
0.3054913282394409,4.161606311798096,0.6209322214126587
0.27593275904655457,4.1558146476745605,0.6205320358276367
0.24910610914230347,4.196140766143799,0.6267784833908081
0.40678834915161133,7.770387172698975,1.161137342453003
0.351212739944458,7.745891094207764,1.1580044031143188
0.29547029733657837,7.724884033203125,1.1554538011550903
0.24105626344680786,7.703448295593262,1.1528807878494263
0.18656828999519348,7.670063495635986,1.1484625339508057
0.13249243795871735,7.640265464782715,1.1439208984375
0.07900543510913849,7.617812633514404,1.1405353546142578
0.024772852659225464,7.575673580169678,1.1342586278915405
-0.027657749131321907,7.544745445251465,1.1297144889831543
-0.0799047201871872,7.528907775878906,1.12748384475708
-0.13198596239089966,7.520434379577637,1.126409649848938
-0.18282264471054077,7.4692206382751465,1.1183139085769653
-0.2337871491909027,7.444714069366455,1.1141380071640015
-0.28569483757019043,7.42754602432251,1.1111080646514893
-0.34006500244140625,7.487239360809326,1.1196348667144775
-0.28323933482170105,5.405257701873779,0.8080443143844604
-0.32036566734313965,5.3955206871032715,0.8063756227493286
-0.3573037087917328,5.385578155517578,0.8044049739837646
-0.39465153217315674,5.375387668609619,0.8021473288536072
-0.4312303364276886,5.364986896514893,0.7999115586280823
-0.4643217921257019,5.3158440589904785,0.7919442653656006
-0.4358941912651062,4.620199203491211,0.6877829432487488
-0.4679674208164215,4.61720085144043,0.686843752861023
-0.49798211455345154,4.590900421142578,0.6823350787162781
-0.5281909108161926,4.576060771942139,0.6792243719100952
-0.5577006340026855,4.557192325592041,0.6755542159080505
-0.5880658626556396,4.545785903930664,0.6730239987373352
-0.6196389198303223,4.541797637939453,0.671617865562439
-0.6484264135360718,4.514561176300049,0.6667971014976501
-0.6786123514175415,4.502514362335205,0.6642512679100037
-0.7082213163375854,4.4903974533081055,0.6612788438796997
-0.7345542907714844,4.459013938903809,0.6555088758468628
-0.7624541521072388,4.438907623291016,0.6514381766319275
-0.7905358672142029,4.41855525970459,0.6473545432090759
-0.8175640106201172,4.39031457901001,0.642134964466095
-0.8422529101371765,4.3544111251831055,0.6358566880226135
-0.7366774082183838,3.673983335494995,0.5353121757507324
-0.7586218118667603,3.6539952754974365,0.5312027335166931
-0.9305012226104736,4.33343505859375,0.6285849213600159
-0.9652824997901917,4.34597110748291,0.6289851665496826
-0.9920930862426758,4.324390888214111,0.6244959831237793
-1.0177134275436401,4.298891067504883,0.6194837093353271
-1.045209527015686,4.2847065925598145,0.6157509088516235
-1.0743460655212402,4.277882099151611,0.6130455732345581
-1.1019797325134277,4.263248920440674,0.609224796295166
-1.1315805912017822,4.255881309509277,0.6064671277999878
