X,Y,Z
0.25119826197624207,4.248237133026123,-0.38942384719848633
0.2770952880382538,4.1920976638793945,-0.38391372561454773
0.30586034059524536,4.186269283294678,-0.3827648460865021
0.33483198285102844,4.184123992919922,-0.38197243213653564
0.36875829100608826,4.232110977172852,-0.3857564628124237
0.4722164571285248,5.015772819519043,-0.4565117657184601
0.5078408122062683,5.020207405090332,-0.45616665482521057
0.5400574803352356,4.993488788604736,-0.45270684361457825
0.5723309516906738,4.970434188842773,-0.44961079955101013
0.6045641899108887,4.943222999572754,-0.4461483359336853
0.6359334588050842,4.915868282318115,-0.4427184760570526
0.6663516163825989,4.884480953216553,-0.43884727358818054
0.6977910399436951,4.864520072937012,-0.43575266003608704
0.7290284037590027,4.844350337982178,-0.4326666593551636
0.7631878852844238,4.839241981506348,-0.43092262744903564
0.7892616391181946,4.787890911102295,-0.42511090636253357
0.8304142951965332,4.828477382659912,-0.42735201120376587
0.8678015470504761,4.8458051681518555,-0.42730429768562317
0.8969179391860962,4.816934108734131,-0.42320311069488525
0.9303139448165894,4.810778617858887,-0.4211157560348511
0.961295485496521,4.788992404937744,-0.4176538586616516
0.45163244009017944,2.1720986366271973,-0.18867190182209015
0.4665449857711792,2.169039487838745,-0.18757499754428864
0.4780581593513489,2.1506783962249756,-0.18516941368579865
0.49213266372680664,2.1436023712158203,-0.18374161422252655
0.5073157548904419,2.1401560306549072,-0.18261975049972534
0.5072967410087585,2.07619571685791,-0.17628338932991028
0.5310320854187012,2.1105234622955322,-0.1782609224319458
0.545538067817688,2.1069247722625732,-0.1770244687795639
0.5712164044380188,2.1445672512054443,-0.17923195660114288
0.5884379744529724,2.148089647293091,-0.1785590648651123
1.2748421430587769,4.531892776489258,-0.37444138526916504
1.3079904317855835,4.530791282653809,-0.3720596730709076
1.3325568437576294,4.499510288238525,-0.3672086000442505
1.3661342859268188,4.4978179931640625,-0.36477339267730713
1.393215537071228,4.47344446182251,-0.36042433977127075
1.4190012216567993,4.449244499206543,-0.3559623956680298
1.4469032287597656,4.432315349578857,-0.35211414098739624
1.4714630842208862,4.403954029083252,-0.34734562039375305
1.4970976114273071,4.379101753234863,-0.34287816286087036
1.522028923034668,4.354262828826904,-0.3383042812347412
1.2808231115341187,3.5844321250915527,-0.27621495723724365
1.3026505708694458,3.568486213684082,-0.27275168895721436
1.598493218421936,4.286036491394043,-0.324860155582428
1.628262996673584,4.275086402893066,-0.32128122448921204
1.6629433631896973,4.278724670410156,-0.31861060857772827
1.6853022575378418,4.24929666519165,-0.3134462237358093
1.7146735191345215,4.237810134887695,-0.30962976813316345
1.744157314300537,4.226040840148926,-0.3057880997657776
1.7638494968414307,4.192784309387207,-0.30027976632118225
1.7921499013900757,4.181050777435303,-0.2962903678417206
1.8087730407714844,4.140166759490967,-0.2901722192764282
1.8375962972640991,4.127739906311035,-0.28608497977256775
1.8691004514694214,4.122419834136963,-0.2824222147464752
1.8968626260757446,4.1100077629089355,-0.2781904339790344
1.9214285612106323,4.090253829956055,-0.273455411195755
1.9403218030929565,4.055700302124023,-0.2676157057285309
1.9716205596923828,4.049541473388672,-0.26368963718414307
1.998778223991394,4.036494731903076,-0.2592305541038513
2.0172417163848877,4.005764484405518,-0.2536412179470062
2.041609048843384,3.9849283695220947,-0.24859201908111572
2.074373483657837,3.9814577102661133,-0.24459415674209595
2.0959019660949707,3.957221508026123,-0.2391938418149948
2.122638702392578,3.9432291984558105,-0.23444904386997223
2.135091543197632,3.9012484550476074,-0.2279624044895172
2.1615259647369385,3.8869478702545166,-0.22308015823364258
2.14313006401062,3.7946696281433105,-0.2137710303068161
2.173309326171875,3.786747932434082,-0.20911099016666412
2.2075743675231934,3.7852327823638916,-0.2047656923532486
2.216773271560669,3.7438926696777344,-0.1982211023569107
2.2374379634857178,3.7227437496185303,-0.19278527796268463
2.2918455600738525,3.753939390182495,-0.18977314233779907
2.297151565551758,3.7051279544830322,-0.1826087087392807
2.313049077987671,3.6770551204681396,-0.17658749222755432
2.3465254306793213,3.6745877265930176,-0.17159947752952576
2.3718225955963135,3.6585757732391357,-0.16585013270378113
2.382683753967285,3.6237690448760986,-0.15924760699272156
2.4291670322418213,3.640064001083374,-0.15459467470645905
2.427941083908081,3.5846948623657227,-0.14682403206825256
2.4465153217315674,3.562821388244629,-0.14048220217227936
2.4838950634002686,3.5656981468200684,-0.1348278522491455
2.494509220123291,3.529877185821533,-0.12751412391662598
2.5218284130096436,3.520259141921997,-0.12105973809957504
2.5368704795837402,3.4903817176818848,-0.11351452022790909
2.5593371391296387,3.474167585372925,-0.10636813938617706
2.760603666305542,3.8983824253082275,0.20501655340194702
2.731182813644409,3.918635368347168,0.21280917525291443
2.6968250274658203,3.9324820041656494,0.22005650401115417
2.6861631870269775,3.9770925045013428,0.22865432500839233
2.63187313079834,3.961395740509033,0.23357275128364563
2.6342318058013916,4.029523849487305,0.24325793981552124
2.5764079093933105,4.001548767089844,0.24680523574352264
2.567122459411621,4.053370475769043,0.2551324665546417
2.540114402770996,4.079140663146973,0.2618931531906128
2.5155744552612305,4.103096961975098,0.26812487840652466
2.4614453315734863,4.0808610916137695,0.2712358832359314
2.438502550125122,4.1123762130737305,0.2778307795524597
2.4206573963165283,4.149644374847412,0.2846488654613495
2.402730941772461,4.186672210693359,0.29145920276641846
2.3715527057647705,4.204046249389648,0.2966882288455963
2.296555519104004,4.142879009246826,0.2962965965270996
2.244896650314331,4.117547988891602,0.2981468737125397
2.2234139442443848,4.146544456481934,0.3038918673992157
2.1992921829223633,4.176671981811523,0.3096136152744293
2.1753501892089844,4.206406116485596,0.31528404355049133
2.14558482170105,4.221334457397461,0.31970083713531494
2.1159698963165283,4.2359232902526855,0.32407960295677185
2.0848581790924072,4.250996112823486,0.3283362090587616
2.059570789337158,4.280275344848633,0.33373579382896423
2.0255484580993652,4.28754186630249,0.3372899293899536
2.0005111694335938,4.311853885650635,0.34212788939476013
1.969740390777588,4.325685024261475,0.3460555970668793
1.9999536275863647,4.478419303894043,0.36106207966804504
1.951471209526062,4.456945896148682,0.3621067702770233
4.3989644050598145,10.243610382080078,0.8384423851966858
1.9232600927352905,4.565943717956543,0.37643885612487793
1.9050850868225098,4.615420818328857,0.38305532932281494
1.8568179607391357,4.59276819229126,0.38364338874816895
1.835066318511963,4.634729862213135,0.38962429761886597
1.8077433109283447,4.66187047958374,0.39436039328575134
1.777933955192566,4.68135929107666,0.39843785762786865
1.358899712562561,3.657229423522949,0.31297096610069275
1.3163888454437256,3.6228582859039307,0.31169942021369934
1.2929556369781494,3.63934063911438,0.31478580832481384
1.2556008100509644,3.615115165710449,0.31433650851249695
1.6208479404449463,4.773693084716797,0.4172232449054718
1.5865833759307861,4.784936904907227,0.4201219379901886
1.5771734714508057,4.873785495758057,0.42984089255332947
1.5443910360336304,4.892180442810059,0.4333970546722412
1.507395625114441,4.895308494567871,0.4355924725532532
1.4732228517532349,4.905450820922852,0.43840011954307556
1.4286129474639893,4.881907939910889,0.4380102753639221
1.3871302604675293,4.869359016418457,0.4384663999080658
1.3719316720962524,4.950210094451904,0.44736921787261963
1.3046636581420898,4.839285373687744,0.43891671299934387
1.272284746170044,4.855724811553955,0.4420143961906433
1.246955394744873,4.89822244644165,0.4474484920501709
1.2138147354125977,4.914365291595459,0.45023298263549805
1.1805070638656616,4.9302825927734375,0.4530239403247833
1.1489384174346924,4.953518867492676,0.456510990858078
1.1137882471084595,4.961347579956055,0.4586015045642853
1.0883066654205322,5.0106096267700195,0.46453094482421875
1.064137578010559,5.071284770965576,0.47137486934661865
1.0203560590744019,5.0404276847839355,0.4695761203765869
0.9919614195823669,5.085568428039551,0.4748813509941101
2.180103063583374,11.618407249450684,1.0874850749969482
2.0673651695251465,11.45685863494873,1.0748851299285889
1.9610830545425415,11.317296028137207,1.0643234252929688
1.850582480430603,11.146381378173828,1.0501588582992554
1.7478669881820679,11.009105682373047,1.039028286933899
1.6453794240951538,10.867283821105957,1.027499794960022
1.5509998798370361,10.751225471496582,1.018359899520874
1.4529473781585693,10.591948509216309,1.0051138401031494
1.3630980253219604,10.47813606262207,0.9961810111999512
1.2782851457595825,10.398513793945312,0.9897586703300476
1.19029700756073,10.279582023620605,0.9796176552772522
1.101836919784546,10.152351379394531,0.968727171421051
1.0229473114013672,10.078338623046875,0.9628985524177551
0.40856125950813293,4.324367046356201,0.4137045443058014
0.37510746717453003,4.288288116455078,0.4107886850833893
0.34501442313194275,4.290764808654785,0.4113025367259979
0.31384265422821045,4.285309791564941,0.4110807776451111
0.2863861322402954,4.326152801513672,0.41531774401664734
0.3293423056602478,5.562344551086426,0.534427285194397
0.2906638979911804,5.564436435699463,0.5350865125656128
0.2558232843875885,5.651719570159912,0.5439263582229614
0.2153538316488266,5.645598888397217,0.5434378981590271
0.17654334008693695,5.666372299194336,0.5455634593963623
0.13754723966121674,5.690765380859375,0.5480650663375854
0.09907519817352295,5.757650375366211,0.5546879172325134
0.059179749339818954,5.781504154205322,0.5571953058242798
0.018136095255613327,5.738986492156982,0.5532916784286499
-0.01634913496673107,4.288687705993652,0.4133637249469757
-0.04645678400993347,4.3118085861206055,0.4155062735080719
-0.07316344976425171,4.124783992767334,0.39742082357406616
-0.10145016759634018,4.10863733291626,0.3958216905593872
-0.1293499767780304,4.088412284851074,0.39384904503822327
-0.15702834725379944,4.056325435638428,0.3907288610935211
-0.18508286774158478,4.055180549621582,0.3903324007987976
-0.18703556060791016,3.556816577911377,0.3421271741390228
-0.212327778339386,3.5671160221099854,0.3428986966609955
-0.2396899312734604,3.604386568069458,0.3462755084037781
-0.2891615331172943,3.928385019302368,0.37719225883483887
-0.30707016587257385,3.810042142868042,0.36563247442245483
-0.3285888135433197,3.7536635398864746,0.3597894012928009
-0.3445892333984375,3.6468420028686523,0.3491463363170624
-0.3638423681259155,3.5864057540893555,0.3429785668849945
-0.38919976353645325,3.5838019847869873,0.34235483407974243
-0.4185585677623749,3.6197006702423096,0.34542861580848694
-0.44371944665908813,3.616763114929199,0.3447931408882141
-0.46758928894996643,3.605994462966919,0.3431912660598755
-0.4860658347606659,3.5565359592437744,0.3379318118095398
-0.5098164081573486,3.545433282852173,0.3363325297832489
-0.5367354154586792,3.5572733879089355,0.3369288742542267
-0.5565961599349976,3.5228049755096436,0.33315661549568176
-0.5873619914054871,3.557316541671753,0.3358916640281677
-0.5951713919639587,3.4574942588806152,0.32575762271881104
-1.1374942064285278,6.347896099090576,0.5968074202537537
-1.190901756286621,6.38972806930542,0.5994589924812317
-1.241249680519104,6.412027835845947,0.6002911925315857
-1.2988576889038086,6.468261241912842,0.6043108105659485
-1.3531031608581543,6.5050225257873535,0.6063941717147827
-1.4097108840942383,6.552924633026123,0.6091810464859009
-1.4500852823257446,6.520438194274902,0.6044856905937195
-1.488561987876892,6.484057903289795,0.5994943380355835
-1.5301318168640137,6.458620071411133,0.5955233573913574
-0.685967743396759,2.8082656860351562,0.25824615359306335
-0.7014892101287842,2.788494348526001,0.2556512951850891
-0.7129466533660889,2.753563642501831,0.2515883445739746
-0.7336738705635071,2.756284236907959,0.25099775195121765
-0.7505514621734619,2.7437856197357178,0.24902468919754028
-0.7801103591918945,2.7760910987854004,0.2511124908924103
-0.799365758895874,2.7707271575927734,0.2497936636209488
-0.9841247797012329,3.325059175491333,0.29856762290000916
-1.002058982849121,3.303593158721924,0.29545193910598755
-1.022026538848877,3.2894785404205322,0.29301682114601135
-1.0424973964691162,3.275041341781616,0.29053786396980286
-1.0701171159744263,3.282663345336914,0.2900240123271942
-1.0930579900741577,3.2752671241760254,0.2880832552909851
-1.1050670146942139,3.238522529602051,0.28348660469055176
-2.0024983882904053,5.741851329803467,0.5002098679542542
-2.03402042388916,5.7062811851501465,0.49468833208084106
-2.0617709159851074,5.65934944152832,0.4881904423236847
-2.0901436805725098,5.616023063659668,0.4820258915424347
-2.125690221786499,5.594676494598389,0.47741931676864624
-2.1519601345062256,5.5515594482421875,0.4710409939289093
-2.2068235874176025,5.580596923828125,0.47076746821403503
-2.267636299133301,5.619553089141846,0.4712265431880951
-2.3246023654937744,5.647148132324219,0.4707105755805969
-2.3509976863861084,5.602806568145752,0.46384769678115845
-2.3884294033050537,5.587316036224365,0.4594540596008301
-2.435559034347534,5.592800140380859,0.45675480365753174
-2.521878480911255,5.682887077331543,0.46082255244255066
-3.988140344619751,8.82138442993164,0.7101941704750061
-2.5442705154418945,5.52818489074707,0.44149696826934814
-2.5710196495056152,5.490377426147461,0.43499600887298584
-2.5932676792144775,5.441471099853516,0.42758113145828247
-2.6243815422058105,5.409607887268066,0.4214680790901184
-2.647632360458374,5.363915920257568,0.41423553228378296
-2.3619887828826904,4.705507755279541,0.3599430024623871
-2.382448673248291,4.669292449951172,0.35380491614341736
-2.4184110164642334,4.659912109375,0.349559485912323
-2.454533338546753,4.650162220001221,0.34527331590652466
-2.474260091781616,4.61353874206543,0.3388153612613678
-1.1674120426177979,2.143008232116699,0.15562352538108826
-1.1784437894821167,2.1282286643981934,0.15270549058914185
-2.5434489250183105,4.518802165985107,0.32025912404060364
-2.573695182800293,4.502017021179199,0.3149711489677429
-2.591376543045044,4.465204238891602,0.3082384169101715
-2.595655679702759,4.404349327087402,0.2998011112213135
-1.2623167037963867,2.1077940464019775,0.141331747174263
-2.6274795532226562,4.322429180145264,0.2853577733039856
-2.6676535606384277,4.3256402015686035,0.2810134291648865
-2.9598495960235596,4.727670192718506,0.30186933279037476
-2.9719080924987793,4.674365043640137,0.2930799424648285
-3.0257925987243652,4.691239356994629,0.2884499132633209
-2.1484615802764893,3.284411668777466,0.19798000156879425
-2.1821606159210205,3.2858731746673584,0.19375477731227875
-2.2169816493988037,3.2910523414611816,0.18964460492134094
-2.255462408065796,3.3029725551605225,0.1858113557100296
-2.298555374145508,3.3162808418273926,0.18152165412902832
-2.361083984375,3.3586199283599854,0.17865514755249023
-2.4025444984436035,3.3726260662078857,0.17410749197006226
-2.8829846382141113,3.988999366760254,0.19901345670223236
-2.9180197715759277,3.9832072257995605,0.19161666929721832
-2.9013192653656006,3.9086081981658936,0.1807776689529419
-3.0089187622070312,4.241661071777344,-0.16500608623027802
-2.431955575942993,3.4824986457824707,-0.14246276021003723
-2.7794764041900635,4.0440239906311035,-0.17325279116630554
-2.7636189460754395,4.082830905914307,-0.18233908712863922
-2.2176148891448975,3.330096960067749,-0.15460841357707977
-2.180694341659546,3.3261260986328125,-0.15996266901493073
-2.1610968112945557,3.3478899002075195,-0.16637492179870605
-2.625352382659912,4.1346755027771,-0.2120364010334015
-1.2821177244186401,2.0518076419830322,-0.108341284096241
-1.2592864036560059,2.047412872314453,-0.11107739806175232
-1.2480440139770508,2.0632221698760986,-0.1148809939622879
-2.0034313201904297,3.366079330444336,-0.19203120470046997
-1.9934738874435425,3.4033684730529785,-0.19867494702339172
-1.971609354019165,3.424769401550293,-0.2044660449028015
-1.1837308406829834,2.0910677909851074,-0.12749913334846497
-1.176674246788025,2.1127359867095947,-0.13138505816459656
-1.927528977394104,3.5201544761657715,-0.22309979796409607
-1.9108814001083374,3.5510571002960205,-0.2292371243238449
-1.910800576210022,3.612656593322754,-0.237362802028656
-1.9088081121444702,3.670619487762451,-0.2452402412891388
-2.4566049575805664,4.809186935424805,-0.3265010714530945
-2.4285662174224854,4.840428829193115,-0.33379778265953064
-2.408480644226074,4.884827613830566,-0.341860294342041
-2.380077838897705,4.915623188018799,-0.3490671217441559
-2.356052875518799,4.956980228424072,-0.3568715751171112
-2.326887607574463,4.987512588500977,-0.36391547322273254
-2.3017072677612305,5.024486541748047,-0.3713395595550537
-2.2820398807525635,5.07577657699585,-0.3798188865184784
-2.248415231704712,5.098848819732666,-0.3860974609851837
-2.204923391342163,5.100388526916504,-0.3908052444458008
-2.1631243228912354,5.100905895233154,-0.3952327072620392
-2.1435539722442627,5.155179500579834,-0.4038032591342926
-2.188664197921753,5.372109413146973,-0.42517101764678955
-2.1673054695129395,5.430682182312012,-0.43421804904937744
-2.1329455375671387,5.456372261047363,-0.4406467378139496
-1.3523869514465332,3.531956195831299,-0.2880045473575592
-1.321573257446289,3.5266940593719482,-0.2901691198348999
-2.046947479248047,5.583415985107422,-0.4635002613067627
-2.003758668899536,5.586219310760498,-0.46776214241981506
-1.894431233406067,5.401453018188477,-0.4562370479106903
-1.592151403427124,4.644567012786865,-0.395442932844162
-1.5724985599517822,4.696101188659668,-0.40293657779693604
-1.875615119934082,5.735452175140381,-0.49587851762771606
-1.859241247177124,5.82214879989624,-0.5071467161178589
-0.9666914343833923,3.103250741958618,-0.27230748534202576
-0.9423258900642395,3.1023898124694824,-0.27405205368995667
-0.8053399324417114,2.7206692695617676,-0.24193412065505981
-0.7884504795074463,2.733529806137085,-0.24466527998447418
-0.7641187310218811,2.7200405597686768,-0.24503785371780396
-0.7407814860343933,2.710181951522827,-0.24559910595417023
-0.7212187647819519,2.7152814865112305,-0.24749262630939484
-0.7088497281074524,2.7465057373046875,-0.251762717962265
-0.6849719285964966,2.73233699798584,-0.25186988711357117
-1.469760775566101,6.040793418884277,-0.5599313974380493
-1.471684217453003,6.240014553070068,-0.581186056137085
-1.4406251907348633,6.31076192855835,-0.5906660556793213
-1.3946833610534668,6.312755584716797,-0.5936914086341858
-1.3473681211471558,6.306764602661133,-0.5959710478782654
-1.2937685251235962,6.269994735717773,-0.5951536297798157
-1.2381037473678589,6.2214460372924805,-0.592910647392273
-1.1861224174499512,6.191662788391113,-0.5924890041351318
-1.1351158618927002,6.15742301940918,-0.5915741920471191
-1.0697730779647827,6.038527965545654,-0.5824871063232422
-0.956378698348999,5.627754211425781,-0.5447705984115601
-0.9467567205429077,5.818333625793457,-0.5650258660316467
-0.9337366819381714,6.009143829345703,-0.5854811668395996
-0.8873564004898071,5.984481334686279,-0.5849660038948059
-0.6978341341018677,4.943130016326904,-0.48475831747055054
-0.6632395386695862,4.947722911834717,-0.4864649772644043
-0.7401770949363708,5.831430912017822,-0.574752688407898
-0.7146227359771729,5.963658332824707,-0.5892422199249268
-0.6697611212730408,5.945196628570557,-0.588915228843689
-0.6250376105308533,5.918602466583252,-0.5877744555473328
-0.5786473751068115,5.872396945953369,-0.5842218995094299
-0.5361047983169556,5.86068058013916,-0.5840802788734436
-0.49189266562461853,5.825409889221191,-0.5816075801849365
-0.4486016631126404,5.801473140716553,-0.5802962779998779
-0.24603025615215302,3.4973206520080566,-0.35046908259391785
-0.2216290384531021,3.4989004135131836,-0.350983589887619
-0.3192216157913208,5.665689468383789,-0.5689436793327332
-0.28012651205062866,5.6754560470581055,-0.5705559849739075
-0.2389613837003708,5.653912544250488,-0.5690571665763855
-0.19842581450939178,5.620400428771973,-0.5663119554519653
-0.15859626233577728,5.598307132720947,-0.5642616152763367
-0.11875235289335251,5.560389041900635,-0.5606416463851929
-0.07972416281700134,5.541621208190918,-0.558977484703064
-0.0403633639216423,5.518698215484619,-0.5569233894348145
-0.001579890726134181,4.461697101593018,-0.4504164457321167
0.02937333844602108,4.446072578430176,-0.4486708343029022
0.07387077808380127,5.444523334503174,-0.5492490530014038
0.11103461682796478,5.412815093994141,-0.5458986759185791
0.14765505492687225,5.376969814300537,-0.5421590209007263
0.14028878509998322,4.062942981719971,-0.40951380133628845
0.1755320429801941,4.232789993286133,-0.4262005686759949
0.2531697452068329,5.229233741760254,-0.5260235071182251
0.23641370236873627,4.268862247467041,-0.42902064323425293
0.2632046043872833,4.22061824798584,-0.423799991607666
0.2914254367351532,4.1954522132873535,-0.4208124577999115
0.31783321499824524,4.158543109893799,-0.4163982570171356
0.3489125072956085,4.183446407318115,-0.4181947708129883
0.3807382583618164,4.211987018585205,-0.4203646183013916
0.48729294538497925,5.002446174621582,-0.4984637498855591
0.5217702388763428,4.991278171539307,-0.4964202344417572
0.5541395545005798,4.968384742736816,-0.4929591119289398
0.5875478386878967,4.956867694854736,-0.4906582236289978
0.6190544366836548,4.929676055908203,-0.4868307411670685
0.6491894721984863,4.894576549530029,-0.4822582006454468
0.6820757985115051,4.878496170043945,-0.47938787937164307
0.7134457230567932,4.858479022979736,-0.4759438931941986
0.7434300780296326,4.830568313598633,-0.4717590808868408
0.7745028138160706,4.810119152069092,-0.4683283269405365
0.8027480840682983,4.77413272857666,-0.46342089772224426
0.8491977453231812,4.845273494720459,-0.46870237588882446
0.8803849220275879,4.824122905731201,-0.46484315395355225
0.9121209383010864,4.810531139373779,-0.46177786588668823
0.9456566572189331,4.8042778968811035,-0.45941847562789917
0.4393936097621918,2.153101921081543,-0.20511510968208313
0.45426249504089355,2.1501259803771973,-0.20393860340118408
0.47846654057502747,2.1888058185577393,-0.2066386342048645
0.4807153344154358,2.1286518573760986,-0.20003904402256012
0.4937596917152405,2.117791175842285,-0.19810153543949127
0.5066759586334229,2.1068503856658936,-0.19617275893688202
0.5136744379997253,2.073230504989624,-0.19201283156871796
0.5377549529075623,2.1074204444885254,-0.1941128671169281
0.5671372413635254,2.1602303981781006,-0.19790001213550568
1.2373645305633545,4.5832014083862305,-0.41758060455322266
1.2660576105117798,4.563528060913086,-0.41344529390335083
1.2909280061721802,4.532583713531494,-0.4080723822116852
1.3203452825546265,4.516298294067383,-0.4040105640888214
1.3449444770812988,4.484959125518799,-0.39865371584892273
1.3738551139831543,4.468342304229736,-0.39463287591934204
1.4022916555404663,4.451647758483887,-0.39046305418014526
1.4326684474945068,4.442281723022461,-0.38684067130088806
1.4575084447860718,4.41402006149292,-0.38154494762420654
1.4882556200027466,4.4040656089782715,-0.3778621554374695
1.508711576461792,4.364470481872559,-0.37167230248451233
1.2647368907928467,3.5797228813171387,-0.30234086513519287
1.2891193628311157,3.5712850093841553,-0.2991330325603485
1.319164752960205,3.5771758556365967,-0.29709526896476746
1.6109881401062012,4.275027751922607,-0.35194656252861023
1.6445722579956055,4.275076866149902,-0.3487718403339386
1.6736506223678589,4.264116287231445,-0.34460046887397766
1.6998549699783325,4.245683193206787,-0.33983609080314636
1.7294665575027466,4.234048366546631,-0.335565447807312
1.7518123388290405,4.204101085662842,-0.32978153228759766
1.7650563716888428,4.156604766845703,-0.3225766122341156
1.7993658781051636,4.159193992614746,-0.31929531693458557
1.8219735622406006,4.132656097412109,-0.31369927525520325
1.8475513458251953,4.113082408905029,-0.30865809321403503
1.8790572881698608,4.107710361480713,-0.30446985363960266
1.9099968671798706,4.102358818054199,-0.30034491419792175
1.9350218772888184,4.08233642578125,-0.2950582802295685
1.953341007232666,4.047994136810303,-0.2887423634529114
1.98410964012146,4.042036533355713,-0.2843567728996277
2.0082671642303467,4.021723747253418,-0.27887359261512756
2.035959482192993,4.008122444152832,-0.2738477289676666
2.054960012435913,3.9768271446228027,-0.267591655254364
2.0816404819488525,3.9632701873779297,-0.2624507546424866
2.1080873012542725,3.9496054649353027,-0.25729888677597046
2.1279499530792236,3.9215445518493652,-0.2510829269886017
2.1518795490264893,3.89990496635437,-0.24519504606723785
2.130100727081299,3.800774097442627,-0.23454242944717407
2.1631734371185303,3.8003389835357666,-0.2300533503293991
2.1779534816741943,3.7652058601379395,-0.22328005731105804
2.2115137577056885,3.7640302181243896,-0.21850499510765076
2.2367982864379883,3.749387502670288,-0.21281059086322784
2.2461369037628174,3.7076756954193115,-0.2055610567331314
2.284261465072632,3.712150812149048,-0.20076794922351837
2.3127498626708984,3.7039902210235596,-0.19520261883735657
2.3289694786071777,3.6756584644317627,-0.1885262280702591
2.3550491333007812,3.659327745437622,-0.18213044106960297
2.383573293685913,3.650447130203247,-0.17617113888263702
2.403048038482666,3.628596544265747,-0.16957204043865204
2.4239823818206787,3.605551242828369,-0.16255587339401245
2.447784662246704,3.589731216430664,-0.15586908161640167
2.4581780433654785,3.554471254348755,-0.1482018232345581
2.4873664379119873,3.5439445972442627,-0.14127245545387268
2.5056190490722656,3.521763563156128,-0.13387128710746765
2.5242795944213867,3.499063491821289,-0.12621112167835236
2.5480618476867676,3.482058048248291,-0.11837946623563766
2.1791744232177734,2.9392430782318115,-0.09377502650022507
2.773284673690796,3.8883960247039795,0.2227546125650406
2.7629923820495605,3.933427333831787,0.23276302218437195
2.703221559524536,3.9127418994903564,0.23876522481441498
2.686263084411621,3.947544813156128,0.24745219945907593
2.674567699432373,3.992612361907959,0.2566875219345093
2.6436944007873535,4.012627124786377,0.2643052339553833
2.6020312309265137,4.011434078216553,0.27008599042892456
2.564298152923584,4.016699314117432,0.27605578303337097
2.5417864322662354,4.048938751220703,0.2837912142276764
2.516716957092285,4.07328462600708,0.2906823754310608
2.50014066696167,4.1104350090026855,0.29838991165161133
2.468473196029663,4.129068374633789,0.304703027009964
2.4337072372436523,4.140161037445068,0.31031468510627747
2.412391185760498,4.170205116271973,0.31709617376327515
2.393761157989502,4.2074151039123535,0.32438036799430847
2.365894079208374,4.231640815734863,0.3305874168872833
2.2612218856811523,4.115453720092773,0.32566651701927185
2.228694438934326,4.12389612197876,0.3302410840988159
2.2061879634857178,4.1532301902771,0.33639785647392273
2.1932694911956787,4.2036542892456055,0.34421417117118835
2.151902198791504,4.19832706451416,0.34742411971092224
2.1254777908325195,4.220093250274658,0.3527947962284088
2.105771780014038,4.2556610107421875,0.35921812057495117
2.070864200592041,4.263711929321289,0.363187700510025
2.044363498687744,4.289039611816406,0.36864784359931946
2.0176098346710205,4.309917449951172,0.37358570098876953
1.9874099493026733,4.323550224304199,0.37791892886161804
1.9472455978393555,4.320071220397949,0.38058367371559143
1.9988999366760254,4.52262544631958,0.4014439582824707
1.9554988145828247,4.511500358581543,0.4034052789211273
1.9406899213790894,4.564095497131348,0.4110102951526642
4.290475845336914,10.289867401123047,0.9330571889877319
1.8656885623931885,4.569328784942627,0.41699644923210144
4.183433532714844,10.462315559387207,0.9607928395271301
1.7926299571990967,4.576898574829102,0.42288005352020264
1.7871206998825073,4.6579976081848145,0.43294742703437805
1.7720069885253906,4.717507362365723,0.4410099983215332
1.3279951810836792,3.6160848140716553,0.3398476839065552
1.3095797300338745,3.6473586559295654,0.34458470344543457
1.2759522199630737,3.634279489517212,0.34510624408721924
1.6295076608657837,4.746749401092529,0.4530157446861267
1.5999232530593872,4.768800735473633,0.4573601484298706
1.5720785856246948,4.802319526672363,0.462591290473938
1.5397329330444336,4.820660591125488,0.466360867023468
1.4984054565429688,4.808935642242432,0.46721330285072327
1.4908521175384521,4.904569625854492,0.47850266098976135
1.4488811492919922,4.888452529907227,0.47893667221069336
1.43440842628479,4.969405651092529,0.4886208176612854
1.389658808708191,4.949530601501465,0.4884015619754791
1.3346811532974243,4.887828350067139,0.48401275277137756
1.287541389465332,4.8479204177856445,0.4817207455635071
1.2547248601913452,4.860281467437744,0.4846258759498596
1.2337430715560913,4.921543121337891,0.4923291802406311
1.1997804641723633,4.937707424163818,0.49535828828811646
1.1662906408309937,4.953489303588867,0.49835363030433655
1.1372547149658203,4.987926959991455,0.5032489895820618
1.1024764776229858,4.995507717132568,0.5054445862770081
1.0790561437606812,5.056056022644043,0.513037383556366
1.0395333766937256,5.048254013061523,0.5134807229042053
1.0036098957061768,5.055330276489258,0.5153295397758484
0.9691495895385742,5.0697760581970215,0.5179557204246521
2.129411458969116,11.578300476074219,1.185554027557373
2.016223192214966,11.40872859954834,1.1708393096923828
1.902944803237915,11.230706214904785,1.1552695035934448
1.8022794723510742,11.113131523132324,1.1450501680374146
1.6998615264892578,10.971662521362305,1.132337212562561
1.599990725517273,10.833176612854004,1.1199390888214111
1.5016511678695679,10.682146072387695,1.1062166690826416
1.4033806324005127,10.522724151611328,1.0916486978530884
1.3168331384658813,10.427871704101562,1.083689570426941
1.2250028848648071,10.282334327697754,1.069734811782837
1.1399385929107666,10.178520202636719,1.0601449012756348
1.0605576038360596,10.112658500671387,1.0545363426208496
0.990085780620575,10.11959171295166,1.056547999382019
0.39340025186538696,4.33756160736084,0.4534514844417572
0.3573630452156067,4.270419120788574,0.4469802677631378
0.32741543650627136,4.27276611328125,0.4474932551383972
0.2996100187301636,4.305908203125,0.4512556493282318
0.2704314589500427,4.323355674743652,0.45339810848236084
0.3116278350353241,5.620701313018799,0.5898951888084412
0.27370181679725647,5.645942211151123,0.5930084586143494
0.23456183075904846,5.651525497436523,0.5940530896186829
0.19620633125305176,5.684060573577881,0.5975474119186401
0.15692012012004852,5.700801849365234,0.5994113683700562
0.1175176128745079,5.752238750457764,0.6049563884735107
0.07793144881725311,5.783968448638916,0.6084576845169067
0.03755512088537216,5.761037349700928,0.6062384843826294
-0.0024731503799557686,5.679554462432861,0.59787917137146
-0.029813453555107117,4.04008150100708,0.4251600205898285
-0.05955915153026581,4.121356964111328,0.4335954785346985
-0.08888472616672516,4.151930332183838,0.43671664595603943
-0.1170961931347847,4.127928256988525,0.4341181516647339
-0.14525245130062103,4.111499309539795,0.43233782052993774
-0.1685895025730133,3.9862005710601807,0.41913142800331116
-0.17747762799263,3.6047203540802,0.3787503242492676
-0.2000548243522644,3.5529980659484863,0.37304219603538513
-0.22539205849170685,3.5632011890411377,0.3738618791103363
-0.2710973918437958,3.860006093978882,0.40474948287010193
-0.30153584480285645,3.904555082321167,0.40918293595314026
-0.3191976249217987,3.7901408672332764,0.39698120951652527
-0.3416154980659485,3.7414450645446777,0.3914269506931305
-0.3594130575656891,3.657876491546631,0.38222676515579224
-0.38383835554122925,3.647653579711914,0.3807193636894226
-0.41258788108825684,3.6758675575256348,0.3832373321056366
-0.43442264199256897,3.642122268676758,0.37931326031684875
-0.45821213722229004,3.62361478805542,0.37699270248413086
-0.4825994670391083,3.6166234016418457,0.3756699860095978
-0.5009210705757141,3.5671498775482178,0.36991798877716064
-0.5254247188568115,3.5637218952178955,0.36896541714668274
-0.5453052520751953,3.52937912940979,0.36483120918273926
-0.5690382719039917,3.5178582668304443,0.36306649446487427
-0.5973777174949646,3.53690505027771,0.3644821345806122
-1.1166856288909912,6.346102237701416,0.652583122253418
-1.1663764715194702,6.372946739196777,0.6539097428321838
-1.2201157808303833,6.418499946594238,0.6571670174598694
-1.2728023529052734,6.452075481414795,0.659191370010376
-1.3294059038162231,6.496443271636963,0.6622968912124634
-1.388252854347229,6.551919460296631,0.6665685772895813
-1.436279535293579,6.557761192321777,0.6653201580047607
-1.4741390943527222,6.517758369445801,0.65944504737854
-1.5105713605880737,6.4737701416015625,0.6532177329063416
-0.668894350528717,2.7780606746673584,0.2795344591140747
-0.6937896013259888,2.7961111068725586,0.28059104084968567
-0.7112030982971191,2.783834218978882,0.27857333421707153
-0.7241226434707642,2.756528377532959,0.27491384744644165
-0.7407848834991455,2.744182586669922,0.2727677524089813
-0.7701572775840759,2.7766013145446777,0.27505558729171753
-1.731350064277649,6.077430725097656,0.6000040173530579
-1.7736197710037231,6.0655436515808105,0.5968201160430908
-1.8084499835968018,6.031227111816406,0.5912278890609741
-1.8411979675292969,5.993185043334961,0.5851140022277832
-1.8754138946533203,5.958457946777344,0.5793271660804749
-1.0393415689468384,3.2246274948120117,0.312235563993454
-1.0593578815460205,3.2101070880889893,0.3095414340496063
-1.0841697454452515,3.210216999053955,0.30826425552368164
-1.9932069778442383,5.773568153381348,0.5517487525939941
-2.0191404819488525,5.723682403564453,0.5443536639213562
-2.0480129718780518,5.680715084075928,0.5376118421554565
-2.08223295211792,5.652054786682129,0.5322389602661133
-2.1119892597198486,5.612283229827881,0.5258678793907166
-2.1360831260681152,5.561883449554443,0.5182751417160034
-2.1818838119506836,5.569560527801514,0.5160158276557922
-2.241469144821167,5.609170436859131,0.5166509747505188
-2.3040080070495605,5.651498794555664,0.5174333453178406
-2.3494086265563965,5.650058746337891,0.5141859650611877
-2.36961030960083,5.591345310211182,0.5055602788925171
-2.3915226459503174,5.540065288543701,0.4975307881832123
-2.4746227264404297,5.627450466156006,0.5018747448921204
-2.513624429702759,5.610589504241943,0.4968114197254181
-2.5558834075927734,5.600475311279297,0.4923521876335144
-4.166808128356934,8.97044849395752,0.7825435996055603
-2.5922305583953857,5.485764026641846,0.4747290313243866
-2.639493227005005,5.489587306976318,0.4711361825466156
-2.64530873298645,5.404994010925293,0.4598862826824188
-2.6917471885681152,5.4042534828186035,0.4558298587799072
-2.3703134059906006,4.681272029876709,0.3911398649215698
-2.39414119720459,4.652028560638428,0.3849882185459137
-2.4365522861480713,4.656777858734131,0.38156336545944214
-2.469566583633423,4.639793395996094,0.3761884868144989
-2.4767916202545166,4.578862190246582,0.3672553598880768
-1.174567461013794,2.138035297393799,0.1695569008588791
-2.5331838130950928,4.539846420288086,0.3558720648288727
-2.549593925476074,4.495289325714111,0.3480095863342285
-2.573201894760132,4.464282035827637,0.34111154079437256
-2.598407030105591,4.441072463989258,0.33477088809013367
-1.2381999492645264,2.0847601890563965,0.15497533977031708
-1.252719521522522,2.076284408569336,0.15204600989818573
-2.6578657627105713,4.338662624359131,0.3128144443035126
-2.7419140338897705,4.410961151123047,0.31279072165489197
-2.9708752632141113,4.7097344398498535,0.32829803228378296
-3.0037081241607666,4.689375877380371,0.32089611887931824
-3.03031063079834,4.6634345054626465,0.31300777196884155
-3.0301244258880615,4.598796844482422,0.30255067348480225
-3.0579416751861572,4.5714898109436035,0.29406630992889404
-3.0691475868225098,4.522116184234619,0.28419023752212524
-3.093331813812256,4.496639251708984,0.275768518447876
-3.123652219772339,4.476149082183838,0.2672209143638611
-2.834066152572632,4.00297737121582,0.23211291432380676
-2.8550891876220703,3.9788734912872314,0.22362060844898224
-2.9096014499664307,3.9977333545684814,0.2170584797859192
-2.889547824859619,3.916135549545288,0.20481283962726593
-2.9710144996643066,4.158166408538818,-0.168426513671875
-2.4399142265319824,3.4671378135681152,-0.14808498322963715
-2.4320366382598877,3.5103700160980225,-0.15738192200660706
-2.746417999267578,4.0280561447143555,-0.18888826668262482
-2.7398600578308105,4.0792107582092285,-0.19906188547611237
-2.188204050064087,3.3114335536956787,-0.16784195601940155
-2.159342050552368,3.3206655979156494,-0.17437459528446198
-2.657655954360962,4.1504902839660645,-0.22504572570323944
-1.2664376497268677,2.0106451511383057,-0.11241240054368973
-1.2662709951400757,2.042740821838379,-0.11750184744596481
-1.2599608898162842,2.0647270679473877,-0.12197578698396683
-2.026942491531372,3.378612756729126,-0.20486535131931305
-2.002352714538574,3.3928825855255127,-0.21076416969299316
-1.9785829782485962,3.4064431190490723,-0.21644212305545807
-1.9632487297058105,3.4374141693115234,-0.22320878505706787
-1.1990123987197876,2.1354479789733887,-0.14161337912082672
-1.9396021366119385,3.5125651359558105,-0.23761382699012756
-1.921883225440979,3.5396761894226074,-0.24401570856571198
-1.9160267114639282,3.591153621673584,-0.2521146237850189
-2.5021820068359375,4.771376609802246,-0.3408503830432892
-2.4687325954437256,4.788269996643066,-0.3477874994277954
-2.4369471073150635,4.812753677368164,-0.3552842140197754
-2.4103915691375732,4.847372531890869,-0.36344778537750244
-2.3898844718933105,4.891738414764404,-0.37220871448516846
-2.365797519683838,4.9288740158081055,-0.3804447650909424
-2.341695785522461,4.970033645629883,-0.3888781666755676
-2.312180519104004,5.000494480133057,-0.39653125405311584
-2.289245128631592,5.044765949249268,-0.4052776098251343
-2.2601723670959473,5.074406623840332,-0.4127979874610901
-2.231194257736206,5.107966423034668,-0.4204796850681305
-2.1773126125335693,5.084076881408691,-0.4234333336353302
-2.1355199813842773,5.084378719329834,-0.4282279908657074
-2.1986446380615234,5.340184688568115,-0.45483851432800293
-2.171921730041504,5.384199142456055,-0.46333208680152893
-2.1446166038513184,5.4281182289123535,-0.47187602519989014
-2.1189749240875244,5.475249290466309,-0.48068204522132874
-1.339699625968933,3.534634590148926,-0.3133317232131958
-2.0543365478515625,5.5403218269348145,-0.4957086145877838
-2.023813009262085,5.580024719238281,-0.503713071346283
-1.926984429359436,5.43231725692749,-0.4946613311767578
-1.6173217296600342,4.662018299102783,-0.4281448721885681
-1.5832440853118896,4.669175624847412,-0.4323235750198364
-1.8929506540298462,5.718101978302002,-0.5336136221885681
-1.8665045499801636,5.7753777503967285,-0.543104887008667
-0.975098729133606,3.0905263423919678,-0.2928062975406647
-0.9534627199172974,3.097003221511841,-0.29561150074005127
-0.8777328729629517,2.9246280193328857,-0.2810395359992981
-0.7979353070259094,2.728976249694824,-0.263988733291626
-0.7709159851074219,2.708214282989502,-0.2637333571910858
-0.7478459477424622,2.6983206272125244,-0.26447793841362
-0.7349506616592407,2.725825548171997,-0.26882117986679077
-0.7175607085227966,2.7382946014404297,-0.2715947926044464
-0.6990938186645508,2.746877670288086,-0.2740013003349304
-1.4878185987472534,6.024003028869629,-0.6043276190757751
-1.4739100933074951,6.15097713470459,-0.6205253601074219
-1.4639370441436768,6.304691314697266,-0.6391775012016296
-1.4245240688323975,6.3372087478637695,-0.645550012588501
-1.3749723434448242,6.323866367340088,-0.6472721695899963
-1.3165264129638672,6.268375873565674,-0.6446948051452637
-1.265824794769287,6.242724418640137,-0.6450497508049011
-1.2128347158432007,6.205370903015137,-0.643724799156189
-1.1583300828933716,6.156121253967285,-0.6411523222923279
-1.1111112833023071,6.140778541564941,-0.6420917510986328
-1.026991367340088,5.914627552032471,-0.6209484934806824
-0.9429343342781067,5.66455602645874,-0.5968734622001648
-0.9519932270050049,5.977716445922852,-0.6318618655204773
-0.9134747385978699,6.00701904296875,-0.6369867324829102
-0.8777326941490173,6.055244445800781,-0.6441544890403748
-0.8369342684745789,6.076411724090576,-0.6485303044319153
-0.6354237794876099,4.864722728729248,-0.5206300020217896
-0.7389150261878967,5.982970237731934,-0.6418533325195312
-0.693831741809845,5.9607696533203125,-0.6410413980484009
-0.6489750742912292,5.934340953826904,-0.639779269695282
-0.6029383540153503,5.892125129699707,-0.6368252635002136
-0.5585137009620667,5.869016170501709,-0.6355391144752502
-0.5140699744224548,5.833930492401123,-0.6328124403953552
-0.47045794129371643,5.802384853363037,-0.6304869651794434
-0.25507041811943054,3.4429383277893066,-0.37477442622184753
-0.2334292232990265,3.4794092178344727,-0.379434734582901
-0.20914477109909058,3.4886715412139893,-0.3808527886867523
-0.3013777732849121,5.692561626434326,-0.6220700144767761
-0.2602747976779938,5.663398265838623,-0.6195300221443176
-0.2201429307460785,5.645576477050781,-0.6182534098625183
-0.17960132658481598,5.608070373535156,-0.6148375272750854
-0.13872452080249786,5.562589645385742,-0.6100048422813416
-0.09978865087032318,5.55174446105957,-0.608995795249939
-0.06079671531915665,5.521213054656982,-0.6058554649353027
-0.018026992678642273,4.442028999328613,-0.4876253008842468
0.012856224551796913,4.4420294761657715,-0.4877859950065613
0.05424943193793297,5.4397172927856445,-0.5970749855041504
0.09126707911491394,5.3926520347595215,-0.5916762948036194
0.1287454217672348,5.391917705535889,-0.5913917422294617
0.163704976439476,5.309420108795166,-0.5821704268455505
0.1539609432220459,4.074275016784668,-0.4465351104736328
0.23233744502067566,5.194272041320801,-0.568645715713501
0.21940821409225464,4.2347331047058105,-0.46309053897857666
0.25174787640571594,4.28357458114624,-0.46794837713241577
0.2761510908603668,4.200420379638672,-0.45841172337532043
0.3033217787742615,4.171375751495361,-0.45467883348464966
0.33096158504486084,4.153804779052734,-0.4519491195678711
0.3625573515892029,4.178569316864014,-0.45383164286613464
0.3923124670982361,4.183796405792236,-0.4536184072494507
0.5043729543685913,5.004157543182373,-0.5416539907455444
0.43710407614707947,4.054618835449219,-0.4379763603210449
0.4642663896083832,4.0439324378967285,-0.435723215341568
0.5970927476882935,4.896674156188965,-0.5262744426727295
0.631132185459137,4.8925886154174805,-0.5245463848114014
0.665143609046936,4.888266086578369,-0.5228182673454285
0.6951342821121216,4.856836795806885,-0.5179504156112671
0.7275536060333252,4.844460487365723,-0.514961838722229
0.7567788362503052,4.808755397796631,-0.5095034837722778
0.7876597046852112,4.788273811340332,-0.5057187080383301
0.8274940848350525,4.8212056159973145,-0.5075919032096863
0.863486111164093,4.830941677093506,-0.5066912174224854
0.8939002156257629,4.809872627258301,-0.5024806261062622
0.9256172776222229,4.796226978302002,-0.499074250459671
0.9565765857696533,4.774574279785156,-0.49481409788131714
0.9882618188858032,4.760449409484863,-0.4914032816886902
1.016172170639038,4.731030464172363,-0.4860536456108093
1.0462439060211182,4.712835311889648,-0.4818892478942871
1.0770970582962036,4.6982102394104,-0.4781140089035034
1.1014046669006348,4.652944087982178,-0.4712122678756714
1.1263303756713867,4.615277290344238,-0.46508243680000305
1.1636903285980225,4.6303911209106445,-0.46402037143707275
1.1916124820709229,4.607555866241455,-0.45916998386383057
1.2255709171295166,4.607022762298584,-0.45654410123825073
1.2489999532699585,4.564793109893799,-0.44976651668548584
1.278387427330017,4.548920631408691,-0.4454781115055084
1.3031268119812012,4.517974376678467,-0.43959835171699524
1.3297438621520996,4.49434757232666,-0.43447166681289673
1.3633028268814087,4.492771625518799,-0.4314628541469574
1.3882306814193726,4.461056709289551,-0.4255382716655731
1.416378378868103,4.444413185119629,-0.4208471477031708
1.4443411827087402,4.427597522735596,-0.4161584675312042
1.468788743019104,4.399419784545898,-0.4104042947292328
1.4969626665115356,4.38206672668457,-0.4056699275970459
1.5195883512496948,4.3499298095703125,-0.3994832932949066
1.2762126922607422,3.573625326156616,-0.32537463307380676
1.2979931831359863,3.5578081607818604,-0.3211739957332611
1.5892269611358643,4.263900279998779,-0.38154950737953186
1.6341880559921265,4.2931084632873535,-0.38077256083488464
1.6577489376068115,4.267767906188965,-0.37491780519485474
1.6829416751861572,4.24574089050293,-0.36933091282844543
1.7137781381607056,4.237989902496338,-0.3650059401988983
1.738867998123169,4.2155232429504395,-0.3594098389148712
1.7647161483764648,4.1967267990112305,-0.3540158271789551
1.7931355237960815,4.185069561004639,-0.34917789697647095
1.8192083835601807,4.165716171264648,-0.34360530972480774
1.838761329650879,4.131961822509766,-0.33688870072364807
1.8671749830245972,4.119606971740723,-0.3318711221218109
1.8884629011154175,4.093143939971924,-0.3256423771381378
1.9129890203475952,4.0735368728637695,-0.3199654817581177
1.941866397857666,4.060266971588135,-0.31463423371315
1.9731833934783936,4.0542168617248535,-0.3098946511745453
1.9969497919082642,4.034275531768799,-0.30400657653808594
2.0207526683807373,4.0140838623046875,-0.2980934977531433
2.0434608459472656,3.9898478984832764,-0.291772723197937
2.063704490661621,3.962247133255005,-0.285190612077713
2.0943470001220703,3.9553699493408203,-0.27996236085891724
2.110154867172241,3.920814275741577,-0.27281349897384644
2.137498617172241,3.9063773155212402,-0.26698076725006104
2.1488399505615234,3.8648922443389893,-0.25928521156311035
2.141956090927124,3.793142080307007,-0.2496418058872223
2.172293186187744,3.7852401733398438,-0.24404269456863403
2.202619791030884,3.7770941257476807,-0.2384214997291565
2.215684175491333,3.7426531314849854,-0.2310849130153656
2.2445616722106934,3.734884738922119,-0.22539453208446503
2.2828080654144287,3.7394678592681885,-0.22015830874443054
2.287945032119751,3.6908817291259766,-0.21169589459896088
2.3163180351257324,3.682727098464966,-0.20566578209400177
2.3458340167999268,3.673630714416504,-0.19930458068847656
2.3582897186279297,3.6381402015686035,-0.19143836200237274
2.381986379623413,3.6230216026306152,-0.18465904891490936
2.4243617057800293,3.632765293121338,-0.17873971164226532
2.423018455505371,3.5775816440582275,-0.1695861965417862
2.4505200386047363,3.5686111450195312,-0.1626695841550827
2.4836807250976562,3.565000295639038,-0.15562300384044647
2.498664379119873,3.535743474960327,-0.147276371717453
2.5215606689453125,3.519773006439209,-0.13937555253505707
2.5505337715148926,3.5088205337524414,-0.13115541636943817
2.5730016231536865,3.492685079574585,-0.12270166724920273
2.7590267658233643,3.8969192504882812,0.24928617477416992
2.7177531719207764,3.901479482650757,0.25737515091896057
2.708317518234253,3.9500861167907715,0.26803913712501526
2.6753194332122803,3.962526798248291,0.27597928047180176
2.666041135787964,4.01508903503418,0.2864932715892792
2.610750436782837,3.9949183464050293,0.29148516058921814
2.5826449394226074,4.012601375579834,0.29887935519218445
2.564361572265625,4.051466464996338,0.3077146112918854
2.5252578258514404,4.057042121887207,0.31400561332702637
2.529367685317993,4.127274036407471,0.3249094784259796
2.4788243770599365,4.1118550300598145,0.32898420095443726
2.4675140380859375,4.163477420806885,0.33836275339126587
