X,Y,Z
0.6991931796073914,3.405418634414673,0.027200141921639442
0.6750172972679138,3.410291910171509,0.02732439897954464
0.6537958383560181,3.4303297996520996,0.027571696788072586
0.6383762359619141,3.480898141860962,0.02806580252945423
0.6166935563087463,3.5006699562072754,0.02830723114311695
0.5991228818893433,3.547302484512329,0.02875594049692154
0.5827941298484802,3.6054275035858154,0.029301214963197708
0.557721734046936,3.613342523574829,0.02944168820977211
0.5382649302482605,3.655778169631958,0.02986406534910202
0.5171507000923157,3.690380811691284,0.030224613845348358
0.49681031703948975,3.736523389816284,0.030661044642329216
0.47880682349205017,3.8058090209960938,0.03129054233431816
0.45163941383361816,3.80519437789917,0.03134770318865776
0.4329465627670288,3.8820509910583496,0.03204633295536041
0.4087686538696289,3.912163019180298,0.03236129879951477
0.3851824998855591,3.953803300857544,0.03275875747203827
0.35957685112953186,3.979746103286743,0.033019132912158966
0.3335881233215332,4.005526542663574,0.0332803912460804
0.30613377690315247,4.01947021484375,0.03344577178359032
0.2803485095500946,4.052674293518066,0.03377271071076393
0.2536483705043793,4.077914714813232,0.034031908959150314
0.13585130870342255,2.4610114097595215,0.020556766539812088
0.11659028381109238,2.41898250579834,0.020224981009960175
0.1680784970521927,4.090154647827148,0.034232333302497864
0.13802564144134521,4.044378757476807,0.033884577453136444
0.1111241802573204,4.092097282409668,0.034321852028369904
0.08211036026477814,4.069340705871582,0.034151531755924225
0.05323335900902748,4.03075647354126,0.03383998945355415
0.02458890900015831,4.023220539093018,0.03379087895154953
-0.003407361451536417,4.019388198852539,0.033774204552173615
-0.031180430203676224,4.003643035888672,0.0336589477956295
-0.05888492241501808,3.995518684387207,0.03360556438565254
-0.08628351241350174,3.9793927669525146,0.03346163406968117
-0.11390818655490875,3.978698253631592,0.03344910219311714
-0.14118903875350952,3.954371929168701,0.033239468932151794
-0.16834372282028198,3.9454898834228516,0.03316139802336693
-0.19476304948329926,3.9247193336486816,0.03298502042889595
-0.2221881002187729,3.927175283432007,0.03298645466566086
-0.24812066555023193,3.906052827835083,0.0327790267765522
-0.2755935788154602,3.9042108058929443,0.03273466229438782
-0.3021121025085449,3.8944129943847656,0.03262558579444885
-0.3271910548210144,3.8688666820526123,0.032386355102062225
-0.3504871428012848,3.827603340148926,0.032015636563301086
-0.37844961881637573,3.8406407833099365,0.03208187222480774
-0.4037661850452423,3.8223514556884766,0.03188728541135788
-0.4288474917411804,3.8078272342681885,0.03172660991549492
-0.4584963917732239,3.8319106101989746,0.031888823956251144
-0.47769880294799805,3.7705118656158447,0.03134148567914963
-0.5047075152397156,3.774874448776245,0.031323663890361786
-0.5343319177627563,3.7944650650024414,0.031419698148965836
-0.5535058379173279,3.744339942932129,0.030941486358642578
-0.5830597281455994,3.763570785522461,0.031037587672472
-0.6091936230659485,3.759429454803467,0.030941970646381378
-0.7538549900054932,4.456066608428955,0.03660003840923309
-0.6582733988761902,3.7352845668792725,0.0306008942425251
-0.6857107877731323,3.7382888793945312,0.03054635226726532
-0.8335963487625122,4.37426233291626,0.03565286472439766
-0.7267820239067078,3.6747941970825195,0.029876768589019775
-0.7452582120895386,3.635213851928711,0.02948189526796341
-0.7806746959686279,3.679699420928955,0.029749033972620964
-0.8062087893486023,3.6741907596588135,0.029605461284518242
-0.9608273506164551,4.240019798278809,0.034053366631269455
-1.0018144845962524,4.282691478729248,0.034283239394426346
-1.0269500017166138,4.256646156311035,0.033963873982429504
-1.0524039268493652,4.234328746795654,0.03366409242153168
-1.0797454118728638,4.219376564025879,0.03341139107942581
-1.1064419746398926,4.204379081726074,0.03316261246800423
-1.137589693069458,4.204153537750244,0.03302953392267227
-1.1583982706069946,4.166043758392334,0.0326007679104805
-1.1870403289794922,4.157974720001221,0.03239748999476433
-1.211315393447876,4.134690761566162,0.03205057606101036
-1.2392817735671997,4.126396656036377,0.03182508796453476
-1.2723639011383057,4.132668972015381,0.031709522008895874
-1.2987202405929565,4.116272926330566,0.03142022341489792
-1.3222980499267578,4.092344284057617,0.031071709468960762
-1.3479799032211304,4.075730800628662,0.03076690062880516
-1.374265193939209,4.062822341918945,0.0304950512945652
-1.402230143547058,4.053256988525391,0.030246607959270477
-1.4316370487213135,4.047109603881836,0.030023647472262383
-1.4527331590652466,4.018825531005859,0.029629118740558624
-1.4770175218582153,4.001639366149902,0.02929922193288803
-1.509827733039856,4.00607967376709,0.029125405475497246
-1.5347455739974976,3.988232135772705,0.028787579387426376
-1.5595866441726685,3.97019362449646,0.028449783101677895
-1.5808266401290894,3.9449589252471924,0.028051799163222313
-1.60725998878479,3.934265613555908,0.027749700471758842
-1.6312395334243774,3.915924072265625,0.027390021830797195
-1.652297854423523,3.8901174068450928,0.02697804942727089
-1.6823887825012207,3.8857157230377197,0.026716256514191628
-1.7020572423934937,3.860072374343872,0.02628481015563011
-1.7245572805404663,3.8415138721466064,0.025901585817337036
-1.7545185089111328,3.8365166187286377,0.02559954859316349
-1.7745692729949951,3.810056686401367,0.02515632100403309
-1.8071978092193604,3.8119900226593018,0.02489596977829933
-1.5440555810928345,3.2017602920532227,0.02067474089562893
-1.562079668045044,3.1843080520629883,0.020324578508734703
-1.577508568763733,3.1592397689819336,0.019916538149118423
-1.5850273370742798,3.120466470718384,0.019426610320806503
-1.605534553527832,3.109966993331909,0.019098734483122826
-1.6369470357894897,3.120041608810425,0.018895171582698822
-1.654955267906189,3.1016769409179688,0.018504910171031952
-1.6801071166992188,3.097018241882324,0.01819734275341034
-1.7045810222625732,3.092541217803955,0.017882665619254112
-1.6582051515579224,2.9619104862213135,0.01685335300862789
-0.8461390137672424,1.487039566040039,0.008315994404256344
-0.7507311701774597,1.2985961437225342,0.0071327826008200645
-0.7710509300231934,1.3138843774795532,0.00707934470847249
-0.80995112657547,1.3589520454406738,0.007173480000346899
-0.8780539631843567,1.450189471244812,0.007491575554013252
-0.887688398361206,1.4443132877349854,0.007294168695807457
-0.9052877426147461,1.4517953395843506,0.007160892244428396
-0.885991632938385,1.3993347883224487,0.00672591757029295
-0.8428913950920105,1.310996174812317,0.0061291600577533245
-1.3545032739639282,1.9603716135025024,0.007741211913526058
-1.3207825422286987,1.8838995695114136,0.007126999087631702
-1.1995422840118408,1.7160333395004272,-0.010823637247085571
-1.334806203842163,1.940712332725525,-0.012668663635849953
-1.1611998081207275,1.7421993017196655,-0.01207408495247364
-1.1505765914916992,1.753904104232788,-0.012485934421420097
-0.8694793581962585,1.3681542873382568,-0.010223261080682278
-0.8780145049095154,1.4043288230895996,-0.010733094066381454
-0.8600300550460815,1.3970969915390015,-0.010901445522904396
-0.8819959759712219,1.4569088220596313,-0.011600302532315254
-0.8133633732795715,1.3659868240356445,-0.011088198982179165
-0.7821119427680969,1.3345417976379395,-0.011028770357370377
-0.7605662941932678,1.3199536800384521,-0.01110129989683628
-1.314797043800354,2.321416139602661,-0.01985226199030876
-1.2889724969863892,2.313518524169922,-0.020092902705073357
-1.6463514566421509,3.0041310787200928,-0.026485823094844818
-1.6704926490783691,3.1021440029144287,-0.027746716514229774
-1.6474859714508057,3.1144187450408936,-0.02825538069009781
-1.6402229070663452,3.153510808944702,-0.028987785801291466
-1.6072455644607544,3.1441423892974854,-0.029271962121129036
-1.584228515625,3.1557981967926025,-0.02973775565624237
-1.5649412870407104,3.1741151809692383,-0.030263114720582962
-1.5424529314041138,3.1850996017456055,-0.030714968219399452
-1.5232926607131958,3.202955961227417,-0.031225008890032768
-1.4966795444488525,3.2068543434143066,-0.03159114718437195
-1.4736056327819824,3.2175183296203613,-0.032021164894104004
-1.4576302766799927,3.2419216632843018,-0.032580163329839706
-1.431787371635437,3.2448763847351074,-0.03292388468980789
-1.4078669548034668,3.255322217941284,-0.033338043838739395
-1.3873236179351807,3.2726125717163086,-0.033819571137428284
-1.3645213842391968,3.2821812629699707,-0.03421194478869438
-1.3416783809661865,3.29158091545105,-0.03460388258099556
-1.3224267959594727,3.3119795322418213,-0.03509930521249771
-1.298116683959961,3.3215792179107666,-0.03548385202884674
-1.27738356590271,3.3379693031311035,-0.0359334722161293
-1.2540652751922607,3.3467957973480225,-0.036300309002399445
-1.230464220046997,3.3555405139923096,-0.03666193410754204
-1.2089006900787354,3.3716659545898438,-0.03709182143211365
-1.1815823316574097,3.373056173324585,-0.03736593946814537
-1.1606285572052002,3.388578414916992,-0.037785306572914124
-1.1395440101623535,3.4039623737335205,-0.03820573911070824
-1.1178869009017944,3.4193520545959473,-0.038610879331827164
-1.0934479236602783,3.4272420406341553,-0.03892293572425842
-1.068661093711853,3.4350481033325195,-0.039238717406988144
-1.0469954013824463,3.4498748779296875,-0.039628833532333374
-1.025174617767334,3.4645659923553467,-0.04002027586102486
-1.0027142763137817,3.4792604446411133,-0.04038829728960991
-0.9799882173538208,3.4938406944274902,-0.04075201228260994
-0.9573497772216797,3.508206844329834,-0.0411142036318779
-0.9345571994781494,3.5224266052246094,-0.04147758334875107
-0.9100921154022217,3.5288238525390625,-0.04174787923693657
-0.8879421949386597,3.5465402603149414,-0.04213038459420204
-0.8664765954017639,3.567922830581665,-0.04255620762705803
-0.8413320779800415,3.573932647705078,-0.04280044883489609
-0.8177545666694641,3.5874109268188477,-0.043137505650520325
-0.7944771647453308,3.600634813308716,-0.04347126930952072
-0.7706528902053833,3.6137948036193848,-0.043787144124507904
-0.746636152267456,3.6268062591552734,-0.0440995916724205
-0.7225397825241089,3.639645576477051,-0.04441240802407265
-0.6982000470161438,3.652343988418579,-0.04472699388861656
-0.6755948662757874,3.6724774837493896,-0.04513295739889145
-0.6484205722808838,3.6694376468658447,-0.04523024708032608
-0.6257425546646118,3.6931803226470947,-0.04564806818962097
-0.5996689200401306,3.6975011825561523,-0.045828595757484436
-0.5746593475341797,3.709373712539673,-0.04610578715801239
-0.5510982275009155,3.7287392616271973,-0.04647698998451233
-0.527195930480957,3.7479701042175293,-0.04683293402194977
-0.5018236041069031,3.759331226348877,-0.04707377031445503
-0.47631731629371643,3.770519971847534,-0.04731519892811775
-0.45284467935562134,3.7970118522644043,-0.04775060713291168
-0.42424875497817993,3.784590244293213,-0.04770084470510483
-0.3995724022388458,3.802983522415161,-0.048034247010946274
-0.37371376156806946,3.813459873199463,-0.048241060227155685
-0.348789244890213,3.8354296684265137,-0.04859616979956627
-0.32266804575920105,3.845553159713745,-0.0488038994371891
-0.29665935039520264,3.8633153438568115,-0.049112558364868164
-0.27030789852142334,3.8730781078338623,-0.04932110384106636
-0.24473689496517181,3.898259162902832,-0.04968861863017082
-0.21792995929718018,3.907672643661499,-0.04984821751713753
-0.190622940659523,3.9090993404388428,-0.04990844801068306
-0.16228795051574707,3.894740104675293,-0.04977000877261162
-0.13640175759792328,3.9309067726135254,-0.05027911812067032
-0.11010462790727615,3.9708049297332764,-0.050821926444768906
-0.08277691900730133,3.987095355987549,-0.0510416142642498
-0.05518990010023117,4.00319766998291,-0.051261480897665024
-0.02686038613319397,4.003487586975098,-0.051281679421663284
0.0009813066571950912,4.011388778686523,-0.05140162631869316
0.028931498527526855,4.019096851348877,-0.051521044224500656
0.05722178518772125,4.046138286590576,-0.05185692012310028
0.08535066246986389,4.045642852783203,-0.051842302083969116
0.1145322248339653,4.083996295928955,-0.0523279644548893
0.14393344521522522,4.098699569702148,-0.052513010799884796
0.1723870038986206,4.097601890563965,-0.05249821022152901
0.12144428491592407,2.4772908687591553,-0.03172415867447853
0.23286376893520355,4.161118030548096,-0.05324753746390343
0.25748297572135925,4.093137741088867,-0.05234106630086899
0.2905460596084595,4.149659156799316,-0.05302850157022476
0.31434914469718933,4.081330299377441,-0.05212365463376045
0.33750471472740173,4.016769886016846,-0.051261600106954575
0.3635290563106537,3.994889736175537,-0.05091315135359764
0.38317254185676575,3.9106452465057373,-0.049774039536714554
0.40914538502693176,3.8923048973083496,-0.049476508051157
0.42922037839889526,3.827263355255127,-0.048589978367090225
0.45353206992149353,3.8047921657562256,-0.04824746027588844
0.4768633246421814,3.778319835662842,-0.04782208427786827
0.4977143108844757,3.7362306118011475,-0.04719610512256622
0.5206930041313171,3.709435224533081,-0.0467652902007103
0.5447568297386169,3.6941351890563965,-0.04648349806666374
0.5632293224334717,3.6439449787139893,-0.04576640576124191
0.580287516117096,3.5898420810699463,-0.044985268265008926
0.6036232113838196,3.5780720710754395,-0.04471943527460098
0.6187105178833008,3.5199875831604004,-0.04387887567281723
0.6414622664451599,3.504002571105957,-0.043564047664403915
0.6585258841514587,3.461085796356201,-0.04291991516947746
0.6794803738594055,3.441110849380493,-0.042556874454021454
0.6944610476493835,3.3942770957946777,-0.04184165596961975
0.7160834074020386,3.38179874420166,-0.041554078459739685
0.7298142313957214,3.3308966159820557,-0.040795013308525085
0.7495291233062744,3.3105006217956543,-0.040415357798337936
0.7680639028549194,3.286198854446411,-0.03999049961566925
0.7831487059593201,3.2505059242248535,-0.0394006110727787
0.7996925711631775,3.222336530685425,-0.03890608251094818
0.8135226964950562,3.1826040744781494,-0.038272786885499954
0.8276908993721008,3.146650791168213,-0.03769085556268692
0.8413987755775452,3.110656261444092,-0.03711310774087906
0.8625861406326294,3.104851007461548,-0.036870017647743225
0.874081015586853,3.065098285675049,-0.036224622279405594
0.8866690993309021,3.028937578201294,-0.03562288358807564
0.9077311158180237,3.0226950645446777,-0.0353768952190876
0.9172290563583374,2.9789838790893555,-0.034696418792009354
0.9374708533287048,2.9726791381835938,-0.03442813456058502
0.9491965770721436,2.9402403831481934,-0.03385799005627632
0.9574121832847595,2.896468162536621,-0.03315762057900429
0.9750534892082214,2.8823347091674805,-0.03280140832066536
0.9899566173553467,2.860725164413452,-0.03236307576298714
1.002746343612671,2.8355631828308105,-0.031866203993558884
1.0139144659042358,2.8066866397857666,-0.03133206441998482
1.0304663181304932,2.7923295497894287,-0.030960116535425186
1.0446809530258179,2.7703542709350586,-0.03050059638917446
1.058162808418274,2.748500347137451,-0.03004319593310356
1.0680534839630127,2.7195119857788086,-0.02949349582195282
1.0790761709213257,2.6941330432891846,-0.028987430036067963
1.0977002382278442,2.6866023540496826,-0.02866978757083416
1.1046513319015503,2.6499316692352295,-0.028040045872330666
1.1134605407714844,2.620800733566284,-0.027485089376568794
1.1309956312179565,2.6132845878601074,-0.027151666581630707
1.1518501043319702,2.612703561782837,-0.026887627318501472
1.158762812614441,2.5797030925750732,-0.02628694660961628
1.1784765720367432,2.5750572681427,-0.025970827788114548
1.193967580795288,2.5636062622070312,-0.02557852864265442
1.187595248222351,2.5061848163604736,-0.02473471313714981
1.201576590538025,2.4908440113067627,-0.02430189587175846
1.211995244026184,2.468400478363037,-0.02380274422466755
1.2199965715408325,2.4426474571228027,-0.023261569440364838
1.2326289415359497,2.427542209625244,-0.022829579189419746
1.238534927368164,2.398190498352051,-0.022257423028349876
1.2406281232833862,2.361870527267456,-0.02162468247115612
1.2600300312042236,2.3604397773742676,-0.02130480669438839
1.2681124210357666,2.3383519649505615,-0.020797468721866608
1.2806050777435303,2.322620153427124,-0.020332714542746544
1.2947583198547363,2.3102869987487793,-0.019901985302567482
1.3099552392959595,2.3017077445983887,-0.01949031464755535
1.321060061454773,2.286337375640869,-0.019021274521946907
1.3210480213165283,2.250185012817383,-0.018364999443292618
1.3447530269622803,2.2543158531188965,-0.01803046092391014
1.3513199090957642,2.2321441173553467,-0.01748087629675865
1.3539140224456787,2.2031123638153076,-0.016874942928552628
1.3939954042434692,2.2334275245666504,-0.016705330461263657
1.4045261144638062,2.2175819873809814,-0.016177063807845116
1.4148478507995605,2.2017338275909424,-0.015640780329704285
1.4173280000686646,2.1722099781036377,-0.014988512732088566
3.1483285427093506,4.755276203155518,-0.031830836087465286
3.1286263465881348,4.660440921783447,-0.03022073768079281
1.4186619520187378,2.082130193710327,-0.013029241934418678
2.621121644973755,3.791508674621582,-0.022828897461295128
2.257296562194824,3.2214014530181885,-0.018633192405104637
2.2772862911224365,3.202514171600342,-0.017688022926449776
2.2978224754333496,3.1878163814544678,-0.016762452200055122
2.3253896236419678,3.1822941303253174,-0.015844814479351044
2.423630714416504,3.270050048828125,-0.015296105295419693
2.301861524581909,3.2185139656066895,0.026413636282086372
2.2774128913879395,3.2358500957489014,0.02759852446615696
2.305964469909668,3.325486898422241,0.029341666027903557
2.60174298286438,3.8142030239105225,0.03475818410515785
3.1164357662200928,4.640289306640625,0.04353385418653488
3.1501359939575195,4.763332843780518,0.045919083058834076
3.126042366027832,4.807146072387695,0.047607455402612686
3.0919787883758545,4.8291120529174805,0.04898088052868843
1.6391937732696533,2.6006031036376953,0.026981953531503677
1.6113613843917847,2.599567413330078,0.027562826871871948
1.6009628772735596,2.6242966651916504,0.028386468067765236
1.5904022455215454,2.6489434242248535,0.02921096421778202
1.5627330541610718,2.6472256183624268,0.029716625809669495
1.5355602502822876,2.645021438598633,0.030202994123101234
1.4977082014083862,2.6217386722564697,0.030419375747442245
1.4825692176818848,2.6392862796783447,0.03109651431441307
1.462601661682129,2.6503963470458984,0.03170022368431091
1.4512306451797485,2.6744227409362793,0.03243357688188553
1.4399348497390747,2.698237180709839,0.03316251561045647
1.4056867361068726,2.6809961795806885,0.03338117152452469
2.453495740890503,4.7644147872924805,0.06008246913552284
2.4018876552581787,4.74689245223999,0.06059146672487259
1.2052780389785767,2.423704147338867,0.0313003733754158
1.1738876104354858,2.4043309688568115,0.03139803558588028
1.1731661558151245,2.4480631351470947,0.03232089802622795
1.180942416191101,2.5092248916625977,0.033473215997219086
1.1765623092651367,2.5457406044006348,0.0343073233962059
1.1724145412445068,2.586294412612915,0.03519465774297714
1.1599104404449463,2.609027624130249,0.0358358733355999
1.1445454359054565,2.6243231296539307,0.03637026250362396
1.120131015777588,2.617845296859741,0.03659813106060028
1.091044306755066,2.6004695892333984,0.036660294979810715
1.057026982307434,2.572296380996704,0.03655395284295082
1.995323657989502,4.9567437171936035,0.07098634541034698
1.9636183977127075,4.977777481079102,0.07182097434997559
2.03735613822937,5.2718400955200195,0.07662864774465561
2.009139060974121,5.311888694763184,0.07774476706981659
1.9863548278808594,5.3704423904418945,0.07914560288190842
2.1848366260528564,6.038124084472656,0.08957663923501968
1.9902904033660889,5.622370719909668,0.0839509665966034
1.8513059616088867,5.348230838775635,0.08036570250988007
1.89670729637146,5.609271049499512,0.08476641774177551
1.8606258630752563,5.637786865234375,0.08568815141916275
1.8916860818862915,5.870035171508789,0.08971191942691803
1.8848304748535156,5.991079807281494,0.09206309914588928
1.8576762676239014,6.052678108215332,0.09350600838661194
1.8323078155517578,6.1256537437438965,0.09510231763124466
1.8004735708236694,6.17983865737915,0.09642010927200317
1.7627941370010376,6.2150444984436035,0.09744982421398163
1.725702166557312,6.249750137329102,0.09846918284893036
1.7143447399139404,6.382370471954346,0.10102466493844986
1.676682472229004,6.424656391143799,0.1021035760641098
1.6289106607437134,6.428866386413574,0.10258401185274124
1.5755707025527954,6.409965515136719,0.10269840806722641
1.5173449516296387,6.36377477645874,0.10236494988203049
1.4641358852386475,6.336137294769287,0.10232072323560715
1.4174364805221558,6.338735103607178,0.10270458459854126
1.3699486255645752,6.337172031402588,0.1030251756310463
1.3046475648880005,6.251213073730469,0.10197573900222778
1.26338529586792,6.271628379821777,0.10265287011861801
1.2100456953048706,6.230413913726807,0.10232365876436234
1.1631345748901367,6.223442077636719,0.10248827189207077
1.1128901243209839,6.196905612945557,0.1023218110203743
1.0617775917053223,6.166232585906982,0.10209298133850098
1.0125490427017212,6.134918212890625,0.10184638947248459
0.9656348824501038,6.11479377746582,0.10178755223751068
0.9204557538032532,6.105952262878418,0.10187793523073196
0.8707917332649231,6.065882682800293,0.10140915215015411
0.8267906308174133,6.068089485168457,0.10165415704250336
0.7794579863548279,6.034965991973877,0.10130532085895538
0.7284820675849915,5.966574192047119,0.10036490857601166
0.46867793798446655,4.074118137359619,0.06867274641990662
0.43923115730285645,4.069538593292236,0.06869331002235413
0.40673694014549255,4.033658981323242,0.06818775832653046
0.38709014654159546,4.133669376373291,0.06998590379953384
0.3576304316520691,4.12847900390625,0.07000621408224106
0.326401948928833,4.099719047546387,0.06962919980287552
0.2918091118335724,4.02009391784668,0.06836104393005371
0.26418566703796387,4.029829502105713,0.06859429180622101
0.235892191529274,4.039407253265381,0.06882989406585693
0.20818176865577698,4.048750400543213,0.06906337291002274
0.18039202690124512,4.057901382446289,0.06929709762334824
0.2900371253490448,7.735622882843018,0.13225097954273224
0.23540765047073364,7.714031219482422,0.13192002475261688
0.1804870218038559,7.707696914672852,0.13185711205005646
0.12626616656780243,7.673618793487549,0.1313248574733734
0.07249137759208679,7.635255813598633,0.13072510063648224
0.01931603252887726,7.6199517250061035,0.1305260807275772
-0.03347601369023323,7.584750175476074,0.12994639575481415
-0.0871119275689125,7.576512336730957,0.1297842115163803
-0.13917109370231628,7.544485092163086,0.12922132015228271
-0.19059115648269653,7.504292964935303,0.12852491438388824
-0.24234353005886078,7.491076946258545,0.12829677760601044
-0.29346123337745667,7.465796947479248,0.12786823511123657
-0.3462555706501007,7.486995697021484,0.12815117835998535
-0.2896091639995575,5.432898998260498,0.09293026477098465
-0.325816810131073,5.407372951507568,0.09243742376565933
-0.3644088804721832,5.42056941986084,0.0926109030842781
-0.3899044096469879,5.25432014465332,0.08972430229187012
-0.40639546513557434,5.0062432289123535,0.085421122610569
-0.43811464309692383,4.964362621307373,0.08458782732486725
-0.44125649333000183,4.6346235275268555,0.07886422425508499
-0.47096988558769226,4.608145713806152,0.07831227779388428
-0.5029703974723816,4.604764938354492,0.07815685868263245
-0.5322844386100769,4.577880382537842,0.07760661840438843
-0.559127688407898,4.531397342681885,0.07668302953243256
-0.5908274054527283,4.531315803527832,0.07654034346342087
-0.6214460134506226,4.523279190063477,0.07626708596944809
-0.6506077647209167,4.503396034240723,0.07579700648784637
-0.6830351948738098,4.506495952606201,0.07571765035390854
-0.7098463177680969,4.470720291137695,0.07497047632932663
-0.7366489171981812,4.442633628845215,0.07432354986667633
-0.7657611966133118,4.42978572845459,0.07393626868724823
-0.7963234782218933,4.424398422241211,0.07367612421512604
-0.8219842910766602,4.391895294189453,0.07296809554100037
-0.847977876663208,4.36308479309082,0.07232680171728134
-0.7432650327682495,3.6870546340942383,0.06093720346689224
-0.7652234435081482,3.6666064262390137,0.06041557714343071
-0.7935975790023804,3.67655873298645,0.060397207736968994
-0.961204469203949,4.307558059692383,0.07054868340492249
-0.9911819100379944,4.300764560699463,0.07022584974765778
-1.0230821371078491,4.301323413848877,0.06999117136001587
-1.0561378002166748,4.309419631958008,0.06985588371753693
-1.0730681419372559,4.252894401550293,0.06867875158786774
-1.102458119392395,4.245377063751221,0.06829550862312317
-1.1369503736495972,4.256492614746094,0.06821311265230179
-1.1626180410385132,4.233360290527344,0.06756794452667236
-1.1838853359222412,4.199069499969482,0.06671997904777527
-1.2144722938537598,4.198464870452881,0.0664120689034462
-1.241106629371643,4.182528018951416,0.0658600702881813
-1.263289451599121,4.151398658752441,0.06507144123315811
-1.2948206663131714,4.149862766265869,0.06473954766988754
-1.3228176832199097,4.141030788421631,0.06425894796848297
-1.345900058746338,4.117160320281982,0.06354914605617523
-1.3766134977340698,4.115238189697266,0.06317606568336487
-1.4026235342025757,4.098197937011719,0.06257002800703049
-1.4335777759552002,4.095757484436035,0.06218458712100983
-1.4589868783950806,4.078488349914551,0.06152297928929329
-1.471689224243164,4.0282182693481445,0.060377806425094604
-1.5033620595932007,4.029022216796875,0.0599970668554306
-1.5243582725524902,4.000241279602051,0.05917409434914589
-1.5561046600341797,4.000582695007324,0.058776408433914185
-1.5761371850967407,3.971738338470459,0.057913027703762054
-1.6027295589447021,3.9610908031463623,0.05732691287994385
-1.6329935789108276,3.9571714401245117,0.05682758614420891
-1.6604725122451782,3.945728302001953,0.05621851980686188
-1.6842052936553955,3.9271674156188965,0.05548977851867676
-1.7014492750167847,3.894174814224243,0.05453414469957352
-1.7212594747543335,3.868373394012451,0.053690653294324875
-1.7481133937835693,3.8563220500946045,0.05302620306611061
-1.7683335542678833,3.8298988342285156,0.052168529480695724
-1.8037399053573608,3.8392703533172607,0.05176643654704094
-1.8161755800247192,3.798806667327881,0.05068648234009743
-1.5346500873565674,3.1540236473083496,0.04163089022040367
-1.5565423965454102,3.143285036087036,0.041032347828149796
-1.570644497871399,3.118786573410034,0.040241554379463196
-1.5912357568740845,3.108339309692383,0.03962688893079758
-1.9549356698989868,3.7557852268218994,0.04728436842560768
-1.6524659395217896,3.120509624481201,0.038766831159591675
-1.677243709564209,3.116144895553589,0.038186948746442795
-1.7014808654785156,3.1118922233581543,0.03759355843067169
-1.6921058893203735,3.0457074642181396,0.03624854236841202
-0.833573043346405,1.4761238098144531,0.017294688150286674
-0.7833786606788635,1.3653699159622192,0.015732813626527786
-0.7785181403160095,1.3366010189056396,0.015142103657126427
-0.7756727933883667,1.3110990524291992,0.014586575329303741
-0.8652650117874146,1.4395902156829834,0.01571549102663994
-0.8868657946586609,1.4539124965667725,0.015557636506855488
-0.8923836946487427,1.4413561820983887,0.015100959688425064
-0.8940574526786804,1.4218997955322266,0.01456223614513874
-0.8952027559280396,1.4026827812194824,0.014028875157237053
-1.2970823049545288,1.8907711505889893,0.01635720394551754
-1.229583501815796,1.766491174697876,0.014739125035703182
-1.5198159217834473,2.192645311355591,-0.02288859337568283
-1.2688093185424805,1.8580148220062256,-0.02007572539150715
-1.2721936702728271,1.8934566974639893,-0.02113921381533146
-1.5431771278381348,2.369832992553711,-0.028038514778017998
-0.8748950362205505,1.387771725654602,-0.01728239841759205
-0.8548702597618103,1.377255916595459,-0.01755155436694622
-0.8913682103157043,1.46027672290802,-0.019025253131985664
-0.8765981197357178,1.4600797891616821,-0.019428802654147148
-0.7750170826911926,1.311447262763977,-0.017794106155633926
-0.7791107296943665,1.3407331705093384,-0.01853480562567711
-0.7634084224700928,1.336251139640808,-0.01880936697125435
-1.2746824026107788,2.26765513420105,-0.032457128167152405
-1.641804814338684,2.970766067504883,-0.043225545436143875
-1.6422525644302368,3.0239522457122803,-0.044687215238809586
-1.6169054508209229,3.0287158489227295,-0.045423682779073715
-1.599400520324707,3.046809434890747,-0.04634501039981842
-1.62218177318573,3.1450181007385254,-0.04849352687597275
-1.5916234254837036,3.1430771350860596,-0.04911895841360092
-1.5694172382354736,3.1542117595672607,-0.04991285502910614
-1.5509183406829834,3.1720335483551025,-0.05080656334757805
-1.528106689453125,3.1830732822418213,-0.05157536268234253
-1.5082556009292603,3.2011525630950928,-0.05245572701096535
-1.48564875125885,3.2116942405700684,-0.053198859095573425
-1.4660797119140625,3.2292428016662598,-0.054064925760030746
-1.4461524486541748,3.2467570304870605,-0.054909564554691315
-1.4194327592849731,3.2499923706054688,-0.05550766363739967
-1.3932629823684692,3.252788782119751,-0.05608677119016647
-1.373647689819336,3.2695834636688232,-0.05689916014671326
-1.353159785270691,3.286553144454956,-0.05771177262067795
-1.3324013948440552,3.303436517715454,-0.05848894268274307
-1.3087047338485718,3.3128840923309326,-0.059136416763067245
-1.2827775478363037,3.3146233558654785,-0.0596349723637104
-1.2624269723892212,3.3307712078094482,-0.06039566174149513
-1.242136001586914,3.350878953933716,-0.061215631663799286
-1.217993140220642,3.3597187995910645,-0.06182369962334633
-1.1904209852218628,3.357146978378296,-0.06221332773566246
-1.1709519624710083,3.37637996673584,-0.06300397962331772
-1.1522921323776245,3.399282932281494,-0.06385580450296402
-1.1300398111343384,3.4149632453918457,-0.06455232203006744
-1.1032215356826782,3.4155027866363525,-0.06495948135852814
-1.081724762916565,3.4305529594421387,-0.06563648581504822
-1.0601003170013428,3.445460081100464,-0.06631515920162201
-1.04023015499115,3.4678144454956055,-0.067118339240551
-1.0154536962509155,3.4751405715942383,-0.06761658191680908
-0.9945393800735474,3.4974184036254883,-0.06841598451137543
-0.9743540287017822,3.5192980766296387,-0.06919976323843002
-0.9478169679641724,3.518439292907715,-0.06954053044319153
-0.9259148836135864,3.5363705158233643,-0.07021640986204147
-0.900759756565094,3.5428526401519775,-0.07065243273973465
-0.8771176934242249,3.556816339492798,-0.07124575972557068
-0.856016993522644,3.578009605407715,-0.0719786286354065
-0.829401433467865,3.576246738433838,-0.07225340604782104
-0.807625949382782,3.597231388092041,-0.07295830547809601
-0.7838079929351807,3.6104817390441895,-0.07349828630685806
-0.7594863772392273,3.6236491203308105,-0.07404526323080063
-0.734215259552002,3.6288459300994873,-0.07442561537027359
-0.7089412212371826,3.6338605880737305,-0.07480548322200775
-0.6848425269126892,3.6464200019836426,-0.07530070096254349
-0.6645980477333069,3.681910276412964,-0.07625053077936172
-0.6388179659843445,3.690427303314209,-0.07665102183818817
-0.6099194884300232,3.6755144596099854,-0.07656093686819077
-0.585547149181366,3.6873779296875,-0.07703162729740143
-0.5626118779182434,3.7106924057006836,-0.07772146910429001
-0.5386890769004822,3.730020046234131,-0.07830503582954407
-0.6148314476013184,4.484407901763916,-0.09436525404453278
-0.5856501460075378,4.504059791564941,-0.09500027447938919
-0.55535489320755,4.515758514404297,-0.09547270834445953
-0.5270653963088989,4.546663284301758,-0.09634001553058624
-0.4960893988609314,4.557999134063721,-0.09674283862113953
-0.4681012034416199,4.600210666656494,-0.09780764579772949
-0.4501485228538513,4.758932590484619,-0.1013641506433487
-0.43537285923957825,4.972034931182861,-0.1060946136713028
-0.40421217679977417,5.017758846282959,-0.10726818442344666
-0.3933744728565216,5.351527214050293,-0.11452776193618774
-0.36129048466682434,5.435981273651123,-0.11646224558353424
-0.32261890172958374,5.438409328460693,-0.11664899438619614
-0.2911219596862793,5.561418056488037,-0.11942783743143082
-0.26665863394737244,5.875407695770264,-0.12632472813129425
-0.22571972012519836,5.877120494842529,-0.12645050883293152
-0.18423393368721008,5.862936496734619,-0.12619759142398834
-0.1417713761329651,5.828956127166748,-0.1255253255367279
-0.09979946911334991,5.747799873352051,-0.12384079396724701
-0.059707894921302795,5.73273229598999,-0.12358501553535461
-0.020002808421850204,5.783777236938477,-0.12473340332508087
0.019955309107899666,5.7017645835876465,-0.1229453757405281
0.059938471764326096,5.670240879058838,-0.12225214391946793
0.09927024692296982,5.665782928466797,-0.12214874476194382
0.13768301904201508,5.625914573669434,-0.12128785252571106
0.17549435794353485,5.585790157318115,-0.12042724341154099
0.2085418999195099,5.436147212982178,-0.11712302267551422
0.11560368537902832,2.5514793395996094,-0.05493399128317833
0.22062860429286957,4.212001800537109,-0.09062573313713074
0.24736346304416656,4.167484760284424,-0.08961397409439087
0.27788451313972473,4.189046859741211,-0.09002774208784103
0.3083460032939911,4.2064971923828125,-0.09031827747821808
0.3368045687675476,4.196481704711914,-0.0899912640452385
0.4805032014846802,5.5012359619140625,-0.11782727390527725
0.5081518888473511,5.385006904602051,-0.1152041107416153
0.5247508883476257,5.1754150390625,-0.11059685051441193
0.5371367335319519,4.954220294952393,-0.10573866218328476
0.5695576667785645,4.934878826141357,-0.10513339936733246
0.6807040572166443,5.5548577308654785,-0.11812659353017807
0.7157021760940552,5.522898197174072,-0.11724139750003815
0.7588009834289551,5.55262565612793,-0.11767081171274185
0.8146232962608337,5.667056560516357,-0.11989518254995346
0.857059895992279,5.6845011711120605,-0.11996597051620483
0.8651288151741028,5.477780342102051,-0.11530619859695435
0.9111496210098267,5.521785736083984,-0.11594221740961075
0.9549102783203125,5.546101093292236,-0.11616307497024536
0.9907299280166626,5.523952960968018,-0.11541596055030823
1.0288004875183105,5.5169997215271,-0.11492922902107239
1.0481371879577637,5.4139533042907715,-0.11242009699344635
0.6652624011039734,3.312058925628662,-0.06855172663927078
1.1481913328170776,5.51736307144165,-0.11383155733346939
1.1815481185913086,5.486359596252441,-0.11283412575721741
0.7229640483856201,3.247969627380371,-0.06656870990991592
0.7521527409553528,3.2734079360961914,-0.06683831661939621
0.7694870233535767,3.2453057765960693,-0.06601309776306152
0.7827291488647461,3.2019541263580322,-0.06488586217164993
0.7982959151268005,3.169930934906006,-0.06399594247341156
0.8162592649459839,3.1492247581481934,-0.06331883370876312
0.8336737155914307,3.1285035610198975,-0.06261109560728073
0.8491570353507996,3.1000547409057617,-0.06175004690885544
0.8664019107818604,3.079061985015869,-0.061044007539749146
0.8823918700218201,3.0542044639587402,-0.060266390442848206
0.8967911601066589,3.025582790374756,-0.05940597876906395
0.9127994775772095,3.004476547241211,-0.05867280811071396
0.9265931844711304,2.9757254123687744,-0.057791560888290405
0.938896119594574,2.9431920051574707,-0.056844037026166916
0.9544802308082581,2.9217529296875,-0.05611716955900192
0.9720437526702881,2.9077303409576416,-0.055517058819532394
0.981591522693634,2.8715295791625977,-0.05447601154446602
0.9958474636077881,2.8500823974609375,-0.053722746670246124
1.009428858757019,2.8245809078216553,-0.05288377404212952
1.021013617515564,2.795487880706787,-0.051991481333971024
1.0373055934906006,2.7811574935913086,-0.05135476589202881
1.0505021810531616,2.7594988346099854,-0.05057555437088013
1.063606858253479,2.7377302646636963,-0.049797553569078445
1.0757607221603394,2.711989164352417,-0.04893922060728073
1.0916777849197388,2.6972055435180664,-0.0482897013425827
1.1008415222167969,2.6681549549102783,-0.04736016318202019
1.1096643209457397,2.639103651046753,-0.04643939062952995
1.1155123710632324,2.6026859283447266,-0.04538877308368683
1.1432620286941528,2.616220712661743,-0.045202020555734634
1.1515147686004639,2.586977958679199,-0.044267620891332626
1.1687614917755127,2.5792417526245117,-0.04369232803583145
1.1780043840408325,2.5535523891448975,-0.04281206429004669
1.1790995597839355,2.509969472885132,-0.0416315421462059
1.1966781616210938,2.5016462802886963,-0.041030291467905045
1.2064367532730103,2.4796016216278076,-0.040196798741817474
1.207346796989441,2.4400086402893066,-0.03908781334757805
1.2278026342391968,2.4385390281677246,-0.03857560083270073
1.2375693321228027,2.4160659313201904,-0.03773403540253639
1.260743498802185,2.421692371368408,-0.03730681166052818
1.2624174356460571,2.3855338096618652,-0.036231108009815216
1.2715412378311157,2.3629660606384277,-0.03535700961947441
1.2953696250915527,2.3678221702575684,-0.0348932184278965
1.2862441539764404,2.314880132675171,-0.033568691462278366
1.301521897315979,2.3063347339630127,-0.032896723598241806
1.3139268159866333,2.2902987003326416,-0.0320824459195137
1.321663737297058,2.267786979675293,-0.031189214438199997
1.3245397806167603,2.2389304637908936,-0.030205415561795235
1.3395484685897827,2.2299931049346924,-0.029481306672096252
1.3509079217910767,2.2139933109283447,-0.028647594153881073
1.3616286516189575,2.198241949081421,-0.02779969573020935
1.3591985702514648,2.162936210632324,-0.026722973212599754
1.3741928339004517,2.1534507274627686,-0.025927633047103882
1.3929136991500854,2.15071177482605,-0.025208717212080956
1.4067133665084839,2.14172101020813,-0.024408230558037758
1.4150491952896118,2.122161865234375,-0.02343611605465412
1.3987205028533936,2.067263126373291,-0.022092996165156364
1.4383376836776733,2.096999406814575,-0.02165384590625763
1.468221664428711,2.10959529876709,-0.020960135385394096
1.4484243392944336,2.051929473876953,-0.01956336945295334
1.452512502670288,2.0298643112182617,-0.01850741356611252
2.304252862930298,3.1734471321105957,-0.027498112991452217
2.314980983734131,3.1462655067443848,-0.02580844983458519
2.2899396419525146,3.226855993270874,0.04088592529296875
2.265794038772583,3.243833065032959,0.042667124420404434
2.5469870567321777,3.704749822616577,0.05043279752135277
3.146974563598633,4.647710800170898,0.06528210639953613
3.1526033878326416,4.733293056488037,0.06845719367265701
3.1270546913146973,4.76887321472168,0.07083260267972946
3.101848602294922,4.803882598876953,0.07314545661211014
1.6395292282104492,2.5817277431488037,0.04024669528007507
1.6330540180206299,2.613487482070923,0.04165191575884819
1.5943084955215454,2.5915367603302,0.04215718060731888
1.5667750835418701,2.590015411376953,0.04297282546758652
1.5678231716156006,2.634918212890625,0.04454534128308296
1.529677391052246,2.6120636463165283,0.044938985258340836
1.5103204250335693,2.6232869625091553,0.04591076448559761
1.4657576084136963,2.590242385864258,0.04607662186026573
1.4589530229568481,2.6209189891815186,0.04732879251241684
1.436934471130371,2.624136447906494,0.04808506742119789
1.4305107593536377,2.6587154865264893,0.0493953637778759
1.4106556177139282,2.6692869663238525,0.05027609318494797
2.477912664413452,4.768888473510742,0.09096082299947739
2.43729829788208,4.772209644317627,0.09215110540390015
1.22910475730896,2.450836658477783,0.047879695892333984
1.185316801071167,2.407163619995117,0.04756554961204529
1.1784448623657227,2.4365792274475098,0.048675261437892914
1.174803376197815,2.472959280014038,0.049926284700632095
1.1913710832595825,2.5557940006256104,0.05210770666599274
1.180802583694458,2.5821681022644043,0.05315908044576645
1.157957911491394,2.579641819000244,0.053597014397382736
1.1509912014007568,2.6126461029052734,0.05477740615606308
1.1225535869598389,2.5994715690612793,0.05497726798057556
1.0838565826416016,2.5607857704162598,0.05461247265338898
1.0911279916763306,2.6297125816345215,0.056536830961704254
2.0013904571533203,4.919931411743164,0.10660985112190247
1.9841119050979614,4.97738790512085,0.10868051648139954
2.0426185131073,5.235565662384033,0.11514349281787872
2.333516836166382,6.111204147338867,0.13535122573375702
2.2826719284057617,6.105339050292969,0.136138454079628
2.211940288543701,6.044031620025635,0.13568007946014404
2.1492888927459717,6.004382133483887,0.13564249873161316
1.8822252750396729,5.382183074951172,0.12233559787273407
1.8412050008773804,5.3880767822265625,0.12320345640182495
1.955803394317627,5.856361389160156,0.13469156622886658
1.9355708360671997,5.93292760848999,0.1372460424900055
1.8979911804199219,5.961428642272949,0.13863272964954376
1.8683687448501587,6.019840717315674,0.14071601629257202
1.8515657186508179,6.118910789489746,0.14375397562980652
1.810017704963684,6.135376930236816,0.14485454559326172
1.7780953645706177,6.1853251457214355,0.14675651490688324
1.7447236776351929,6.235360622406006,0.14859385788440704
1.7175779342651367,6.311699867248535,0.15105003118515015
1.6948974132537842,6.410755634307861,0.1540803611278534
1.650292158126831,6.422360420227051,0.1550005078315735
0.8151261806488037,3.2660765647888184,0.07915346324443817
1.5465160608291626,6.387839317321777,0.15538592636585236
0.7875667214393616,3.3571019172668457,0.08194521069526672
1.4228596687316895,6.26839542388916,0.15355154871940613
1.3774967193603516,6.270504474639893,0.1541328728199005
1.3386640548706055,6.302845478057861,0.15546609461307526
1.2827460765838623,6.2546610832214355,0.15477722883224487
1.224745273590088,6.194622993469238,0.153723806142807
1.1785844564437866,6.19560432434082,0.1541946679353714
1.1204626560211182,6.123013496398926,0.15282240509986877
1.08054780960083,6.146027565002441,0.15383680164813995
1.0227737426757812,6.064824104309082,0.15224500000476837
0.9786983132362366,6.064168453216553,0.15255488455295563
0.9398730993270874,6.10190486907959,0.15384545922279358
0.8805053234100342,5.996303558349609,0.15151798725128174
0.8355512022972107,5.979063510894775,0.15141941606998444
0.7893388867378235,5.949875831604004,0.1510222852230072
0.7467865347862244,5.947484493255615,0.15124520659446716
0.7031271457672119,5.937066078186035,0.15121832489967346
0.4621800482273102,4.156633377075195,0.10604482889175415
0.43072715401649475,4.136447429656982,0.10570445656776428
0.4011678993701935,4.131565570831299,0.10575847327709198
0.3671760857105255,4.075910568237305,0.10451233386993408
0.3408374786376953,4.1056227684021,0.10538221895694733
0.3144613206386566,4.146885395050049,0.1065576896071434
0.2771369218826294,4.0282111167907715,0.10362392663955688
0.24862782657146454,4.022242069244385,0.10359015315771103
0.22153738141059875,4.039463996887207,0.10415874421596527
0.19450104236602783,4.064309120178223,0.10489186644554138
0.3168005049228668,7.776115417480469,0.20078830420970917
0.2610347270965576,7.735204696655273,0.1998414546251297
0.20632022619247437,7.705602169036865,0.19919508695602417
0.15233594179153442,7.683420181274414,0.19874894618988037
0.0987454429268837,7.672575950622559,0.19860529899597168
0.04408477991819382,7.626224040985107,0.19742092490196228
-0.008992745541036129,7.610726356506348,0.19702266156673431
-0.06161905452609062,7.57533597946167,0.19611889123916626
-0.11385639011859894,7.551298141479492,0.19551832973957062
-0.16583676636219025,7.526900768280029,0.19491775333881378
-0.217383474111557,7.50214958190918,0.19428054988384247
-0.26924416422843933,7.473119258880615,0.19341802597045898
-0.32100605964660645,7.471078395843506,0.1932656466960907
-0.3741884231567383,7.495977401733398,0.19381895661354065
-0.3094302713871002,5.438609600067139,0.14056357741355896
-0.34526577591896057,5.405152797698975,0.13964664936065674
-0.3758911192417145,5.297420501708984,0.13674286007881165
-0.39032429456710815,5.01050329208374,0.12918724119663239
-0.4233131408691406,4.988234996795654,0.12847015261650085
-0.4325817823410034,4.709090232849121,0.12115105986595154
-0.4572502672672272,4.624366760253906,0.11884929984807968
-0.48663511872291565,4.589958667755127,0.11784472316503525
-0.5191371440887451,4.594263076782227,0.1177557110786438
-0.5460954904556274,4.551816940307617,0.11647558212280273
-0.5765164494514465,4.54019832611084,0.1159912720322609
-0.6111279726028442,4.559317588806152,0.11629612743854523
-0.6383708715438843,4.52009916305542,0.11511608213186264
-0.6672135591506958,4.500150203704834,0.11439453065395355
-0.6980487704277039,4.495479583740234,0.11401869356632233
-0.723846435546875,4.459761142730713,0.11286246031522751
-0.7572671175003052,4.470061302185059,0.11287496984004974
-0.7842452526092529,4.441625595092773,0.11191384494304657
-0.8141937851905823,4.42830228805542,0.11133670806884766
-0.8400899767875671,4.399623394012451,0.11030293256044388
-0.729059636592865,3.681278705596924,0.09203298389911652
-0.7542949914932251,3.6762006282806396,0.09164895862340927
-0.7781817317008972,3.6632442474365234,0.0910702794790268
-0.9415475130081177,4.283166408538818,0.10618209093809128
-0.982199490070343,4.326113700866699,0.10690705478191376
-1.0098652839660645,4.311731815338135,0.10617831349372864
-1.0318821668624878,4.274396896362305,0.1048925518989563
-1.058618426322937,4.255795478820801,0.10406913608312607
-1.0808837413787842,4.217965602874756,0.10277693718671799
-1.1229348182678223,4.25950288772583,0.10341246426105499
-1.1518104076385498,4.251800537109375,0.10279498249292374
-1.1764464378356934,4.22885274887085,0.10181517153978348
-1.200129508972168,4.201904296875,0.10074159502983093
-1.2298188209533691,4.193326473236084,0.10010307282209396
-1.2567074298858643,4.177206039428711,0.09929729998111725
-1.2872283458709717,4.176092147827148,0.0987745001912117
-1.3060704469680786,4.1375041007995605,0.0973716601729393
-1.3271379470825195,4.106193542480469,0.09614572674036026
-1.3586195707321167,4.104129791259766,0.09559418261051178
-1.3871296644210815,4.094598293304443,0.09488117694854736
-1.4199038743972778,4.0999016761779785,0.09445607662200928
-1.4397090673446655,4.068159580230713,0.09317722916603088
-1.4621154069900513,4.0435709953308105,0.09206530451774597
-1.4928513765335083,4.040669918060303,0.09144299477338791
-1.5213725566864014,4.030035972595215,0.09063895791769028
-1.5455632209777832,4.012470722198486,0.08962401002645493
-1.5695587396621704,3.9947736263275146,0.08861026167869568
-1.5967810153961182,3.9839892387390137,0.08774371445178986
-1.6170592308044434,3.9547324180603027,0.08646533638238907
-1.6478201150894165,3.9504992961883545,0.08571864664554596
-1.6711480617523193,3.9322218894958496,0.08463800698518753
-1.6911715269088745,3.9066548347473145,0.08340876549482346
-1.7149364948272705,3.8877651691436768,0.08230733871459961
-1.7418758869171143,3.8757903575897217,0.08135351538658142
-1.7555427551269531,3.8353042602539062,0.07976175844669342
-1.7842648029327393,3.8306660652160645,0.07890963554382324
-1.8066855669021606,3.811521053314209,0.07775106281042099
-1.8263636827468872,3.7848141193389893,0.07642139494419098
-1.862822413444519,3.7931487560272217,0.07579322159290314
-1.8918356895446777,3.787517547607422,0.07482385635375977
-1.9098137617111206,3.7609927654266357,0.07346120476722717
-1.939429521560669,3.7546226978302,0.07245800644159317
-1.9582030773162842,3.7272496223449707,0.07105276733636856
-1.679288387298584,3.14574933052063,0.059198010712862015
-1.6906331777572632,3.117487907409668,0.0578986220061779
-1.7124296426773071,3.1055877208709717,0.05686001479625702
-1.7301548719406128,3.0868144035339355,0.055706482380628586
-0.8230170011520386,1.4460588693618774,0.025698240846395493
-0.7581831216812134,1.31215500831604,0.022954322397708893
