X,Y,Z
1.6193108558654785,2.5323355197906494,0.10975024104118347
1.6369174718856812,2.59963059425354,0.1150730699300766
1.614150881767273,2.6045196056365967,0.1176527589559555
1.5700831413269043,2.5764951705932617,0.11866090446710587
2.988166570663452,4.984654903411865,0.23379072546958923
2.969242572784424,5.032002925872803,0.240064799785614
2.9337401390075684,5.057058811187744,0.24517419934272766
2.8226325511932373,4.949643135070801,0.24374103546142578
2.724998712539673,4.856688976287842,0.242627814412117
2.6805152893066406,4.858885288238525,0.24620769917964935
2.6145615577697754,4.823573112487793,0.24765600264072418
2.566404104232788,4.8182268142700195,0.2505481243133545
2.5182623863220215,4.8081464767456055,0.25302910804748535
2.4573121070861816,4.773641586303711,0.2541426122188568
2.3932175636291504,4.736049175262451,0.2549629807472229
2.3360908031463623,4.707733154296875,0.25615277886390686
1.2499051094055176,2.5635106563568115,0.1408957540988922
1.2318917512893677,2.5721118450164795,0.14277295768260956
1.2063606977462769,2.566852331161499,0.1437874138355255
1.1874862909317017,2.57553768157959,0.14558500051498413
1.1642770767211914,2.5731735229492188,0.1467221975326538
1.1574018001556396,2.6060824394226074,0.14985650777816772
1.1354957818984985,2.6070990562438965,0.15110038220882416
2.0567874908447266,4.8178791999816895,0.28135836124420166
2.0372588634490967,4.868307590484619,0.2864178717136383
2.0130786895751953,4.907706260681152,0.29084503650665283
1.9903932809829712,4.950424671173096,0.29545989632606506
1.9872997999191284,5.048034191131592,0.30320364236831665
2.0095372200012207,5.214993000030518,0.31521859765052795
1.994638204574585,5.287285327911377,0.32155779004096985
1.9746252298355103,5.348695278167725,0.32729798555374146
1.9449143409729004,5.384284973144531,0.3314130902290344
1.9059444665908813,5.398042678833008,0.3340234160423279
1.8961260318756104,5.496301651000977,0.34190791845321655
1.8736273050308228,5.557373046875,0.34749048948287964
1.836695671081543,5.577735424041748,0.3505740165710449
1.912174940109253,5.946656227111816,0.37561386823654175
1.8764439821243286,5.98239278793335,0.3795221745967865
1.8596818447113037,6.081305503845215,0.38748788833618164
1.8312526941299438,6.14267635345459,0.39308780431747437
1.7970683574676514,6.185091972351074,0.39749786257743835
1.759502649307251,6.220034122467041,0.4014885127544403
1.7304753065109253,6.288702487945557,0.4073552191257477
1.708553433418274,6.387414455413818,0.4152235984802246
1.6710857152938843,6.4294023513793945,0.41943690180778503
0.8207694888114929,3.25060772895813,0.21280576288700104
1.5537418127059937,6.342136859893799,0.4166896939277649
0.7972243428230286,3.356570243835449,0.22120998799800873
1.460153341293335,6.348082065582275,0.41955384612083435
1.3920433521270752,6.255459785461426,0.4146261215209961
1.3426257371902466,6.238224029541016,0.41466668248176575
1.2952337265014648,6.232189178466797,0.4154825210571289
1.2370712757110596,6.168362140655518,0.4123692810535431
1.1859277486801147,6.138606548309326,0.41126951575279236
1.1337836980819702,6.100785732269287,0.40963903069496155
1.0990396738052368,6.154561996459961,0.4141717851161957
1.0474969148635864,6.115997791290283,0.4125174880027771
1.0018138885498047,6.103803634643555,0.4126335382461548
0.9529010653495789,6.072098255157471,0.41125696897506714
0.9048035740852356,6.043910503387451,0.4100000858306885
0.8522635102272034,5.98061466217041,0.40636950731277466
0.805008053779602,5.951690673828125,0.4050889313220978
0.759591281414032,5.92615270614624,0.40403661131858826
0.6283523440361023,5.188371181488037,0.35435226559638977
0.5724980235099792,5.022231101989746,0.34338322281837463
0.5537093281745911,5.181098937988281,0.35462522506713867
0.4038865566253662,4.048582077026367,0.2774191200733185
0.3798966407775879,4.10175085067749,0.2813919484615326
0.35401618480682373,4.1353230476379395,0.2840350568294525
0.3297968804836273,4.1959309577941895,0.28852716088294983
0.2992827594280243,4.1825690269470215,0.2877614200115204
0.26922306418418884,4.17287540435791,0.2872611880302429
0.2415263056755066,4.209680080413818,0.28998008370399475
0.3921244740486145,7.780280113220215,0.5362983345985413
0.3376713693141937,7.774993419647217,0.5363197922706604
0.28248319029808044,7.745968341827393,0.5345969200134277
0.22694388031959534,7.69710111618042,0.5312466025352478
0.17159874737262726,7.6673407554626465,0.5292415022850037
0.11764171719551086,7.63327169418335,0.5269635319709778
0.06442189961671829,7.610513687133789,0.5254911184310913
0.011469924822449684,7.602973937988281,0.5250944495201111
-0.041251685470342636,7.58728551864624,0.5239794254302979
-0.0944160595536232,7.543957233428955,0.5207706093788147
-0.14635248482227325,7.519758701324463,0.5189135670661926
-0.19762220978736877,7.47961950302124,0.5159826874732971
-0.24891461431980133,7.458609104156494,0.5143977999687195
-0.30070990324020386,7.456717014312744,0.5141565799713135
-0.35309019684791565,7.470060348510742,0.514735221862793
-0.2944587767124176,5.420604228973389,0.37315648794174194
-0.332410991191864,5.42625093460083,0.3732108175754547
-0.3690292537212372,5.408292770385742,0.37165847420692444
-0.40546900033950806,5.390083312988281,0.3701081871986389
-0.4416733384132385,5.371629238128662,0.36856070160865784
-0.47495919466018677,5.3179731369018555,0.36441829800605774
-0.442196249961853,4.5930705070495605,0.31431466341018677
-0.1769106388092041,1.7134782075881958,0.11710266768932343
-0.1870797723531723,1.6967310905456543,0.11580962687730789
-0.197933167219162,1.6876673698425293,0.11504858732223511
-0.5679041147232056,4.563690662384033,0.31073054671287537
-0.22039659321308136,1.6770570278167725,0.11397165805101395
-0.23295597732067108,1.6832497119903564,0.1141781434416771
-0.23665469884872437,1.6276350021362305,0.11020292341709137
-0.24679359793663025,1.6182650327682495,0.10936911404132843
-0.24409447610378265,1.5279773473739624,0.10308030992746353
-0.2610999643802643,1.5647138357162476,0.10536034405231476
-0.28051242232322693,1.6128318309783936,0.10833657532930374
-0.29572150111198425,1.6339107751846313,0.10949016362428665
-0.3199279010295868,1.7008156776428223,0.11370398104190826
-0.33398252725601196,1.7100558280944824,0.11405278742313385
-0.7455413937568665,3.6789634227752686,0.24479201436042786
-0.7692029476165771,3.6661899089813232,0.24329175055027008
-0.9404470920562744,4.3352155685424805,0.28682348132133484
-0.9750467538833618,4.351622104644775,0.2870522737503052
-1.0015901327133179,4.329671382904053,0.2847496569156647
-1.0303938388824463,4.314979553222656,0.282922625541687
-1.0603641271591187,4.307797431945801,0.2816186845302582
-1.0801212787628174,4.262778282165527,0.27766579389572144
-1.1110249757766724,4.262983322143555,0.27666500210762024
-1.1380661725997925,4.247869491577148,0.27467861771583557
-1.1680208444595337,4.23983097076416,0.27313023805618286
-1.1952769756317139,4.224222183227539,0.2711270749568939
-1.222019076347351,4.208547115325928,0.2690543234348297
-1.2470701932907104,4.189096450805664,0.26666024327278137
-1.2685011625289917,4.158310413360596,0.26356592774391174
-1.3023098707199097,4.164300918579102,0.26277247071266174
-1.3241002559661865,4.13297176361084,0.2596496343612671
-1.3527425527572632,4.1237945556640625,0.25791341066360474
-1.3730571269989014,4.092521667480469,0.2546504735946655
-1.4057005643844604,4.0980353355407715,0.2536887526512146
-1.4207789897918701,4.051647663116455,0.24951575696468353
-1.462615728378296,4.07830810546875,0.24980583786964417
-1.47754967212677,4.031529903411865,0.2456333190202713
-1.5005452632904053,4.010663032531738,0.2429065704345703
-1.5316182374954224,4.0115509033203125,0.2414988875389099
-1.5560352802276611,3.993898868560791,0.23896609246730804
-1.592871904373169,4.004676818847656,0.23808284103870392
-1.610389232635498,3.9683425426483154,0.2344374656677246
-1.6413770914077759,3.9684252738952637,0.23280955851078033
-1.664795160293579,3.950327157974243,0.23011384904384613
-1.6900694370269775,3.93546986579895,0.2275915890932083
-1.7178810834884644,3.923548698425293,0.22518333792686462
-1.7465760707855225,3.9152677059173584,0.22300809621810913
-1.7709505558013916,3.9001595973968506,0.22033528983592987
-1.796837329864502,3.8884401321411133,0.21786534786224365
-1.8036324977874756,3.8337597846984863,0.21295441687107086
-1.8375064134597778,3.8350963592529297,0.2111239731311798
-1.8567171096801758,3.808622360229492,0.20773197710514069
-1.8715022802352905,3.7754130363464355,0.2039327621459961
-1.896774411201477,3.7629241943359375,0.2012481540441513
-1.9158506393432617,3.7358644008636475,0.19772060215473175
-1.9417213201522827,3.722630739212036,0.19493138790130615
-1.9703125953674316,3.716564416885376,0.19238194823265076
-1.9984625577926636,3.7105183601379395,0.18987387418746948
-2.0428946018218994,3.7309494018554688,0.18858830630779266
-1.7195526361465454,3.089388132095337,0.15421812236309052
-1.7359453439712524,3.0713720321655273,0.15130411088466644
-0.835417628288269,1.4554812908172607,0.07072311639785767
-0.8533416390419006,1.4632097482681274,0.0700698047876358
-0.8555542230606079,1.4438618421554565,0.06811584532260895
-0.8729690313339233,1.4517114162445068,0.06740546971559525
-0.8783756494522095,1.4393712282180786,0.06574933975934982
-0.9009250998497009,1.4530631303787231,0.06517954915761948
-0.9024596810340881,1.4337588548660278,0.06313671916723251
-0.9074859023094177,1.4213922023773193,0.06139810383319855
-0.9085543751716614,1.4022035598754883,0.059330493211746216
-0.9182953238487244,1.3959085941314697,0.057781804352998734
-0.9490482807159424,1.4224298000335693,0.057516537606716156
-2.404613971710205,3.5535545349121094,0.14022375643253326
-1.3439304828643799,1.9567384719848633,0.07517420500516891
-1.2382060289382935,1.7783477306365967,0.06643298268318176
-1.5897548198699951,2.252009391784668,0.08163090795278549
-1.6230865716934204,2.3056113719940186,-0.06251321732997894
-1.3153786659240723,1.8964412212371826,-0.05380147323012352
-1.332892656326294,1.9836225509643555,-0.06104830279946327
-1.1960322856903076,1.807283878326416,-0.05762321501970291
-1.4227970838546753,2.1861572265625,-0.07212993502616882
-1.2850210666656494,2.005458354949951,-0.06821418553590775
-1.2228490114212036,1.9384894371032715,-0.06785417348146439
-0.8445619344711304,1.4055395126342773,-0.05314617231488228
-0.8294855952262878,1.4504120349884033,-0.05851849541068077
-2.1142003536224365,3.7599987983703613,-0.1546889990568161
-1.7027720212936401,3.0819594860076904,-0.12925241887569427
-2.0633738040924072,3.796722650527954,-0.16203127801418304
-2.0292410850524902,3.7972350120544434,-0.1648218035697937
-2.0050344467163086,3.8187458515167236,-0.16846594214439392
-1.9668173789978027,3.8120901584625244,-0.1708173304796219
-1.9467545747756958,3.8397412300109863,-0.17468023300170898
-1.8967138528823853,3.8079605102539062,-0.1757257729768753
-1.879211187362671,3.8425707817077637,-0.17977210879325867
-1.8636986017227173,3.880305767059326,-0.18394149839878082
-1.8499293327331543,3.9212961196899414,-0.18826168775558472
-1.5644868612289429,3.378268003463745,-0.16418014466762543
-1.5637587308883667,3.442875623703003,-0.16933642327785492
-1.4964370727539062,3.357511043548584,-0.1670246124267578
-1.427706241607666,3.264039993286133,-0.16417191922664642
-1.3999724388122559,3.26318359375,-0.16587112843990326
-1.408201813697815,3.3486008644104004,-0.17194123566150665
-1.3660626411437988,3.315310478210449,-0.1719522774219513
-1.3677222728729248,3.3861565589904785,-0.17731888592243195
-1.3639684915542603,3.4463694095611572,-0.18216387927532196
-1.3517831563949585,3.4887380599975586,-0.18602482974529266
-1.3197717666625977,3.4800052642822266,-0.187172070145607
-1.3181169033050537,3.5513477325439453,-0.19263656437397003
-1.249367594718933,3.439338445663452,-0.1881103813648224
-1.2326163053512573,3.470121145248413,-0.1912403404712677
-1.180860996246338,3.4013683795928955,-0.1888546198606491
-1.1406078338623047,3.36146879196167,-0.18800406157970428
-1.1118876934051514,3.354541778564453,-0.18898922204971313
-1.0763143301010132,3.32505202293396,-0.18861664831638336
-1.039689540863037,3.291625738143921,-0.18791121244430542
-1.0047707557678223,3.2615697383880615,-0.18737804889678955
-0.9843024015426636,3.2758615016937256,-0.18936525285243988
-0.9472384452819824,3.2338807582855225,-0.18809401988983154
-0.9154163599014282,3.210515022277832,-0.18780340254306793
-0.8863319158554077,3.1943068504333496,-0.1878666877746582
-0.8556774854660034,3.17026948928833,-0.18745392560958862
-0.8355949521064758,3.1836068630218506,-0.18924005329608917
-0.8066941499710083,3.162808656692505,-0.18900026381015778
-0.7820296883583069,3.160891532897949,-0.18974874913692474
-0.7578314542770386,3.158689260482788,-0.1904681771993637
-0.7232934236526489,3.1106832027435303,-0.18841147422790527
-0.6973063945770264,3.09656023979187,-0.1883917897939682
-0.6690343022346497,3.070805311203003,-0.1876334398984909
-0.6485238671302795,3.0831117630004883,-0.1890871226787567
-0.6313468217849731,3.1104907989501953,-0.1914699375629425
-0.6006312966346741,3.06884503364563,-0.18959864974021912
-0.5727997422218323,3.038400411605835,-0.18840698897838593
-0.5530029535293579,3.0499355792999268,-0.18977946043014526
-0.5257968902587891,3.0230391025543213,-0.18865999579429626
-0.5032433867454529,3.0189218521118164,-0.1889543980360031
-0.4785008728504181,2.9992082118988037,-0.1882714182138443
-0.4540838301181793,2.9792940616607666,-0.18757574260234833
-0.4332994222640991,2.9823429584503174,-0.1882830709218979
-0.4093242585659027,2.966013193130493,-0.18766871094703674
-0.3854362666606903,2.945585012435913,-0.18679174780845642
-0.36299383640289307,2.932685375213623,-0.1863921582698822
-0.34074991941452026,2.919617176055908,-0.18598642945289612
-0.32123884558677673,2.929637908935547,-0.18701612949371338
-0.2963210344314575,2.889132261276245,-0.18471279740333557
-0.27200326323509216,2.8523380756378174,-0.18265289068222046
-0.25146985054016113,2.8463683128356934,-0.18256378173828125
-0.23042570054531097,2.8324787616729736,-0.1819727122783661
-0.2101447582244873,2.826213836669922,-0.18184414505958557
-0.18990908563137054,2.8198158740997314,-0.18158362805843353
-0.17129634320735931,2.84442400932312,-0.1833324283361435
-0.1522875279188156,2.8611044883728027,-0.18457864224910736
-0.13163940608501434,2.846503734588623,-0.18381553888320923
-0.11272634565830231,2.8707079887390137,-0.1855509877204895
-0.09293386340141296,2.879211902618408,-0.18613924086093903
-0.07210396230220795,2.864205837249756,-0.18521739542484283
-0.05213203281164169,2.864633560180664,-0.1853015422821045
-0.03255943953990936,2.896104097366333,-0.18740327656269073
-0.012183930724859238,2.841682195663452,-0.1839553862810135
0.007606841158121824,2.849499225616455,-0.18438318371772766
0.027711505070328712,2.841583251953125,-0.1837991625070572
0.047740474343299866,2.856917142868042,-0.18472909927368164
0.06703634560108185,2.833139419555664,-0.18313917517662048
0.08671984076499939,2.8326101303100586,-0.18306134641170502
0.10592570155858994,2.820268154144287,-0.18209229409694672
0.1259990781545639,2.8311641216278076,-0.18261092901229858
0.14600656926631927,2.8302183151245117,-0.18237048387527466
0.1661345213651657,2.836933135986328,-0.18263502418994904
0.18789254128932953,2.8668441772460938,-0.18439948558807373
0.20409122109413147,2.814951181411743,-0.1807953417301178
0.22295565903186798,2.8057243824005127,-0.17990514636039734
0.24205006659030914,2.7963411808013916,-0.17901012301445007
0.26292985677719116,2.8101420402526855,-0.17961126565933228
0.2808920741081238,2.792757034301758,-0.1782277524471283
0.30480310320854187,2.8334133625030518,-0.18045832216739655
0.3252508342266083,2.839022159576416,-0.18040327727794647
0.34616735577583313,2.844437837600708,-0.18033467233181
0.36991164088249207,2.872931480407715,-0.18173767626285553
0.39094558358192444,2.878049612045288,-0.1816648244857788
0.4147002100944519,2.902334213256836,-0.18272145092487335
0.4335254430770874,2.891742467880249,-0.18152010440826416
0.45502302050590515,2.8963773250579834,-0.1812731772661209
0.4777183532714844,2.908571243286133,-0.18150801956653595
0.49926280975341797,2.9129080772399902,-0.18125779926776886
0.5207981467247009,2.9171063899993896,-0.18092742562294006
0.5479997992515564,2.9518394470214844,-0.18241795897483826
0.5690613985061646,2.9518775939941406,-0.18176360428333282
0.5929815173149109,2.9631295204162598,-0.18178704380989075
0.6183378100395203,2.9818949699401855,-0.18228250741958618
0.6389182806015015,2.9776134490966797,-0.1812954545021057
0.6626850366592407,2.988456964492798,-0.18116752803325653
0.68491530418396,2.9915058612823486,-0.1805686205625534
0.7195722460746765,3.0435636043548584,-0.18289320170879364
0.7407764792442322,3.0385379791259766,-0.18179497122764587
0.7617031335830688,3.033430337905884,-0.18061605095863342
0.7844352722167969,3.035761594772339,-0.17983132600784302
0.8172761797904968,3.0756072998046875,-0.18126027286052704
0.8410977721214294,3.077341318130493,-0.18040631711483002
0.8635427355766296,3.075244665145874,-0.17935015261173248
0.8997170925140381,3.1218018531799316,-0.18101896345615387
0.9276503920555115,3.138108968734741,-0.18088431656360626
0.9514522552490234,3.1392099857330322,-0.17986485362052917
0.981773316860199,3.158548593521118,-0.179853618144989
0.9989973306655884,3.136857032775879,-0.17752884328365326
0.9816575646400452,3.0113930702209473,-0.16926753520965576
0.9712720513343811,2.912219285964966,-0.16257457435131073
1.0077455043792725,2.953517436981201,-0.16373087465763092
1.0437183380126953,2.9907093048095703,-0.16462205350399017
1.1931865215301514,3.3434627056121826,-0.18266607820987701
1.2225146293640137,3.353721857070923,-0.1817934513092041
1.2534235715866089,3.367382526397705,-0.18109475076198578
1.2879287004470825,3.387852430343628,-0.18071210384368896
1.317158579826355,3.3934457302093506,-0.17952382564544678
1.3449218273162842,3.395240545272827,-0.1780177503824234
1.401472568511963,3.469379425048828,-0.18027371168136597
1.4311988353729248,3.474220037460327,-0.17886725068092346
1.4734638929367065,3.507462501525879,-0.17888173460960388
1.1058543920516968,2.5826785564422607,-0.1304372400045395
1.1468956470489502,2.6287918090820312,-0.1313886195421219
1.148807406425476,2.5853993892669678,-0.12787765264511108
1.165191888809204,2.5738611221313477,-0.12592792510986328
1.1797664165496826,2.5587079524993896,-0.12380669265985489
1.2018742561340332,2.5614242553710938,-0.12249845266342163
1.2327698469161987,2.5814297199249268,-0.12197624891996384
1.9178417921066284,3.9453229904174805,-0.18411117792129517
1.9556165933609009,3.9530158042907715,-0.18214809894561768
1.2224664688110352,2.4302725791931152,-0.11049040406942368
1.2315216064453125,2.4082581996917725,-0.10800305008888245
1.2590113878250122,2.4205172061920166,-0.10699085891246796
1.2724554538726807,2.4047353267669678,-0.10470283776521683
1.2772746086120605,2.3757059574127197,-0.10185033082962036
1.2743251323699951,2.3329885005950928,-0.0984477698802948
1.2905534505844116,2.3241353034973145,-0.09642557054758072
1.2969505786895752,2.2982687950134277,-0.09370435029268265
1.3123550415039062,2.28959059715271,-0.09164337813854218
1.3238141536712646,2.274036169052124,-0.08931171149015427
1.32368004322052,2.2379848957061768,-0.08615089952945709
1.3345932960510254,2.222471237182617,-0.08379239588975906
1.3450357913970947,2.207106351852417,-0.08144158124923706
1.3522801399230957,2.184410572052002,-0.07870985567569733
1.3630585670471191,2.168562173843384,-0.07625778019428253
1.3813114166259766,2.1663260459899902,-0.07427801191806793
1.3853319883346558,2.1406164169311523,-0.07142569869756699
1.4065698385238647,2.1408300399780273,-0.0693904235959053
1.4162315130233765,2.125148296356201,-0.06679094582796097
1.4282687902450562,2.112440824508667,-0.06424678862094879
1.4450054168701172,2.1058411598205566,-0.061810389161109924
1.4427788257598877,2.0742266178131104,-0.05865073949098587
1.452261209487915,2.058120012283325,-0.055826589465141296
1.452599048614502,2.029205560684204,-0.05257713049650192
1.4562584161758423,2.0073812007904053,-0.04957204684615135
1.4609259366989136,1.984692096710205,-0.04634105786681175
3.1762640476226807,4.47843599319458,0.13814093172550201
3.1145951747894287,4.459578037261963,0.14269179105758667
2.5976760387420654,3.7772057056427,0.12497126311063766
3.1739046573638916,4.693237781524658,0.1603562831878662
3.1410953998565674,4.715078353881836,0.1656057983636856
2.1729488372802734,3.314211130142212,0.1195124015212059
2.1287424564361572,3.3009092807769775,0.12205400317907333
1.6305078268051147,2.5674262046813965,0.09708454459905624
1.6280081272125244,2.605813980102539,0.1007130816578865
1.5959819555282593,2.597999334335327,0.10249907523393631
2.923009157180786,4.833968639373779,0.19430603086948395
2.8389456272125244,4.770411968231201,0.19522251188755035
2.844576358795166,4.8621015548706055,0.20238317549228668
2.759817361831665,4.798270225524902,0.20303991436958313
2.48209547996521,4.385798931121826,0.18842461705207825
2.4655213356018066,4.430756092071533,0.19313566386699677
2.499932050704956,4.572099208831787,0.20209240913391113
2.4857659339904785,4.624025344848633,0.20708763599395752
2.476618766784668,4.686243534088135,0.21258702874183655
2.47493314743042,4.766282081604004,0.2188223898410797
2.4290547370910645,4.763399124145508,0.22124311327934265
2.3724496364593506,4.735009670257568,0.22235949337482452
2.3186850547790527,4.709274768829346,0.2235240787267685
1.2312545776367188,2.547447443008423,0.12216580659151077
1.21086585521698,2.552805185317993,0.12361842393875122
1.1925287246704102,2.5613455772399902,0.1252034604549408
1.1795175075531006,2.580165386199951,0.1272689700126648
1.150091290473938,2.5634303092956543,0.12755751609802246
1.1454956531524658,2.6038286685943604,0.13062472641468048
2.074639320373535,4.812289237976074,0.24340178072452545
2.0501558780670166,4.8480682373046875,0.2470928281545639
2.025313138961792,4.883720397949219,0.2508039176464081
2.003465414047241,4.930519104003906,0.25499507784843445
1.982067346572876,4.981048107147217,0.2593648135662079
2.026470184326172,5.20244026184082,0.2727375626564026
2.006821632385254,5.260059833526611,0.277549147605896
1.9851469993591309,5.313981533050537,0.2822054922580719
1.9574817419052124,5.357349395751953,0.28613728284835815
1.9265623092651367,5.393281936645508,0.2896954417228699
1.8901766538619995,5.414278507232666,0.29247137904167175
1.8864285945892334,5.526875972747803,0.30018553137779236
1.854068398475647,5.558254241943359,0.3035309612751007
1.902202844619751,5.842107772827148,0.320527046918869
1.8943790197372437,5.963332176208496,0.3287140130996704
1.8710018396377563,6.040039539337158,0.3345101773738861
1.8446744680404663,6.105079174041748,0.3396550416946411
1.8098711967468262,6.1438307762146,0.343371719121933
1.7831441164016724,6.21647834777832,0.3487904369831085
1.7522733211517334,6.277796745300293,0.3535902202129364
1.721933126449585,6.342670440673828,0.35862138867378235
1.6858423948287964,6.388553619384766,0.36261385679244995
1.6490575075149536,6.430248737335205,0.366374671459198
0.8140235543251038,3.27002215385437,0.18693946301937103
1.542888879776001,6.392159461975098,0.36656320095062256
0.7877175807952881,3.368544578552246,0.19377867877483368
1.4156841039657593,6.253486156463623,0.3608727753162384
1.3720892667770386,6.263098239898682,0.36255860328674316
1.3282157182693481,6.27245569229126,0.3641761541366577
1.2719181776046753,6.224335193634033,0.36225101351737976
1.2119100093841553,6.15276575088501,0.35895881056785583
1.1562581062316895,6.099888801574707,0.35676226019859314
1.1137956380844116,6.107706546783447,0.3581000566482544
1.0712801218032837,6.115227699279785,0.3594377934932709
1.0295186042785645,6.130239009857178,0.361032098531723
0.9707703590393066,6.041031360626221,0.3564205467700958
0.9343768954277039,6.094050407409668,0.360226035118103
0.8777945041656494,6.003886699676514,0.3555587828159332
0.8306320309638977,5.971164226531982,0.3542945086956024
0.7834051251411438,5.934220790863037,0.3527597486972809
0.7459028363227844,5.9743757247924805,0.3555891513824463
0.5957944393157959,5.061605453491211,0.3016504645347595
0.5617856979370117,5.0850701332092285,0.30345943570137024
0.5372180938720703,5.19354248046875,0.3103559911251068
0.3992794454097748,4.141391277313232,0.24783053994178772
0.3651507496833801,4.085793495178223,0.24477748572826385
0.34420445561408997,4.181500434875488,0.25068339705467224
0.31494733691215515,4.191606044769287,0.2514776289463043
0.28434357047080994,4.1742329597473145,0.25063106417655945
0.2553552985191345,4.176086902618408,0.25094902515411377
0.22905485332012177,4.228358268737793,0.2543117105960846
0.3665929138660431,7.770287990570068,0.46753939986228943
0.31049981713294983,7.749303340911865,0.46638038754463196
0.25519710779190063,7.7161946296691895,0.4645121693611145
0.20091083645820618,7.6943817138671875,0.46334490180015564
0.1469462662935257,7.664386749267578,0.4617058038711548
0.09337777644395828,7.637916088104248,0.4603000581264496
0.03919576480984688,7.607196807861328,0.4583566188812256
-0.013647055253386497,7.583897113800049,0.4568345844745636
-0.06605333089828491,7.556333065032959,0.455078661441803
-0.11829142272472382,7.532304286956787,0.45355793833732605
-0.16984465718269348,7.492323398590088,0.45109906792640686
-0.2219201922416687,7.490969657897949,0.4509736895561218
-0.2738338112831116,7.461966037750244,0.4488748610019684
-0.32563769817352295,7.459912300109863,0.4484263062477112
-0.2737572193145752,5.409120082855225,0.3249300718307495
-0.31181085109710693,5.414890766143799,0.32507163286209106
-0.35046038031578064,5.428175926208496,0.3256791830062866
-0.38656091690063477,5.394474506378174,0.323415607213974
-0.42198264598846436,5.368386745452881,0.32144302129745483
-0.4573947787284851,5.345952033996582,0.3197077512741089
-0.49005571007728577,5.296100616455078,0.31635233759880066
-0.1757427304983139,1.7654939889907837,0.10533802956342697
-0.17787642776966095,1.6672840118408203,0.09936749190092087
-0.18940116465091705,1.6660271883010864,0.09915079921483994
-0.20180721580982208,1.6724411249160767,0.09935327619314194
-0.20836873352527618,1.6323474645614624,0.09680108726024628
-0.21079257130622864,1.5651849508285522,0.09265828877687454
-0.23006589710712433,1.6215845346450806,0.09583202749490738
-0.23269319534301758,1.5621082782745361,0.09216517955064774
-0.2434183657169342,1.5604902505874634,0.0918736532330513
-0.25785917043685913,1.581898808479309,0.09292224794626236
-0.2673744857311249,1.5724259614944458,0.09215909242630005
-0.28711578249931335,1.6204724311828613,0.09476334601640701
-0.29715219140052795,1.6107507944107056,0.09398435801267624
-0.3141886293888092,1.639311671257019,0.09543947875499725
-0.7282726168632507,3.664469003677368,0.21272794902324677
-0.7540795207023621,3.6632792949676514,0.21205182373523712
-0.7783496975898743,3.654264211654663,0.2109309583902359
-0.9468832015991211,4.296197414398193,0.24726757407188416
-0.9819490313529968,4.312383651733398,0.24750123918056488
-1.0169330835342407,4.328376770019531,0.24764035642147064
-1.0427234172821045,4.306257724761963,0.24551644921302795
-1.0644850730895996,4.268850803375244,0.24254126846790314
-1.0779320001602173,4.1971235275268555,0.23762112855911255
-1.1219998598098755,4.2461724281311035,0.23956118524074554
-1.1494007110595703,4.230825424194336,0.23786650598049164
-1.176977515220642,4.219267845153809,0.23622986674308777
-1.2087441682815552,4.222529888153076,0.23543208837509155
-1.234750509262085,4.202885150909424,0.2333429902791977
-1.2594168186187744,4.179347515106201,0.23105517029762268
-1.2861567735671997,4.163111209869385,0.22918617725372314
-1.3168755769729614,4.161766052246094,0.2280401736497879
-1.3425166606903076,4.145452976226807,0.2260337620973587
-1.371005654335022,4.136207103729248,0.22440312802791595
-1.3997256755828857,4.126666069030762,0.22275550663471222
-1.4181491136550903,4.087439060211182,0.21952427923679352
-1.4408730268478394,4.063021183013916,0.21704024076461792
-1.4708139896392822,4.060672760009766,0.2156682014465332
-1.495375394821167,4.043467044830322,0.21351684629917145
-1.5265748500823975,4.040231704711914,0.21205440163612366
-1.5489928722381592,4.015061855316162,0.20947079360485077
-1.5707237720489502,3.9899396896362305,0.20685122907161713
-1.5973831415176392,3.979440927505493,0.2049320936203003
-1.6224942207336426,3.9651520252227783,0.20282821357250214
-1.6474616527557373,3.9464917182922363,0.20043766498565674
-1.668797492980957,3.9206604957580566,0.19772085547447205
-1.6767441034317017,3.866384983062744,0.19351902604103088
-1.699344277381897,3.848078966140747,0.19108203053474426
-1.7475632429122925,3.8865060806274414,0.19144287705421448
-1.7864336967468262,3.8989710807800293,0.19041922688484192
-1.808628797531128,3.875917434692383,0.18769000470638275
-1.8310805559158325,3.856832981109619,0.18507099151611328
-1.8498510122299194,3.830646514892578,0.18211887776851654
-1.8828160762786865,3.832063913345337,0.18044066429138184
-1.8993885517120361,3.7978262901306152,0.17703154683113098
-1.9180134534835815,3.771059036254883,0.1739821881055832
-1.9320685863494873,3.73764705657959,0.17059282958507538
-1.9569785594940186,3.72477650642395,0.16813457012176514
-1.9865235090255737,3.718071937561035,0.1658800095319748
-2.008324146270752,3.6975748538970947,0.16299955546855927
-1.7047892808914185,3.0895535945892334,0.13445308804512024
-1.7251551151275635,3.07832407951355,0.1322368085384369
-1.7388824224472046,3.052733898162842,0.12931828200817108
-0.8486562371253967,1.4663281440734863,0.06123027950525284
-0.8384396433830261,1.4271432161331177,0.05869729816913605
-0.8640583157539368,1.4483171701431274,0.05862260237336159
-0.8821860551834106,1.455687403678894,0.057938624173402786
-0.8837677836418152,1.4364725351333618,0.056190431118011475
-0.9012801647186279,1.4440398216247559,0.055481430143117905
-0.9026629328727722,1.4247711896896362,0.053695425391197205
-0.9030303359031677,1.3642072677612305,0.04819752648472786
-2.402256488800049,3.5746278762817383,0.12319834530353546
-2.397033214569092,3.5169942378997803,0.1181095689535141
-1.2566767930984497,1.818098545074463,0.05937811732292175
-1.47567617893219,2.1034371852874756,0.06661713123321533
-1.322281002998352,1.891839861869812,-0.04605023190379143
-1.252668857574463,1.8212406635284424,-0.046344950795173645
-1.344825267791748,1.9852415323257446,-0.05257168412208557
-1.2020360231399536,1.80353581905365,-0.049562007188797
-1.570250391960144,2.3933374881744385,-0.06802980601787567
-1.1592456102371216,1.7941429615020752,-0.05261102691292763
-1.1143429279327393,1.7532936334609985,-0.05296183377504349
-0.7847346067428589,1.2959625720977783,-0.04232741519808769
-0.879688024520874,1.55237877368927,-0.05524073541164398
-1.1938996315002441,2.1415882110595703,-0.0776294395327568
-2.0569796562194824,3.7521677017211914,-0.13846299052238464
-2.0292842388153076,3.767108678817749,-0.14141608774662018
-2.0182912349700928,3.8127012252807617,-0.14551469683647156
-1.9808976650238037,3.8057668209075928,-0.14752158522605896
-1.9606211185455322,3.8336920738220215,-0.15082865953445435
-1.9203739166259766,3.8233463764190674,-0.15260344743728638
-1.9020322561264038,3.8541758060455322,-0.1559530794620514
-1.8627573251724243,3.84285831451416,-0.15761354565620422
-1.8349967002868652,3.856086492538452,-0.16016285121440887
-1.821822166442871,3.9010303020477295,-0.16403479874134064
-1.77651846408844,3.874579429626465,-0.16484248638153076
-1.499589204788208,3.3314924240112305,-0.1433708369731903
-1.5308728218078613,3.4670286178588867,-0.15083183348178864
-1.5286015272140503,3.531825065612793,-0.15531443059444427
-1.6561881303787231,3.9016854763031006,-0.17333844304084778
-1.4099864959716797,3.3869614601135254,-0.15197870135307312
-1.372649908065796,3.3642725944519043,-0.15239425003528595
-1.3556499481201172,3.392098903656006,-0.15505249798297882
-1.32399320602417,3.383549928665161,-0.15606200695037842
-1.3534507751464844,3.5310893058776855,-0.16427722573280334
-1.5069160461425781,4.015382766723633,-0.18837878108024597
-1.4242637157440186,3.8794679641723633,-0.183419868350029
-1.387155532836914,3.8637897968292236,-0.18409234285354614
-1.3791803121566772,3.928645372390747,-0.18860143423080444
-1.3366243839263916,3.8937625885009766,-0.1883118897676468
-1.2717597484588623,3.792070150375366,-0.18465232849121094
-1.1742331981658936,3.5858898162841797,-0.17577585577964783
-1.1358346939086914,3.5531256198883057,-0.1753128170967102
-1.1432100534439087,3.665290117263794,-0.18203260004520416
-1.1176047325134277,3.6731014251708984,-0.1835743635892868
-1.079266905784607,3.63973331451416,-0.18292926251888275
-1.0382124185562134,3.5947635173797607,-0.1816839575767517
-1.0193337202072144,3.6244165897369385,-0.18419642746448517
-0.9920015335083008,3.623833656311035,-0.18517939746379852
-0.9550479650497437,3.5892879962921143,-0.18437981605529785
-0.9158749580383301,3.5430338382720947,-0.182858407497406
-0.8944694399833679,3.564528226852417,-0.18483471870422363
-0.852089524269104,3.4985899925231934,-0.18225517868995667
-0.8277105093002319,3.504377841949463,-0.18340371549129486
-0.7939344644546509,3.4721202850341797,-0.18249355256557465
-0.7550071477890015,3.412848711013794,-0.1800795942544937
-0.730914294719696,3.4180378913879395,-0.1810600608587265
-0.7039838433265686,3.407702684402466,-0.18121346831321716
-0.6764992475509644,3.3933281898498535,-0.181152805685997
-0.313266396522522,1.6319698095321655,-0.08742072433233261
-0.6212624311447144,3.364124298095703,-0.1807672083377838
-0.5894300937652588,3.322274923324585,-0.17907731235027313
-0.5675833225250244,3.333948850631714,-0.18026988208293915
-0.5430909991264343,3.3300797939300537,-0.18063071370124817
-0.5150958895683289,3.306856632232666,-0.17984947562217712
-0.49577996134757996,3.3373801708221436,-0.1819426417350769
-0.4695960283279419,3.3214356899261475,-0.18151085078716278
-0.4464907646179199,3.324586868286133,-0.18212449550628662
-0.41647234559059143,3.273407220840454,-0.1797633171081543
-0.3954405188560486,3.291701078414917,-0.18112598359584808
-0.371963769197464,3.2944107055664062,-0.18159012496471405
-0.34638896584510803,3.2736408710479736,-0.1807616502046585
-0.3228610157966614,3.268181562423706,-0.1807815432548523
-0.29906925559043884,3.258669853210449,-0.18058405816555023
-0.2750273048877716,3.245109796524048,-0.18008650839328766
-0.25011706352233887,3.223637104034424,-0.17908541858196259
-0.22922345995903015,3.248634099960327,-0.18067139387130737
-0.2056065797805786,3.2345659732818604,-0.18009322881698608
-0.18310706317424774,3.235901355743408,-0.1803801953792572
-0.1580270230770111,3.1864469051361084,-0.17778150737285614
-0.1372024565935135,3.2303452491760254,-0.18030579388141632
-0.11354745924472809,3.2000348567962646,-0.17869578301906586
-0.09171348065137863,3.2163350582122803,-0.17969666421413422
-0.06879127025604248,3.189592123031616,-0.17830076813697815
-0.046267829835414886,3.1665897369384766,-0.17708581686019897
-0.02397421933710575,3.1824395656585693,-0.17793259024620056
-0.0018491194350644946,3.1747303009033203,-0.17747141420841217
0.020267002284526825,3.1824681758880615,-0.1778823435306549
0.041895635426044464,3.1432530879974365,-0.1756775677204132
0.06358273327350616,3.13508939743042,-0.17520880699157715
0.08598422259092331,3.1579742431640625,-0.17634239792823792
0.10803835839033127,3.1495018005371094,-0.17573031783103943
0.13057367503643036,3.164271831512451,-0.17642568051815033
0.15256798267364502,3.163297176361084,-0.17625108361244202
0.17498497664928436,3.1699585914611816,-0.17651017010211945
0.19646233320236206,3.1609017848968506,-0.17576560378074646
0.21979735791683197,3.1750223636627197,-0.17629510164260864
0.24121911823749542,3.1656618118286133,-0.17553263902664185
0.2619316279888153,3.148378849029541,-0.17434048652648926
0.286648690700531,3.1775736808776855,-0.17572906613349915
0.31128206849098206,3.202711820602417,-0.17678934335708618
0.33097851276397705,3.173313617706299,-0.17479971051216125
0.3512061834335327,3.1554677486419678,-0.1734657734632492
0.37907928228378296,3.2033326625823975,-0.17574740946292877
0.4023246765136719,3.208385467529297,-0.17568190395832062
0.42859119176864624,3.2364931106567383,-0.17679640650749207
0.4502275884151459,3.2257134914398193,-0.1757216900587082
0.4747016131877899,3.2380073070526123,-0.1759204864501953
0.49722594022750854,3.2346603870391846,-0.17527087032794952
0.5209368467330933,3.238863468170166,-0.17503835260868073
0.5407615900039673,3.2198309898376465,-0.17348936200141907
0.5662481188774109,3.2352914810180664,-0.17373435199260712
0.5882031321525574,3.227450370788574,-0.1727224439382553
0.6142634153366089,3.242488384246826,-0.172945037484169
0.6367973685264587,3.2381808757781982,-0.17214073240756989
0.6669842004776001,3.271965980529785,-0.17330503463745117
0.6861889958381653,3.252095937728882,-0.17156067490577698
0.7188843488693237,3.2930071353912354,-0.17301145195960999
0.7546448707580566,3.345061779022217,-0.17503759264945984
0.7726077437400818,3.3169801235198975,-0.17287074029445648
0.8045946955680847,3.3495564460754395,-0.1738099902868271
0.8331412076950073,3.3667469024658203,-0.17387253046035767
0.8594725728034973,3.372260093688965,-0.17331749200820923
0.8779737949371338,3.347385883331299,-0.17121194303035736
0.9083632230758667,3.3676199913024902,-0.1714201271533966
0.9377788305282593,3.3839073181152344,-0.1713504195213318
0.9651209115982056,3.3925044536590576,-0.17083051800727844
0.9985454678535461,3.419480323791504,-0.17121174931526184
1.0380191802978516,3.4648349285125732,-0.17249572277069092
1.064422845840454,3.4650464057922363,-0.1715235859155655
1.085822343826294,3.4502904415130615,-0.16972360014915466
1.1475865840911865,3.5617356300354004,-0.17407195270061493
1.1895394325256348,3.6055917739868164,-0.1750420778989792
1.2120977640151978,3.5899109840393066,-0.17311988770961761
1.234480857849121,3.574094772338867,-0.17120186984539032
1.2690664529800415,3.5951642990112305,-0.17094095051288605
1.3132601976394653,3.641624927520752,-0.1718653440475464
1.3491652011871338,3.6618478298187256,-0.171505406498909
1.416335105895996,3.7618460655212402,-0.1748046875
1.4379602670669556,3.7411789894104004,-0.17244715988636017
1.4817484617233276,3.7786905765533447,-0.17269864678382874
1.5247178077697754,3.812133550643921,-0.1727331429719925
1.5703929662704468,3.8484928607940674,-0.1728312075138092
1.6471278667449951,3.9562649726867676,-0.17604975402355194
1.667676329612732,3.9307901859283447,-0.17323485016822815
1.1350773572921753,2.6261842250823975,-0.11461091786623001
1.1531394720077515,2.618368148803711,-0.11311735212802887
1.1617540121078491,2.5889739990234375,-0.11069405823945999
1.1715152263641357,2.5631942749023438,-0.10839327424764633
1.188660740852356,2.5553529262542725,-0.10685910284519196
1.202704906463623,2.540203094482422,-0.10500696301460266
1.2000099420547485,2.4896416664123535,-0.10169443488121033
1.2049745321273804,2.4569075107574463,-0.09912887960672379
1.218139886856079,2.441749095916748,-0.09724211692810059
1.2240228652954102,2.4126322269439697,-0.09482364356517792
1.2479137182235718,2.4180119037628174,-0.09373434633016586
1.2498500347137451,2.3818600177764893,-0.09102728962898254
1.261925220489502,2.3667023181915283,-0.08911141008138657
1.2741619348526,2.3513224124908447,-0.08717256784439087
1.283244013786316,2.328627586364746,-0.0849129855632782
1.285593032836914,2.296121120452881,-0.08233443647623062
1.2929859161376953,2.2740790843963623,-0.08014561980962753
1.304593801498413,2.2584874629974365,-0.07814911007881165
1.3203212022781372,2.2493908405303955,-0.07635515928268433
1.3274239301681519,2.227105140686035,-0.07407549768686295
1.346158504486084,2.2250235080718994,-0.0724886953830719
1.357471227645874,2.2090399265289307,-0.07037729024887085
1.3599128723144531,2.1800315380096436,-0.06786587834358215
1.3656448125839233,2.158040761947632,-0.06559222936630249
1.3890963792800903,2.1616716384887695,-0.06397745013237
1.4038777351379395,2.152160406112671,-0.06196378543972969
1.4220370054244995,2.1496331691741943,-0.060135021805763245
1.4278546571731567,2.1270430088043213,-0.05766524374485016
1.4225854873657227,2.0882339477539062,-0.0547441691160202
1.4405248165130615,2.0854549407958984,-0.05275680124759674
1.4546866416931152,2.075657844543457,-0.050490960478782654
1.432293176651001,2.0150327682495117,-0.04699517786502838
1.4496363401412964,2.0122787952423096,-0.04487373307347298
1.4773715734481812,2.0211598873138428,-0.042799659073352814
1.4853426218032837,2.005648374557495,-0.04019477218389511
3.1818790435791016,4.4511590003967285,0.11313020437955856
3.156017780303955,4.4837327003479,0.11857272684574127
2.6205739974975586,3.781034469604492,0.10366810858249664
2.5913548469543457,3.801003932952881,0.10783078521490097
3.150535821914673,4.690876483917236,0.13707005977630615
3.139517068862915,4.749699115753174,0.1427329182624817
2.1475636959075928,3.303370475769043,0.10196477174758911
1.6233805418014526,2.5354809761047363,0.08013898134231567
1.6338655948638916,2.5935111045837402,0.08385096490383148
1.6184308528900146,2.6122887134552,0.08631426095962524
1.596095085144043,2.6167829036712646,0.0881773978471756
2.7862448692321777,4.643896579742432,0.1595224291086197
2.824697256088257,4.788991451263428,0.1674979329109192
2.7374794483184814,4.7177581787109375,0.16779741644859314
1.3668144941329956,2.3937134742736816,0.08650871366262436
2.463268995285034,4.3885273933410645,0.16101977229118347
2.460209846496582,4.461597442626953,0.1661727875471115
2.4364490509033203,4.492281436920166,0.16960594058036804
2.397573471069336,4.4953484535217285,0.17199423909187317
2.471160650253296,4.716872692108154,0.18273530900478363
2.461395740509033,4.78341007232666,0.18759173154830933
2.3922231197357178,4.730935096740723,0.18769681453704834
2.3400304317474365,4.708953857421875,0.18892739713191986
1.2545499801635742,2.571694850921631,0.10425911843776703
1.2204818725585938,2.5490808486938477,0.10441124439239502
1.1960049867630005,2.5433566570281982,0.10519059002399445
1.184798002243042,2.565748691558838,0.10713571310043335
1.167494297027588,2.5778980255126953,0.10862454026937485
1.1549785137176514,2.600567579269409,0.11053716391324997
1.1286866664886475,2.5907578468322754,0.11104761064052582
2.0662920475006104,4.834508895874023,0.20891882479190826
2.0381276607513428,4.863283634185791,0.21181537210941315
2.0154330730438232,4.910627365112305,0.21546320617198944
1.994305968284607,4.961238861083984,0.21925753355026245
1.9897456169128418,5.05117130279541,0.2247721254825592
2.0191991329193115,5.232285022735596,0.2344275265932083
2.001119375228882,5.29757833480835,0.23886166512966156
1.971618413925171,5.33766508102417,0.242159903049469
1.9492881298065186,5.395586013793945,0.24626050889492035
1.9038575887680054,5.3868608474731445,0.2472984790802002
1.878993034362793,5.436797618865967,0.2510472536087036
1.8687307834625244,5.535062789916992,0.25692227482795715
1.8720717430114746,5.681951999664307,0.2651063799858093
1.9164234399795532,5.958800315856934,0.27942168712615967
1.8772732019424438,5.979337215423584,0.28176364302635193
1.8642181158065796,6.085432052612305,0.2881743013858795
1.8376535177230835,6.154529571533203,0.2927068769931793
1.7957549095153809,6.174925804138184,0.29490041732788086
1.7552140951156616,6.202704906463623,0.2974821925163269
1.739973783493042,6.316258907318115,0.30416613817214966
1.7171167135238647,6.407294750213623,0.3098176121711731
1.671826720237732,6.419178009033203,0.31153175234794617
0.8225362300872803,3.253265857696533,0.15842068195343018
1.563458800315857,6.377994537353516,0.31166020035743713
0.7951275110244751,3.344273090362549,0.16396711766719818
1.4604222774505615,6.33817195892334,0.311807245016098
1.4015774726867676,6.283427715301514,0.31010234355926514
1.346211552619934,6.243580341339111,0.30895084142684937
1.3010411262512207,6.253084182739258,0.3102652430534363
1.2378681898117065,6.16637659072876,0.30678513646125793
1.193436622619629,6.16711950302124,0.3076491355895996
1.141908884048462,6.129188537597656,0.3065914511680603
1.1027601957321167,6.160083293914795,0.3087902367115021
1.0445653200149536,6.087054252624512,0.3057575225830078
0.997731626033783,6.071134567260742,0.3055870532989502
0.9566722512245178,6.085589408874512,0.30694928765296936
0.8998260498046875,5.995595932006836,0.30304864048957825
0.8612472414970398,6.024860858917236,0.30511942505836487
0.810706615447998,5.976716995239258,0.30312594771385193
0.7611652612686157,5.924195289611816,0.3009091913700104
0.7224486470222473,5.952584266662598,0.30281251668930054
0.5720115900039673,5.003932476043701,0.254950612783432
0.5525721311569214,5.151282787322998,0.2628786861896515
0.5192727446556091,5.1821675300598145,0.26475369930267334
0.38033750653266907,4.090314865112305,0.20916301012039185
0.3523115813732147,4.100638389587402,0.20988920331001282
0.3307671546936035,4.192427635192871,0.21479912102222443
0.30077043175697327,4.182936191558838,0.21453362703323364
0.27117443084716797,4.177123069763184,0.2144661545753479
0.2448449581861496,4.237355709075928,0.21764062345027924
0.3954181969165802,7.788301467895508,0.40017902851104736
0.34027737379074097,7.775269985198975,0.39968201518058777
0.2849322259426117,7.742346286773682,0.3981795907020569
0.2301776260137558,7.712928771972656,0.3968751132488251
0.17482005059719086,7.6831536293029785,0.39549967646598816
0.12100108712911606,7.664682865142822,0.3944792151451111
0.06734465807676315,7.6341328620910645,0.3928565979003906
0.014090637676417828,7.587604522705078,0.39043116569519043
-0.0385390967130661,7.575817108154297,0.38981252908706665
-0.09175536781549454,7.544149398803711,0.38819006085395813
-0.14380517601966858,7.527737617492676,0.38723665475845337
-0.1949550360441208,7.483675003051758,0.3847319185733795
-0.24632570147514343,7.466562747955322,0.3836332857608795
-0.2975432574748993,7.449095726013184,0.38253551721572876
-0.3503577411174774,7.470245838165283,0.38343915343284607
-0.29256388545036316,5.418584823608398,0.2780085802078247
-0.3305213451385498,5.424238204956055,0.27803370356559753
-0.3669307827949524,5.406278610229492,0.2767975628376007
-0.40374380350112915,5.395852565765381,0.2759612798690796
-0.43926534056663513,5.369614124298096,0.27433037757873535
-0.4747902452945709,5.339196681976318,0.2724968194961548
-0.5088987350463867,5.304723739624023,0.27047720551490784
-0.16651010513305664,1.618277907371521,0.08237965404987335
-0.17767328023910522,1.6171002388000488,0.0821882039308548
-0.19469833374023438,1.666221261024475,0.08455326408147812
-0.20119017362594604,1.6222254037857056,0.08219320327043533
-0.21296721696853638,1.6246657371520996,0.08219514042139053
-0.2316921204328537,1.6772674322128296,0.0847172662615776
-0.2465645670890808,1.6988164186477661,0.08561886101961136
-0.24765878915786743,1.6276702880859375,0.08185769617557526
-0.26643362641334534,1.672141194343567,0.08391378074884415
-0.2755085229873657,1.6548646688461304,0.08287313580513
-0.7635793089866638,4.3975419998168945,0.2197711169719696
-0.8028622269630432,4.442131996154785,0.22145269811153412
-0.831801176071167,4.428907871246338,0.22019466757774353
-0.8509357571601868,4.365704536437988,0.2164699137210846
-0.7447813153266907,3.6827523708343506,0.1821088194847107
-0.7671204805374146,3.6622564792633057,0.18061544001102448
