X,Y,Z
-0.7579911351203918,5.987246513366699,-0.48741504549980164
-0.7109542489051819,5.949766635894775,-0.48537299036979675
-0.5377835631370544,4.789961338043213,-0.3916027247905731
-0.6151558756828308,5.846681118011475,-0.47902652621269226
-0.5736848711967468,5.842958450317383,-0.4797718822956085
-0.5349971652030945,5.869982719421387,-0.4829247295856476
-0.4906514585018158,5.834707260131836,-0.48070403933525085
-0.44636252522468567,5.803040504455566,-0.47880885004997253
-0.24327042698860168,3.47967529296875,-0.2875401973724365
-0.22053876519203186,3.504547119140625,-0.2900432348251343
-0.31829628348350525,5.690380573272705,-0.47154852747917175
-0.27821293473243713,5.684643268585205,-0.47141826152801514
-0.23633816838264465,5.65142822265625,-0.46903660893440247
-0.19592434167861938,5.621769428253174,-0.4669608473777771
-0.15625016391277313,5.59960412979126,-0.46552515029907227
-0.11699145287275314,5.584956169128418,-0.4646000266075134
-0.077638179063797,5.550596237182617,-0.4617703855037689
-0.015556635335087776,2.2499845027923584,-0.18720389902591705
0.00010093148011947051,2.2889633178710938,-0.19047744572162628
0.01595301926136017,2.2811191082000732,-0.1898641139268875
0.031800974160432816,2.280954122543335,-0.1898522824048996
0.04733267053961754,2.2651212215423584,-0.18842433393001556
0.06284269690513611,2.2569661140441895,-0.18764542043209076
0.07772296667098999,2.2253522872924805,-0.1849251389503479
0.09351837635040283,2.2325479984283447,-0.1854415386915207
0.10978736728429794,2.2474114894866943,-0.1865636557340622
0.13035552203655243,2.3360190391540527,-0.19367948174476624
0.26477548480033875,4.219473361968994,-0.3494207262992859
0.2934945821762085,4.202010154724121,-0.34756869077682495
0.32180148363113403,4.18826961517334,-0.3460506498813629
0.3525041937828064,4.205381870269775,-0.34703680872917175
0.4526914060115814,4.986113548278809,-0.41068971157073975
0.4920947551727295,5.033318519592285,-0.41381463408470154
0.5231338143348694,4.987214088439941,-0.40927189588546753
0.5327168703079224,4.759122371673584,-0.38986366987228394
0.5491883754730225,4.6162109375,-0.37744125723838806
0.5844482183456421,4.639456272125244,-0.37836164236068726
0.6293351054191589,4.731902122497559,-0.3849165737628937
0.6848440766334534,4.885552883148193,-0.3963964283466339
0.7154054045677185,4.857668876647949,-0.3931519687175751
0.7466965317726135,4.837313652038574,-0.39047786593437195
0.7775419354438782,4.816810607910156,-0.3875559866428375
0.8080990314483643,4.796118259429932,-0.3846469223499298
0.8507375717163086,4.844235897064209,-0.3872571289539337
0.8849854469299316,4.838235855102539,-0.38552001118659973
0.9170529842376709,4.824473857879639,-0.3831233084201813
0.9456673860549927,4.795291900634766,-0.3792913854122162
0.9739239811897278,4.7659430503845215,-0.3754786252975464
1.0069403648376465,4.759235382080078,-0.37346184253692627
1.0348039865493774,4.725510120391846,-0.3693190813064575
1.0658152103424072,4.71079158782959,-0.36660534143447876
1.0963886976242065,4.695948600769043,-0.3637159764766693
1.1231619119644165,4.665759086608887,-0.3596661686897278
1.1498433351516724,4.635354995727539,-0.3556191623210907
1.180709719657898,4.619727611541748,-0.352697491645813
1.2125296592712402,4.611663818359375,-0.3502568006515503
1.2399487495422363,4.588420867919922,-0.3465636968612671
1.2681862115859985,4.568759441375732,-0.34316620230674744
1.2978802919387817,4.552505016326904,-0.3400120735168457
1.3235524892807007,4.520949840545654,-0.3357129395008087
1.3500871658325195,4.497031211853027,-0.33184006810188293
1.383101463317871,4.495348930358887,-0.3295714259147644
1.4069281816482544,4.463647365570068,-0.325114369392395
1.4356036186218262,4.446525573730469,-0.32171905040740967
1.4608904123306274,4.417974472045898,-0.3174598813056946
1.485963225364685,4.393369674682617,-0.3133503496646881
1.510768175125122,4.368625164031982,-0.3092610836029053
1.2667992115020752,3.5829107761383057,-0.2517072558403015
1.2890702486038208,3.5668492317199707,-0.24864515662193298
1.3162397146224976,3.565406560897827,-0.24652829766273499
1.61722731590271,4.289597988128662,-0.2940450608730316
1.6436301469802856,4.271420955657959,-0.2902849316596985
1.6762152910232544,4.267343521118164,-0.2874399721622467
1.7058584690093994,4.255805492401123,-0.2840883135795593
1.7301983833312988,4.233567714691162,-0.27986761927604675
1.7563177347183228,4.2145867347717285,-0.27583861351013184
1.7762832641601562,4.18103551864624,-0.2708761692047119
1.8115503787994385,4.183109760284424,-0.2682216465473175
1.8305166959762573,4.149519443511963,-0.2631738781929016
1.8584458827972412,4.137320518493652,-0.2594660818576813
1.8839706182479858,4.117423057556152,-0.255195289850235
1.9060715436935425,4.090269565582275,-0.2504965364933014
1.9339789152145386,4.0773844718933105,-0.24662522971630096
1.957911729812622,4.057521820068359,-0.24228525161743164
1.9820008277893066,4.037355899810791,-0.23791006207466125
2.0053622722625732,4.012966632843018,-0.23317182064056396
2.025660276412964,3.9854981899261475,-0.2282889038324356
2.059401035308838,3.985976457595825,-0.22495605051517487
2.086405038833618,3.9721438884735107,-0.2207602560520172
2.1103501319885254,3.950867176055908,-0.2160765677690506
2.1408402919769287,3.9435465335845947,-0.21211427450180054
2.1598732471466064,3.9155750274658203,-0.2069610208272934
2.138852596282959,3.8158740997314453,-0.19807803630828857
2.1693177223205566,3.8078527450561523,-0.19395354390144348
2.186877965927124,3.779999017715454,-0.1887602061033249
2.1999688148498535,3.74548602104187,-0.1832660734653473
2.2383298873901367,3.750218629837036,-0.17944833636283875
2.263890027999878,3.7350690364837646,-0.17470291256904602
2.292389154434204,3.7270350456237793,-0.1702452152967453
2.317500591278076,3.7116947174072266,-0.16532664000988007
2.339203357696533,3.6890385150909424,-0.15994881093502045
2.363718271255493,3.673600196838379,-0.15478353202342987
2.3965399265289307,3.6711509227752686,-0.1501615345478058
2.404805898666382,3.628549575805664,-0.14368705451488495
2.4284722805023193,3.6129636764526367,-0.13829074800014496
2.452075719833374,3.5971922874450684,-0.13281026482582092
2.4552760124206543,3.5478403568267822,-0.12574203312397003
2.482456922531128,3.538619041442871,-0.12021367996931076
2.5058600902557373,3.5222840309143066,-0.11421765387058258
2.5298726558685303,3.505277395248413,-0.10790301114320755
2.5519180297851562,3.4894490242004395,-0.10162149369716644
2.18030047416687,2.9388091564178467,-0.08020935952663422
2.7330710887908936,3.8281967639923096,0.17712947726249695
2.720871686935425,3.874748945236206,0.18571265041828156
2.712843179702759,3.9228274822235107,0.19394129514694214
2.6927506923675537,3.9552133083343506,0.20124900341033936
2.6576857566833496,3.9691269397735596,0.20757654309272766
2.6470084190368652,4.013387680053711,0.2149893343448639
2.5893709659576416,3.990144729614258,0.21878546476364136
2.569340944290161,4.025905609130859,0.2256535291671753
2.561610460281372,4.0766706466674805,0.23306569457054138
2.5075981616973877,4.054854393005371,0.23625360429286957
2.501128673553467,4.113418102264404,0.24405330419540405
2.4707086086273193,4.131442546844482,0.24938979744911194
2.445725679397583,4.155028820037842,0.25485730171203613
2.399181842803955,4.145755767822266,0.2581543028354645
2.387305736541748,4.1972270011901855,0.26522940397262573
2.365396738052368,4.227203369140625,0.27075639367103577
2.276846408843994,4.137772560119629,0.26859527826309204
2.238621234893799,4.140565395355225,0.27211326360702515
2.211453676223755,4.1636810302734375,0.2769763469696045
2.178675651550293,4.171852111816406,0.28066346049308777
2.1528892517089844,4.1937055587768555,0.2852773666381836
2.12825083732605,4.22345495223999,0.29032015800476074
2.103809118270874,4.252810478210449,0.29532235860824585
2.067002058029175,4.2532219886779785,0.298181414604187
2.049029588699341,4.291901111602783,0.30372005701065063
2.0161163806915283,4.302892208099365,0.30718010663986206
1.9861016273498535,4.320855617523193,0.3111095130443573
1.9672856330871582,4.363417625427246,0.31683456897735596
1.9825032949447632,4.480154514312744,0.32792097330093384
1.9631872177124023,4.522401332855225,0.33358240127563477
1.9331333637237549,4.5435471534729,0.3375481069087982
1.9044126272201538,4.568073272705078,0.3417896628379822
1.8922711610794067,4.63184928894043,0.3489726185798645
1.8237354755401611,4.554237365722656,0.345435231924057
1.8026485443115234,4.595885276794434,0.350800096988678
1.8013429641723633,4.692280292510986,0.3603021502494812
1.750823736190796,4.6612138748168945,0.36005130410194397
1.3305608034133911,3.6201705932617188,0.28126809000968933
1.3052661418914795,3.629187822341919,0.28357914090156555
1.2768235206604004,3.630861282348633,0.28520455956459045
1.646706461906433,4.792937278747559,0.37835583090782166
1.6021376848220825,4.774940013885498,0.378806471824646
1.5644577741622925,4.774905204772949,0.3806594908237457
1.5323511362075806,4.789181709289551,0.3836287260055542
1.5078328847885132,4.829403400421143,0.3885878026485443
1.4753692150115967,4.847364902496338,0.3916380703449249
1.4471538066864014,4.88004207611084,0.3959074318408966
1.4332462549209595,4.9610137939453125,0.40411561727523804
1.4001531600952148,4.9783453941345215,0.4071947932243347
1.3508964776992798,4.935239791870117,0.40527358651161194
1.2874847650527954,4.839249610900879,0.39870724081993103
1.2547911405563354,4.855703353881836,0.4013972878456116
1.228700876235962,4.898336887359619,0.40627795457839966
1.1958141326904297,4.91431188583374,0.4089721739292145
1.170490026473999,4.960247993469238,0.4141697585582733
1.135407567024231,4.968240737915039,0.41603267192840576
1.1033499240875244,4.991260528564453,0.41906705498695374
1.0718351602554321,5.017880916595459,0.42243266105651855
1.040732502937317,5.048126220703125,0.42613595724105835
1.0040334463119507,5.047468185424805,0.4272276759147644
0.9688942432403564,5.054184913635254,0.4289531111717224
2.121556520462036,11.507401466369629,0.9786060452461243
2.0012311935424805,11.303400993347168,0.9632287621498108
1.9061094522476196,11.236653327941895,0.959575355052948
1.8022754192352295,11.09185791015625,0.9491931796073914
1.7011473178863525,10.95002269744873,0.9390540719032288
1.5994845628738403,10.791994094848633,0.9273127913475037
1.5075150728225708,10.69105052947998,0.9199963808059692
1.4038870334625244,10.5007963180542,0.9050242900848389
1.319694995880127,10.42913818359375,0.9002532362937927
1.2286574840545654,10.28329849243164,0.8890739679336548
1.1472101211547852,10.202445030212402,0.8835205435752869
1.0612136125564575,10.070719718933105,0.8732607960700989
0.9904453158378601,10.077800750732422,0.8747004866600037
0.39283430576324463,4.313621997833252,0.37477797269821167
0.3577265441417694,4.258044242858887,0.3703327775001526
0.32751891016960144,4.252615451812744,0.3702583611011505
0.3019809424877167,4.312972068786621,0.37593498826026917
0.27286064624786377,4.330469608306885,0.3777397871017456
0.312338650226593,5.591158866882324,0.4879346489906311
0.27315327525138855,5.593173503875732,0.4883578419685364
0.09404237568378448,2.247293710708618,0.1963268369436264
0.19751803576946259,5.662476062774658,0.4949784278869629
0.1592767834663391,5.702573776245117,0.4988052546977997
0.11954984813928604,5.734664440155029,0.5017343163490295
0.07984589785337448,5.750916004180908,0.5031589269638062
0.03999578580260277,5.786349296569824,0.5062864422798157
-0.0002831465390045196,5.809830188751221,0.5083930492401123
-0.02967650629580021,4.233713150024414,0.37052980065345764
-0.05776767432689667,4.101099967956543,0.35899651050567627
-0.08562897145748138,4.069486141204834,0.3561438024044037
-0.11554289609193802,4.12716007232666,0.36102670431137085
-0.1396019011735916,3.994049310684204,0.34924039244651794
-0.16980138421058655,4.051321983337402,0.35412099957466125
-0.17724667489528656,3.6264002323150635,0.31688034534454346
-0.19876731932163239,3.551250457763672,0.310230553150177
-0.22237585484981537,3.5342841148376465,0.3085232973098755
-0.26741158962249756,3.8277390003204346,0.3338274359703064
-0.3025059998035431,3.938364028930664,0.3431696593761444
-0.31745582818984985,3.7888481616973877,0.32986214756965637
-0.33827534317970276,3.7206602096557617,0.3236612379550934
-0.3531024754047394,3.605938673019409,0.31344518065452576
-0.37638378143310547,3.5879831314086914,0.31149718165397644
-0.40845394134521484,3.651113986968994,0.3165280520915985
-0.43448421359062195,3.656005382537842,0.31651660799980164
-0.45585113763809204,3.61816143989563,0.3128136992454529
-0.47894224524497986,3.599531412124634,0.3107985556125641
-0.49855560064315796,3.557628870010376,0.30679500102996826
-0.5178840160369873,3.5195369720458984,0.30296605825424194
-0.5408300161361694,3.508283853530884,0.3014192283153534
-0.5696499347686768,3.531398296356201,0.30282628536224365
-0.5895524621009827,3.500579595565796,0.2996278703212738
-1.1092795133590698,6.318188667297363,0.539814293384552
-1.1532396078109741,6.310451030731201,0.5381933450698853
-1.218963623046875,6.421123504638672,0.5463011264801025
-1.2703453302383423,6.451010227203369,0.5475028157234192
-1.3238104581832886,6.484139442443848,0.5489639639854431
-1.3792132139205933,6.524494647979736,0.5510503053665161
-1.4328097105026245,6.552968978881836,0.5521401166915894
-1.4687535762786865,6.5012946128845215,0.5464335083961487
-1.5023009777069092,6.4458723068237305,0.5401161909103394
-0.6669835448265076,2.774848461151123,0.23179294168949127
-0.6952394843101501,2.808121919631958,0.23386496305465698
-0.7003715634346008,2.7467048168182373,0.22805091738700867
-0.7204680442810059,2.7456181049346924,0.22727146744728088
-0.7393227219581604,2.7406983375549316,0.22609928250312805
-0.7644877433776855,2.758143424987793,0.22667884826660156
-0.7874546647071838,2.7679760456085205,0.22664715349674225
-0.9614254832267761,3.2934410572052,0.2686702311038971
-0.9865261912345886,3.294267177581787,0.267732173204422
-1.0162571668624878,3.3097951412200928,0.2679928243160248
-1.041301965713501,3.3103106021881104,0.2668275535106659
-1.0588035583496094,3.2885305881500244,0.2639003098011017
-1.0834616422653198,3.2888312339782715,0.2627549469470978
-1.0914167165756226,3.2370529174804688,0.25743967294692993
-1.1164557933807373,3.2368850708007812,0.25625646114349365
-2.015401601791382,5.716552734375,0.4503142535686493
-2.0545127391815186,5.702887058258057,0.44683751463890076
-1.2912001609802246,3.5100507736206055,0.27357780933380127
-1.315464973449707,3.5011982917785645,0.2714102566242218
-1.3342418670654297,3.477567434310913,0.2681068480014801
-1.3666058778762817,3.490267753601074,0.2675320506095886
-1.4004895687103271,3.5063815116882324,0.26706740260124207
-1.4636223316192627,3.5945441722869873,0.272073894739151
-1.5451608896255493,3.721315383911133,0.2798517644405365
-1.566547155380249,3.6998679637908936,0.2764125168323517
-1.5826231241226196,3.667766571044922,0.2721322774887085
-1.5980960130691528,3.6357295513153076,0.2677496373653412
-1.6223448514938354,3.625175714492798,0.26500698924064636
-1.6538499593734741,3.628260612487793,0.26319563388824463
-1.6790876388549805,3.6168580055236816,0.26032358407974243
-1.7068601846694946,3.6126720905303955,0.2578654885292053
-1.7176989316940308,3.5731778144836426,0.2528005540370941
-1.7380528450012207,3.5548572540283203,0.24929562211036682
-1.7662888765335083,3.549844264984131,0.24663184583187103
-1.7980272769927979,3.5515823364257812,0.2444315254688263
-1.8285361528396606,3.553745985031128,0.24209794402122498
-2.4373459815979004,4.661386489868164,0.3142879009246826
-2.4697017669677734,4.644632339477539,0.30971822142601013
-2.4982993602752686,4.620751857757568,0.30468621850013733
-1.1753816604614258,2.139763832092285,0.13943544030189514
-1.1779581308364868,2.111732244491577,0.1359405517578125
-2.549651622772217,4.499628067016602,0.2859886884689331
-2.565983772277832,4.454676151275635,0.2792801558971405
-2.587965726852417,4.424183368682861,0.27349069714546204
-2.6147310733795166,4.40418815612793,0.26830828189849854
-1.2607488632202148,2.0914883613586426,0.12546733021736145
-2.6627864837646484,4.348507404327393,0.2566319704055786
-2.6487135887145996,4.261240482330322,0.2471238076686859
-2.0685606002807617,3.2806026935577393,0.18690599501132965
-2.0910699367523193,3.2665481567382812,0.18254177272319794
-2.126249074935913,3.2719640731811523,0.17917729914188385
-2.160045862197876,3.27807354927063,0.1757240891456604
-2.2102317810058594,3.305906057357788,0.17318005859851837
-2.2331807613372803,3.290705680847168,0.16819611191749573
-2.2762415409088135,3.3088064193725586,0.16479191184043884
-2.3087158203125,3.3103065490722656,0.16039498150348663
-2.3543190956115723,3.3262388706207275,0.15626971423625946
-2.4098196029663086,3.3588545322418213,0.15266618132591248
-2.881798267364502,3.962070941925049,0.17379304766654968
-2.8902080059051514,3.9175233840942383,0.16511335968971252
-2.9879887104034424,4.180467128753662,-0.14710548520088196
-2.4353785514831543,3.4615581035614014,-0.12836827337741852
-2.4239706993103027,3.4978384971618652,-0.13585692644119263
-2.7643070220947266,4.054770469665527,-0.16454531252384186
-2.752929210662842,4.0998759269714355,-0.1729029417037964
-2.1804702281951904,3.2989144325256348,-0.14425361156463623
-2.159499168395996,3.321735382080078,-0.15041261911392212
-1.3090736865997314,2.044649362564087,-0.09547775238752365
-1.2710990905761719,2.0177502632141113,-0.09704455733299255
-1.2827664613723755,2.0701279640197754,-0.10240821540355682
-1.2642208337783813,2.072213649749756,-0.1051625907421112
-2.0038437843322754,3.339495897293091,-0.17375710606575012
-2.048414945602417,3.4716386795043945,-0.18495401740074158
-2.0121731758117676,3.4654641151428223,-0.18869224190711975
-1.9680275917053223,3.4455995559692383,-0.1915934830904007
-1.1956604719161987,2.1296353340148926,-0.12084106355905533
-1.932261347770691,3.5009429454803467,-0.2025558054447174
-1.9003536701202393,3.5003583431243896,-0.20623411238193512
-1.8363195657730103,3.4415323734283447,-0.20633430778980255
-1.8038312196731567,3.440803050994873,-0.20983195304870605
-1.7653710842132568,3.4253742694854736,-0.2122526913881302
-1.7619293928146362,3.4794275760650635,-0.21903309226036072
-1.7330372333526611,3.4849417209625244,-0.22265858948230743
-2.3939266204833984,4.902309894561768,-0.31778183579444885
-2.3696939945220947,4.939675807952881,-0.32463210821151733
-2.3462915420532227,4.980661869049072,-0.33172136545181274
-1.6982111930847168,3.6735758781433105,-0.24780873954296112
-1.668027639389038,3.678548812866211,-0.25131362676620483
-1.6390745639801025,3.6827471256256104,-0.2546241581439972
-1.6192530393600464,3.708265781402588,-0.25937649607658386
-1.589320182800293,3.7124552726745605,-0.26255714893341064
-2.1885335445404053,5.215090274810791,-0.37285494804382324
-1.5658000707626343,3.8063437938690186,-0.2750321924686432
-1.515791893005371,3.759120464324951,-0.2743988335132599
-1.4500977993011475,3.6717960834503174,-0.270603746175766
-1.399819254875183,3.620073080062866,-0.26933178305625916
-1.3399977684020996,3.5384228229522705,-0.26567378640174866
-1.3121625185012817,3.540292263031006,-0.2682695984840393
-1.28691565990448,3.549323558807373,-0.2712143361568451
-1.2588940858840942,3.550868511199951,-0.27357637882232666
-1.2440080642700195,3.5888898372650146,-0.2787468135356903
-1.2214014530181885,3.604649305343628,-0.28220248222351074
-1.2003858089447021,3.627894163131714,-0.28621765971183777
-1.0798497200012207,3.3433454036712646,-0.26566457748413086
-0.9752024412155151,3.09443998336792,-0.247641921043396
-0.9581630825996399,3.115880250930786,-0.2510925531387329
-0.895002543926239,2.9842848777770996,-0.24215422570705414
-0.800599217414856,2.7399590015411377,-0.22370502352714539
-0.7711681127548218,2.711817741394043,-0.2227879762649536
-0.749983012676239,2.709526777267456,-0.223947674036026
-0.7350977063179016,2.7295901775360107,-0.22695879638195038
-0.7159419655799866,2.7345340251922607,-0.22867408394813538
-0.7032301425933838,2.7658252716064453,-0.23250146210193634
-1.4867660999298096,6.028985500335693,-0.5095089673995972
-1.4654712677001953,6.126006126403809,-0.5203787684440613
-1.4676176309585571,6.329166412353516,-0.5404062271118164
-1.4248783588409424,6.346617698669434,-0.5444067120552063
-1.3692938089370728,6.306796073913574,-0.5433405041694641
-1.3160536289215088,6.278079509735107,-0.5432620048522949
-1.2653284072875977,6.252493858337402,-0.5433866381645203
-1.2127875089645386,6.215050220489502,-0.5424769520759583
-1.1611804962158203,6.18110990524292,-0.5414790511131287
-1.10791015625,6.135293960571289,-0.5393723845481873
-1.0428180694580078,6.020114898681641,-0.5311645865440369
-0.9441444277763367,5.685349464416504,-0.5034140944480896
-0.9540095925331116,6.002864360809326,-0.5334305167198181
-0.7449026107788086,4.908947467803955,-0.4374387860298157
-0.7081695795059204,4.898505210876465,-0.4377429187297821
-0.6817449331283569,4.96494722366333,-0.4449683725833893
-0.6306082606315613,4.842097282409668,-0.43520456552505493
-0.7219657301902771,5.86181116104126,-0.5283277630805969
-0.5570975542068481,4.799935817718506,-0.4334982931613922
-0.6444330215454102,5.9136199951171875,-0.5351849794387817
-0.6015806794166565,5.902354717254639,-0.5352897047996521
-0.5572053790092468,5.879216194152832,-0.534352719783783
-0.5128341317176819,5.844074249267578,-0.5322271585464478
-0.46854591369628906,5.804767608642578,-0.5293567180633545
-0.25555533170700073,3.4683923721313477,-0.3167338967323303
-0.23292912542819977,3.4933228492736816,-0.31946641206741333
-0.20963190495967865,3.5181238651275635,-0.32221540808677673
-0.29877835512161255,5.67928409576416,-0.5208317637443542
-0.2585142254829407,5.665635585784912,-0.5199284553527832
-0.21800392866134644,5.640041351318359,-0.5179513692855835
-0.17793698608875275,5.618049144744873,-0.5163272023200989
-0.1369805783033371,5.572456359863281,-0.5125610828399658
-0.09796199947595596,5.5615715980529785,-0.5118821859359741
-0.05887272581458092,5.530998706817627,-0.5090599060058594
-0.01641162484884262,4.465470314025879,-0.41100454330444336
0.014666691422462463,4.477142810821533,-0.4121120870113373
0.056316256523132324,5.4415435791015625,-0.5009492039680481
0.09345798194408417,5.402135372161865,-0.49729424715042114
0.05393614247441292,2.2243316173553467,-0.20462492108345032
0.06962583214044571,2.231694221496582,-0.2051754593849182
0.20064891874790192,5.259191513061523,-0.4832390546798706
0.2382223904132843,5.281023025512695,-0.48499155044555664
0.11920590698719025,2.2841813564300537,-0.20962099730968475
0.2520999014377594,4.263777256011963,-0.39077669382095337
0.2775229513645172,4.199883460998535,-0.38443270325660706
0.3052627742290497,4.178515911102295,-0.38200798630714417
0.33368661999702454,4.1685967445373535,-0.38065072894096375
0.3668815493583679,4.208831787109375,-0.38377994298934937
0.47366341948509216,5.03127384185791,-0.4578450620174408
0.5076838135719299,5.0202436447143555,-0.45593535900115967
0.5400309562683105,4.993499279022217,-0.4526224732398987
0.5698907375335693,4.947211742401123,-0.44756945967674255
0.6038613319396973,4.935461521148682,-0.4455386996269226
0.6349842548370361,4.908156871795654,-0.4418882131576538
0.6667683124542236,4.888372898101807,-0.4389466345310211
0.6990289688110352,4.872211933135986,-0.43635207414627075
0.7305598258972168,4.85198450088501,-0.43341919779777527
0.7599260807037354,4.816112518310547,-0.4289584755897522
0.7905588746070862,4.795574188232422,-0.4256881773471832
0.8302173018455505,4.828527450561523,-0.4271778166294098
0.8650860786437988,4.830480098724365,-0.42592287063598633
0.8972532749176025,4.816862106323242,-0.42331206798553467
0.9276187419891357,4.795434951782227,-0.41987666487693787
0.9611580967903137,4.789028167724609,-0.41756394505500793
0.9861688017845154,4.744390964508057,-0.4119810163974762
1.0166966915130615,4.726197719573975,-0.40871313214302063
1.0495939254760742,4.719196796417236,-0.40643513202667236
1.0751941204071045,4.681697368621826,-0.4013504981994629
1.109678030014038,4.681870937347412,-0.3993631899356842
1.1381683349609375,4.659219264984131,-0.39548200368881226
1.16484534740448,4.628759384155273,-0.3909516930580139
1.1970502138137817,4.620755195617676,-0.3883441984653473
1.222761631011963,4.590085029602051,-0.38360583782196045
1.251633644104004,4.570430755615234,-0.37973660230636597
1.280973196029663,4.554444789886475,-0.3762255311012268
1.3061636686325073,4.523210525512695,-0.3714640736579895
1.3353350162506104,4.506802558898926,-0.3679191768169403
1.3638556003570557,4.490371227264404,-0.3641514480113983
1.3927158117294312,4.473606109619141,-0.3603423535823822
1.4165672063827515,4.441844463348389,-0.3553672432899475
1.4463036060333252,4.428409099578857,-0.35187292098999023
1.4743620157241821,4.411195755004883,-0.34797680377960205
1.5019513368606567,4.393915176391602,-0.3439680337905884
1.5216611623764038,4.354394912719727,-0.33825644850730896
1.281053066253662,3.5843505859375,-0.2762072682380676
1.2979754209518433,3.5535995960235596,-0.2716653347015381
1.598484754562378,4.286040782928467,-0.32484444975852966
1.630336046218872,4.2826409339904785,-0.32176291942596436
1.655614972114563,4.2606682777404785,-0.3172590732574463
1.6829478740692139,4.241843223571777,-0.3129352331161499
1.7164831161499023,4.241281032562256,-0.3099097013473511
1.740738034248352,4.219022274017334,-0.3052174746990204
1.7634450197219849,4.19295597076416,-0.3002621531486511
1.7895368337631226,4.1736907958984375,-0.29576045274734497
1.8188941478729248,4.161269187927246,-0.29167068004608154
1.84059476852417,4.134941577911377,-0.286549836397171
1.8684289455413818,4.12272310256958,-0.2824346125125885
1.9003653526306152,4.116979598999023,-0.27866217494010925
1.9224048852920532,4.0897955894470215,-0.27344903349876404
1.9469554424285889,4.069817066192627,-0.2685452103614807
1.9708715677261353,4.049903869628906,-0.2637282609939575
2.0023672580718994,4.043420314788818,-0.2596895396709442
2.0182385444641113,4.005263328552246,-0.2536231577396393
2.034376621246338,3.971104383468628,-0.2477295696735382
2.064502239227295,3.964606761932373,-0.24358613789081573
2.092451810836792,3.9502220153808594,-0.23875461518764496
2.1198649406433105,3.935866355895996,-0.23397231101989746
2.134793758392334,3.9014127254486084,-0.2279413789510727
2.16459321975708,3.894167900085449,-0.22351288795471191
2.143752336502075,3.794323205947876,-0.21368162333965302
2.170123815536499,3.7795839309692383,-0.20864348113536835
2.210841417312622,3.7923619747161865,-0.20512133836746216
2.2205841541290283,3.750706672668457,-0.19856864213943481
2.2507107257843018,3.7420921325683594,-0.19367128610610962
2.2754836082458496,3.7273502349853516,-0.18840163946151733
2.2921509742736816,3.6990392208099365,-0.1823742538690567
2.3220715522766113,3.6898295879364014,-0.17710615694522858
2.351100444793701,3.6809322834014893,-0.17182765901088715
2.353821039199829,3.633026361465454,-0.16474707424640656
2.3916215896606445,3.636582374572754,-0.15975560247898102
2.425342321395874,3.6332333087921143,-0.1542392075061798
2.431267023086548,3.5918681621551514,-0.1471981406211853
2.438126802444458,3.549640655517578,-0.13988976180553436
2.475262403488159,3.552680730819702,-0.13427411019802094
2.4933719635009766,3.5306742191314697,-0.1276889145374298
2.5182628631591797,3.513212203979492,-0.12066005170345306
2.5362987518310547,3.4907960891723633,-0.11355016380548477
2.5638060569763184,3.4805757999420166,-0.1065681204199791
2.7780826091766357,3.9242630004882812,0.20632897317409515
2.743851661682129,3.9383420944213867,0.2139161378145218
2.6983845233917236,3.9314260482788086,0.21981394290924072
2.6847496032714844,3.9780433177948,0.22871334850788116
2.6318089962005615,3.9614408016204834,0.23352792859077454
2.6357195377349854,4.028563976287842,0.24303792417049408
2.6048076152801514,4.0482177734375,0.24964451789855957
2.5791711807250977,4.073441982269287,0.25639966130256653
2.5418431758880615,4.078075408935547,0.2617054581642151
2.5110647678375244,4.096713542938232,0.26767274737358093
2.464097499847412,4.088360786437988,0.27180686593055725
2.4354865550994873,4.105104446411133,0.27726253867149353
2.4216201305389404,4.149090766906738,0.2845335602760315
2.401522397994995,4.1873674392700195,0.291436105966568
2.3633406162261963,4.190772533416748,0.29573482275009155
2.2979915142059326,4.142093181610107,0.29614993929862976
2.249107599258423,4.124137878417969,0.29856908321380615
2.225637912750244,4.15419864654541,0.3043903708457947
2.198702573776245,4.176979064941406,0.3096555471420288
2.173032522201538,4.198832988739014,0.3147069811820984
2.1461520195007324,4.221046447753906,0.3196910321712494
2.1148531436920166,4.236481189727783,0.32408419251441956
2.090865135192871,4.265406131744385,0.3294796943664551
2.0570926666259766,4.272820472717285,0.33316779136657715
2.030102014541626,4.294009685516357,0.33783096075057983
2.000095844268799,4.31204891204834,0.34209752082824707
1.9667056798934937,4.322783470153809,0.34580302238464355
2.006199836730957,4.49269437789917,0.36222583055496216
4.484414577484131,10.232730865478516,0.8314225077629089
4.400118350982666,10.243119239807129,0.8383862972259521
1.9192792177200317,4.559173583984375,0.3757690191268921
1.8892104625701904,4.579837322235107,0.38007012009620667
1.8572049140930176,4.592611312866211,0.3836473524570465
1.8422902822494507,4.648620128631592,0.3908819258213043
1.8079949617385864,4.661775588989258,0.3943323791027069
1.7767927646636963,4.681801795959473,0.39832741022109985
1.3608999252319336,3.664794683456421,0.3135840594768524
1.3140370845794678,3.615427255630493,0.31107550859451294
1.2966272830963135,3.6462953090667725,0.3154684007167816
1.2673283815383911,3.6481359004974365,0.3171912729740143
1.6087172031402588,4.740823268890381,0.41418397426605225
1.585710048675537,4.785231590270996,0.4200667142868042
1.5594899654388428,4.81813907623291,0.42492949962615967
1.541096806526184,4.876890182495117,0.43212103843688965
1.4884740114212036,4.83190393447876,0.4299376904964447
1.4648724794387817,4.879528045654297,0.43589475750923157
1.4231863021850586,4.867287635803223,0.4365318715572357
1.3848564624786377,4.861917972564697,0.4377455413341522
1.3613702058792114,4.908713340759277,0.4436781108379364
1.3034641742706299,4.831542491912842,0.43829548358917236
1.2721621990203857,4.855764865875244,0.441928505897522
1.2402859926223755,4.875847339630127,0.44518837332725525
1.2132335901260376,4.914515495300293,0.4501640200614929
1.1807920932769775,4.930212020874023,0.45304667949676514
1.1552292108535767,4.976011276245117,0.4587310254573822
1.1201549768447876,4.98783016204834,0.46105051040649414
1.0862680673599243,5.00310754776001,0.463640034198761
1.0522202253341675,5.018153667449951,0.4662351906299591
1.0217548608779907,5.048088550567627,0.4702220559120178
0.992564857006073,5.085446357727051,0.4749308228492737
2.1877381801605225,11.64861011505127,1.090632677078247
2.069108009338379,11.464460372924805,1.0754759311676025
1.9505480527877808,11.26390552520752,1.0587581396102905
1.8440769910812378,11.115947723388672,1.0469609498977661
1.7466285228729248,11.001428604125977,1.0382730960845947
1.6476716995239258,10.874780654907227,1.0284804105758667
1.5577118396759033,10.789528846740723,1.0222455263137817
1.4541261196136475,10.599658966064453,1.0056294202804565
1.3612101078033447,10.470600128173828,0.9947904348373413
1.2709846496582031,10.344592094421387,0.9842469096183777
1.1828901767730713,10.213898658752441,0.9732526540756226
1.100045919418335,10.125149726867676,0.9662953615188599
1.0237177610397339,10.078254699707031,0.962967038154602
0.4085865914821625,4.324378490447998,0.41355788707733154
0.37616166472435,4.303837776184082,0.41197943687438965
0.34257784485816956,4.263668537139893,0.4085351824760437
0.31437861919403076,4.29307222366333,0.41178035736083984
0.28653356432914734,4.326136112213135,0.4153957664966583
0.3322238624095917,5.608913421630859,0.5389398336410522
0.2933465838432312,5.618826389312744,0.5401168465614319
0.2559860050678253,5.663426876068115,0.54465651512146
0.2160252183675766,5.672832012176514,0.5458451509475708
0.17732223868370056,5.697473049163818,0.548521876335144
0.1374758630990982,5.690752983093262,0.5482070446014404
0.0988214761018753,5.749868869781494,0.5540241599082947
0.05901729688048363,5.773744583129883,0.5562906265258789
0.017946967855095863,5.750686168670654,0.5540621280670166
-0.016704251989722252,4.358689308166504,0.419962614774704
-0.04520503431558609,4.1951704025268555,0.40424177050590515
-0.07322726398706436,4.132551670074463,0.3982608914375305
-0.10246576368808746,4.155280590057373,0.40036293864250183
-0.1291336715221405,4.088432312011719,0.3937172293663025
-0.15618115663528442,4.040821075439453,0.3889450430870056
-0.272912859916687,5.985700607299805,0.5759027600288391
-0.1871984750032425,3.56070613861084,0.3424568474292755
-0.2124113142490387,3.567105293273926,0.34295904636383057
-0.23919597268104553,3.596621513366699,0.34557053446769714
-0.28646671772003174,3.8935036659240723,0.3737230598926544
-0.311495304107666,3.868227005004883,0.3709509074687958
-0.3298278748989105,3.7691824436187744,0.3611316978931427
-0.34472188353538513,3.646832227706909,0.3491135835647583
-0.36421483755111694,3.5863606929779053,0.3430502414703369
-0.3877817690372467,3.5683045387268066,0.3409290313720703
-0.4199669361114502,3.631290912628174,0.3464391529560089
-0.44688448309898376,3.64382266998291,0.3471408486366272
-0.46753203868865967,3.6060140132904053,0.34306496381759644
-0.4883902370929718,3.5719223022460938,0.3393642008304596
-0.5103073120117188,3.5453569889068604,0.3363947570323944
-0.531830370426178,3.522611618041992,0.33368149399757385
-0.5565943121910095,3.522815227508545,0.33305177092552185
-0.5883162617683411,3.5650634765625,0.33640459179878235
-0.5924223065376282,3.442190647125244,0.3242012858390808
-1.1365329027175903,6.340169906616211,0.5960423350334167
-1.1920686960220337,6.389499187469482,0.5995732545852661
-1.241794228553772,6.411920547485352,0.6003154516220093
-1.3031624555587769,6.491222381591797,0.6062307953834534
-1.3505632877349854,6.497635364532471,0.6053453683853149
-1.4059940576553345,6.537822723388672,0.6076028943061829
-1.4505566358566284,6.520333766937256,0.6044819355010986
-1.4880616664886475,6.476174831390381,0.5989527106285095
-1.5268652439117432,6.4434003829956055,0.5941334366798401
-0.6838340759277344,2.8007848262786865,0.2574611008167267
-0.702886164188385,2.796175241470337,0.2562541663646698
-0.7167126536369324,2.7686681747436523,0.25294071435928345
-0.7289437055587769,2.7374064922332764,0.24932032823562622
-0.7550670504570007,2.758681058883667,0.25046348571777344
-0.7758174538612366,2.761129140853882,0.24975070357322693
-0.7858814001083374,2.726020574569702,0.24565847218036652
-0.9791646599769592,3.3102962970733643,0.2971828281879425
-1.0044604539871216,3.3109986782073975,0.2961209714412689
-1.006697177886963,3.2371766567230225,0.28842830657958984
-1.0523818731307983,3.3045713901519775,0.2931961417198181
-1.0698559284210205,3.2827537059783936,0.2899613678455353
-1.0690021514892578,3.205329656600952,0.2818392813205719
-1.1024185419082642,3.231201171875,0.2828229069709778
-2.0035440921783447,5.741483211517334,0.5002424716949463
-2.032743215560913,5.698463439941406,0.49413052201271057
-2.061690092086792,5.659383296966553,0.4881465435028076
-1.3029836416244507,3.503481149673462,0.30058997869491577
-1.3314446210861206,3.50546932220459,0.2991119623184204
-1.3544576168060303,3.4926724433898926,0.2963770627975464
-1.38014817237854,3.486994981765747,0.29425325989723206
-1.409302830696106,3.492338180541992,0.2928570508956909
-1.4415532350540161,3.504650354385376,0.29203930497169495
-1.5380229949951172,3.6672472953796387,0.30359628796577454
-1.5635579824447632,3.6566710472106934,0.30071786046028137
-1.5827257633209229,3.6316614151000977,0.29667073488235474
-1.6163711547851562,3.6426451206207275,0.2953774929046631
-1.6341943740844727,3.617837429046631,0.2911906838417053
-1.6624109745025635,3.6137900352478027,0.28861215710639954
-1.6875795125961304,3.6023590564727783,0.28543201088905334
-1.7190593481063843,3.6049723625183105,0.2833283245563507
-1.7361201047897339,3.57973313331604,0.2789004147052765
-1.7460259199142456,3.54044246673584,0.27341875433921814
-1.784792184829712,3.556245803833008,0.27206408977508545
-1.8202636241912842,3.564765691757202,0.2701359689235687
-2.4224653244018555,4.666589260101318,0.35009047389030457
-2.4423162937164307,4.63016414642334,0.34375619888305664
-2.4844305515289307,4.634618282318115,0.34040769934654236
-2.501889228820801,4.59010124206543,0.33333149552345276
-1.1752653121948242,2.121076822280884,0.15220151841640472
-2.5389156341552734,4.512403964996338,0.3198041617870331
-2.560925006866455,4.482361316680908,0.3136703073978424
-2.5764718055725098,4.437788486480713,0.3063456416130066
-2.596888542175293,4.40362548828125,0.299753338098526
-1.2458583116531372,2.0812833309173584,0.13956119120121002
-2.646592378616333,4.356441497802734,0.2877039909362793
-2.6441519260406494,4.285150527954102,0.2783581018447876
-2.940040111541748,4.694055080413818,0.29972678422927856
-2.974405527114868,4.68201208114624,0.2936394214630127
-3.0232436656951904,4.688235282897949,0.2883477210998535
-2.1584208011627197,3.2965521812438965,0.1986345797777176
-2.179624557495117,3.2828731536865234,0.19357115030288696
-2.2116968631744385,3.285196304321289,0.18938609957695007
-2.2566006183624268,3.3022046089172363,0.185640349984169
-2.2917988300323486,3.3067209720611572,0.1809726506471634
-2.3508245944976807,3.3467400074005127,0.17817650735378265
-2.3832077980041504,3.3432834148406982,0.17245399951934814
-2.8686673641204834,3.970449924468994,0.19810819625854492
-2.928661584854126,3.999596118927002,0.19253462553024292
-2.90274977684021,3.907557249069214,0.18054334819316864
-2.466672658920288,3.477468967437744,-0.13524384796619415
-2.4315617084503174,3.482771396636963,-0.14251677691936493
-2.771782159805298,4.030372619628906,-0.17250438034534454
-2.744626760482788,4.057967185974121,-0.18138347566127777
-1.3134554624557495,1.9719387292861938,-0.09153029322624207
-2.176741600036621,3.3193857669830322,-0.1595965027809143
-1.3033033609390259,2.0202341079711914,-0.10046220570802689
-1.280652642250061,2.0160200595855713,-0.10334467887878418
-1.2905012369155884,2.064976215362549,-0.10902582854032516
-1.2627041339874268,2.054466962814331,-0.11153893917798996
-1.2482184171676636,2.063117265701294,-0.1148763969540596
-2.0117228031158447,3.3793063163757324,-0.19278500974178314
-1.9964038133621216,3.4106881618499756,-0.19918161630630493
-1.9677231311798096,3.4180028438568115,-0.20408546924591064
-1.2034887075424194,2.1247096061706543,-0.1295282542705536
-1.9524873495101929,3.5066885948181152,-0.21807816624641418
-1.9231799840927124,3.5136380195617676,-0.2227451503276825
-1.8523589372634888,3.4408321380615234,-0.2220943123102188
-1.816257357597351,3.433263063430786,-0.22555729746818542
-1.7766978740692139,3.4184727668762207,-0.2283950001001358
-1.7629598379135132,3.451564073562622,-0.23433175683021545
-1.7632726430892944,3.5122833251953125,-0.2421637773513794
-2.4049441814422607,4.8778815269470215,-0.34132081270217896
-2.382291793823242,4.923212051391602,-0.3495871424674988
-2.3560032844543457,4.957006931304932,-0.3568326234817505
-1.724502444267273,3.6943652629852295,-0.2695206105709076
-1.6847444772720337,3.6780807971954346,-0.27175000309944153
-1.6516953706741333,3.675638437271118,-0.27497613430023193
-1.6289942264556885,3.6939635276794434,-0.27966174483299255
-1.60579514503479,3.712279796600342,-0.2844141721725464
-2.1631529331207275,5.100902080535889,-0.3951241970062256
-2.160712242126465,5.198685646057129,-0.40709182620048523
-2.1916823387145996,5.379298686981201,-0.4256688058376312
-2.1684508323669434,5.430230617523193,-0.43414294719696045
-2.133145332336426,5.456303119659424,-0.4405399560928345
-1.3518385887145996,3.532175302505493,-0.2878933548927307
-1.3213390111923218,3.5267860889434814,-0.29011693596839905
-2.0556716918945312,5.6051106452941895,-0.465256005525589
-2.008078098297119,5.597087860107422,-0.4686086177825928
-1.896445393562317,5.409015655517578,-0.4566684365272522
-1.594101905822754,4.652138710021973,-0.3959748446941376
-1.5665106773376465,4.677580833435059,-0.4013099670410156
-1.8763418197631836,5.735212326049805,-0.49589797854423523
-1.8495935201644897,5.792548179626465,-0.5044382810592651
-0.9685699343681335,3.110828161239624,-0.2728651463985443
-0.9399190545082092,3.094986915588379,-0.273370623588562
-0.8055984377861023,2.720590353012085,-0.24196065962314606
-0.7831417918205261,2.7148077487945557,-0.2429991066455841
-0.7638497352600098,2.720122814178467,-0.24496369063854218
-0.7404632568359375,2.7102720737457275,-0.24556320905685425
-0.7192303538322449,2.7077553272247314,-0.2468288391828537
-0.711042046546936,2.7539689540863037,-0.25253960490226746
-0.6868064999580383,2.739900827407837,-0.25255054235458374
-1.469019889831543,6.040994167327881,-0.5597155094146729
-1.4747966527938843,6.255271911621094,-0.5825522541999817
-1.4417070150375366,6.314494609832764,-0.5911271572113037
-1.3932859897613525,6.305085182189941,-0.5931106805801392
-1.3471698760986328,6.306820392608643,-0.5958321690559387
-1.2931889295578003,6.270134925842285,-0.59493488073349
-1.2395026683807373,6.229103088378906,-0.5935880541801453
-1.185049057006836,6.1839375495910645,-0.5918737053871155
-1.1353254318237305,6.157382488250732,-0.5915963053703308
-1.0661731958389282,6.019444465637207,-0.5803771615028381
-0.954735279083252,5.620166778564453,-0.5438012480735779
-0.9467998147010803,5.818331718444824,-0.5649659037590027
-0.93299800157547,6.001376628875732,-0.5848544836044312
-0.890868604183197,6.007550239562988,-0.5871573686599731
-0.6954574584960938,4.927788734436035,-0.48294752836227417
-0.6577520370483398,4.909252643585205,-0.48246943950653076
-0.7410390973091125,5.839164733886719,-0.5754625797271729
-0.7156498432159424,5.97135066986084,-0.5901555418968201
-0.6687570214271545,5.937495708465576,-0.58804851770401
-0.6230680346488953,5.9032135009765625,-0.585850179195404
-0.5776118636131287,5.864707946777344,-0.583241879940033
-0.5340360999107361,5.83745002746582,-0.581757664680481
-0.49212151765823364,5.825371742248535,-0.5817921757698059
-0.44868218898773193,5.801481246948242,-0.5801591277122498
-0.24541747570037842,3.4895975589752197,-0.3494281768798828
-0.2200925201177597,3.475644111633301,-0.34850746393203735
-0.3209746778011322,5.696737766265869,-0.5720255374908447
-0.2801276743412018,5.675445079803467,-0.5706641674041748
-0.23919641971588135,5.661703109741211,-0.5696390271186829
-0.198148712515831,5.620455741882324,-0.5658650994300842
-0.1585541069507599,5.606107234954834,-0.5648218393325806
-0.11876817792654037,5.568164348602295,-0.561423659324646
-0.07979188859462738,5.549381732940674,-0.5598887205123901
-0.040306661278009415,5.518716335296631,-0.5567461252212524
-0.0015545341884717345,4.43841028213501,-0.44774460792541504
0.02974291704595089,4.504383563995361,-0.4544050693511963
0.0734957680106163,5.421204090118408,-0.5469269752502441
0.11086121201515198,5.405031204223633,-0.5452418923377991
0.14797644317150116,5.3886399269104,-0.5431831479072571
0.14031188189983368,4.062967300415039,-0.4092625677585602
0.09860533475875854,2.376579761505127,-0.2392372488975525
0.2541562020778656,5.24474573135376,-0.5276414155960083
0.2370004504919052,4.27660608291626,-0.4298911690711975
0.262778103351593,4.2128705978393555,-0.4228765368461609
0.29195311665534973,4.203235626220703,-0.4213128387928009
0.31905561685562134,4.174055576324463,-0.4178245961666107
0.3496808111667633,4.191181182861328,-0.418992280960083
0.38156285881996155,4.2197136878967285,-0.42118459939956665
0.4880073666572571,5.010207653045654,-0.4990401566028595
0.5196740627288818,4.97198486328125,-0.4941982626914978
0.5532941222190857,4.960667133331299,-0.4920797348022461
0.5868666768074036,4.9491119384765625,-0.48996204137802124
0.6201649904251099,4.937365531921387,-0.4876640737056732
0.6501342058181763,4.902311325073242,-0.4828503131866455
0.6797314882278442,4.863143444061279,-0.4776481091976166
0.7123548984527588,4.850785732269287,-0.4751302897930145
0.7437382936477661,4.83051061630249,-0.4718628525733948
0.7747169733047485,4.810079097747803,-0.4683862328529358
0.8066074252128601,4.797158718109131,-0.4654826521873474
0.8477534055709839,4.837649345397949,-0.4677709639072418
0.8819797039031982,4.831742286682129,-0.4655383229255676
0.9112455248832703,4.80277156829834,-0.4611416161060333
0.9444088935852051,4.796595096588135,-0.4586932957172394
0.9711610674858093,4.7597432136535645,-0.45323067903518677
0.9999411106109619,4.734147548675537,-0.4488769471645355
1.0334709882736206,4.727188587188721,-0.44626685976982117
1.0646473169326782,4.712531089782715,-0.442989319562912
1.0917648077011108,4.682628154754639,-0.4379870295524597
1.1202583312988281,4.660160541534424,-0.4336834251880646
1.150556206703186,4.645026683807373,-0.4300805330276489
1.1815369129180908,4.629487037658691,-0.4264110326766968
1.207754373550415,4.598856449127197,-0.42137590050697327
1.2372326850891113,4.58324670791626,-0.4174745976924896
1.2633965015411377,4.556207180023193,-0.4125687777996063
1.2885857820510864,4.525166034698486,-0.40731069445610046
1.3119486570358276,4.486313343048096,-0.40134114027023315
1.3519089221954346,4.507251262664795,-0.4006384313106537
1.3736255168914795,4.468425273895264,-0.3944858908653259
1.4018884897232056,4.451786041259766,-0.3903331160545349
1.4328365325927734,4.442232608795166,-0.38678422570228577
1.4606190919876099,4.421189785003662,-0.38221144676208496
1.4882938861846924,4.404057025909424,-0.37780848145484924
1.5106408596038818,4.37205696105957,-0.3721346855163574
1.2619024515151978,3.572470188140869,-0.3016594648361206
1.2868307828903198,3.563833475112915,-0.29848915338516235
1.311455249786377,3.555115222930908,-0.2952582836151123
1.6107267141342163,4.275135040283203,-0.35183876752853394
1.643997073173523,4.275303840637207,-0.3486948311328888
1.6738207340240479,4.2640533447265625,-0.344546914100647
1.7006369829177856,4.245370864868164,-0.33982422947883606
1.7279658317565918,4.230457305908203,-0.33522048592567444
1.751172661781311,4.204374313354492,-0.32969003915786743
1.7679777145385742,4.163834095001221,-0.3230809271335602
1.7969931364059448,4.151734828948975,-0.3186810314655304
1.8221691846847534,4.132574558258057,-0.3136427402496338
1.850061058998108,4.120506286621094,-0.3091057240962982
1.8755123615264893,4.100763320922852,-0.3038986921310425
1.90738844871521,4.094980716705322,-0.29973718523979187
1.932073712348938,4.0751118659973145,-0.294478178024292
1.9561076164245605,4.055321216583252,-0.2891702353954315
1.9837019443511963,4.042238712310791,-0.28431686758995056
2.0123484134674072,4.028408527374268,-0.2792613208293915
2.031043529510498,3.9975056648254395,-0.27305302023887634
2.054211139678955,3.977217674255371,-0.26753658056259155
2.0812408924102783,3.96348237991333,-0.2624147832393646
2.1088578701019287,3.9492030143737793,-0.257162868976593
2.1281838417053223,3.9214231967926025,-0.2509976029396057
2.1584856510162354,3.914078950881958,-0.24604374170303345
2.137618064880371,3.8144495487213135,-0.2353368103504181
2.168081045150757,3.8065319061279297,-0.23030851781368256
2.1738948822021484,3.7585434913635254,-0.22281768918037415
2.2145683765411377,3.77128267288208,-0.21894092857837677
