X,Y,Z
0.1974184513092041,1.9767303466796875,-0.1948166787624359
0.20860256254673004,1.9521816968917847,-0.1919470876455307
0.21855100989341736,1.9198522567749023,-0.1883106678724289
0.2400103211402893,1.9839410781860352,-0.19412286579608917
0.25681111216545105,2.005418300628662,-0.19575870037078857
0.26869848370552063,1.988228678703308,-0.1936282366514206
0.2835470139980316,1.9940977096557617,-0.1935860812664032
0.28643178939819336,1.9190936088562012,-0.18571597337722778
0.3011658489704132,1.924784779548645,-0.18567262589931488
0.3183262348175049,1.9457428455352783,-0.18710960447788239
0.336434006690979,1.9703927040100098,-0.18887931108474731
0.36363813281059265,2.044696569442749,-0.19524161517620087
0.37632060050964355,2.0345845222473145,-0.19352693855762482
0.3955707550048828,2.0587544441223145,-0.19507087767124176
0.414710134267807,2.0788841247558594,-0.19620786607265472
0.4243946373462677,2.0532021522521973,-0.19300007820129395
0.4401538074016571,2.0579466819763184,-0.1925552636384964
0.46437862515449524,2.100559949874878,-0.19564104080200195
0.4919683337211609,2.154282331466675,-0.19971702992916107
0.5072426199913025,2.150853157043457,-0.19846127927303314
0.5294725894927979,2.177656650543213,-0.19992631673812866
0.5463228225708008,2.1816422939300537,-0.19921092689037323
0.5652128458023071,2.193031072616577,-0.19916844367980957
0.5914652347564697,2.2305421829223633,-0.20146583020687103
0.6052325367927551,2.2189137935638428,-0.19929853081703186
0.6163076162338257,2.1998419761657715,-0.19638079404830933
0.5614708065986633,1.9525681734085083,-0.17321740090847015
0.6619616150856018,2.243697166442871,-0.19778850674629211
0.6843578219413757,2.261526107788086,-0.19808737933635712
0.7084091305732727,2.2828071117401123,-0.19862395524978638
0.7357984185218811,2.315168619155884,-0.20000098645687103
0.7492083311080933,2.3028371334075928,-0.19750793278217316
0.7762874364852905,2.3309757709503174,-0.19845430552959442
0.7975693345069885,2.3404037952423096,-0.19778209924697876
0.8315922021865845,2.3865106105804443,-0.20009446144104004
0.8533686995506287,2.3955323696136475,-0.19917811453342438
0.873810887336731,2.4007654190063477,-0.1979551911354065
0.9041082859039307,2.4312970638275146,-0.19877037405967712
0.9265099167823792,2.4397032260894775,-0.19773176312446594
0.9557582139968872,2.466219425201416,-0.1980273723602295
0.9985653758049011,2.5249547958374023,-0.20081622898578644
1.0263465642929077,2.543419599533081,-0.20032578706741333
1.055915355682373,2.56522274017334,-0.20006631314754486
1.0824177265167236,2.5797278881073,-0.1991168111562729
1.1090589761734009,2.5940380096435547,-0.19810405373573303
1.1381657123565674,2.6113955974578857,-0.1972147524356842
1.1500344276428223,2.5893518924713135,-0.19336633384227753
1.1629375219345093,2.5709645748138428,-0.18975916504859924
1.1802794933319092,2.563258647918701,-0.18691331148147583
1.2060940265655518,2.572964668273926,-0.18529658019542694
1.2377533912658691,2.5927023887634277,-0.18428736925125122
1.3866779804229736,2.854374885559082,-0.20020043849945068
1.4489871263504028,2.9326202869415283,-0.20287038385868073
1.4812381267547607,2.9472858905792236,-0.20099467039108276
1.5230932235717773,2.9787750244140625,-0.20014366507530212
1.42649507522583,2.743652582168579,-0.18153709173202515
1.4341994524002075,2.713426351547241,-0.17666299641132355
1.426928997039795,2.655658721923828,-0.1700555384159088
1.4416927099227905,2.6390116214752197,-0.16609719395637512
1.4575692415237427,2.62603759765625,-0.16234315931797028
1.4367046356201172,2.5485341548919678,-0.15466658771038055
1.4293830394744873,2.4945831298828125,-0.1483924835920334
1.446660041809082,2.484813690185547,-0.14483004808425903
1.4630229473114014,2.475421190261841,-0.14126089215278625
1.4334228038787842,2.3888051509857178,-0.13333608210086823
1.3993120193481445,2.2956337928771973,-0.12513157725334167
1.3636449575424194,2.2032463550567627,-0.11712080985307693
1.3739546537399292,2.187800407409668,-0.11336342245340347
1.3807592391967773,2.1652040481567383,-0.10909561067819595
1.3954306840896606,2.1559560298919678,-0.105514295399189
1.398708701133728,2.130695343017578,-0.10117132216691971
1.4201244115829468,2.1307485103607178,-0.09779485315084457
1.4302140474319458,2.114743232727051,-0.09368480741977692
1.4327927827835083,2.0895371437072754,-0.08920014649629593
1.4426912069320679,2.073378324508667,-0.0849146693944931
1.4473882913589478,2.0511791706085205,-0.08038657903671265
1.4562742710113525,2.0354442596435547,-0.07601864635944366
1.4658584594726562,2.0190699100494385,-0.0714140459895134
1.4739536046981812,2.003629446029663,-0.06688183546066284
2.271200180053711,3.2025773525238037,0.16611118614673615
2.275909900665283,3.2609481811523438,0.17487679421901703
2.5519089698791504,3.7149932384490967,0.20540735125541687
3.1746246814727783,4.692622661590576,0.26685771346092224
3.1274311542510986,4.700308322906494,0.27435103058815
2.41105055809021,3.681499481201172,0.22008204460144043
3.099987030029297,4.805967807769775,0.2937297821044922
1.6235908269882202,2.5594167709350586,0.15972831845283508
1.6291043758392334,2.6109960079193115,0.16623875498771667
1.5863202810287476,2.582195281982422,0.16741584241390228
3.003420352935791,4.970166206359863,0.32785797119140625
2.9737982749938965,5.005634784698486,0.3357548415660858
2.94828200340271,5.0428619384765625,0.34345442056655884
2.861499786376953,4.9755377769470215,0.3440145254135132
2.797189235687256,4.948931694030762,0.3469773530960083
2.7169156074523926,4.890690803527832,0.3475537896156311
2.6583850383758545,4.864668846130371,0.3500594198703766
2.5980446338653564,4.8348870277404785,0.35217684507369995
2.534118413925171,4.802280426025391,0.3539016842842102
2.4844565391540527,4.792672157287598,0.3571530282497406
2.417246103286743,4.743579387664795,0.357220858335495
2.361140489578247,4.714786052703857,0.3587243854999542
2.305584669113159,4.689786434173584,0.36024022102355957
1.2307790517807007,2.55161452293396,0.19788797199726105
1.2162261009216309,2.567021608352661,0.20084957778453827
1.190071702003479,2.557590961456299,0.20186443626880646
1.173142433166504,2.5695009231567383,0.20445683598518372
1.1526820659637451,2.5742948055267334,0.20644964277744293
1.1451305150985718,2.6072945594787598,0.21069569885730743
2.066666603088379,4.797490119934082,0.3906000554561615
2.0420098304748535,4.833092212677002,0.3963588774204254
2.0230846405029297,4.887134075164795,0.4034336507320404
2.002014636993408,4.937537670135498,0.4102705121040344
1.967015027999878,4.951272964477539,0.41402167081832886
2.4062132835388184,6.1842522621154785,0.5204063653945923
2.3624379634857178,6.20072603225708,0.5249285101890564
2.3009889125823975,6.173584938049316,0.5254848599433899
2.274726152420044,6.2409987449646,0.5341207981109619
1.916947364807129,5.376326084136963,0.4625466465950012
2.1337740421295166,6.121071815490723,0.5294204950332642
2.0454933643341064,6.002917289733887,0.5218141078948975
1.9972362518310547,6.002425670623779,0.5240957140922546
1.9310561418533325,5.946014404296875,0.5214889049530029
1.9114233255386353,6.029683589935303,0.5311428904533386
1.899619460105896,6.143194198608398,0.5435335040092468
1.8736121654510498,6.211872577667236,0.5519965887069702
1.8267803192138672,6.217411041259766,0.554498553276062
1.7884681224822998,6.252548694610596,0.559676468372345
1.763794183731079,6.336058616638184,0.5692216753959656
1.7338566780090332,6.400498390197754,0.5770799517631531
1.7072550058364868,6.483842849731445,0.5867491364479065
0.507179319858551,1.9829531908035278,0.1800180822610855
0.4948786795139313,1.994001030921936,0.18155167996883392
0.4697020947933197,1.9520115852355957,0.17825531959533691
0.4445485770702362,1.905916452407837,0.17455655336380005
0.442160040140152,1.9582842588424683,0.17989198863506317
0.42598414421081543,1.9498475790023804,0.1796441376209259
0.4024465084075928,1.9070910215377808,0.1761009395122528
0.40825769305229187,2.0051498413085938,0.1855802685022354
1.220348596572876,6.218466281890869,0.5768648386001587
0.3798183798789978,2.010603427886963,0.18695612251758575
0.3672042191028595,2.0207903385162354,0.1883457601070404
1.075232982635498,6.161717891693115,0.5755085349082947
1.0194140672683716,6.09612512588501,0.5703445076942444
0.9750221967697144,6.095351219177246,0.5712606906890869
0.9279097318649292,6.078939914703369,0.5707452297210693
0.8715519309043884,5.9888811111450195,0.5632967948913574
0.8228937387466431,5.944572448730469,0.5601540207862854
0.777122974395752,5.919225215911865,0.5585626363754272
0.7406333684921265,5.9669060707092285,0.5637127161026001
0.5904983878135681,5.048671245574951,0.4775383472442627
0.5643829107284546,5.141559600830078,0.486936092376709
0.5306331515312195,5.164608001708984,0.48974287509918213
0.3939369320869446,4.115106105804443,0.3907373249530792
0.3630571961402893,4.094466209411621,0.3891039192676544
0.3416275382041931,4.186010360717773,0.39806678891181946
0.311180979013443,4.180537223815918,0.39783361554145813
0.28021731972694397,4.155396938323975,0.3957393169403076
0.254398912191391,4.207657814025879,0.4010363221168518
0.41598033905029297,7.777845859527588,0.7419425249099731
0.3613108694553375,7.77274227142334,0.7417089343070984
0.3042454123497009,7.728449821472168,0.7376390695571899
0.2493409663438797,7.703146457672119,0.7354138493537903
0.19494739174842834,7.673560619354248,0.7328130602836609
0.1411210000514984,7.651369094848633,0.7309521436691284
0.08765755593776703,7.632689952850342,0.7294606566429138
0.03357350826263428,7.617570400238037,0.7279127240180969
-0.01934562250971794,7.570975303649902,0.7232679128646851
-0.07183127105236053,7.555122375488281,0.7215967774391174
-0.12372805923223495,7.511688232421875,0.7173271775245667
-0.1757649928331375,7.5028886795043945,0.7164005637168884
-0.22674082219600677,7.462635040283203,0.7125056385993958
-0.2789169251918793,7.449249267578125,0.7108007073402405
-0.3302749991416931,7.439431667327881,0.7093558311462402
-0.2785475552082062,5.425343036651611,0.5169655680656433
-0.3157493770122528,5.415563583374023,0.5157131552696228
-0.35282889008522034,5.405529022216797,0.5144622325897217
-0.38933730125427246,5.379677772521973,0.5117276906967163
-0.42590203881263733,5.3691816329956055,0.5101836919784546
-0.46127817034721375,5.346826076507568,0.5074556469917297
-0.4302564263343811,4.615634918212891,0.43755969405174255
-0.46345850825309753,4.624217987060547,0.43788889050483704
-0.4923945665359497,4.586099147796631,0.4338110387325287
-0.5242751240730286,4.58263635635376,0.4330436587333679
-0.5530417561531067,4.555844783782959,0.429839551448822
-0.5823912024497986,4.536602973937988,0.42731502652168274
-0.6124992370605469,4.524886608123779,0.4255242645740509
-0.6444045305252075,4.52055549621582,0.42443162202835083
-0.6734672784805298,4.500687122344971,0.4219139516353607
-0.701682984828949,4.476790428161621,0.4190439283847809
-0.7323734760284424,4.471997261047363,0.417709618806839
-0.7616267800331116,4.459342956542969,0.4156309962272644
-0.7907412648200989,4.446497917175293,0.4135569930076599
-0.816496729850769,4.410325527191162,0.40931153297424316
-0.8405596613883972,4.37028169631958,0.4047534465789795
-0.7315711975097656,3.6663055419921875,0.33885085582733154
-0.7550146579742432,3.6537322998046875,0.33676615357398987
-0.77994704246521,3.648618459701538,0.3353866636753082
-0.960709810256958,4.346036911010742,0.3984066843986511
-0.9839536547660828,4.309064865112305,0.3939579129219055
-1.0156550407409668,4.309850215911865,0.39298582077026367
-1.045361876487732,4.302901268005371,0.3912369906902313
-1.0726653337478638,4.288329124450684,0.38862335681915283
-1.1003156900405884,4.273459434509277,0.38598355650901794
-1.1256544589996338,4.250929832458496,0.38268426060676575
-1.1531486511230469,4.235663890838623,0.38004785776138306
-1.1773396730422974,4.208977222442627,0.3764127790927887
-1.2135183811187744,4.227229595184326,0.37663036584854126
-1.238219976425171,4.204032897949219,0.373058557510376
-1.2564831972122192,4.162225723266602,0.36789849400520325
-1.2853715419769287,4.153593063354492,0.36565932631492615
-1.309532642364502,4.129904747009277,0.36211565136909485
-1.3428878784179688,4.135754585266113,0.3611206114292145
-1.3712117671966553,4.126670837402344,0.35859760642051697
-1.3990224599838257,4.11754035949707,0.35611480474472046
-1.4220738410949707,4.0933709144592285,0.3523286283016205
-1.4531620740890503,4.0909223556518555,0.3504026532173157
-1.4763118028640747,4.066277980804443,0.34659552574157715
-1.5063965320587158,4.063769340515137,0.3444741666316986
-1.5313652753829956,4.046338081359863,0.34104686975479126
-1.5503405332565308,4.014301776885986,0.33643338084220886
-1.5810788869857788,4.01090669631958,0.3341933488845825
-1.614715576171875,4.014517307281494,0.33254513144493103
-1.6328890323638916,3.9821603298187256,0.327775776386261
-1.6599212884902954,3.971220016479492,0.3247087299823761
-1.6835923194885254,3.953023910522461,0.32108595967292786
-1.7049216032028198,3.9271445274353027,0.3167910873889923
-1.7243620157241821,3.8976082801818848,0.3122372329235077
-1.7504867315292358,3.8862056732177734,0.30898040533065796
-1.7735031843185425,3.86745023727417,0.3050784170627594
-1.7898145914077759,3.834406614303589,0.30007532238960266
-1.819968819618225,3.829085350036621,0.2971877455711365
-1.846622347831726,3.816570281982422,0.2937285006046295
-1.8650720119476318,3.790497064590454,0.2890850901603699
-1.8871763944625854,3.771101713180542,0.2849330008029938
-1.9060832262039185,3.744372844696045,0.28020066022872925
-1.946445345878601,3.7589786052703857,0.27854064106941223
-1.9607542753219604,3.7254064083099365,0.2732061445713043
-1.9888501167297363,3.7196075916290283,0.2698625326156616
-2.010124683380127,3.6995675563812256,0.2654237449169159
-1.7007242441177368,3.078073263168335,0.21820715069770813
-1.725507378578186,3.0734379291534424,0.2152431458234787
-0.834177553653717,1.4634084701538086,0.10119073837995529
-0.855630099773407,1.4781842231750488,0.10087432712316513
-0.8580101728439331,1.458857774734497,0.09816711395978928
-0.8680761456489563,1.4530130624771118,0.0963391363620758
-0.8774839639663696,1.4474706649780273,0.09452438354492188
-0.8871549963951111,1.4416851997375488,0.09265138953924179
-0.8848168849945068,1.415720820426941,0.08943985402584076
-0.9067628383636475,1.4296832084655762,0.0887225940823555
-0.8907974362373352,1.3844555616378784,0.08431503176689148
-0.9003381729125977,1.378394365310669,0.08225845545530319
-0.899027407169342,1.3560270071029663,0.0792226791381836
-0.9620873928070068,1.4313342571258545,0.08178062736988068
-2.429137945175171,3.562466621398926,0.19870394468307495
-1.348253607749939,1.947589635848999,0.10579228401184082
-1.6384639739990234,2.335359573364258,0.12342247366905212
-1.406838059425354,1.8969066143035889,0.08746569603681564
-1.6862636804580688,2.4131503105163574,-0.0899304673075676
-1.2330787181854248,1.7912728786468506,-0.06986919045448303
-1.1797354221343994,1.7424638271331787,-0.0710100457072258
-1.2929328680038452,1.9390602111816406,-0.08209623396396637
-1.1932002305984497,1.8176730871200562,-0.07976247370243073
-1.134982943534851,1.7576215267181396,-0.0798104926943779
-1.3069677352905273,2.0552334785461426,-0.09621274471282959
-1.3870095014572144,2.216855049133301,-0.10690680891275406
-1.2251700162887573,1.9909991025924683,-0.09874038398265839
-2.1467480659484863,3.662755012512207,-0.1954401433467865
-0.8952115178108215,1.5780380964279175,-0.08788569271564484
-1.7254183292388916,3.0939230918884277,-0.17576690018177032
-1.7536309957504272,3.198451280593872,-0.18521106243133545
-1.766379475593567,3.2756476402282715,-0.19313812255859375
-1.6620856523513794,3.13653302192688,-0.18824124336242676
-1.6660490036010742,3.200301170349121,-0.19533222913742065
-1.6255520582199097,3.1770741939544678,-0.19703295826911926
-1.5875340700149536,3.156765937805176,-0.19881652295589447
-1.5318653583526611,3.101489543914795,-0.19822172820568085
-1.488437533378601,3.0704102516174316,-0.19911040365695953
-1.4450775384902954,3.034783124923706,-0.1994817852973938
-1.407307744026184,3.009272575378418,-0.20044860243797302
-1.3676002025604248,2.9801859855651855,-0.2010265439748764
-1.3091589212417603,2.9080376625061035,-0.19860056042671204
-1.2856560945510864,2.9097790718078613,-0.20106962323188782
-1.2401955127716064,2.8613831996917725,-0.20006534457206726
-1.2058967351913452,2.83773136138916,-0.20057231187820435
-1.1704686880111694,2.810154914855957,-0.20074723660945892
-1.141867995262146,2.796464204788208,-0.20183080434799194
-1.1064000129699707,2.7643725872039795,-0.2015380710363388
-1.0692538022994995,2.7285995483398438,-0.20086735486984253
-1.039841651916504,2.7105679512023926,-0.20139816403388977
-1.0097439289093018,2.6884732246398926,-0.2015647292137146
-0.9829228520393372,2.6733269691467285,-0.20220637321472168
-0.9522086381912231,2.6470155715942383,-0.20191539824008942
-0.9251996278762817,2.631645679473877,-0.20237953960895538
-0.8874996304512024,2.5827219486236572,-0.20018939673900604
-0.8570404648780823,2.5517709255218506,-0.19932052493095398
-0.8367700576782227,2.550136089324951,-0.2007237672805786
-0.8090397119522095,2.526221990585327,-0.20022188127040863
-0.7871984839439392,2.5207266807556152,-0.20119105279445648
-0.764988362789154,2.5111310482025146,-0.201779305934906
-0.7386152744293213,2.4863874912261963,-0.20112837851047516
-0.7103230357170105,2.453965187072754,-0.19975416362285614
-0.6950141191482544,2.4663093090057373,-0.2019401490688324
-0.6682791709899902,2.4372377395629883,-0.20072981715202332
-0.6509588360786438,2.4417922496795654,-0.20228686928749084
-0.6241390109062195,2.408456802368164,-0.2006765604019165
-0.6051850318908691,2.4051456451416016,-0.2014172226190567
-0.5816559195518494,2.3827872276306152,-0.20053687691688538
-0.5613208413124084,2.3715481758117676,-0.20057575404644012
-0.5445147752761841,2.3753511905670166,-0.20189864933490753
-0.5195269584655762,2.3409743309020996,-0.19992439448833466
-0.49974074959754944,2.3292603492736816,-0.1997370421886444
-0.48014554381370544,2.3173844814300537,-0.19953511655330658
-0.4631868302822113,2.316770076751709,-0.20029814541339874
-0.4394025504589081,2.2816786766052246,-0.19808700680732727
-0.4248674511909485,2.2922592163085938,-0.19975847005844116
-0.40598639845848083,2.2797889709472656,-0.1993255466222763
-0.3846999406814575,2.2518198490142822,-0.19753333926200867
-0.3702644109725952,2.2620482444763184,-0.19908860325813293
-0.34522971510887146,2.206861734390259,-0.19489175081253052
-0.3274751603603363,2.1937618255615234,-0.194293811917305
-0.316447913646698,2.2267658710479736,-0.19771559536457062
-0.3044528067111969,2.255863904953003,-0.20081332325935364
-0.2843421995639801,2.2231247425079346,-0.19840867817401886
-0.26890265941619873,2.2249839305877686,-0.19909346103668213
-0.25133487582206726,2.2113215923309326,-0.1982906013727188
-0.2350468635559082,2.2052409648895264,-0.19810783863067627
-0.21810445189476013,2.191295862197876,-0.197223961353302
-0.20283925533294678,2.192716121673584,-0.19772902131080627
-0.1862393170595169,2.1785242557525635,-0.19683316349983215
-0.17135471105575562,2.187516212463379,-0.19791634380817413
-0.15661726891994476,2.1963913440704346,-0.19894954562187195
-0.1412649154663086,2.197402000427246,-0.19928088784217834
-0.12485047429800034,2.1788828372955322,-0.19784767925739288
-0.10989271104335785,2.18355393409729,-0.1985277235507965
-0.09355008602142334,2.1648285388946533,-0.19695162773132324
-0.07815316319465637,2.157639980316162,-0.19639353454113007
-0.06289853900671005,2.150341272354126,-0.1958339810371399
-0.04794134199619293,2.1507132053375244,-0.19598199427127838
-0.03322059288620949,2.1665396690368652,-0.19754865765571594
-0.017878029495477676,2.1667206287384033,-0.19755133986473083
-0.0027858505491167307,2.159014940261841,-0.19681225717067719
0.012223545461893082,2.158984661102295,-0.19678254425525665
0.027036119252443314,2.1432912349700928,-0.19533482193946838
0.04239216819405556,2.1663904190063477,-0.19743207097053528
0.05702591687440872,2.1505045890808105,-0.19583795964717865
0.07274264097213745,2.165619134902954,-0.19704410433769226
0.08748393505811691,2.1573057174682617,-0.19613032042980194
0.1032022014260292,2.172208547592163,-0.197336345911026
0.11872735619544983,2.1792261600494385,-0.19783388078212738
0.13288597762584686,2.1628506183624268,-0.19606730341911316
0.14760896563529968,2.1541318893432617,-0.194976806640625
0.16254130005836487,2.1530909538269043,-0.19459696114063263
0.17880162596702576,2.1674516201019287,-0.19561542570590973
0.19698478281497955,2.2010669708251953,-0.1983751356601715
0.20997020602226257,2.1764638423919678,-0.1957419067621231
0.22770465910434723,2.198201894760132,-0.19725778698921204
0.24294090270996094,2.1966209411621094,-0.19669301807880402
0.25822287797927856,2.19492769241333,-0.19612611830234528
0.2734740972518921,2.1931300163269043,-0.19555990397930145
0.29168277978897095,2.214398145675659,-0.19689428806304932
0.3040362596511841,2.1892335414886475,-0.1940890997648239
0.3248196542263031,2.225645065307617,-0.1967570036649704
0.34029269218444824,2.223398447036743,-0.19600507616996765
0.3545166552066803,2.2133591175079346,-0.1945745199918747
0.37682676315307617,2.2531654834747314,-0.1973622441291809
0.39034464955329895,2.23909330368042,-0.19543017446994781
0.40682655572891235,2.2401957511901855,-0.1948181837797165
0.4310964047908783,2.2832820415496826,-0.197859987616539
0.44845354557037354,2.287954330444336,-0.19754426181316376
0.4580085873603821,2.254389524459839,-0.19380691647529602
0.47671836614608765,2.266515016555786,-0.19401347637176514
0.5010053515434265,2.3012235164642334,-0.19612030684947968
0.5153162479400635,2.290177583694458,-0.19433820247650146
0.5355957746505737,2.3056085109710693,-0.1947590857744217
0.5568718314170837,2.3246986865997314,-0.1953759789466858
0.5728375315666199,2.3209259510040283,-0.19407086074352264
0.59117591381073,2.3244707584381104,-0.19335420429706573
0.6132672429084778,2.343008518218994,-0.1938977688550949
0.6354947090148926,2.361398220062256,-0.19433794915676117
0.641279935836792,2.3195784091949463,-0.1897742748260498
0.6699736714363098,2.3601908683776855,-0.19195619225502014
0.698712170124054,2.3966262340545654,-0.1937277913093567
0.726588249206543,2.429128885269165,-0.19517287611961365
0.7512397766113281,2.4502856731414795,-0.1955612301826477
0.767980694770813,2.445227861404419,-0.19383472204208374
0.792019248008728,2.4622490406036377,-0.1938415765762329
0.8192222714424133,2.4863083362579346,-0.19434775412082672
0.8451395630836487,2.506556749343872,-0.19452525675296783
0.8698172569274902,2.522989273071289,-0.19428947567939758
0.8973468542098999,2.5465517044067383,-0.19458089768886566
0.9229772686958313,2.5623910427093506,-0.19422727823257446
0.9583126306533813,2.6035871505737305,-0.19576086103916168
0.9901289343833923,2.6334922313690186,-0.19627946615219116
1.0149730443954468,2.6450634002685547,-0.19540131092071533
1.0416826009750366,2.65995454788208,-0.19472767412662506
1.074674129486084,2.6889841556549072,-0.1950358748435974
1.0991116762161255,2.6961045265197754,-0.19369177520275116
1.140105962753296,2.7426352500915527,-0.19502565264701843
1.1678588390350342,2.756531000137329,-0.19401860237121582
1.1422255039215088,2.6447196006774902,-0.1841844618320465
1.1480464935302734,2.6083321571350098,-0.17970608174800873
1.1624186038970947,2.5935921669006348,-0.1766577512025833
1.1737003326416016,2.5715489387512207,-0.17310255765914917
1.1948496103286743,2.570568561553955,-0.17094911634922028
1.2261050939559937,2.590538501739502,-0.17016199231147766
1.3044461011886597,2.7088778018951416,-0.17564508318901062
1.5010267496109009,3.064470052719116,-0.19609083235263824
1.5660955905914307,3.141287326812744,-0.1981894075870514
1.5879862308502197,3.130495548248291,-0.19471938908100128
1.6358006000518799,3.1719727516174316,-0.19438566267490387
1.4251612424850464,2.718971014022827,-0.16411204636096954
1.4293454885482788,2.6816530227661133,-0.1592707633972168
1.4517102241516113,2.678678035736084,-0.15648512542247772
1.4660379886627197,2.6621499061584473,-0.15280379354953766
1.4762150049209595,2.6388373374938965,-0.14878854155540466
1.4540656805038452,2.557447910308838,-0.14148691296577454
1.4578505754470825,2.523977756500244,-0.13692845404148102
1.4665915966033936,2.5010058879852295,-0.132955402135849
1.350053310394287,2.2663540840148926,-0.11787769198417664
1.3456302881240845,2.2236506938934326,-0.11306484043598175
1.360299825668335,2.2148618698120117,-0.10999470949172974
1.3666797876358032,2.1927082538604736,-0.10625047236680984
1.3819507360458374,2.183271646499634,-0.10300017148256302
1.3799395561218262,2.1476714611053467,-0.09849891066551208
1.3981536626815796,2.1453285217285156,-0.09559391438961029
1.4065834283828735,2.1259326934814453,-0.0917452722787857
1.40776789188385,2.097139596939087,-0.08752768486738205
1.4300382137298584,2.1010735034942627,-0.08468230813741684
1.435996174812317,2.078197956085205,-0.08046407997608185
1.4451936483383179,2.062422037124634,-0.07660210132598877
1.4721461534500122,2.0722110271453857,-0.07360102981328964
1.4728693962097168,2.0430212020874023,-0.06897440552711487
1.4765040874481201,2.0212128162384033,-0.06465648859739304
1.4645675420761108,1.9767959117889404,-0.05943479761481285
2.2992687225341797,3.217135190963745,0.14663557708263397
2.283799886703491,3.246955633163452,0.15341442823410034
2.574984073638916,3.719318389892578,0.18157140910625458
2.5773839950561523,3.778918743133545,0.18998505175113678
3.150376081466675,4.696123123168945,0.2427491843700409
2.4258549213409424,3.6731932163238525,0.19472749531269073
3.126908779144287,4.809052467346191,0.26109778881073
3.0691182613372803,4.799496173858643,0.2664271891117096
1.6313347816467285,2.592299222946167,0.14689885079860687
1.6008154153823853,2.5835578441619873,0.1492556482553482
3.0267632007598877,4.967373847961426,0.2922711968421936
2.9769749641418457,4.9697160720825195,0.2976676821708679
2.962007761001587,5.023623943328857,0.305764764547348
2.9356563091278076,5.0612568855285645,0.3128516376018524
2.8242299556732178,4.95398473739624,0.3107593357563019
2.7673685550689697,4.936491012573242,0.31400370597839355
2.7020978927612305,4.901031494140625,0.3159675896167755
2.6311676502227783,4.855020046234131,0.31696122884750366
2.5638201236724854,4.815608024597168,0.31822147965431213
2.5111842155456543,4.79897403717041,0.3207883834838867
2.4507668018341064,4.764111042022705,0.3220057785511017
2.3857593536376953,4.722535133361816,0.32264238595962524
2.3299343585968018,4.697851657867432,0.32422545552253723
1.2154440879821777,2.495555877685547,0.1739191710948944
1.2367136478424072,2.5846972465515137,0.18181981146335602
1.1935373544692993,2.540297508239746,0.18031731247901917
1.1862752437591553,2.573620557785034,0.18422897160053253
1.155857801437378,2.5573549270629883,0.1846211850643158
1.149072527885437,2.5901401042938232,0.18846465647220612
1.1231961250305176,2.5800766944885254,0.18920519948005676
2.0607383251190186,4.828235149383545,0.3566255569458008
2.0375235080718994,4.87162446975708,0.3623460531234741
2.009309768676758,4.904122352600098,0.36730289459228516
1.9866374731063843,4.946700572967529,0.3729476034641266
2.4229302406311035,6.156728267669678,0.4672357439994812
2.375335693359375,6.166588306427002,0.4707390367984772
2.304365396499634,6.114101409912109,0.46947354078292847
2.229106903076172,6.0462164878845215,0.4669683873653412
1.9356783628463745,5.365036964416504,0.4166845977306366
2.0874428749084473,5.914517879486084,0.46191471815109253
2.073892593383789,6.013874530792236,0.4719488024711609
2.0154409408569336,5.984140396118164,0.4718950092792511
1.9637203216552734,5.972346782684326,0.4732479453086853
1.9125018119812012,5.955965042114258,0.4741647243499756
1.8861262798309326,6.0171942710876465,0.48128741979599
1.856590986251831,6.075021743774414,0.4878680109977722
1.8229321241378784,6.121548652648926,0.4935579001903534
1.7900757789611816,6.171557426452637,0.4995635747909546
1.7579495906829834,6.22506856918335,0.5058900713920593
1.7289615869522095,6.289502143859863,0.5131269693374634
0.5078476667404175,1.8998085260391235,0.15553487837314606
0.5108820199966431,1.9674005508422852,0.16158626973628998
0.5006211996078491,1.9860360622406006,0.1636451631784439
0.47536149621009827,1.9440973997116089,0.16071157157421112
0.46721091866493225,1.9700249433517456,0.16337797045707703
0.44035083055496216,1.9162592887878418,0.15941853821277618
0.4283789396286011,1.9268944263458252,0.16070446372032166
0.4097350537776947,1.9070039987564087,0.15944942831993103
0.40391284227371216,1.9479676485061646,0.1632981300354004
0.401813805103302,2.0079362392425537,0.16875463724136353
0.38192126154899597,1.9800504446029663,0.16684184968471527
0.3665907084941864,1.9749782085418701,0.16678249835968018
0.3526011109352112,1.977479338645935,0.16730867326259613
1.0452289581298828,6.116268634796143,0.5184943079948425
0.9966810941696167,6.088733196258545,0.5171668529510498
0.9518861770629883,6.080002784729004,0.5174462795257568
0.8985708355903625,6.013208866119385,0.5127954483032227
0.8507646918296814,5.980737209320068,0.5107725262641907
0.8036025762557983,5.955733299255371,0.5093460083007812
0.7625024914741516,5.968881607055664,0.5111930966377258
0.6234731078147888,5.166341304779053,0.44309815764427185
0.5690402388572693,5.008046627044678,0.43015897274017334
0.5486559867858887,5.147250175476074,0.44279006123542786
0.4080365002155304,4.101373195648193,0.3531044125556946
0.37653815746307373,4.080887794494629,0.35164719820022583
0.3511839210987091,4.12216329574585,0.3555249273777008
0.3282564878463745,4.198181629180908,0.36242255568504333
0.2979744076728821,4.184786319732666,0.3616229295730591
0.26808005571365356,4.1750640869140625,0.36112430691719055
0.24076958000659943,4.219583511352539,0.36510220170021057
0.38927945494651794,7.777623653411865,0.6732268333435059
0.3341626226902008,7.764560699462891,0.6723917126655579
0.2788678705692291,7.73165225982666,0.6698668003082275
0.22370761632919312,7.686680793762207,0.6663256287574768
0.16830448806285858,7.645240783691406,0.663014829158783
0.11471272259950638,7.630666255950928,0.661645233631134
0.06128615513443947,7.600149154663086,0.658926248550415
0.008316047489643097,7.592609882354736,0.6582316756248474
-0.04434293508529663,7.576920509338379,0.6568624973297119
-0.09767545014619827,7.556962490081787,0.6551556587219238
-0.1493811458349228,7.517205238342285,0.6516391038894653
-0.2009759247303009,7.492686748504639,0.6491246223449707
-0.2515031397342682,7.448370933532715,0.6449300050735474
-0.3031666874885559,7.446488857269287,0.6444427967071533
-0.355557382106781,7.4597978591918945,0.6453006863594055
-0.2962748110294342,5.413136005401611,0.46806278824806213
-0.3347121477127075,5.426531791687012,0.46894657611846924
-0.3699990510940552,5.393093109130859,0.4655608534812927
-0.4060133695602417,5.374950408935547,0.4635218381881714
-0.44185033440589905,5.356563091278076,0.4614858329296112
-0.4714398980140686,5.260326385498047,0.45276322960853577
-0.4466365873813629,4.621646881103516,0.39743772149086
-0.4766748547554016,4.599142074584961,0.3950624465942383
-0.5083770155906677,4.595822334289551,0.3941694498062134
-0.5363728404045105,4.561365127563477,0.39062944054603577
-0.5675024390220642,4.549829483032227,0.38906344771385193
-0.5970619320869446,4.530417442321777,0.38685330748558044
-0.6295914053916931,4.533946990966797,0.38662174344062805
-0.6574965119361877,4.506471157073975,0.3836304843425751
-0.6877250671386719,4.4981184005737305,0.3821408748626709
-0.7153827548027039,4.470251560211182,0.379001647233963
-0.7462667226791382,4.465298652648926,0.37783393263816833
-0.7772961258888245,4.46010160446167,0.3766593635082245
-0.8027738928794861,4.424036979675293,0.3729002773761749
-0.8274473547935486,4.387913227081299,0.3689865469932556
-0.8506938219070435,4.347887992858887,0.3646838665008545
-0.7439337968826294,3.6666438579559326,0.30675145983695984
-0.7668697834014893,3.6500821113586426,0.30459529161453247
-0.9360445141792297,4.3067708015441895,0.35849806666374207
-0.9727595448493958,4.3306756019592285,0.35959914326667786
-1.0004204511642456,4.316514015197754,0.3573073446750641
-1.0284258127212524,4.302062511444092,0.3549703359603882
-1.0595042705535889,4.30267333984375,0.3539119362831116
-1.0856035947799683,4.280237197875977,0.35094985365867615
-1.1114418506622314,4.257645130157471,0.34799984097480774
-1.1407991647720337,4.250018119812012,0.34622427821159363
-1.1639361381530762,4.219666481018066,0.3424263000488281
-1.194681167602539,4.219316482543945,0.3411073088645935
-1.2160136699676514,4.184993267059326,0.33704906702041626
-1.249523639678955,4.191527843475342,0.3362851142883301
-1.2717971801757812,4.160550117492676,0.33253005146980286
-1.300453782081604,4.151854991912842,0.3303670585155487
-1.3284279108047485,4.143161773681641,0.3281985819339752
-1.3467046022415161,4.104644298553467,0.3236891031265259
-1.380223274230957,4.110110759735107,0.32262513041496277
-1.4088573455810547,4.100559234619141,0.3203906714916229
-1.4266449213027954,4.061567783355713,0.31577563285827637
-1.462348222732544,4.073885440826416,0.31501656770706177
-1.4897340536117554,4.064138889312744,0.31258752942085266
-1.5150771141052246,4.046631336212158,0.3095329999923706
-1.540355920791626,4.02892541885376,0.30647778511047363
-1.570845603942871,4.025696754455566,0.3044739067554474
-1.5981792211532593,4.015129566192627,0.30174770951271057
-1.6162053346633911,3.98288631439209,0.2974478006362915
-1.643587350845337,3.971869945526123,0.29470205307006836
-1.6681671142578125,3.9533565044403076,0.29139626026153564
-1.6906609535217285,3.931272029876709,0.28779035806655884
-1.7188245058059692,3.9235126972198486,0.2850817143917084
-1.7338101863861084,3.887268304824829,0.2803637683391571
-1.7639377117156982,3.882472276687622,0.27785205841064453
-1.7909650802612305,3.8702962398529053,0.2748089134693146
-1.8039250373840332,3.830048084259033,0.2697034776210785
-1.8297491073608398,3.818004608154297,0.2664869725704193
-1.855284571647644,3.8058834075927734,0.2632961571216583
-1.8679083585739136,3.7651453018188477,0.2580605447292328
-1.9011385440826416,3.7661805152893066,0.2557096779346466
-1.9259755611419678,3.7537708282470703,0.2522931694984436
-1.9578858613967896,3.7550547122955322,0.24979814887046814
-1.9767991304397583,3.727726936340332,0.24525319039821625
-1.9916409254074097,3.6934919357299805,0.24029959738254547
-2.031341075897217,3.707660436630249,0.23840945959091187
-1.714279294013977,3.0810165405273438,0.19573023915290833
-1.7389919757843018,3.0763025283813477,0.19295750558376312
-0.83570396900177,1.4542527198791504,0.08998734503984451
-0.8611843585968018,1.4756556749343872,0.09004951268434525
-0.8628407716751099,1.4566787481307983,0.08761823922395706
-0.8606541156768799,1.4308239221572876,0.08475420624017715
-0.8869066834449768,1.4515072107315063,0.08460667729377747
-0.8884190917015076,1.4323519468307495,0.0820707231760025
-0.9059885740280151,1.4398767948150635,0.08108287304639816
-0.8949385285377502,1.400785207748413,0.0773954689502716
-0.9002877473831177,1.388161301612854,0.07519596815109253
-0.8984346389770508,1.3661659955978394,0.07248564064502716
-0.9185459613800049,1.3763506412506104,0.07138807326555252
-2.3992176055908203,3.541285753250122,0.1793108731508255
-1.2970789670944214,1.888543963432312,0.09323818236589432
-1.2581537961959839,1.8064535856246948,0.08680353313684464
-1.3540655374526978,1.9157273769378662,0.08935658633708954
-1.286362648010254,1.8259215354919434,-0.060934558510780334
-1.3972141742706299,2.015101432800293,-0.07057484239339828
-1.3135398626327515,1.9537955522537231,-0.07435530424118042
-1.3309732675552368,2.012432813644409,-0.07951418310403824
-1.1651458740234375,1.7895944118499756,-0.07316946983337402
-1.143841028213501,1.7846550941467285,-0.07531525194644928
-1.4218555688858032,2.2553842067718506,-0.0981103703379631
-1.1815544366836548,1.903704047203064,-0.0851157009601593
-2.1425952911376953,3.684006929397583,-0.1814769059419632
-0.7961413860321045,1.392401099205017,-0.07005558907985687
-0.9294886589050293,1.653152585029602,-0.08486634492874146
-1.7070788145065308,3.0869903564453125,-0.16155388951301575
-1.9886142015457153,3.657782793045044,-0.1949416697025299
-1.9728020429611206,3.6926708221435547,-0.20029687881469727
-1.5947901010513306,3.036144971847534,-0.16743476688861847
-1.8689439296722412,3.6189804077148438,-0.2028121054172516
-1.6391700506210327,3.232372283935547,-0.18398624658584595
-1.7460625171661377,3.5059006214141846,-0.20255881547927856
-1.5929392576217651,3.2550156116485596,-0.19073262810707092
-1.4923129081726074,3.1042070388793945,-0.18441560864448547
-1.4697270393371582,3.114781141281128,-0.1874842345714569
-1.4783614873886108,3.1923625469207764,-0.1946314573287964
-1.4492045640945435,3.188387632369995,-0.19681857526302338
-1.4029216766357422,3.144888162612915,-0.19646403193473816
-1.355148196220398,3.097602367401123,-0.19569945335388184
-1.3220341205596924,3.0820226669311523,-0.19688357412815094
-1.2793512344360352,3.0406715869903564,-0.1963086575269699
-1.2502812147140503,3.0314884185791016,-0.19780439138412476
-1.2255178689956665,3.033010721206665,-0.19983462989330292
-1.1678221225738525,2.9509437084198,-0.19630354642868042
-1.138713002204895,2.9370665550231934,-0.19719603657722473
-1.1015956401824951,2.9010448455810547,-0.19656698405742645
-1.0764788389205933,2.8978333473205566,-0.19806216657161713
-1.0450396537780762,2.8760130405426025,-0.19821152091026306
-1.014324426651001,2.8537702560424805,-0.1982799917459488
-0.9944111704826355,2.860625982284546,-0.20034758746623993
-0.9529781341552734,2.804661989212036,-0.19793950021266937
-0.930138111114502,2.803971290588379,-0.19934512674808502
-0.8969763517379761,2.7695934772491455,-0.19831104576587677
-0.8776679635047913,2.775641918182373,-0.20013219118118286
-0.8491262793540955,2.751765727996826,-0.19979040324687958
-0.8138923645019531,2.7053492069244385,-0.19765138626098633
-0.7869744300842285,2.6847710609436035,-0.19735169410705566
-0.7634678483009338,2.6752264499664307,-0.1978629231452942
-0.7427022457122803,2.6728625297546387,-0.19887453317642212
-0.7158262729644775,2.647796869277954,-0.19815275073051453
-0.6920353770256042,2.633873462677002,-0.19813597202301025
-0.665610671043396,2.608417272567749,-0.19724129140377045
-0.6396039724349976,2.582716703414917,-0.19631318747997284
-0.6234575510025024,2.594573974609375,-0.1982203871011734
-0.5990784168243408,2.572226047515869,-0.19743119180202484
-0.5792021751403809,2.568699359893799,-0.19800977408885956
-0.5527870059013367,2.5345711708068848,-0.19622306525707245
-0.5332220196723938,2.5307095050811768,-0.19677820801734924
-0.5109312534332275,2.5113730430603027,-0.19611521065235138
-0.49326571822166443,2.514824628829956,-0.19710980355739594
-0.4755190908908844,2.5181658267974854,-0.19806331396102905
-0.4550526440143585,2.5060386657714844,-0.19780240952968597
-0.43730562925338745,2.5091211795806885,-0.19875353574752808
-0.4140600562095642,2.477459669113159,-0.1969405710697174
-0.3978894054889679,2.4879343509674072,-0.19832472503185272
-0.3803975582122803,2.4906084537506104,-0.19908006489276886
-0.3562205135822296,2.4469094276428223,-0.1961263120174408
-0.3367365002632141,2.4338839054107666,-0.19563384354114532
-0.3192671835422516,2.432251214981079,-0.1960529386997223
-0.29546695947647095,2.3802895545959473,-0.1922486126422882
-0.2823660373687744,2.4131994247436523,-0.1953028440475464
-0.26634934544563293,2.42280912399292,-0.19648534059524536
-0.24792614579200745,2.4090631008148193,-0.19577935338020325
-0.23087644577026367,2.4107115268707275,-0.19633333384990692
-0.214041605591774,2.412233352661133,-0.19671589136123657
-0.1940263956785202,2.374833345413208,-0.19392964243888855
-0.1774640679359436,2.3760974407196045,-0.19430555403232574
-0.15988320112228394,2.361706018447876,-0.19340810179710388
-0.14363425970077515,2.3705203533172607,-0.19441701471805573
-0.12666213512420654,2.363673686981201,-0.19397954642772675
-0.10852440446615219,2.3294835090637207,-0.19130513072013855
-0.09460864961147308,2.3885180950164795,-0.19629715383052826
-0.07752534002065659,2.3735363483428955,-0.19521771371364594
-0.06094137951731682,2.3817925453186035,-0.19605647027492523
-0.04402855038642883,2.362694501876831,-0.19447951018810272
-0.027727145701646805,2.374619960784912,-0.19546566903591156
-0.011151709593832493,2.3630740642547607,-0.1945292204618454
0.00525613222271204,2.3397340774536133,-0.19263099133968353
0.021892890334129333,2.347421884536743,-0.19329673051834106
0.038240622729063034,2.347224235534668,-0.19315442442893982
0.05440561845898628,2.3391287326812744,-0.19237197935581207
0.07090964913368225,2.3464879989624023,-0.19287003576755524
0.0863410234451294,2.3226077556610107,-0.1908104121685028
0.10281725972890854,2.329742193222046,-0.1913086622953415
0.12083584815263748,2.3600895404815674,-0.19354967772960663
0.13673283159732819,2.3514482975006104,-0.19259732961654663
0.1525568664073944,2.3426976203918457,-0.1916462779045105
0.1694064438343048,2.349372148513794,-0.19196611642837524
0.18453450500965118,2.3326358795166016,-0.19038280844688416
0.20166055858135223,2.3390729427337646,-0.19053521752357483
0.22040268778800964,2.364794969558716,-0.19225825369358063
0.23409679532051086,2.3361282348632812,-0.1895681768655777
0.25406599044799805,2.3693270683288574,-0.1919059008359909
0.271392822265625,2.3752827644348145,-0.19204039871692657
0.283858984708786,2.338581085205078,-0.18857498466968536
0.2980163097381592,2.321169137954712,-0.18668276071548462
0.31514227390289307,2.326817035675049,-0.18665394186973572
0.33354049921035767,2.340038537979126,-0.18723447620868683
0.35038885474205017,2.341564893722534,-0.18688499927520752
0.3680434226989746,2.346804141998291,-0.18668152391910553
0.3880203366279602,2.3673291206359863,-0.18769966065883636
0.40310731530189514,2.3569703102111816,-0.1862717866897583
0.4194961190223694,2.3541736602783203,-0.1854502260684967
0.4372802674770355,2.3589227199554443,-0.18522591888904572
0.4535162150859833,2.3559317588806152,-0.18424786627292633
0.4791467785835266,2.398611545562744,-0.18682396411895752
0.4973364472389221,2.402939796447754,-0.18641240894794464
0.5214230418205261,2.4337704181671143,-0.18804825842380524
0.5467714667320251,2.4681949615478516,-0.1899266541004181
0.5680558085441589,2.4834587574005127,-0.19019393622875214
0.5889937877655029,2.494682788848877,-0.19013193249702454
0.6118122339248657,2.513340711593628,-0.19063951075077057
0.6311901807785034,2.5166714191436768,-0.1899794042110443
0.6544257402420044,2.534975290298462,-0.19040153920650482
0.6787694692611694,2.5568974018096924,-0.1909845918416977
0.6893786191940308,2.5259029865264893,-0.18760642409324646
0.5165236592292786,1.8420908451080322,-0.13604703545570374
0.7514477372169495,2.609875202178955,-0.19166232645511627
0.7716141939163208,2.6122238636016846,-0.19067305326461792
0.7973453998565674,2.6331160068511963,-0.19097274541854858
0.8272707462310791,2.6648199558258057,-0.19200845062732697
0.8505239486694336,2.6739726066589355,-0.19140826165676117
0.8775871992111206,2.694040060043335,-0.19157804548740387
0.9008975625038147,2.7029011249542236,-0.19081449508666992
0.9318768382072449,2.7337186336517334,-0.19157029688358307
0.9597083926200867,2.7531158924102783,-0.19148403406143188
0.9844276905059814,2.761068344116211,-0.19055163860321045
1.0168190002441406,2.7909650802612305,-0.19109654426574707
1.046621322631836,2.813366651535034,-0.19101493060588837
1.080947756767273,2.846418619155884,-0.1916235089302063
1.1148933172225952,2.8752970695495605,-0.19187124073505402
1.1453231573104858,2.8928351402282715,-0.19130699336528778
1.1912580728530884,2.950205087661743,-0.1932630091905594
1.2275407314300537,2.9818859100341797,-0.19346864521503448
1.2662204504013062,3.016639232635498,-0.19379302859306335
1.2104982137680054,2.828648090362549,-0.17988869547843933
1.1459870338439941,2.62727427482605,-0.16529859602451324
1.147833228111267,2.5839931964874268,-0.16080598533153534
1.165462613105774,2.576231002807617,-0.15853093564510345
1.181740641593933,2.564652919769287,-0.15599699318408966
1.2043429613113403,2.567189931869507,-0.15429510176181793
1.2319196462631226,2.5801761150360107,-0.1531175673007965
1.586859941482544,3.2666449546813965,-0.19138720631599426
1.6493350267410278,3.336130380630493,-0.19286003708839417
1.7091044187545776,3.398059129714966,-0.19375646114349365
1.8027968406677246,3.5257110595703125,-0.19817043840885162
1.4018733501434326,2.696683883666992,-0.14934761822223663
1.424640417098999,2.693715810775757,-0.14683668315410614
1.4430665969848633,2.684044122695923,-0.14398235082626343
1.4496527910232544,2.653998851776123,-0.14002463221549988
1.4165176153182983,2.5521204471588135,-0.1323334127664566
1.3940234184265137,2.4709479808807373,-0.12580984830856323
1.3604766130447388,2.373443603515625,-0.11854863166809082
1.3486515283584595,2.3173105716705322,-0.11351663619279861
1.346701741218567,2.277865409851074,-0.10928964614868164
1.3383033275604248,2.2284798622131348,-0.10463790595531464
1.3487895727157593,2.2131381034851074,-0.1016140878200531
1.355621099472046,2.1907482147216797,-0.09819655120372772
1.3749905824661255,2.1879971027374268,-0.09561923146247864
1.3768411874771118,2.159228801727295,-0.09190410375595093
1.3803496360778809,2.133897542953491,-0.088356152176857
1.4101721048355103,2.1472034454345703,-0.0862465500831604
1.413831114768982,2.1214990615844727,-0.08251156657934189
1.4275684356689453,2.112396240234375,-0.07946819067001343
1.4334503412246704,2.089617967605591,-0.0757259726524353
1.4471453428268433,2.0802721977233887,-0.07248732447624207
1.45624577999115,2.0644755363464355,-0.06895788758993149
1.4708259105682373,2.0542306900024414,-0.06537865102291107
1.4699714183807373,2.0260727405548096,-0.061313893646001816
1.4605462551116943,1.9847030639648438,-0.056685611605644226
2.292221784591675,3.232346534729004,0.13282321393489838
2.285855770111084,3.27478289604187,0.13937927782535553
2.545847177505493,3.7023074626922607,0.16261062026023865
3.16823148727417,4.685582160949707,0.21212810277938843
2.4118800163269043,3.6227834224700928,0.16846467554569244
3.141286849975586,4.791990756988525,0.22847624123096466
3.0875861644744873,4.789339065551758,0.23383378982543945
1.629030704498291,2.5670053958892822,0.1280674934387207
1.6313133239746094,2.611520528793335,0.1330166757106781
1.5951933860778809,2.597005605697632,0.1348608285188675
3.0009264945983887,4.966408729553223,0.262658953666687
2.9621856212615967,4.980234622955322,0.26791489124298096
2.9414138793945312,5.028428077697754,0.2749241292476654
2.8757171630859375,5.00307035446167,0.27791842818260193
2.7923874855041504,4.938014030456543,0.27827534079551697
2.7142374515533447,4.878681659698486,0.2788006365299225
2.6648592948913574,4.874451637268066,0.2822229862213135
2.5953338146209717,4.83198356628418,0.28337177634239197
2.5408759117126465,4.81210470199585,0.2856314480304718
2.4928154945373535,4.80178165435791,0.2883620858192444
2.40937876701355,4.726016521453857,0.28691014647483826
2.3516786098480225,4.698104381561279,0.28828495740890503
2.304966688156128,4.686211109161377,0.2904476523399353
1.2299622297286987,2.5460143089294434,0.15939223766326904
1.218087077140808,2.5688648223876953,0.16230536997318268
1.1926089525222778,2.563469886779785,0.1634218990802765
