X,Y,Z
-1.0975792407989502,4.481954574584961,-0.41273748874664307
-1.0586756467819214,4.459071636199951,-0.4126324951648712
-1.0306134223937988,4.481361389160156,-0.4167216718196869
-0.9993497729301453,4.488189697265625,-0.4193721413612366
-0.9697011709213257,4.502400875091553,-0.42272117733955383
-0.9437053203582764,4.539487361907959,-0.4279496371746063
-0.9132076501846313,4.553434371948242,-0.43100252747535706
-0.8811975717544556,4.559516906738281,-0.4333290457725525
-0.8530074954032898,4.584436416625977,-0.43745771050453186
-0.822353720664978,4.597726345062256,-0.44038817286491394
-0.7934176325798035,4.626293182373047,-0.4445795714855194
-0.7621399164199829,4.639242172241211,-0.4472779631614685
-0.7351000308990479,4.678843975067139,-0.4525744616985321
-0.7024710178375244,4.683664321899414,-0.454534113407135
-0.6718716025352478,4.703693389892578,-0.4577789008617401
-0.6392659544944763,4.7159271240234375,-0.4601316452026367
-0.6100900173187256,4.750997066497803,-0.4647243618965149
-0.5778454542160034,4.762705326080322,-0.46705710887908936
-0.5464709997177124,4.781905651092529,-0.4701486825942993
-0.5063818693161011,4.723637104034424,-0.46533408761024475
-0.4666948616504669,4.661195278167725,-0.45999643206596375
-0.4280799627304077,4.606225967407227,-0.4554111361503601
-0.3897147476673126,4.535392761230469,-0.44923561811447144
-0.35392308235168457,4.483628273010254,-0.4449460506439209
-0.319034218788147,4.435510158538818,-0.4406700134277344
-0.2835584580898285,4.367738723754883,-0.43440037965774536
-0.24740837514400482,4.2803192138671875,-0.4261886775493622
-0.21308571100234985,4.192585468292236,-0.41793695092201233
-0.1791793704032898,4.085170745849609,-0.40771958231925964
-0.14742496609687805,3.9969546794891357,-0.3990634083747864
-0.11992921680212021,4.009514808654785,-0.4004824161529541
-0.09139479696750641,4.006352424621582,-0.40035441517829895
-0.06481479108333588,4.088479995727539,-0.40876927971839905
-0.03626587614417076,4.073262691497803,-0.4074392318725586
-0.007840386591851711,4.03455924987793,-0.4034358263015747
0.020064108073711395,3.9995462894439697,-0.3998231887817383
0.047720909118652344,3.9449033737182617,-0.3942683935165405
0.07447567582130432,3.9095118045806885,-0.39066043496131897
0.10086886584758759,3.8778316974639893,-0.38737890124320984
0.1262538731098175,3.8304643630981445,-0.38227733969688416
0.15179364383220673,3.802351236343384,-0.3791222870349884
0.17600634694099426,3.7546558380126953,-0.37404006719589233
0.20129640400409698,3.7300729751586914,-0.3712787926197052
0.22551478445529938,3.701479434967041,-0.36805400252342224
0.24853433668613434,3.661118745803833,-0.3634508550167084
0.2721349000930786,3.636125326156616,-0.3604012727737427
0.2945118248462677,3.5993523597717285,-0.35620903968811035
0.3172220289707184,3.566274881362915,-0.3523993194103241
0.34046563506126404,3.548593282699585,-0.3500232696533203
0.35985222458839417,3.4959793090820312,-0.3440368175506592
0.38065099716186523,3.4625885486602783,-0.3399769365787506
0.4037434756755829,3.4522430896759033,-0.3382037580013275
0.42723649740219116,3.441680669784546,-0.33641278743743896
0.4455348551273346,3.3963420391082764,-0.33111417293548584
0.46581408381462097,3.3701961040496826,-0.32757604122161865
0.48687106370925903,3.3516273498535156,-0.3248012363910675
0.5077779293060303,3.3329145908355713,-0.32203349471092224
0.5246056318283081,3.287122964859009,-0.3166632354259491
0.5460494160652161,3.27588152885437,-0.31449612975120544
0.5633255839347839,3.2415263652801514,-0.3100487291812897
0.5822035074234009,3.2185726165771484,-0.3067255914211273
0.6045729517936707,3.2145888805389404,-0.30522218346595764
0.6239867210388184,3.195169448852539,-0.3022705614566803
0.6402630805969238,3.160367250442505,-0.29766833782196045
0.6588741540908813,3.140805244445801,-0.29451674222946167
0.6747452020645142,3.1097354888916016,-0.29031902551651
0.6946792602539062,3.097529888153076,-0.2878982126712799
0.710919201374054,3.070047378540039,-0.28406861424446106
0.7323516011238098,3.065185308456421,-0.28211769461631775
0.745959997177124,3.030031442642212,-0.2774312198162079
0.7649300694465637,3.017444610595703,-0.27483707666397095
0.781035304069519,2.99338698387146,-0.2712087631225586
0.8017638921737671,2.9880809783935547,-0.26922520995140076
0.8143283724784851,2.952589988708496,-0.26439109444618225
0.8260848522186279,2.917161703109741,-0.2596363425254822
0.8462928533554077,2.9115488529205322,-0.2575473189353943
0.8599045276641846,2.88338041305542,-0.2534785568714142
0.8763120770454407,2.8664205074310303,-0.25029563903808594
0.8695086240768433,2.7749969959259033,-0.24060212075710297
0.8718392848968506,2.7172670364379883,-0.2339564859867096
0.9004696607589722,2.740905523300171,-0.2343127727508545
0.9244571328163147,2.7495346069335938,-0.23334021866321564
0.9406500458717346,2.7360024452209473,-0.2303631454706192
0.9463720917701721,2.692983388900757,-0.22494351863861084
0.9810539484024048,2.7304534912109375,-0.22619940340518951
0.9974064826965332,2.716425657272339,-0.22318510711193085
1.0132840871810913,2.70242977142334,-0.22009161114692688
1.0233310461044312,2.673837423324585,-0.21579574048519135
1.0358688831329346,2.6524858474731445,-0.2121211141347885
1.0546870231628418,2.6452674865722656,-0.20951572060585022
1.0656019449234009,2.6200764179229736,-0.2055060714483261
1.0803624391555786,2.60579776763916,-0.20230187475681305
1.0949774980545044,2.5914361476898193,-0.19911210238933563
1.106760025024414,2.569669246673584,-0.1953330934047699
1.1218042373657227,2.554835081100464,-0.19204874336719513
1.132676362991333,2.533173084259033,-0.18822911381721497
1.1465357542037964,2.518571138381958,-0.184961199760437
1.1573072671890259,2.496669054031372,-0.1811409294605255
1.171386480331421,2.481679677963257,-0.1778201311826706
1.1833205223083496,2.4632513523101807,-0.1741533875465393
1.1930272579193115,2.441420793533325,-0.17031267285346985
1.2028069496154785,2.41941499710083,-0.16644984483718872
1.2161216735839844,2.4042139053344727,-0.16304631531238556
1.2286410331726074,2.389274835586548,-0.15960803627967834
1.240986704826355,2.374285936355591,-0.15618465840816498
1.2538970708847046,2.35886549949646,-0.15264518558979034
1.2665292024612427,2.343442440032959,-0.14912599325180054
1.2783501148223877,2.328315496444702,-0.14560076594352722
1.2938239574432373,2.319944143295288,-0.1425120234489441
1.3041645288467407,2.300901174545288,-0.1386701464653015
1.3123663663864136,2.278439521789551,-0.13457199931144714
1.3195773363113403,2.256399393081665,-0.13056404888629913
1.3387571573257446,2.254340648651123,-0.12768003344535828
1.3544434309005737,2.245140790939331,-0.124296635389328
1.3529095649719238,2.209728240966797,-0.11947691440582275
1.3635210990905762,2.1941945552825928,-0.1157304048538208
1.378757357597351,2.1848368644714355,-0.11220186203718185
1.389117956161499,2.169179916381836,-0.10834436118602753
1.3947360515594482,2.1471519470214844,-0.10419198125600815
1.407279372215271,2.1344540119171143,-0.10036367923021317
1.4218170642852783,2.1249735355377197,-0.09656823426485062
1.4355274438858032,2.1159024238586426,-0.0928444042801857
1.4455749988555908,2.0997486114501953,-0.08862315863370895
1.446003794670105,2.071112632751465,-0.08386174589395523
1.459213376045227,2.061983108520508,-0.07992785423994064
1.4510732889175415,2.0199992656707764,-0.07437869906425476
1.468453049659729,2.017219305038452,-0.07039732486009598
1.4818050861358643,2.0075817108154297,-0.0659777820110321
1.4818013906478882,2.0973122119903564,0.10978487879037857
1.4617125988006592,2.101637363433838,0.11368193477392197
1.4441030025482178,2.108830213546753,0.11748825758695602
1.4382907152175903,2.136129856109619,0.12246274203062057
1.4358651638031006,2.165689468383789,0.127311110496521
1.411276936531067,2.1629669666290283,0.13016879558563232
1.4114701747894287,2.199793577194214,0.1353946477174759
1.395696759223938,2.2096238136291504,0.138795405626297
1.3835225105285645,2.226243734359741,0.14258049428462982
1.378822922706604,2.2564151287078857,0.1471741944551468
1.3582600355148315,2.2595462799072266,0.14993765950202942
1.3503518104553223,2.282219886779785,0.1539025604724884
1.335123896598816,2.295469045639038,0.15715627372264862
1.3175209760665894,2.305405378341675,0.16023440659046173
1.3126717805862427,2.334845542907715,0.16451193392276764
1.2997865676879883,2.350757360458374,0.16781547665596008
1.2859545946121216,2.367029905319214,0.17108765244483948
1.2756216526031494,2.3901009559631348,0.1748790442943573
1.258573293685913,2.398925542831421,0.1775549054145813
1.252171516418457,2.428421974182129,0.18170788884162903
1.2376508712768555,2.4444022178649902,0.18479369580745697
1.2212448120117188,2.4567983150482178,0.18762481212615967
1.2107410430908203,2.47916316986084,0.19114795327186584
1.1997350454330444,2.501614570617676,0.19470998644828796
1.1846222877502441,2.5172383785247803,0.19761085510253906
1.1693434715270996,2.5327723026275635,0.20052476227283478
1.1607824563980103,2.562209129333496,0.20452772080898285
1.1428203582763672,2.57008957862854,0.20679280161857605
1.1305184364318848,2.592355966567993,0.21013915538787842
1.1188043355941772,2.618447780609131,0.2137971967458725
1.1056159734725952,2.6407647132873535,0.21714957058429718
1.0900113582611084,2.65549373626709,0.21983790397644043
1.0743892192840576,2.6700780391693115,0.2225222885608673
1.0635778903961182,2.699369430541992,0.22630982100963593
1.0463839769363403,2.714261054992676,0.22893065214157104
1.0335825681686401,2.739814281463623,0.23244628310203552
1.0144014358520508,2.7468111515045166,0.23436197638511658
1.0004669427871704,2.768319606781006,0.23752690851688385
0.9635381102561951,2.7276151180267334,0.23518125712871552
0.9433904886245728,2.7344958782196045,0.23695281147956848
0.9236181974411011,2.741086721420288,0.23868706822395325
0.9069358706474304,2.7547037601470947,0.24100691080093384
0.8781924247741699,2.73116135597229,0.2400781661272049
0.8830664157867432,2.8152456283569336,0.24847003817558289
0.89090496301651,2.9145448207855225,0.2582850158214569
0.8788185119628906,2.9505743980407715,0.2625330984592438
0.8602842092514038,2.9639978408813477,0.26476991176605225
0.8416884541511536,2.977281332015991,0.2670082747936249
0.8236414194107056,2.9943044185638428,0.269468754529953
0.8101915717124939,3.030083656311035,0.27357324957847595
0.7939592003822327,3.0583763122558594,0.2770460546016693
0.7722770571708679,3.0637965202331543,0.2784423232078552
0.7564621567726135,3.0916547775268555,0.28188326954841614
0.7392603754997253,3.1156883239746094,0.2849586308002472
0.7205156087875366,3.135937452316284,0.2875460088253021
0.7011137008666992,3.156163215637207,0.2901667654514313
0.6834974884986877,3.18379282951355,0.29347872734069824
0.6644186973571777,3.203613042831421,0.2960784435272217
0.6444283723831177,3.219486951828003,0.2983309328556061
0.626164972782135,3.2467639446258545,0.3015231788158417
0.606963038444519,3.274055242538452,0.30466821789741516
0.5891954898834229,3.3088197708129883,0.30852311849594116
0.5691350698471069,3.331967830657959,0.3113161027431488
0.548385739326477,3.351119041442871,0.3137511610984802
0.5298362374305725,3.385507106781006,0.31763607263565063
0.5089418292045593,3.4122321605682373,0.3206101655960083
0.48750385642051697,3.4349308013916016,0.3232024610042572
0.465285986661911,3.4536356925964355,0.3254391849040985
0.44500967860221863,3.4876015186309814,0.32913240790367126
0.4235290586948395,3.5137064456939697,0.3321038484573364
0.4008330702781677,3.5319528579711914,0.3343234062194824
0.3784279525279999,3.5617482662200928,0.33744922280311584
0.3580175042152405,3.6107048988342285,0.3424079120159149
0.33511775732040405,3.6401867866516113,0.34554389119148254
0.3116809129714966,3.665632963180542,0.34831592440605164
0.2891913950443268,3.7064294815063477,0.3525686264038086
0.2653640806674957,3.7432503700256348,0.35640645027160645
0.24111643433570862,3.776033878326416,0.3596777021884918
0.21682395040988922,3.8164267539978027,0.36369457840919495
0.19143642485141754,3.845008373260498,0.36660659313201904
0.16561350226402283,3.869530200958252,0.3691510260105133
0.14030206203460693,3.928865909576416,0.3750428855419159
0.11362622678279877,3.9530463218688965,0.37750399112701416
0.08720505237579346,4.008166790008545,0.3827439844608307
0.05977456644177437,4.043666362762451,0.3861287832260132
0.03190173953771591,4.09064245223999,0.39062830805778503
0.0029362800996750593,4.125758647918701,0.39401546120643616
-0.026034381240606308,4.172336578369141,0.3985166847705841
-0.05573451146483421,4.222607135772705,0.4032819867134094
-0.0857202485203743,4.253244400024414,0.4059971272945404
-0.11587940156459808,4.275893688201904,0.40796712040901184
-0.14534296095371246,4.267236709594727,0.40696874260902405
-0.17597851157188416,4.2777838706970215,0.40781915187835693
-0.21692967414855957,4.509532451629639,0.4297723174095154
-0.24993064999580383,4.539017677307129,0.4323410987854004
-0.2839774787425995,4.579928874969482,0.43582379817962646
-0.31886976957321167,4.624465465545654,0.439664363861084
-0.3569872975349426,4.695840835571289,0.4460616111755371
-0.39315542578697205,4.735935211181641,0.4495042860507965
-0.440307080745697,4.8919548988342285,0.46395716071128845
-0.4970698356628418,5.124983310699463,0.48555272817611694
-0.5609109401702881,5.396177291870117,0.5105195641517639
-0.5970187783241272,5.376753807067871,0.507968544960022
-0.6331332921981812,5.364889144897461,0.5061716437339783
-0.6520134806632996,5.213816165924072,0.4912787973880768
-0.6852348446846008,5.18611478805542,0.4880533814430237
-0.7290807962417603,5.239157676696777,0.49226659536361694
-0.7690426707267761,5.257161617279053,0.49300599098205566
-0.8086495995521545,5.274958610534668,0.49375784397125244
-0.8387374877929688,5.230999946594238,0.48875361680984497
-0.8705551028251648,5.198326110839844,0.48482900857925415
-0.8899669647216797,5.09647798538208,0.47449517250061035
-0.9222232699394226,5.075075149536133,0.4714638590812683
-0.9697825312614441,5.133683204650879,0.4757315218448639
-0.9846083521842957,5.024026870727539,0.4644586443901062
-1.0205857753753662,5.0249409675598145,0.4634457528591156
-1.0507657527923584,4.995026111602783,0.459597647190094
-1.0846657752990723,4.983952522277832,0.4575127363204956
-1.107372522354126,4.9233269691467285,0.4506041407585144
-1.1461762189865112,4.938592910766602,0.4506552219390869
-1.1707994937896729,4.892999172210693,0.4451759159564972
-1.2351444959640503,5.009696006774902,0.45445042848587036
-1.212386131286621,4.774905204772949,0.4318772554397583
-1.2330917119979858,4.717519760131836,0.4253527820110321
-1.262988567352295,4.701750755310059,0.4223955273628235
-1.2947533130645752,4.693307399749756,0.4201202690601349
-1.3201439380645752,4.662167072296143,0.41583770513534546
-1.3567849397659302,4.668057441711426,0.4148443937301636
-1.3797730207443237,4.62498140335083,0.4094947874546051
-1.1199538707733154,3.662759304046631,0.32297462224960327
-1.1365578174591064,3.6292779445648193,0.31864553689956665
-1.1610790491104126,3.621685743331909,0.31661394238471985
-1.4929332733154297,4.54965353012085,0.39601367712020874
-1.5176624059677124,4.517061710357666,0.39141809940338135
-1.5728487968444824,4.576667785644531,0.3947635889053345
-1.6190814971923828,4.610316276550293,0.39564642310142517
-3.5210907459259033,9.814830780029297,0.8379988670349121
-3.567209482192993,9.736515998840332,0.8270663619041443
-3.6349782943725586,9.711963653564453,0.8206290006637573
-1.7245687246322632,4.510442733764648,0.3790541887283325
-3.7600464820861816,9.640290260314941,0.8053197860717773
-1.7849594354629517,4.487426280975342,0.37261369824409485
-1.8589316606521606,4.583899974822998,0.378332257270813
-1.8565762042999268,4.48833703994751,0.3681192100048065
-1.8974032402038574,4.496889114379883,0.3664509654045105
-1.9119417667388916,4.448648452758789,0.3599799871444702
-1.9415773153305054,4.436080455780029,0.35642901062965393
-1.9696530103683472,4.419707298278809,0.35258081555366516
-2.0020151138305664,4.409716606140137,0.3491553068161011
-2.0281174182891846,4.385198593139648,0.3445139527320862
-2.047273874282837,4.350765705108643,0.3390008509159088
-4.108567714691162,8.583325386047363,0.6632473468780518
-4.13754940032959,8.496362686157227,0.6509371399879456
-2.1026997566223145,4.242672443389893,0.32216405868530273
-4.272616863250732,8.474153518676758,0.6373801231384277
-4.321482181549072,8.432443618774414,0.62807697057724
-2.218268632888794,4.259198188781738,0.3141217529773712
-2.2131571769714355,4.17854642868042,0.30494874715805054
-2.269798994064331,4.214905261993408,0.3042899966239929
-2.2900397777557373,4.186502456665039,0.2987727224826813
-2.2460498809814453,4.041901111602783,0.28504136204719543
-2.2698159217834473,4.0199689865112305,0.2800144851207733
-2.3055615425109863,4.017890453338623,0.2763039767742157
-2.331705331802368,4.003098487854004,0.2715685963630676
-2.353808641433716,3.9814040660858154,0.2663789689540863
-2.38134765625,3.9653282165527344,0.26135191321372986
-2.4087042808532715,3.9491028785705566,0.25628191232681274
-2.4300897121429443,3.9271397590637207,0.25072187185287476
-2.4554364681243896,3.9116673469543457,0.24559372663497925
-2.486694812774658,3.9014687538146973,0.24050036072731018
-2.5048084259033203,3.8716378211975098,0.23403917253017426
-2.521059989929199,3.8427574634552,0.22770068049430847
-2.5509681701660156,3.8326854705810547,0.2223140001296997
-2.577303409576416,3.815372943878174,0.2162730097770691
-2.601454734802246,3.799286127090454,0.21022427082061768
-2.072338819503784,2.9841673374176025,0.16087326407432556
-2.0659902095794678,2.931734323501587,0.1536073088645935
-2.079833745956421,2.912611484527588,0.1480993926525116
-2.0942647457122803,2.892890691757202,0.14240045845508575
-1.0903831720352173,1.4850958585739136,0.07048971205949783
-1.0995677709579468,1.478446364402771,0.067535400390625
-2.057398557662964,2.906482458114624,-0.1042948067188263
-2.092963933944702,3.0053255558013916,-0.11346650868654251
-2.4619624614715576,3.5900893211364746,-0.1418047994375229
-2.4569478034973145,3.6404433250427246,-0.149953693151474
-2.424968719482422,3.6521708965301514,-0.15644502639770508
-2.403639554977417,3.675304412841797,-0.16297008097171783
-2.376197099685669,3.6928248405456543,-0.16922684013843536
-2.344501256942749,3.703505754470825,-0.17510144412517548
-2.3221898078918457,3.7264535427093506,-0.1813395768404007
-2.2903177738189697,3.7366881370544434,-0.18683362007141113
-2.268587350845337,3.763305425643921,-0.19311948120594025
-2.2422423362731934,3.7787790298461914,-0.19856975972652435
-2.2146236896514893,3.794743776321411,-0.20398835837841034
-2.1802189350128174,3.800828218460083,-0.20893390476703644
-2.166731595993042,3.839637041091919,-0.21542853116989136
-2.139214515686035,3.854746103286743,-0.22055427730083466
-2.1070327758789062,3.8632514476776123,-0.22525669634342194
-2.0864429473876953,3.8918299674987793,-0.23106832802295685
-2.0623865127563477,3.9131577014923096,-0.23641347885131836
-2.030353307723999,3.9208004474639893,-0.24076706171035767
-2.001680612564087,3.9352214336395264,-0.24553263187408447
-1.9737484455108643,3.94901442527771,-0.2501581609249115
-1.9493578672409058,3.969512701034546,-0.2551570534706116
-1.9266949892044067,3.9975898265838623,-0.26062095165252686
-1.8942208290100098,4.004160404205322,-0.2646413743495941
-1.8726967573165894,4.031189441680908,-0.2698994576931
-1.8442476987838745,4.0439958572387695,-0.2741744816303253
-1.8149973154067993,4.056922912597656,-0.2783554196357727
-1.7950531244277954,4.091054439544678,-0.28402310609817505
-1.768902063369751,4.110628604888916,-0.2886781096458435
-1.7399368286132812,4.122687816619873,-0.29271069169044495
-1.7116856575012207,4.138436794281006,-0.29688096046447754
-1.684760332107544,4.157601356506348,-0.3013196289539337
-1.655515193939209,4.1690545082092285,-0.3051440417766571
-1.6257896423339844,4.180452823638916,-0.3090003728866577
-1.601296067237854,4.2063093185424805,-0.31371453404426575
-1.568352460861206,4.210115909576416,-0.3168051540851593
-1.5438932180404663,4.235468864440918,-0.32149606943130493
-1.5195766687393188,4.260533809661865,-0.32616090774536133
-1.4913015365600586,4.278500080108643,-0.33018505573272705
-1.4607298374176025,4.288774490356445,-0.3335336446762085
-1.4400254487991333,4.328366279602051,-0.3391883075237274
-1.1533197164535522,3.548987627029419,-0.28019189834594727
-1.1306931972503662,3.5642266273498535,-0.28341343998908997
-1.3487741947174072,4.36098051071167,-0.34912174940109253
-1.3176521062850952,4.370238780975342,-0.3521876335144043
-1.2913483381271362,4.394078731536865,-0.35641753673553467
-1.2649866342544556,4.41770076751709,-0.3606470823287964
-1.239993691444397,4.448812484741211,-0.36528679728507996
-1.2063801288604736,4.449748992919922,-0.36742666363716125
-1.1782958507537842,4.473145008087158,-0.37147432565689087
-1.1489934921264648,4.4885735511779785,-0.37482476234436035
-1.1212965250015259,4.511398792266846,-0.37875378131866455
-1.0819967985153198,4.488748550415039,-0.37864798307418823
-1.043074369430542,4.465770244598389,-0.3785092532634735
-1.0145753622055054,4.4880900382995605,-0.38223782181739807
-0.9867050647735596,4.510036945343018,-0.38591471314430237
-0.9567505121231079,4.524254322052002,-0.3887816369533539
-0.9264211058616638,4.538329124450684,-0.3915119171142578
-0.8959788680076599,4.552192211151123,-0.3942466378211975
-0.8686271905899048,4.58504056930542,-0.3986755311489105
-0.8380212783813477,4.5984649658203125,-0.4014153480529785
-0.8083056807518005,4.619426250457764,-0.404579222202301
-0.7770121693611145,4.632531642913818,-0.4070061445236206
-0.7480407357215881,4.660793304443359,-0.4107934534549713
-0.7203187942504883,4.700436115264893,-0.41562703251838684
-0.6853591799736023,4.689775466918945,-0.4160143733024597
-0.6546044945716858,4.709756851196289,-0.41879233717918396
-0.6225779056549072,4.721822738647461,-0.4208814799785614
-0.5962337851524353,4.779996871948242,-0.42711350321769714
-0.5620765686035156,4.776172161102295,-0.4278288185596466
-0.5265145897865295,4.764441013336182,-0.42782992124557495
-0.48552969098091125,4.694389343261719,-0.42223086953163147
-0.4474576711654663,4.643362998962402,-0.41834381222724915
-0.408432275056839,4.572659015655518,-0.41268390417099
-0.3731248676776886,4.532649993896484,-0.409792423248291
-0.3351994454860687,4.45750617980957,-0.4036668837070465
-0.30062586069107056,4.409226894378662,-0.3996884524822235
-0.266743004322052,4.360685348510742,-0.39569658041000366
-0.2338004857301712,4.315771102905273,-0.3920433521270752
-0.1988561898469925,4.212319850921631,-0.3830747604370117
-0.16671819984912872,4.155272483825684,-0.37824299931526184
-0.13854937255382538,4.179641246795654,-0.3805823028087616
-0.10947447270154953,4.180483818054199,-0.38079833984375
-0.0796109139919281,4.142230987548828,-0.37747037410736084
-0.05027324706315994,4.099876880645752,-0.3737834095954895
-0.02097766101360321,4.053440093994141,-0.3696341812610626
0.007162198424339294,4.014596939086914,-0.36596858501434326
0.03479443117976189,3.9794514179229736,-0.3626597821712494
0.06187677010893822,3.9402270317077637,-0.35899868607521057
0.08829302340745926,3.8969311714172363,-0.35498568415641785
0.11444223672151566,3.8651371002197266,-0.35192447900772095
0.1399126946926117,3.813732862472534,-0.3468863070011139
0.16502290964126587,3.781615972518921,-0.34363335371017456
0.1901196390390396,3.7571046352386475,-0.3410923182964325
0.21421293914318085,3.720775842666626,-0.3374996483325958
0.23755791783332825,3.6804232597351074,-0.33344554901123047
0.26126590371131897,3.6476786136627197,-0.3299212157726288
0.2856441140174866,3.6342062950134277,-0.32817140221595764
0.30755677819252014,3.5934338569641113,-0.3239786922931671
0.32894763350486755,3.552529811859131,-0.3198000192642212
0.3516528606414795,3.5308778285980225,-0.31725242733955383
0.37153446674346924,3.481976270675659,-0.3121252954006195
0.3929714858531952,3.4562110900878906,-0.30911409854888916
0.4160236716270447,3.4457571506500244,-0.30749082565307617
0.43749934434890747,3.4235668182373047,-0.3048395812511444
0.4560263454914093,3.3819830417633057,-0.3003455698490143
0.47760283946990967,3.363389015197754,-0.297784686088562
0.49682140350341797,3.3331687450408936,-0.2942354381084442
0.5187312960624695,3.322054862976074,-0.2923927903175354
0.5380866527557373,3.2954204082489014,-0.28920289874076843
0.5556171536445618,3.2610461711883545,-0.28520703315734863
0.5753688812255859,3.2419302463531494,-0.28248804807662964
0.5959702730178833,3.226454973220825,-0.2800908386707306
0.6124990582466125,3.191777467727661,-0.27606382966041565
0.630174994468689,3.1646440029144287,-0.2727159857749939
0.6488736271858215,3.1450984477996826,-0.26987355947494507
0.6648444533348083,3.1140379905700684,-0.26602867245674133
0.6849743723869324,3.1018340587615967,-0.2638007402420044
0.7047858238220215,3.0895400047302246,-0.2615935504436493
0.7226735353469849,3.069540500640869,-0.25875407457351685
0.7382102608680725,3.0419561862945557,-0.2550933361053467
0.755266010761261,3.0218617916107178,-0.2520908713340759
0.7715538144111633,2.9977927207946777,-0.2487555593252182
0.7884406447410583,2.977431297302246,-0.24576124548912048
0.8091045618057251,2.9720301628112793,-0.24397219717502594
0.8210874199867249,2.9365620613098145,-0.23961368203163147
0.8368955850601196,2.916046619415283,-0.23651032149791718
0.8507972955703735,2.887824296951294,-0.2327732890844345
0.8697918057441711,2.878244400024414,-0.23057669401168823
0.8688434362411499,2.805375576019287,-0.22325803339481354
0.88211989402771,2.7809629440307617,-0.21978577971458435
0.891493558883667,2.745382308959961,-0.2154676914215088
0.9084193706512451,2.731778144836426,-0.2128547877073288
0.929945707321167,2.7329132556915283,-0.21141716837882996
0.945972204208374,2.7193236351013184,-0.20871108770370483
0.9697080850601196,2.7276599407196045,-0.20769120752811432
0.9884066581726074,2.721104621887207,-0.20552687346935272
1.0046428442001343,2.7070064544677734,-0.20278097689151764
1.01801598072052,2.6855132579803467,-0.19940748810768127
1.0334231853485107,2.6714365482330322,-0.1965787410736084
1.0458241701126099,2.650021553039551,-0.1932336390018463
1.0584174394607544,2.628386974334717,-0.1898580640554428
1.0751404762268066,2.6175458431243896,-0.18726493418216705
1.081093430519104,2.5814924240112305,-0.18277232348918915
1.1046626567840576,2.588625192642212,-0.18138937652111053
1.1131529808044434,2.5596697330474854,-0.17745687067508698
1.127817988395691,2.5448851585388184,-0.17451444268226624
1.1418224573135376,2.5302517414093018,-0.17151996493339539
1.1493923664093018,2.5012710094451904,-0.16754093766212463
1.163156509399414,2.486461639404297,-0.16455014050006866
1.1754266023635864,2.467902183532715,-0.16129404306411743
1.1921178102493286,2.460052490234375,-0.15868820250034332
1.1982494592666626,2.4311790466308594,-0.15473490953445435
1.2115634679794312,2.41601824760437,-0.1516178399324417
1.224854588508606,2.4007210731506348,-0.14849510788917542
1.2374298572540283,2.385645866394043,-0.14535635709762573
1.2496974468231201,2.370591163635254,-0.14222775399684906
1.2621557712554932,2.3552985191345215,-0.13905677199363708
1.2748440504074097,2.3397388458251953,-0.13583604991436005
1.2850111722946167,2.32096791267395,-0.1323573738336563
1.2965903282165527,2.3057312965393066,-0.12914317846298218
1.308577537536621,2.290128231048584,-0.12584282457828522
1.3164273500442505,2.267756938934326,-0.12215662747621536
1.3353257179260254,2.265901565551758,-0.1195664182305336
1.3426835536956787,2.2435362339019775,-0.11583144962787628
1.3502155542373657,2.220921277999878,-0.11204920709133148
1.3649177551269531,2.2120704650878906,-0.10895789414644241
1.3794150352478027,2.203209638595581,-0.10586635023355484
1.386216640472412,2.180612802505493,-0.10199959576129913
1.3925904035568237,2.158141851425171,-0.09809379279613495
1.402301549911499,2.1426644325256348,-0.09457950294017792
1.4147295951843262,2.129941463470459,-0.09106094390153885
1.4289863109588623,2.1205475330352783,-0.0876251682639122
1.4382104873657227,2.1049914360046387,-0.08394020050764084
1.4527740478515625,2.09511137008667,-0.08026013523340225
1.457517385482788,2.072888135910034,-0.07612200081348419
1.4140082597732544,1.9842201471328735,-0.06969134509563446
1.4621505737304688,2.0218935012817383,-0.06742870807647705
1.4794597625732422,2.01908016204834,-0.06372563540935516
1.4788973331451416,1.9905033111572266,-0.05902468413114548
1.4316719770431519,2.009105682373047,0.09239232540130615
1.4674389362335205,2.093578577041626,0.09976445883512497
1.4540727138519287,2.1074445247650146,0.10371363908052444
1.443130373954773,2.1242177486419678,0.10761149227619171
1.4310425519943237,2.1415903568267822,0.11152063310146332
1.4198591709136963,2.158193349838257,0.11521609127521515
1.4165197610855103,2.1881515979766846,0.11959397792816162
1.3997746706008911,2.198721170425415,0.1228572353720665
1.3880114555358887,2.2152061462402344,0.12631942331790924
1.3803128004074097,2.2381951808929443,0.13007694482803345
1.3633685111999512,2.248382806777954,0.1330520063638687
1.3544238805770874,2.271791934967041,0.13681910932064056
1.3444359302520752,2.2911276817321777,0.140205517411232
1.3274023532867432,2.300869941711426,0.14294125139713287
1.3139780759811401,2.317363739013672,0.14609384536743164
1.3011733293533325,2.3333475589752197,0.14913783967494965
1.2919024229049683,2.356133222579956,0.15261884033679962
1.2854171991348267,2.3861255645751953,0.15647412836551666
1.263981580734253,2.3885629177093506,0.15854021906852722
1.2542426586151123,2.4111268520355225,0.16186287999153137
1.2478795051574707,2.4405715465545654,0.1656448245048523
1.2294784784317017,2.4497320652008057,0.16800931096076965
1.2165180444717407,2.4690794944763184,0.17105717957019806
1.2023067474365234,2.48453950881958,0.17379429936408997
1.1916279792785645,2.5067999362945557,0.17699746787548065
1.1831655502319336,2.5364861488342285,0.18063677847385406
1.170998215675354,2.5591299533843994,0.1837928295135498
1.1521365642547607,2.567521572113037,0.18594717979431152
1.1373522281646729,2.582476854324341,0.18850888311862946
1.1266666650772095,2.608250141143799,0.1918296068906784
1.1075984239578247,2.616260290145874,0.1937912553548813
1.1004399061203003,2.6529171466827393,0.197898730635643
1.0812941789627075,2.6606316566467285,0.19985654950141907
1.0655847787857056,2.6752102375030518,0.20229995250701904
1.051979660987854,2.6971888542175293,0.20520778000354767
1.040696382522583,2.7264645099639893,0.20865905284881592
1.020864725112915,2.7338144779205322,0.2104530930519104
1.0107238292694092,2.7664966583251953,0.21419569849967957
0.9914061427116394,2.773343324661255,0.21593423187732697
0.9521786570549011,2.725104808807373,0.21323849260807037
0.940024733543396,2.753906726837158,0.21654658019542694
0.922602117061615,2.767881393432617,0.21870997548103333
0.9004070162773132,2.7668657302856445,0.21968939900398254
0.889340877532959,2.7989425659179688,0.22328993678092957
0.8808578848838806,2.8423118591308594,0.22769813239574432
0.884014368057251,2.9267642498016357,0.23540915548801422
0.8651403784751892,2.940402030944824,0.23746299743652344
0.8487041592597961,2.9612812995910645,0.2401009052991867
0.8339975476264954,2.989605188369751,0.2433716058731079
0.8179643154144287,3.0141022205352783,0.24624481797218323
0.8023687601089478,3.042357921600342,0.2493550032377243
0.7825169563293457,3.05545973777771,0.25124502182006836
0.766482412815094,3.0834970474243164,0.25437623262405396
0.74640953540802,3.096323251724243,0.25627461075782776
0.7291966080665588,3.1203150749206543,0.2590852379798889
0.7138502597808838,3.155714511871338,0.262694776058197
0.6913497447967529,3.1606292724609375,0.2637873589992523
0.6768636107444763,3.2034740447998047,0.2680674195289612
0.6555803418159485,3.2157516479492188,0.2698132395744324
0.6354147791862488,3.231609344482422,0.27186110615730286
0.6155626177787781,3.2512168884277344,0.2741312086582184
0.5980299711227417,3.2860708236694336,0.27761316299438477
0.5787265300750732,3.313161849975586,0.2804613709449768
0.5580922365188599,3.336357593536377,0.28300940990448
0.5385761260986328,3.363142728805542,0.2858636975288391
0.5198579430580139,3.3975157737731934,0.289387047290802
0.4993050694465637,3.4241385459899902,0.29207998514175415
0.4778253734111786,3.446791172027588,0.2944255769252777
0.45508676767349243,3.4655094146728516,0.29646214842796326
0.43366390466690063,3.491729259490967,0.2991495430469513
0.4121098816394806,3.517791986465454,0.3018401265144348
0.3884478807449341,3.5282559394836426,0.3031882345676422
0.3688134253025055,3.581188678741455,0.30800285935401917
0.3465961515903473,3.614644765853882,0.31116384267807007
0.32313400506973267,3.64412522315979,0.31400805711746216
0.3008578419685364,3.6850390434265137,0.31785106658935547
0.27810245752334595,3.7258107662200928,0.321703165769577
0.2534385621547699,3.747035503387451,0.32382312417030334
0.229551762342453,3.787541389465332,0.32744717597961426
0.20446808636188507,3.824031352996826,0.33074498176574707
0.17913396656513214,3.8564462661743164,0.3337070345878601
0.1537831723690033,3.8964643478393555,0.33734560012817383
0.1282622069120407,3.9479830265045166,0.3420005142688751
0.10154802352190018,3.9798882007598877,0.3448791801929474
0.07406746596097946,4.023308277130127,0.34861186146736145
0.0463932529091835,4.0626397132873535,0.35200750827789307
0.018180739134550095,4.093995571136475,0.35472917556762695
-0.010411223396658897,4.136828899383545,0.3584628105163574
-0.03966560214757919,4.191135406494141,0.3632086217403412
-0.06998982280492783,4.233562469482422,0.36681169271469116
-0.10045596957206726,4.279684543609619,0.3706040382385254
-0.12990902364253998,4.2711262702941895,0.36967733502388
-0.1589575558900833,4.2545881271362305,0.3680786192417145
-0.19148993492126465,4.319495677947998,0.3735416829586029
-0.22573083639144897,4.39970064163208,0.3803407847881317
-0.2624703347682953,4.495162487030029,0.38831233978271484
-0.300433874130249,4.598141670227051,0.39681094884872437
-0.3350173234939575,4.634820938110352,0.3995954096317291
-0.37754887342453003,4.7643513679504395,0.41039010882377625
-0.41903042793273926,4.858601093292236,0.4181463420391083
-0.47149738669395447,5.049323558807373,0.43419861793518066
-0.5250500440597534,5.231899738311768,0.4493367671966553
-0.5731374025344849,5.340468406677246,0.45798736810684204
-0.6099281907081604,5.3364763259887695,0.4569926857948303
-0.6500260233879089,5.359272480010986,0.45830950140953064
-0.6754738688468933,5.258119583129883,0.44904226064682007
-0.7120172381401062,5.253380298614502,0.448051780462265
-0.743215024471283,5.213779449462891,0.4438551068305969
-0.7789767384529114,5.208668231964111,0.442545086145401
-0.8273481726646423,5.284071445465088,0.4480834901332855
-0.853640079498291,5.212957382202148,0.4411986470222473
-0.888555109500885,5.199334144592285,0.43921908736228943
-0.9062100648880005,5.089671611785889,0.42916613817214966
-0.9353559613227844,5.052860260009766,0.42500171065330505
-0.971316933631897,5.05413293838501,0.4240553379058838
-0.9997801184654236,5.0169596672058105,0.4199061691761017
-1.0490951538085938,5.07859468460083,0.424014151096344
-1.0762230157852173,5.0332441329956055,0.41921278834342957
-1.1126399040222168,5.033434867858887,0.41816145181655884
-1.1554844379425049,5.063875198364258,0.41939711570739746
-1.1622709035873413,4.938558101654053,0.4077703058719635
-1.192757248878479,4.9154157638549805,0.4046115577220917
-1.2192957401275635,4.876953601837158,0.4002191722393036
-1.2056514024734497,4.683719158172607,0.3831951916217804
-1.2447233200073242,4.701853275299072,0.38335561752319336
-1.274588942527771,4.685945510864258,0.38064613938331604
-1.3048689365386963,4.6696906089782715,0.3779054582118988
-1.3368251323699951,4.660813331604004,0.3757956027984619
-1.3658607006072998,4.640380859375,0.3727562129497528
-1.399115800857544,4.634705543518066,0.37088996171951294
-1.1265860795974731,3.642967462539673,0.2902429401874542
-1.1468591690063477,3.6204473972320557,0.2871602773666382
-1.4656082391738892,4.520590782165527,0.35698312520980835
-1.5043389797210693,4.53267240524292,0.35632485151290894
-1.5333688259124756,4.514896869659424,0.35332706570625305
-1.6138371229171753,4.648105621337891,0.36192572116851807
-1.6620622873306274,4.685064792633057,0.36291253566741943
-1.6835209131240845,4.644473552703857,0.35786914825439453
-1.711388349533081,4.622028827667236,0.3542501628398895
-1.7434875965118408,4.610231399536133,0.3514491021633148
-1.7663966417312622,4.5766730308532715,0.3468753397464752
-1.7941396236419678,4.55772066116333,0.3433351218700409
-1.813538908958435,4.516688346862793,0.33812659978866577
-1.8223159313201904,4.450278282165527,0.33105990290641785
-1.8999179601669312,4.5491485595703125,0.3362374007701874
-1.8744051456451416,4.403648853302002,0.32325538992881775
-1.910024642944336,4.405550479888916,0.3210758864879608
-3.838977575302124,8.69267749786377,0.6288690567016602
-3.8842880725860596,8.634546279907227,0.6199944615364075
-1.9940698146820068,4.351728439331055,0.31009048223495483
-2.051265239715576,4.398543357849121,0.3108559548854828
-2.0553739070892334,4.332238674163818,0.3035896122455597
-2.0947489738464355,4.339577674865723,0.30147382616996765
-2.111128568649292,4.297164440155029,0.2958415448665619
-2.144212007522583,4.289726734161377,0.2926105558872223
-2.154802083969116,4.24098539352417,0.2864481806755066
-2.2077810764312744,4.27543830871582,0.28590822219848633
-2.2186315059661865,4.226086139678955,0.2796844244003296
-2.24861216545105,4.210480213165283,0.2755943536758423
-2.263564109802246,4.171694278717041,0.2699403166770935
-2.2476587295532227,4.078416347503662,0.26081836223602295
-2.2558367252349854,4.029517650604248,0.25457948446273804
-2.280029535293579,4.007171154022217,0.2499287873506546
-2.3110620975494385,3.9986379146575928,0.24599066376686096
-2.337067127227783,3.9837589263916016,0.2416774332523346
-2.3595759868621826,3.961655855178833,0.23686401546001434
-2.3872408866882324,3.9453225135803223,0.23223894834518433
-2.4213531017303467,3.943077564239502,0.22834253311157227
-2.443207025527954,3.92065691947937,0.22318822145462036
-2.4697232246398926,3.904284715652466,0.21829207241535187
-2.4964842796325684,3.887507677078247,0.21324701607227325
-2.5128509998321533,3.858609676361084,0.20748400688171387
-2.5292446613311768,3.8294620513916016,0.20169390738010406
-2.5520355701446533,3.8052072525024414,0.19579383730888367
-2.5655317306518555,3.7728235721588135,0.18951286375522614
-2.609388828277588,3.7856390476226807,0.18548107147216797
-2.051741361618042,2.9328808784484863,0.13969554007053375
-2.0750844478607178,2.926208734512329,0.13529092073440552
-2.0848188400268555,2.9002931118011475,0.12988533079624176
-2.114124298095703,2.898581027984619,0.12523065507411957
-1.0903557538986206,1.475812315940857,0.06139110401272774
-2.0678539276123047,2.899435520172119,-0.09306252747774124
-2.046043872833252,2.914686441421509,-0.09855763614177704
-2.4569220542907715,3.5561909675598145,-0.12612681090831757
-2.4710795879364014,3.631477117538452,-0.13432766497135162
-2.44561767578125,3.65313982963562,-0.1406244933605194
-2.417149782180786,3.6671347618103027,-0.14634326100349426
-2.3899714946746826,3.6846704483032227,-0.152126744389534
-2.362190008163452,3.7023043632507324,-0.15781302750110626
-2.335911273956299,3.718709707260132,-0.16316650807857513
-2.3088135719299316,3.7353596687316895,-0.16844087839126587
-2.280846357345581,3.7522618770599365,-0.17371217906475067
-2.253701686859131,3.768389940261841,-0.17880535125732422
-2.226632833480835,3.7842116355895996,-0.18372249603271484
-2.200531482696533,3.803717613220215,-0.18879976868629456
-2.1731202602386475,3.8192055225372314,-0.19357632100582123
-2.1539359092712402,3.847719430923462,-0.1989062875509262
-2.1251041889190674,3.8634746074676514,-0.20357771217823029
-2.0892791748046875,3.8649890422821045,-0.207424134016037
-2.073219060897827,3.8999252319335938,-0.21290044486522675
-2.045214891433716,3.914445161819458,-0.21723948419094086
-2.0129613876342773,3.922119379043579,-0.22116093337535858
-1.9877537488937378,3.9434502124786377,-0.2258610874414444
-1.9601777791976929,3.9569928646087646,-0.229976087808609
-1.9383678436279297,3.98484468460083,-0.23483924567699432
-1.9126983880996704,4.005636692047119,-0.23929429054260254
-1.8841625452041626,4.018901348114014,-0.24324651062488556
-1.8625636100769043,4.045901298522949,-0.24799734354019165
-1.832789421081543,4.059239387512207,-0.2518410086631775
-1.8096925020217896,4.086420059204102,-0.25650325417518616
-1.7775686979293823,4.091760635375977,-0.2597534954547882
-1.7550768852233887,4.118186950683594,-0.26431557536125183
-1.725468397140503,4.130451679229736,-0.2678563594818115
-1.6966173648834229,4.146365642547607,-0.2716819941997528
-1.6671066284179688,4.158089637756348,-0.27516424655914307
-1.640988826751709,4.176618576049805,-0.279058039188385
-1.61687433719635,4.202504634857178,-0.28333765268325806
-1.5839769840240479,4.206463813781738,-0.28609928488731384
-1.558800458908081,4.232253551483154,-0.2903972864151001
-1.5318341255187988,4.250157356262207,-0.2940874993801117
-1.5044087171554565,4.2679924964904785,-0.297713965177536
-1.4763768911361694,4.285806655883789,-0.30122604966163635
-1.4431601762771606,4.288670539855957,-0.30370527505874634
-1.1679688692092896,3.554439067840576,-0.25359591841697693
-1.1431869268417358,3.56231427192688,-0.2560058832168579
-1.1189903020858765,3.573910713195801,-0.25852343440055847
-1.333579421043396,4.3680267333984375,-0.31802260875701904
-1.3092947006225586,4.399567604064941,-0.32238295674324036
-1.2786165475845337,4.408383369445801,-0.3250716030597687
-1.2534677982330322,4.439701557159424,-0.3293784558773041
-1.221935749053955,4.448300838470459,-0.33183571696281433
-1.1903446912765503,4.456675052642822,-0.33429285883903503
-1.164935827255249,4.487356185913086,-0.33842790126800537
-1.1354924440383911,4.502748966217041,-0.3414302170276642
-1.105912446975708,4.521965026855469,-0.3445662260055542
-1.0585423707962036,4.465090751647949,-0.341806024312973
-1.0320838689804077,4.4950995445251465,-0.34569936990737915
-0.9974034428596497,4.486799240112305,-0.34663617610931396
-0.9694667458534241,4.508693695068359,-0.34991464018821716
-0.9434415698051453,4.545894145965576,-0.3541610538959503
-0.9128866791725159,4.5599284172058105,-0.35660943388938904
-0.8815586566925049,4.569910526275635,-0.3587571084499359
-0.8525779247283936,4.59110689163208,-0.36179524660110474
-0.8246371150016785,4.619806289672852,-0.36538413166999817
-0.7941569685935974,4.640823841094971,-0.3681688606739044
-0.7627550363540649,4.653858661651611,-0.370324045419693
-0.7313282489776611,4.666661262512207,-0.37247875332832336
-0.7051440477371216,4.7138824462890625,-0.37740403413772583
-0.6721900105476379,4.7185797691345215,-0.3788357079029083
-0.6405383348464966,4.738597869873047,-0.38132914900779724
-0.609208345413208,4.758330821990967,-0.38380950689315796
-0.5867210030555725,4.851276874542236,-0.3922283947467804
-0.5463907122612,4.7971062660217285,-0.3887729048728943
-0.5071538090705872,4.7465081214904785,-0.38545018434524536
-0.4689566493034363,4.699498176574707,-0.38223883509635925
-0.4272461235523224,4.613475322723389,-0.37586626410484314
-0.3903995752334595,4.561964988708496,-0.37229233980178833
-0.35288503766059875,4.490753650665283,-0.3671085834503174
-0.31794166564941406,4.442566871643066,-0.36364808678627014
-0.28340989351272583,4.390244007110596,-0.3597002327442169
-0.24972747266292572,4.349351406097412,-0.35670551657676697
-0.21453316509723663,4.2537384033203125,-0.349221408367157
-0.1820349246263504,4.188967704772949,-0.34427234530448914
-0.15172260999679565,4.15898323059082,-0.3420303463935852
-0.12360160052776337,4.19105863571167,-0.3447668254375458
-0.09316655993461609,4.160677909851074,-0.3423842787742615
-0.06358939409255981,4.12228536605835,-0.33935487270355225
-0.03458976745605469,4.079791069030762,-0.3360011875629425
-0.006186612416058779,4.041001319885254,-0.33280596137046814
0.02169230207800865,3.998133659362793,-0.3291540741920471
0.04947194084525108,3.95896315574646,-0.32582318782806396
0.07617832720279694,3.915717363357544,-0.3221765160560608
0.10218267887830734,3.8684017658233643,-0.3182124197483063
0.12805980443954468,3.836491823196411,-0.31538233160972595
0.15359945595264435,3.8083126544952393,-0.31274765729904175
0.17820227146148682,3.7682981491088867,-0.3091614544391632
0.2031668871641159,3.7358758449554443,-0.30621337890625
0.22695933282375336,3.6994333267211914,-0.3029608428478241
0.2504724860191345,3.6667404174804688,-0.29989194869995117
0.27379390597343445,3.6377954483032227,-0.297026664018631
0.2964077591896057,3.604823589324951,-0.29385462403297424
0.3190746605396271,3.5716700553894043,-0.2906808853149414
0.3405463695526123,3.5345356464385986,-0.2872128188610077
0.360210657119751,3.4856791496276855,-0.2826809883117676
0.3817142844200134,3.4599571228027344,-0.2799363434314728
0.4042707085609436,3.44570255279541,-0.2781386971473694
0.42760327458381653,3.435107946395874,-0.2766408622264862
0.4484498202800751,3.408954620361328,-0.2739177942276001
0.4688478410243988,3.382702350616455,-0.27108240127563477
0.4877042770385742,3.348641872406006,-0.26755374670028687
0.5090519189834595,3.3337299823760986,-0.2655778229236603
0.5288838148117065,3.3070664405822754,-0.26266947388648987
0.5480554699897766,3.280339002609253,-0.25979018211364746
0.5680435299873352,3.261219024658203,-0.25739598274230957
0.585629940032959,3.2305026054382324,-0.2540343701839447
0.6064256429672241,3.2188351154327393,-0.2521927058696747
0.6227928400039673,3.1840627193450928,-0.24855589866638184
0.6437821388244629,3.1720352172851562,-0.24670013785362244
0.6592418551445007,3.137131690979004,-0.2429533451795578
0.6783221364021301,3.121213674545288,-0.24065499007701874
0.6963613629341125,3.101379871368408,-0.2380751520395279
0.7144179344177246,3.0813863277435303,-0.2354920208454132
0.7308011651039124,3.0536234378814697,-0.2323208749294281
0.7461727857589722,3.0259532928466797,-0.2290356606245041
0.7650116086006165,3.0133256912231445,-0.22689948976039886
0.7827274203300476,2.9968113899230957,-0.22448872029781342
0.7954937219619751,2.961303472518921,-0.2206653207540512
0.8164036273956299,2.9557273387908936,-0.21904674172401428
0.8302276730537415,2.9277079105377197,-0.21566902101039886
0.8458839654922485,2.907119035720825,-0.21286538243293762
0.8636429905891418,2.893885374069214,-0.2106126844882965
0.878072202205658,2.8692948818206787,-0.20754006505012512
0.8713348507881165,2.7776753902435303,-0.199588805437088
0.8711966872215271,2.712425470352173,-0.19355937838554382
0.901831328868866,2.7435758113861084,-0.19443079829216003
0.9183267951011658,2.7300031185150146,-0.19210539758205414
0.9398584961891174,2.7310380935668945,-0.19080938398838043
0.9533155560493469,2.7099807262420654,-0.18786819279193878
0.9799463748931885,2.725468158721924,-0.1874229609966278
1.0012478828430176,2.726155996322632,-0.1859695464372635
1.0175065994262695,2.711939573287964,-0.18347768485546112
1.033430814743042,2.697700262069702,-0.18095862865447998
1.0432102680206299,2.6689724922180176,-0.17741936445236206
1.0558545589447021,2.6473522186279297,-0.17435429990291595
1.0682494640350342,2.6256823539733887,-0.1713121384382248
1.084996223449707,2.6147220134735107,-0.1689774990081787
