X,Y,Z
-0.8922851085662842,1.4166054725646973,0.1356690526008606
-0.9105527400970459,1.423728346824646,0.13407325744628906
-0.9034735560417175,1.3914945125579834,0.12877273559570312
-0.8995711803436279,1.3663856983184814,0.12414650619029999
-0.9217708110809326,1.3799751996994019,0.12292671948671341
-2.407296895980835,3.5504567623138428,0.3096711039543152
-2.3841311931610107,3.4678871631622314,0.2958495616912842
-1.2521556615829468,1.7969595193862915,0.14979952573776245
-1.368357539176941,1.934823751449585,0.1570965051651001
-1.4067367315292358,1.9976801872253418,-0.09959430992603302
-1.2337974309921265,1.7801934480667114,-0.09350769221782684
-1.178917407989502,1.7276852130889893,-0.09511277079582214
-1.2536942958831787,1.865280270576477,-0.10714594274759293
-1.1961125135421753,1.837310791015625,-0.11401909589767456
-1.2691516876220703,1.9802311658859253,-0.12716667354106903
-1.723852515220642,2.821634531021118,-0.19840902090072632
-1.7024309635162354,2.834150552749634,-0.2048778235912323
-1.5914877653121948,2.735835075378418,-0.20775967836380005
-0.8397892713546753,1.4682708978652954,-0.11410107463598251
-1.4843919277191162,2.6390912532806396,-0.20964524149894714
-1.422127366065979,2.570781707763672,-0.2085677534341812
-1.3644086122512817,2.5087153911590576,-0.2076399326324463
-1.3184010982513428,2.4667301177978516,-0.20816242694854736
-1.2900937795639038,2.4548935890197754,-0.2109667956829071
-1.2388341426849365,2.3977742195129395,-0.20973165333271027
-1.194582223892212,2.354421615600586,-0.20950666069984436
-1.153180480003357,2.3138508796691895,-0.20930609107017517
-1.1231892108917236,2.293565273284912,-0.2107386440038681
-1.091658353805542,2.269564151763916,-0.21172496676445007
-1.0585044622421265,2.241891622543335,-0.21221190690994263
-1.014569878578186,2.189054489135742,-0.2101580649614334
-0.986066997051239,2.167543888092041,-0.21098127961158752
-0.9642981290817261,2.1599485874176025,-0.21301735937595367
-0.9315170049667358,2.127323627471924,-0.21246124804019928
-0.9102108478546143,2.119279146194458,-0.21426746249198914
-0.8666738867759705,2.057178258895874,-0.21047459542751312
-0.8340358138084412,2.01991605758667,-0.20909298956394196
-0.8063929677009583,1.9931105375289917,-0.2086041122674942
-0.7864408493041992,1.9840517044067383,-0.20991338789463043
-0.7640761137008667,1.9674793481826782,-0.21036021411418915
-0.7377366423606873,1.9398385286331177,-0.209538072347641
-0.7127125859260559,1.915752649307251,-0.20898082852363586
-0.7016671299934387,1.9278210401535034,-0.21231073141098022
-0.6725010871887207,1.888497233390808,-0.20991584658622742
-0.6592399477958679,1.8928968906402588,-0.21233981847763062
-0.6344351172447205,1.864208459854126,-0.21089087426662445
-0.6159569621086121,1.853772759437561,-0.21150445938110352
-0.6005704402923584,1.8504009246826172,-0.21284542977809906
-0.5829289555549622,1.839497685432434,-0.2133079618215561
-0.5595816373825073,1.8099559545516968,-0.21146343648433685
-0.5444787740707397,1.8062182664871216,-0.21256375312805176
-0.5251787304878235,1.7874351739883423,-0.21186700463294983
-0.5039106607437134,1.761046051979065,-0.21024993062019348
-0.48945584893226624,1.756844162940979,-0.21118377149105072
-0.4749634563922882,1.752571940422058,-0.21199552714824677
-0.4536512494087219,1.7219197750091553,-0.20959414541721344
-0.4396921396255493,1.7173283100128174,-0.21032649278640747
-0.42375844717025757,1.7051421403884888,-0.21014243364334106
-0.4099099934101105,1.700361967086792,-0.2107027918100357
-0.3996683359146118,1.710582971572876,-0.2131016105413437
-0.3859482705593109,1.7055989503860474,-0.21361030638217926
-0.3723856210708618,1.7004934549331665,-0.2140977680683136
-0.3586762845516205,1.6953359842300415,-0.21454662084579468
-0.344402939081192,1.686267375946045,-0.21434971690177917
-0.3325217664241791,1.6884920597076416,-0.21559260785579681
-0.3193042278289795,1.6829954385757446,-0.21584588289260864
-0.3047875463962555,1.6697726249694824,-0.21510575711727142
-0.29557061195373535,1.6870243549346924,-0.21818554401397705
-0.2760164141654968,1.6430704593658447,-0.21327121555805206
-0.2669757008552551,1.6601313352584839,-0.21627019345760345
-0.25657352805137634,1.669478178024292,-0.21828290820121765
-0.23932327330112457,1.6327648162841797,-0.21426112949848175
-0.22660620510578156,1.6266493797302246,-0.21406878530979156
-0.21520258486270905,1.6280919313430786,-0.21486830711364746
-0.20192013680934906,1.6140758991241455,-0.21362946927547455
-0.1902187168598175,1.6114929914474487,-0.2139061987400055
-0.17941276729106903,1.6165331602096558,-0.2151317298412323
-0.1689148098230362,1.6253716945648193,-0.2167503833770752
-0.1562362015247345,1.6148884296417236,-0.2158099114894867
-0.14359334111213684,1.6004334688186646,-0.21433265507221222
-0.1324360966682434,1.6013171672821045,-0.21491558849811554
-0.12067705392837524,1.5944210290908813,-0.21432437002658844
-0.1105865091085434,1.6106245517730713,-0.21678286790847778
-0.09772314876317978,1.588132381439209,-0.2140466719865799
-0.08753939718008041,1.6041840314865112,-0.21650804579257965
-0.07529646158218384,1.5815013647079468,-0.21375048160552979
-0.06492238491773605,1.59743332862854,-0.21602819859981537
-0.053808048367500305,1.5978221893310547,-0.21620644629001617
-0.04228760302066803,1.5903993844985962,-0.2153400182723999
-0.031071145087480545,1.5828908681869507,-0.21446871757507324
-0.02005821280181408,1.5830507278442383,-0.21460050344467163
-0.009071710519492626,1.5908970832824707,-0.21562497317790985
0.0019807489588856697,1.5754417181015015,-0.2135017216205597
0.013191674835979939,1.5831331014633179,-0.21452565491199493
0.024209074676036835,1.5830062627792358,-0.21450082957744598
0.03487857058644295,1.5673363208770752,-0.21228043735027313
0.046911489218473434,1.605779767036438,-0.2172914743423462
0.057241640985012054,1.5822343826293945,-0.21392279863357544
0.06890195608139038,1.5972994565963745,-0.21578587591648102
0.07980908453464508,1.5890707969665527,-0.21450887620449066
0.09038940072059631,1.580800175666809,-0.21308772265911102
0.10233979672193527,1.5956469774246216,-0.2147410809993744
0.11231676489114761,1.5795085430145264,-0.21223431825637817
0.12511523067951202,1.6019060611724854,-0.2149134874343872
0.13645803928375244,1.6010397672653198,-0.21446694433689117
0.14827710390090942,1.6078494787216187,-0.21487104892730713
0.15790319442749023,1.5914521217346191,-0.21218647062778473
0.17141282558441162,1.6135047674179077,-0.21463577449321747
0.1817496418952942,1.6046624183654785,-0.2129809558391571
0.1953936666250229,1.622657299041748,-0.21482643485069275
0.20858459174633026,1.6367439031600952,-0.2160225808620453
0.21783672273159027,1.6200169324874878,-0.2131628394126892
0.22913116216659546,1.6185683012008667,-0.2123245745897293
0.24383418262004852,1.6400315761566162,-0.21449315547943115
0.25661981105804443,1.646050214767456,-0.21451091766357422
0.2692714333534241,1.6520158052444458,-0.2144606113433838
0.280731737613678,1.650242805480957,-0.21341131627559662
0.2962791323661804,1.671277403831482,-0.21530762314796448
0.3051029145717621,1.6540653705596924,-0.21228329837322235
0.31945180892944336,1.6672989130020142,-0.21300749480724335
0.3326824903488159,1.6727759838104248,-0.2127070128917694
0.34430527687072754,1.6705822944641113,-0.21144840121269226
0.3575582206249237,1.6758846044540405,-0.2111421525478363
0.370868444442749,1.681097149848938,-0.21077479422092438
0.37903207540512085,1.6635514497756958,-0.2074437141418457
0.3924829959869385,1.6685795783996582,-0.2069244682788849
0.40411388874053955,1.665980577468872,-0.20547212660312653
0.4119783043861389,1.64824378490448,-0.20217165350914001
0.42338478565216064,1.6455399990081787,-0.20062506198883057
0.4515911936759949,1.7065364122390747,-0.2067599892616272
0.46974247694015503,1.7259738445281982,-0.20777229964733124
0.4880657494068146,1.7452753782272339,-0.20875731110572815
0.5034524202346802,1.753224492073059,-0.20834171772003174
0.5286826491355896,1.7946157455444336,-0.21173448860645294
0.5500161051750183,1.8208857774734497,-0.21328997611999512
0.5583382844924927,1.802335500717163,-0.20954647660255432
0.5791518688201904,1.8245216608047485,-0.21056441962718964
0.5785462856292725,1.780091404914856,-0.20381811261177063
0.6140462160110474,1.84633469581604,-0.20968247950077057
0.6368361115455627,1.8717005252838135,-0.21080613136291504
0.6550292372703552,1.8821247816085815,-0.21019811928272247
0.6748568415641785,1.8960000276565552,-0.20988598465919495
0.6931563019752502,1.9061990976333618,-0.2090822011232376
0.7170522212982178,1.9308042526245117,-0.20982185006141663
0.7388248443603516,1.9478119611740112,-0.20965522527694702
0.7594801783561707,1.9609816074371338,-0.20904219150543213
0.7931299209594727,2.006547451019287,-0.21166017651557922
0.8170296549797058,2.0266003608703613,-0.2115412950515747
0.8399858474731445,2.042738676071167,-0.2109358310699463
0.8692957758903503,2.0729730129241943,-0.21171940863132477
0.8941962718963623,2.092301607131958,-0.21124868094921112
0.9242058992385864,2.12203311920166,-0.2116900384426117
0.9515122175216675,2.144341468811035,-0.211323544383049
0.9905597567558289,2.1911215782165527,-0.21324992179870605
1.021880865097046,2.2199320793151855,-0.2132682055234909
1.0484950542449951,2.237940788269043,-0.21214234828948975
1.0910124778747559,2.2870686054229736,-0.21377138793468475
1.1189159154891968,2.304224967956543,-0.21232442557811737
1.1450278759002686,2.317793130874634,-0.2104409635066986
1.1938875913619995,2.3764538764953613,-0.21250003576278687
1.2279986143112183,2.403186321258545,-0.211502805352211
1.2484056949615479,2.4017961025238037,-0.20793257653713226
1.2886797189712524,2.4382264614105225,-0.20745514333248138
1.3234854936599731,2.464185953140259,-0.20602348446846008
1.3760896921157837,2.5202572345733643,-0.2068396359682083
1.3143091201782227,2.367830514907837,-0.19064801931381226
1.3033421039581299,2.3118035793304443,-0.18246936798095703
1.3501673936843872,2.357266664505005,-0.1822061985731125
1.3999860286712646,2.405374050140381,-0.1818886697292328
1.4382317066192627,2.4330105781555176,-0.17985950410366058
1.4543520212173462,2.423762798309326,-0.1750275194644928
1.4689961671829224,2.4107091426849365,-0.16977465152740479
1.4922659397125244,2.4105064868927,-0.16526806354522705
1.5247538089752197,2.4273622035980225,-0.16191919147968292
1.5662850141525269,2.456817388534546,-0.15918873250484467
1.6322050094604492,2.5214617252349854,-0.15834850072860718
1.4090185165405273,2.145731210708618,-0.13042588531970978
1.4040837287902832,2.1071970462799072,-0.1236380934715271
1.4275912046432495,2.1105122566223145,-0.11919103562831879
1.4370036125183105,2.0949437618255615,-0.11367329955101013
1.4465073347091675,2.0791735649108887,-0.1080370619893074
1.4564602375030518,2.0629465579986572,-0.10218236595392227
1.44712495803833,2.021960735321045,-0.09511647373437881
1.460876226425171,2.0123119354248047,-0.08936090022325516
1.464964509010315,1.9902324676513672,-0.08296161144971848
2.197674512863159,3.1018283367156982,0.23297104239463806
2.245894432067871,3.219789981842041,0.24914222955703735
2.348801612854004,3.422842025756836,0.27236467599868774
2.3482420444488525,3.474430799484253,0.2834603488445282
2.3070032596588135,3.4685704708099365,0.2896611988544464
2.295321464538574,3.5082812309265137,0.29953792691230774
1.6438356637954712,2.551098346710205,0.22217267751693726
1.637526035308838,2.5824053287506104,0.22921155393123627
1.61728835105896,2.5946462154388428,0.2345990091562271
1.5783803462982178,2.572472095489502,0.23646093904972076
3.0096335411071777,4.982902526855469,0.4653632938861847
2.977694034576416,5.014793395996094,0.4753662049770355
2.9558401107788086,5.0629472732543945,0.486880898475647
2.9350056648254395,5.110162734985352,0.49811628460884094
2.911630392074585,5.154003620147705,0.5088854432106018
2.887803792953491,5.202199935913086,0.5199304223060608
2.8605716228485107,5.243011474609375,0.5301821231842041
2.838435173034668,5.289583206176758,0.5408028364181519
2.801776885986328,5.312676429748535,0.5490850210189819
2.745964765548706,5.301558494567871,0.5534374117851257
2.6996188163757324,5.307076930999756,0.5594643950462341
2.7284536361694336,5.457283020019531,0.580599308013916
2.729590654373169,5.555755615234375,0.5964645147323608
1.2274203300476074,2.5460095405578613,0.2756601572036743
1.20853590965271,2.554678201675415,0.2788764238357544
1.1853770017623901,2.552316188812256,0.2808102071285248
1.1674656867980957,2.5602245330810547,0.28384074568748474
1.1571159362792969,2.585890293121338,0.2887924909591675
1.138066053390503,2.594007968902588,0.2916766405105591
2.5441296100616455,5.91813325881958,0.6700491905212402
2.5221712589263916,5.981662273406982,0.6816080212593079
2.497959613800049,6.041564464569092,0.6928526759147644
2.4647607803344727,6.083826065063477,0.701883852481842
2.4401674270629883,6.1515727043151855,0.7137172222137451
2.4042539596557617,6.194157123565674,0.7227745056152344
2.377509832382202,6.2536725997924805,0.7336423397064209
2.3365044593811035,6.276714324951172,0.740298867225647
1.980863094329834,5.438940525054932,0.644697904586792
2.290311336517334,6.4327006340026855,0.7660073041915894
2.2581076622009277,6.492752552032471,0.7767898440361023
2.2224268913269043,6.537221431732178,0.7856165170669556
2.192596673965454,6.599834442138672,0.7966848015785217
2.161602258682251,6.662474155426025,0.8077277541160583
2.109910726547241,6.666227340698242,0.811225414276123
2.0470757484436035,6.6364827156066895,0.8107215762138367
1.9853465557098389,6.601983070373535,0.8095287084579468
1.9239503145217896,6.562994003295898,0.8077256679534912
1.8684576749801636,6.542144298553467,0.8081597089767456
1.8050949573516846,6.495008945465088,0.8048986792564392
1.7472336292266846,6.466137409210205,0.8037546277046204
1.6881226301193237,6.433219909667969,0.8021578192710876
0.8307011127471924,3.257880449295044,0.4074472188949585
1.5786291360855103,6.376153469085693,0.7998570203781128
0.7996286749839783,3.3290040493011475,0.4188515543937683
1.4751960039138794,6.340314865112305,0.7995966672897339
1.4138127565383911,6.282370090484619,0.7942017316818237
1.368318796157837,6.288074493408203,0.796831488609314
1.313281536102295,6.243966102600098,0.7931349873542786
1.2682467699050903,6.244974613189697,0.7951866388320923
1.2087799310684204,6.173473358154297,0.7878431677818298
1.1627353429794312,6.174106121063232,0.7893561124801636
1.1084811687469482,6.124695301055908,0.7844732999801636
1.0553059577941895,6.074779987335205,0.779527485370636
1.0160634517669678,6.1008076667785645,0.784341037273407
0.9692528247833252,6.0806498527526855,0.783250629901886
0.9176705479621887,6.03350305557251,0.7784953117370605
0.8710097670555115,6.012781143188477,0.7768087387084961
0.8131287693977356,5.907250881195068,0.764179527759552
0.772572934627533,5.920283317565918,0.7669021487236023
0.6402411460876465,5.187034606933594,0.6728484630584717
0.5826428532600403,5.0064568519592285,0.6503520011901855
0.5664159059524536,5.18745231628418,0.6746814250946045
0.528353750705719,5.175760269165039,0.6736822128295898
0.39231401681900024,4.130261421203613,0.5380410552024841
0.3586035668849945,4.078782081604004,0.5317957997322083
0.33990877866744995,4.2007670402526855,0.548197329044342
0.3067205846309662,4.1566057205200195,0.5429617762565613
0.278268426656723,4.166281700134277,0.5446628332138062
0.25140833854675293,4.20673942565918,0.5501250624656677
0.41016626358032227,7.778475761413574,1.0175795555114746
0.35402294993400574,7.742360591888428,1.0132718086242676
0.29893597960472107,7.7368316650390625,1.0130199193954468
0.24445492029190063,7.715396404266357,1.0107239484786987
0.18998530507087708,7.681972503662109,1.0068267583847046
0.13572238385677338,7.644383430480957,1.0017683506011963
0.08215884119272232,7.614157199859619,0.9977248907089233
0.028106506913900375,7.57968807220459,0.9931738972663879
-0.024587692692875862,7.57969856262207,0.9931900501251221
-0.07680679857730865,7.532866954803467,0.9871160984039307
-0.12875965237617493,7.512787342071533,0.9845945239067078
-0.18034157156944275,7.488560676574707,0.9809396862983704
-0.23102369904518127,7.448505878448486,0.9751956462860107
-0.2832981050014496,7.439038276672363,0.9734980463981628
-0.33499717712402344,7.436977863311768,0.9728248119354248
-0.2819213569164276,5.41925573348999,0.7086278796195984
-0.31958258152008057,5.417229175567627,0.708137035369873
-0.3566173017024994,5.407264232635498,0.7062821388244629
-0.3929133713245392,5.3815765380859375,0.7022505402565002
-0.42952659726142883,5.3711347579956055,0.7002565264701843
-0.4610954225063324,5.30254602432251,0.6907216310501099
-0.4345284700393677,4.624387264251709,0.6018938422203064
-0.46589118242263794,4.613656997680664,0.600037693977356
-0.4966582655906677,4.595003604888916,0.5969346165657043
-0.5278303027153015,4.587792873382568,0.595160961151123
-0.5575671195983887,4.568827152252197,0.5918929576873779
-0.5881561636924744,4.557342052459717,0.5896236896514893
-0.6156222820281982,4.522597312927246,0.5843764543533325
-0.6465046405792236,4.510624885559082,0.5820931792259216
-0.6753697395324707,4.490906715393066,0.5786731243133545
-0.7030770182609558,4.467254638671875,0.5745400786399841
-0.7355681657791138,4.474016189575195,0.5743458867073059
-0.7630856037139893,4.449962139129639,0.5702196359634399
-0.7899492383003235,4.421867847442627,0.5656020045280457
-0.8155476450920105,4.385902404785156,0.5600009560585022
-0.8421218991279602,4.361371994018555,0.5557661652565002
-0.7357115149497986,3.675424337387085,0.4672381579875946
-0.7592318654060364,3.6629385948181152,0.46455544233322144
-0.9355350732803345,4.362898826599121,0.5520401000976562
-0.9646299481391907,4.348883628845215,0.5489693880081177
-0.9921731948852539,4.331012725830078,0.5454667806625366
-1.018334150314331,4.309281349182129,0.5413477420806885
-1.0457326173782349,4.295037269592285,0.5379784107208252
-1.0710557699203491,4.273105621337891,0.533681333065033
-1.1027977466583252,4.27334451675415,0.5321356058120728
-1.1305707693099976,4.258364677429199,0.528722882270813
-1.1601884365081787,4.250698089599609,0.5262488126754761
-1.1767421960830688,4.198154449462891,0.5180376768112183
-1.1955219507217407,4.156871795654297,0.5111240744590759
-1.2329021692276,4.178653717041016,0.5119615197181702
-1.2651431560516357,4.181515693664551,0.5104795098304749
-1.2862327098846436,4.146998405456543,0.5044498443603516
-1.3198301792144775,4.153065204620361,0.5033864974975586
-1.34553062915802,4.137030601501465,0.49934691190719604
-1.3690265417099,4.113344192504883,0.49435845017433167
-1.4044171571731567,4.126384258270264,0.4938296675682068
-1.425438642501831,4.094906330108643,0.48794427514076233
-1.4486929178237915,4.070645332336426,0.4829612970352173
-1.47919762134552,4.068321228027344,0.48045966029167175
-1.5010650157928467,4.04416036605835,0.4751998782157898
-1.5258654356002808,4.0269856452941895,0.47075679898262024
-1.556470274925232,4.024009704589844,0.46796324849128723
-1.5817668437957764,4.006211757659912,0.4634365737438202
-1.603818416595459,3.9811184406280518,0.45806995034217834
-1.624620795249939,3.9563326835632324,0.4525049328804016
-1.6546434164047241,3.952749490737915,0.44934117794036865
-1.6755437850952148,3.9274966716766357,0.44374001026153564
-1.7029191255569458,3.91616153717041,0.43968668580055237
-1.7427525520324707,3.933081865310669,0.4388049244880676
-1.7513171434402466,3.882903575897217,0.4301726520061493
-1.7807891368865967,3.878511667251587,0.42660772800445557
-1.8072789907455444,3.8667221069335938,0.4222090244293213
-1.8176257610321045,3.8193488121032715,0.41389840841293335
-1.8509209156036377,3.8210997581481934,0.4109075367450714
-1.8590724468231201,3.7743442058563232,0.4024995267391205
-1.8880259990692139,3.7691490650177,0.398506224155426
-1.9246493577957153,3.777301549911499,0.3958365023136139
-1.9510623216629028,3.76424241065979,0.3908991813659668
-1.9729533195495605,3.7445433139801025,0.38516297936439514
-2.001317024230957,3.7388131618499756,0.3807550072669983
-2.018867254257202,3.712184190750122,0.374191015958786
-1.7138105630874634,3.098905086517334,0.3089393973350525
-1.7314263582229614,3.080622673034668,0.30372384190559387
-0.8449124693870544,1.4807482957839966,0.14427366852760315
-0.8389777541160583,1.4484550952911377,0.13944284617900848
-0.8728203177452087,1.483019232749939,0.14091373980045319
-0.8713461756706238,1.45696222782135,0.13657018542289734
-0.8808205127716064,1.4514806270599365,0.13414165377616882
-0.8902959227561951,1.4459121227264404,0.1317031979560852
-0.8921621441841125,1.4266548156738281,0.1279018670320511
-0.901958167552948,1.4207134246826172,0.1253034621477127
-0.9028333425521851,1.4018902778625488,0.12149642407894135
-0.9079170227050781,1.3895351886749268,0.11824861913919449
-0.9026017785072327,1.3606138229370117,0.11352617293596268
-0.9681024551391602,1.4389466047286987,0.11760829389095306
-2.398282766342163,3.5163426399230957,0.2813016176223755
-1.2183494567871094,1.7594826221466064,0.13733190298080444
-1.1830143928527832,1.6846206188201904,0.128204807639122
-1.4035760164260864,2.009538173675537,-0.09774188697338104
-1.2788296937942505,1.8583136796951294,-0.09477595239877701
-1.183642864227295,1.7482105493545532,-0.0933118611574173
-1.4413859844207764,2.1624250411987305,-0.12021617591381073
-1.6551353931427002,2.521294116973877,-0.14550326764583588
-1.2805050611495972,1.9827619791030884,-0.11857520043849945
-1.2013746500015259,1.8895705938339233,-0.11673476547002792
-1.7983264923095703,2.968578338623047,-0.20012681186199188
-1.7554770708084106,2.9438765048980713,-0.2036113440990448
-0.8540520071983337,1.5053815841674805,-0.11170520633459091
-1.5304769277572632,2.743549346923828,-0.20793241262435913
-1.485867977142334,2.709930658340454,-0.2096337527036667
-1.4334349632263184,2.6582212448120117,-0.20960266888141632
-1.379547357559204,2.6027021408081055,-0.2091350257396698
-1.3190085887908936,2.5329177379608154,-0.2071809321641922
-1.2936094999313354,2.5281357765197754,-0.21035531163215637
-1.2461600303649902,2.477607250213623,-0.20952288806438446
-1.1888056993484497,2.405763864517212,-0.20666272938251495
-1.1778030395507812,2.4281527996063232,-0.21182900667190552
-1.1320545673370361,2.376363754272461,-0.2103537917137146
-1.0889739990234375,2.3274879455566406,-0.20895853638648987
-1.0657800436019897,2.3207578659057617,-0.21119193732738495
-1.0313737392425537,2.2890524864196777,-0.21105623245239258
-0.9962435960769653,2.25327730178833,-0.21040263772010803
-0.9755128026008606,2.249300956726074,-0.21268218755722046
-0.925908088684082,2.177138328552246,-0.20829802751541138
-0.8997045159339905,2.1583306789398193,-0.20887771248817444
-0.8726603984832764,2.135540008544922,-0.2089756429195404
-0.8490141034126282,2.119649648666382,-0.20968356728553772
-0.8209025263786316,2.0928590297698975,-0.20922896265983582
-0.7891424298286438,2.054858684539795,-0.2074950486421585
-0.7690830826759338,2.0455801486968994,-0.2085900753736496
-0.7453483939170837,2.025111675262451,-0.20848913490772247
-0.7284132838249207,2.022749185562134,-0.21017922461032867
-0.7085199952125549,2.013076066970825,-0.21103963255882263
-0.6752034425735474,1.9626926183700562,-0.20754016935825348
-0.6614546179771423,1.967132568359375,-0.20976756513118744
-0.6452385187149048,1.964094638824463,-0.21119433641433716
-0.6193480491638184,1.9314221143722534,-0.20926649868488312
-0.6029964089393616,1.928223729133606,-0.2105342298746109
-0.570214033126831,1.8690111637115479,-0.20558206737041473
-0.5482874512672424,1.8429501056671143,-0.20420794188976288
-0.5460982918739319,1.8838735818862915,-0.2101673185825348
-0.5284970998764038,1.8725512027740479,-0.21027050912380219
-0.5111870169639587,1.861050009727478,-0.21033160388469696
-0.49397698044776917,1.8494220972061157,-0.21037617325782776
-0.4791002869606018,1.845118522644043,-0.21119831502437592
-0.4594164788722992,1.8219287395477295,-0.2097022831439972
-0.4428662657737732,1.8098665475845337,-0.20946979522705078
-0.4301948845386505,1.8127477169036865,-0.2109583020210266
-0.4173152446746826,1.815579891204834,-0.21246884763240814
-0.39612117409706116,1.780423641204834,-0.2093941867351532
-0.38109928369522095,1.7716424465179443,-0.20933333039283752
-0.36547455191612244,1.758932113647461,-0.20880061388015747
-0.35475224256515503,1.768892526626587,-0.21095508337020874
-0.3333750367164612,1.7255014181137085,-0.2067538946866989
-0.32408568263053894,1.742929458618164,-0.20963922142982483
-0.31045830249786377,1.7374004125595093,-0.2097763568162918
-0.2970096468925476,1.7317533493041992,-0.20989681780338287
-0.28494125604629517,1.7336536645889282,-0.21093684434890747
-0.2690068781375885,1.7125256061553955,-0.20912842452526093
-0.2592839002609253,1.7296075820922852,-0.21185405552387238
-0.24495039880275726,1.7159245014190674,-0.21082168817520142
-0.23299084603786469,1.717485785484314,-0.21166229248046875
-0.21952393651008606,1.7074284553527832,-0.21107763051986694
-0.20664972066879272,1.7011345624923706,-0.21084345877170563
-0.19451799988746643,1.7024832963943481,-0.21149887144565582
-0.18342973291873932,1.7114313840866089,-0.21310195326805115
-0.16919247806072235,1.689443826675415,-0.21085651218891144
-0.1581457257270813,1.6982207298278809,-0.21245649456977844
-0.14760704338550568,1.7146735191345215,-0.21485720574855804
-0.13418450951576233,1.7001672983169556,-0.21337150037288666
-0.12232638150453568,1.7010061740875244,-0.2138124704360962
-0.10998917371034622,1.6940252780914307,-0.21327850222587585
-0.09731700271368027,1.679220199584961,-0.21173936128616333
-0.08639541268348694,1.6953104734420776,-0.21392975747585297
-0.07437511533498764,1.6958495378494263,-0.21417264640331268
-0.06257785856723785,1.6962956190109253,-0.2144109457731247
-0.05077798664569855,1.6966596841812134,-0.2146492451429367
-0.038628846406936646,1.6814531087875366,-0.21285581588745117
-0.026793811470270157,1.673926830291748,-0.21191367506980896
-0.015147359110414982,1.697320580482483,-0.21489693224430084
-0.0033242194913327694,1.681878685951233,-0.21297328174114227
0.008399207144975662,1.689606785774231,-0.21399377286434174
0.019951649010181427,1.6740168333053589,-0.21195748448371887
0.03157956525683403,1.6738578081130981,-0.21179838478565216
0.043606288731098175,1.6891146898269653,-0.21359889209270477
0.05428997799754143,1.6500507593154907,-0.2085399478673935
0.06701382994651794,1.6806319952011108,-0.21229591965675354
0.07905030250549316,1.6879079341888428,-0.21296244859695435
0.09118726849555969,1.6951030492782593,-0.2135831117630005
0.10297197103500366,1.6944727897644043,-0.21322640776634216
0.11548908799886703,1.7014812231063843,-0.21383528411388397
0.12733235955238342,1.7006809711456299,-0.2134765237569809
0.13785165548324585,1.6843743324279785,-0.21098563075065613
0.1502227485179901,1.6911683082580566,-0.21140006184577942
0.16049011051654816,1.6747177839279175,-0.2089204639196396
0.17474186420440674,1.6967451572418213,-0.21124081313610077
0.18737687170505524,1.703271746635437,-0.21159766614437103
0.20008352398872375,1.7097257375717163,-0.2118043750524521
0.21097928285598755,1.7006946802139282,-0.2101028710603714
0.2227814793586731,1.6992813348770142,-0.20935451984405518
0.23639266192913055,1.7092796564102173,-0.21000763773918152
0.24768994748592377,1.7038640975952148,-0.20869383215904236
0.25828737020492554,1.69455885887146,-0.20682260394096375
0.2718222141265869,1.704337477684021,-0.20728880167007446
0.27796661853790283,1.6680818796157837,-0.2021690458059311
0.2935679852962494,1.6891461610794067,-0.20401208102703094
0.3040858507156372,1.6795315742492676,-0.2020082026720047
0.3207114636898041,1.704209804534912,-0.2040991187095642
0.33400124311447144,1.709696650505066,-0.2038816660642624
0.3405323922634125,1.680840015411377,-0.19958215951919556
0.3578139543533325,1.7051438093185425,-0.20159627497196198
0.36813536286354065,1.6951600313186646,-0.19937963783740997
0.3968380391597748,1.7684646844863892,-0.20694485306739807
0.413504034280777,1.7847281694412231,-0.2077823132276535
0.4277513325214386,1.7895112037658691,-0.20727373659610748
0.4383207857608795,1.7791244983673096,-0.20495083928108215
0.4507850706577301,1.7761869430541992,-0.20338822901248932
0.47676506638526917,1.8258049488067627,-0.20783749222755432
0.49352818727493286,1.8376151323318481,-0.2079329639673233
0.5094601511955261,1.845533847808838,-0.20757903158664703
0.5306529402732849,1.8720649480819702,-0.20916813611984253
0.5437588691711426,1.8685052394866943,-0.20732912421226501
0.5611531138420105,1.8797789812088013,-0.20714931190013885
0.5833522081375122,1.9057400226593018,-0.2085559368133545
0.5965813994407654,1.9018495082855225,-0.2066379338502884
0.6203049421310425,1.931228518486023,-0.20821784436702728
0.6337890028953552,1.9270694255828857,-0.20613306760787964
0.652204155921936,1.9375486373901367,-0.20561164617538452
0.6796706914901733,1.9735863208770752,-0.20776398479938507
0.6957984566688538,1.9764398336410522,-0.20627467334270477
0.7277617454528809,2.023076057434082,-0.20928777754306793
0.7444565892219543,2.025524139404297,-0.20766521990299225
0.773894190788269,2.0604681968688965,-0.2092904895544052
0.7964701056480408,2.0771119594573975,-0.20898164808750153
0.8219866156578064,2.100856304168701,-0.2092776745557785
0.8551684021949768,2.1423799991607666,-0.211264967918396
0.8730764389038086,2.1438186168670654,-0.2092178761959076
0.9061427712440491,2.180976390838623,-0.21055331826210022
0.9346143007278442,2.2072906494140625,-0.21072018146514893
0.9496572613716125,2.2011423110961914,-0.2077554315328598
0.9885538816452026,2.248164176940918,-0.20969687402248383
1.0233639478683472,2.284106969833374,-0.21050499379634857
1.0601328611373901,2.323326587677002,-0.21137197315692902
1.092288851737976,2.351684808731079,-0.21121232211589813
1.1086950302124023,2.3443057537078857,-0.2077326476573944
1.1504051685333252,2.3894309997558594,-0.20884932577610016
1.144244909286499,2.336454153060913,-0.20130474865436554
1.1897822618484497,2.38812255859375,-0.20271623134613037
1.2610830068588257,2.4877588748931885,-0.20793019235134125
1.3123515844345093,2.5450093746185303,-0.2093779742717743
1.3674315214157104,2.6089282035827637,-0.2111198902130127
1.3923683166503906,2.613722324371338,-0.20795319974422455
1.3642299175262451,2.518594264984131,-0.196822389960289
1.3499093055725098,2.4512593746185303,-0.18800108134746552
1.3396203517913818,2.394879102706909,-0.18020132184028625
1.3906176090240479,2.446993112564087,-0.18047437071800232
1.4252846240997314,2.4678945541381836,-0.17821991443634033
1.4419373273849487,2.458524703979492,-0.17370903491973877
1.4445804357528687,2.42557692527771,-0.16749584674835205
1.4614477157592773,2.415771961212158,-0.16281147301197052
1.4800808429718018,2.4092929363250732,-0.15833164751529694
1.5248020887374878,2.4461398124694824,-0.15659980475902557
1.5247684717178345,2.409623146057129,-0.1499955952167511
1.4743620157241821,2.2940196990966797,-0.13853013515472412
1.3934701681137085,2.1375248432159424,-0.12512299418449402
1.4121462106704712,2.1348626613616943,-0.12087111920118332
1.4226828813552856,2.1187291145324707,-0.11570819467306137
1.4341955184936523,2.1064889430999756,-0.110776886343956
1.435288667678833,2.077603578567505,-0.10476705431938171
1.4451595544815063,2.0614752769470215,-0.0993572548031807
1.458359956741333,2.052396297454834,-0.09430398046970367
1.4404405355453491,1.9982547760009766,-0.0869726911187172
1.4582608938217163,1.9951945543289185,-0.08187003433704376
1.4804861545562744,1.9984495639801025,-0.07683490216732025
2.20560622215271,3.0882365703582764,0.20984536409378052
2.1960482597351074,3.123140335083008,0.21912461519241333
2.3449223041534424,3.38956618309021,0.2450457066297531
2.347280263900757,3.4441347122192383,0.2556561827659607
2.3362600803375244,3.4839396476745605,0.26516833901405334
2.2990026473999023,3.4847261905670166,0.27152547240257263
2.310136556625366,3.5560693740844727,0.28308916091918945
1.6350245475769043,2.557966470718384,0.20775218307971954
1.6320370435714722,2.59635591506958,0.21496576070785522
1.5973291397094727,2.5808775424957275,0.2174125760793686
3.0297110080718994,4.974240779876709,0.4260895550251007
2.9791345596313477,4.976709842681885,0.4332391917705536
2.9724009037017822,5.0479207038879395,0.4460397958755493
2.929084300994873,5.054461479187012,0.4529493451118469
2.9266133308410645,5.136005878448486,0.46644771099090576
2.897378921508789,5.174148082733154,0.4760126769542694
2.8746368885040283,5.221681594848633,0.4863209128379822
2.813826322555542,5.19651985168457,0.4896494746208191
2.6549489498138428,4.989535808563232,0.475336492061615
2.621237277984619,5.015452861785889,0.4829021692276001
2.5727086067199707,5.009271621704102,0.48719337582588196
2.5492146015167236,5.051157474517822,0.49614793062210083
2.5404698848724365,5.124512195587158,0.5080385804176331
1.2546204328536987,2.578279972076416,0.2578752636909485
1.2139791250228882,2.54141902923584,0.2563876211643219
1.1978020668029785,2.553083658218384,0.259684294462204
1.1798921823501587,2.5611095428466797,0.2626265287399292
1.1590884923934937,2.566032886505127,0.26510298252105713
1.1574890613555908,2.613318920135498,0.27196112275123596
2.5597386360168457,5.891464710235596,0.6174126863479614
2.53523325920105,5.947935581207275,0.6276081800460815
2.508063316345215,6.000967025756836,0.6374030709266663
2.481022596359253,6.062008857727051,0.6478500962257385
2.452526092529297,6.119061470031738,0.6578933596611023
2.4207117557525635,6.164529800415039,0.6666243672370911
2.392949342727661,6.220580101013184,0.6765412092208862
2.3626251220703125,6.273104190826416,0.6860071420669556
1.9912413358688354,5.407421588897705,0.5943395495414734
2.278324604034424,6.327836513519287,0.6989730596542358
2.274825096130371,6.460483551025391,0.7170911431312561
2.2448153495788574,6.519722938537598,0.7271419763565063
2.210177183151245,6.567872524261475,0.7359666228294373
2.176295757293701,6.627713680267334,0.7457507252693176
2.1389286518096924,6.676045894622803,0.7542632818222046
2.0763206481933594,6.6423749923706055,0.7534900903701782
2.0185205936431885,6.6190595626831055,0.7538371682167053
1.9578899145126343,6.58408260345459,0.7528498768806458
1.8999930620193481,6.560135841369629,0.7527139186859131
1.8297775983810425,6.494933605194092,0.7477459907531738
1.7809996604919434,6.499973773956299,0.7508233785629272
1.7185935974121094,6.448036193847656,0.7472577095031738
1.6638143062591553,6.4218573570251465,0.7466751337051392
0.8183605670928955,3.252232313156128,0.3793359100818634
0.46631762385368347,1.9117586612701416,0.22356955707073212
0.4472692906856537,1.8922725915908813,0.2218693345785141
1.4505037069320679,6.336528301239014,0.7449085712432861
1.3962723016738892,6.300647735595703,0.742625892162323
1.3417348861694336,6.260544776916504,0.7398551106452942
1.2873965501785278,6.224068641662598,0.7372814416885376
1.2378250360488892,6.206126689910889,0.7366265654563904
1.1877778768539429,6.1839985847473145,0.7355005145072937
1.1294512748718262,6.111789703369141,0.7284101843833923
1.0794202089309692,6.077199935913086,0.7257934212684631
1.0382343530654907,6.095887184143066,0.7295972108840942
0.9921310544013977,6.083663463592529,0.7293476462364197
0.944232702255249,6.059652805328369,0.7275359034538269
0.9013486504554749,6.065956115722656,0.7293933033943176
0.8518058061599731,6.021969318389893,0.7252187728881836
0.7988097667694092,5.950746059417725,0.7177897691726685
0.7564742565155029,5.948240756988525,0.718646228313446
0.6130079627037048,5.106070518493652,0.617598295211792
0.5709468722343445,5.0561747550964355,0.612159013748169
0.5496123433113098,5.194921970367432,0.6295997500419617
0.4027876555919647,4.0792999267578125,0.49491578340530396
0.3739263415336609,4.081940174102783,0.49579089879989624
0.35173511505126953,4.157755374908447,0.5055790543556213
0.3238568902015686,4.175502300262451,0.5080835223197937
0.2926742434501648,4.150531768798828,0.5052888989448547
0.26308587193489075,4.144680023193359,0.5048447251319885
0.237776979804039,4.219942092895508,0.5143143534660339
0.38414502143859863,7.780603408813477,0.9488689303398132
0.3293645977973938,7.767477512359619,0.9479041695594788
0.27357158064842224,7.723018169403076,0.9427629113197327
0.218438521027565,7.682075500488281,0.9377999305725098
0.16340263187885284,7.66014289855957,0.9352046847343445
0.1097833588719368,7.6455583572387695,0.9335504174232483
0.056337904185056686,7.603456974029541,0.9285797476768494
0.003491792129352689,7.580371379852295,0.9259747266769409
-0.04893433675169945,7.556955814361572,0.9230796694755554
-0.10201234370470047,7.5293354988098145,0.9193217158317566
-0.15373651683330536,7.505239486694336,0.9160487651824951
-0.20521163940429688,7.480788230895996,0.9127777814865112
-0.2557681202888489,7.4366044998168945,0.9071452617645264
-0.3079632520675659,7.446321964263916,0.9081325531005859
-0.25881367921829224,5.356482028961182,0.6530202031135559
-0.2999585270881653,5.41657018661499,0.6597800850868225
-0.33746013045310974,5.414458274841309,0.6589983701705933
-0.37280282378196716,5.381138801574707,0.6544526815414429
-0.40958371758461,5.3707804679870605,0.6527331471443176
-0.44425132870674133,5.3369879722595215,0.6482008099555969
-0.4243652820587158,4.696543216705322,0.5699969530105591
-0.44951537251472473,4.620307445526123,0.5600224733352661
-0.48052138090133667,4.6095170974731445,0.5580185055732727
-0.5101140141487122,4.586954593658447,0.5546199083328247
-0.5393012166023254,4.560312747955322,0.5507537126541138
-0.5716145634651184,4.556506156921387,0.549664318561554
-0.6001937389373779,4.529487133026123,0.5457932353019714
-0.6291661262512207,4.510063171386719,0.5424965023994446
-0.657337486743927,4.4866156578063965,0.5387486219406128
-0.6899258494377136,4.493666648864746,0.5386900305747986
-0.7186089754104614,4.46970272064209,0.5349153876304626
-0.7484042048454285,4.457117080688477,0.5325486063957214
-0.7767032384872437,4.436694145202637,0.5292626619338989
-0.805629551410675,4.423862934112549,0.5265374183654785
-0.8329741954803467,4.403217315673828,0.5229129195213318
-0.7382740378379822,3.761784791946411,0.44575953483581543
-0.7470618486404419,3.6692049503326416,0.4338202476501465
-0.7741510272026062,3.6716983318328857,0.4331810474395752
-0.9426596164703369,4.322360992431641,0.5088337063789368
-0.977169930934906,4.338814735412598,0.5093482732772827
-1.0032066106796265,4.31718635559082,0.5054111480712891
-1.02951180934906,4.295283317565918,0.5014510154724121
-1.0500191450119019,4.250600337982178,0.4948706328868866
-1.075697660446167,4.228407382965088,0.49094945192337036
-1.110752820968628,4.243676662445068,0.4913078844547272
-1.1434961557388306,4.251343727111816,0.49053817987442017
-1.1686209440231323,4.228690147399902,0.48626434803009033
-1.1996402740478516,4.228357791900635,0.4845949113368988
-1.2203900814056396,4.190366268157959,0.4786110520362854
-1.2540092468261719,4.196934223175049,0.47774583101272583
-1.2781784534454346,4.1737060546875,0.4733166992664337
-1.3068392276763916,4.1651506423950195,0.47040122747421265
-1.3314049243927002,4.145450592041016,0.4662860631942749
-1.3576433658599854,4.129083633422852,0.46253111958503723
-1.3888310194015503,4.127224922180176,0.46041327714920044
-1.4149943590164185,4.110442161560059,0.456635981798172
-1.4400560855865479,4.093850135803223,0.4526063799858093
-1.4627785682678223,4.069635391235352,0.44773104786872864
-1.4931226968765259,4.067235946655273,0.44529247283935547
-1.5132195949554443,4.035271644592285,0.4395962953567505
-1.5413190126419067,4.02498197555542,0.43629175424575806
-1.56858229637146,4.014812469482422,0.4328095316886902
-1.5872690677642822,3.9827558994293213,0.4268662929534912
-1.6080987453460693,3.957991361618042,0.42178529500961304
-1.6282545328140259,3.929100275039673,0.41620567440986633
-1.669306993484497,3.950239658355713,0.41593387722969055
-1.690037727355957,3.92488694190979,0.4106304943561554
-1.7229161262512207,3.9279706478118896,0.40815025568008423
-1.7380374670028687,3.8919129371643066,0.4016738831996918
-1.7684197425842285,3.8871684074401855,0.3983363211154938
-1.792277455329895,3.868069887161255,0.3935472369194031
-1.821725606918335,3.863316774368286,0.3900698721408844
-1.8141231536865234,3.7812092304229736,0.37869197130203247
-1.863362431526184,3.818319320678711,0.3793070614337921
-1.883137583732605,3.7916793823242188,0.3734455704689026
-1.916670322418213,3.7927281856536865,0.3703296482563019
-1.9382801055908203,3.773433208465576,0.36501914262771606
-1.9560128450393677,3.7471654415130615,0.3590525984764099
-1.9893791675567627,3.747661590576172,0.3554858863353729
-2.0007400512695312,3.7067182064056396,0.3480071723461151
-2.0370688438415527,3.714006185531616,0.34497326612472534
-1.7203537225723267,3.0887248516082764,0.28369876742362976
-1.740998387336731,3.0775279998779297,0.27941012382507324
-0.842639684677124,1.4651916027069092,0.13136331737041473
-0.8605546355247498,1.4730074405670166,0.13038910925388336
-0.866192638874054,1.4608445167541504,0.12758785486221313
-0.8759073615074158,1.4552357196807861,0.12533928453922272
-0.8820192217826843,1.4426164627075195,0.12241001427173615
-0.8919801712036133,1.436682105064392,0.1200019121170044
-0.8929587006568909,1.4178837537765503,0.11653526872396469
-0.9108976125717163,1.4251643419265747,0.11513730138540268
-0.8954266905784607,1.3797030448913574,0.10943928360939026
-0.8980280756950378,1.364230990409851,0.10614863783121109
-0.913433849811554,1.3682477474212646,0.10432133078575134
-2.4038069248199463,3.5470213890075684,0.2644459009170532
-1.6103177070617676,2.342416763305664,0.17060811817646027
-1.6720043420791626,2.3996620178222656,0.17056326568126678
-1.3215179443359375,1.8693792819976807,0.12929381430149078
-1.562094807624817,2.218193292617798,-0.09926740825176239
-1.2766891717910767,1.8411850929260254,-0.08664428442716599
-1.3089855909347534,1.918229579925537,-0.09457878768444061
-1.323775291442871,1.969265103340149,-0.10118730366230011
-1.4252058267593384,2.154670476913452,-0.11513833701610565
-1.3112274408340454,2.0145103931427,-0.11166463792324066
-1.2444286346435547,1.9412966966629028,-0.11122109740972519
-1.1944884061813354,1.8942171335220337,-0.11200210452079773
-1.827749490737915,3.042511224746704,-0.19560116529464722
-0.8034107685089111,1.404665231704712,-0.09691088646650314
-1.6471741199493408,2.9295239448547363,-0.2065412700176239
-1.5923151969909668,2.879408597946167,-0.20717935264110565
-1.525315761566162,2.8046531677246094,-0.2057497203350067
-1.4771543741226196,2.763850450515747,-0.20657168328762054
-1.4300966262817383,2.722285747528076,-0.20712599158287048
-1.3931221961975098,2.697275400161743,-0.2087463140487671
-1.3328090906143188,2.6271331310272217,-0.20673571527004242
-1.2910308837890625,2.591123342514038,-0.20716944336891174
-1.2418711185455322,2.536878824234009,-0.20591923594474792
-1.2156416177749634,2.527651071548462,-0.20820914208889008
-1.180734395980835,2.500835657119751,-0.20890845358371735
-1.1380184888839722,2.4560189247131348,-0.2079957127571106
-1.1010868549346924,2.4212567806243896,-0.20779773592948914
-1.0761722326278687,2.4108407497406006,-0.20957520604133606
-1.0306503772735596,2.3540570735931396,-0.20713356137275696
-1.0105592012405396,2.3540050983428955,-0.20960916578769684
-0.9804241061210632,2.328476905822754,-0.20971664786338806
-0.9460071921348572,2.2919461727142334,-0.20880037546157837
-0.9237337112426758,2.2839715480804443,-0.21028143167495728
-0.8858001232147217,2.236020565032959,-0.20801016688346863
-0.864415168762207,2.22743821144104,-0.2093019038438797
-0.8391293883323669,2.207725763320923,-0.20950964093208313
-0.8149970769882202,2.1916165351867676,-0.20996874570846558
-0.785965085029602,2.160609006881714,-0.20888377726078033
-0.7563588619232178,2.1255576610565186,-0.20732185244560242
-0.7363948225975037,2.1158649921417236,-0.20817674696445465
-0.7114937901496887,2.091310501098633,-0.20748315751552582
-0.6963375806808472,2.096191883087158,-0.20963020622730255
-0.6706441044807434,2.06758189201355,-0.2083805650472641
-0.653830885887146,2.06459903717041,-0.20966769754886627
-0.6302040815353394,2.0391955375671387,-0.2086596041917801
-0.6022253036499023,1.9987702369689941,-0.20592311024665833
-0.5825130343437195,1.9841684103012085,-0.20581011474132538
-0.5704859495162964,1.9955577850341797,-0.20839886367321014
-0.5377985835075378,1.9319088459014893,-0.2030889093875885
-0.5343908071517944,1.9729712009429932,-0.20869101583957672
-0.5144792199134827,1.9539891481399536,-0.20787955820560455
-0.4968354105949402,1.942345142364502,-0.20783202350139618
-0.4783365726470947,1.9268065690994263,-0.20736679434776306
-0.4648781418800354,1.929933786392212,-0.20888729393482208
-0.4459169805049896,1.9103283882141113,-0.20778979361057281
-0.4272608160972595,1.8905550241470337,-0.2066485434770584
-0.415665864944458,1.9009463787078857,-0.20879723131656647
-0.39014336466789246,1.8467001914978027,-0.20384155213832855
-0.38111385703086853,1.8682711124420166,-0.2071707397699356
-0.3679617643356323,1.8707822561264038,-0.20828309655189514
-0.35479310154914856,1.8732004165649414,-0.2093953639268875
-0.33822140097618103,1.856410264968872,-0.20835618674755096
-0.3210209608078003,1.8356934785842896,-0.20688126981258392
-0.3081388771533966,1.837790608406067,-0.20784792304039001
-0.29274284839630127,1.8244789838790894,-0.20701031386852264
-0.2799469232559204,1.8263849020004272,-0.20790158212184906
-0.26501402258872986,1.8128210306167603,-0.20702984929084778
-0.2500591576099396,1.7991691827774048,-0.20615877211093903
-0.23696176707744598,1.7969452142715454,-0.2064245194196701
-0.2234337478876114,1.790776252746582,-0.20622572302818298
-0.2100333869457245,1.784503698348999,-0.20601938664913177
-0.19846829771995544,1.7935572862625122,-0.207591250538826
-0.18438060581684113,1.7793792486190796,-0.20646022260189056
-0.1709691733121872,1.772863745689392,-0.2060602307319641
-0.1592789888381958,1.7816871404647827,-0.20744657516479492
-0.14621473848819733,1.774963617324829,-0.20703232288360596
-0.13326682150363922,1.7681440114974976,-0.20661325752735138
-0.1220097541809082,1.7844634056091309,-0.20884811878204346
-0.107887402176857,1.7620152235031128,-0.20642992854118347
-0.09600570052862167,1.7704390287399292,-0.20763292908668518
-0.08332404494285583,1.763278603553772,-0.20701751112937927
-0.07137135416269302,1.7715340852737427,-0.20822201669216156
-0.05903852358460426,1.7719647884368896,-0.20841802656650543
-0.045465994626283646,1.733544945716858,-0.20395632088184357
-0.03385092318058014,1.7570805549621582,-0.20679236948490143
-0.021704671904444695,1.765020489692688,-0.20780430734157562
-0.009340128861367702,1.749599575996399,-0.20607540011405945
0.0028595533221960068,1.7651433944702148,-0.2078734189271927
0.01529806386679411,1.7573310136795044,-0.20686720311641693
0.02764774300158024,1.7649508714675903,-0.2076893150806427
0.039738357067108154,1.756969690322876,-0.20668567717075348
0.05217808112502098,1.7644175291061401,-0.20750708878040314
0.06414558738470078,1.756287932395935,-0.20634585618972778
0.07667476683855057,1.763585090637207,-0.20697711408138275
0.08835666626691818,1.7475330829620361,-0.20487520098686218
0.10139399021863937,1.762402892112732,-0.2064121961593628
0.11212966591119766,1.7384583950042725,-0.20341259241104126
0.1258353739976883,1.7609144449234009,-0.20566071569919586
0.13682390749454498,1.744581937789917,-0.20338673889636993
0.1504700481891632,1.7590914964675903,-0.20471136271953583
