X,Y,Z
-1.66128671169281,3.736879348754883,-0.1861422210931778
-2.2698144912719727,5.204084873199463,-0.26207152009010315
-2.1859304904937744,5.108376979827881,-0.2600049674510956
-1.6135236024856567,3.846372604370117,-0.1977575272321701
-1.5852612257003784,3.857973337173462,-0.20034538209438324
-1.5695462226867676,3.8979318141937256,-0.20436246693134308
-1.5452011823654175,3.9159059524536133,-0.20722366869449615
-1.5273650884628296,3.952061176300049,-0.21100302040576935
-1.504493236541748,3.977386951446533,-0.21415162086486816
-1.4620065689086914,3.9514992237091064,-0.2145674079656601
-1.425100564956665,3.9358043670654297,-0.21544717252254486
-1.372859239578247,3.875662326812744,-0.2138548046350479
-1.327224850654602,3.8336641788482666,-0.2130734771490097
-1.2922296524047852,3.8207876682281494,-0.2138938456773758
-1.2416154146194458,3.7594475746154785,-0.2119731456041336
-1.2046657800674438,3.7344703674316406,-0.21202929317951202
-0.9780423641204834,3.1065611839294434,-0.1775384098291397
-0.9581694006919861,3.120823621749878,-0.1794562190771103
-0.9035043716430664,3.0191195011138916,-0.17467767000198364
-0.8005771636962891,2.7444379329681396,-0.15973906219005585
-0.7757861018180847,2.7312066555023193,-0.15994003415107727
-0.750206470489502,2.7140049934387207,-0.1597779542207718
-0.7369921207427979,2.741793632507324,-0.1622498780488968
-0.7156510353088379,2.7393131256103516,-0.16293832659721375
-0.7013508677482605,2.763063907623291,-0.1651875078678131
-1.4837419986724854,6.02426290512085,-0.3620057702064514
-1.47901451587677,6.1938066482543945,-0.3737950623035431
-1.4605845212936401,6.314168930053711,-0.38270291686058044
-1.4179004430770874,6.331746578216553,-0.3854166865348816
-1.3721193075180054,6.333709239959717,-0.387184739112854
-1.3239467144012451,6.327885150909424,-0.38844797015190125
-1.268473744392395,6.283441543579102,-0.3870575726032257
-1.2159277200698853,6.250016212463379,-0.3863447904586792
-0.9130170941352844,4.874775409698486,-0.3023885190486908
-0.8714724183082581,4.838711738586426,-0.30120328068733215
-0.8265036344528198,4.783215045928955,-0.29874932765960693
-0.7845249772071838,4.738839149475098,-0.296786367893219
-0.7432126998901367,4.694112777709961,-0.29479897022247314
-0.7057282328605652,4.668281078338623,-0.2939925193786621
-0.6721400618553162,4.665287017822266,-0.29462766647338867
-0.6401295065879822,4.677588939666748,-0.2961881160736084
-0.6052903532981873,4.666444778442383,-0.2960816025733948
-0.22246862947940826,1.8148092031478882,-0.11538621038198471
-0.20799003541469574,1.8008075952529907,-0.11473669856786728
-0.194606214761734,1.7944393157958984,-0.1145750880241394
-0.18523724377155304,1.8267602920532227,-0.11687152087688446
-0.1725681573152542,1.8319008350372314,-0.1173606887459755
-0.16040286421775818,1.8408170938491821,-0.11809579282999039
-0.14818702638149261,1.8496471643447876,-0.11883168667554855
-0.1299189180135727,1.7767486572265625,-0.1143159493803978
-0.12117133289575577,1.8320504426956177,-0.11804036796092987
-0.10768485069274902,1.8250741958618164,-0.11767212301492691
-0.09636998176574707,1.853022813796997,-0.1195608451962471
-0.08416124433279037,1.8692173957824707,-0.12069889903068542
-0.2139613926410675,5.620931148529053,-0.3632509708404541
-0.17514550685882568,5.630048751831055,-0.3641548454761505
-0.13453523814678192,5.599966049194336,-0.36222323775291443
-0.09494203329086304,5.5656843185424805,-0.36003395915031433
-0.0559508241713047,5.54281759262085,-0.3586002588272095
-0.01404285617172718,4.459401607513428,-0.2885575592517853
0.01680901274085045,4.428203105926514,-0.286602646112442
0.05942462012171745,5.468714714050293,-0.35378560423851013
0.0971706211566925,5.452593803405762,-0.35255661606788635
0.10076772421598434,4.068392753601074,-0.2629302740097046
0.17113135755062103,5.392301082611084,-0.3483406603336334
0.20485299825668335,5.293613910675049,-0.3418343663215637
0.23914457857608795,5.23757266998291,-0.33789557218551636
0.22766663134098053,4.31709098815918,-0.27818402647972107
0.25411438941955566,4.257066249847412,-0.2740117013454437
0.28166890144348145,4.2241034507751465,-0.2715997099876404
0.30988502502441406,4.206518650054932,-0.27019307017326355
0.3384528160095215,4.196529388427734,-0.26915228366851807
0.37004536390304565,4.217383861541748,-0.2699889540672302
0.47682303190231323,5.0336503982543945,-0.32167166471481323
0.5042304396629333,4.956582069396973,-0.316196084022522
0.49190014600753784,4.5228142738342285,-0.28803420066833496
0.5299243927001953,4.577441215515137,-0.2909178137779236
0.5677478909492493,4.620103359222412,-0.2928890883922577
0.6091341972351074,4.689595699310303,-0.29656949639320374
0.6718175411224365,4.905485153198242,-0.3094726502895355
0.7031097412109375,4.8814697265625,-0.3072240948677063
0.7322379350662231,4.8457136154174805,-0.3041718900203705
0.7673858404159546,4.848247051239014,-0.30336907505989075
0.7969223260879517,4.819849967956543,-0.3006650507450104
0.8343080878257751,4.837339401245117,-0.3008308410644531
0.8734385371208191,4.862200736999512,-0.30145707726478577
0.9028422832489014,4.833114147186279,-0.29867276549339294
0.9330442547798157,4.811582088470459,-0.2962089478969574
0.9666492938995361,4.8050384521484375,-0.29466578364372253
0.9951449036598206,4.775416374206543,-0.2917367219924927
1.0226186513900757,4.741782188415527,-0.2885827124118805
1.0520190000534058,4.719463348388672,-0.2860676646232605
1.0843697786331177,4.712241172790527,-0.28432807326316833
1.110024094581604,4.674311637878418,-0.2807352542877197
1.144197702407837,4.674198627471924,-0.2794446647167206
1.1709140539169312,4.643555164337158,-0.27634167671203613
1.1990318298339844,4.620368480682373,-0.2736225426197052
1.2255433797836304,4.593342304229736,-0.27057722210884094
1.2553716897964478,4.577308177947998,-0.26817581057548523
1.2870362997055054,4.568619251251221,-0.2662253677845001
1.3122919797897339,4.5371880531311035,-0.26296257972717285
1.3368196487426758,4.505736351013184,-0.2596164047718048
1.372046947479248,4.511565685272217,-0.25834617018699646
1.3963274955749512,4.479726791381836,-0.2549068331718445
1.4251248836517334,4.462583065032959,-0.2523191273212433
1.4513258934020996,4.437839508056641,-0.24932201206684113
1.480339765548706,4.424261093139648,-0.2468346655368805
1.5028165578842163,4.392075061798096,-0.24329598248004913
1.2559164762496948,3.5901360511779785,-0.19744102656841278
1.2813652753829956,3.581239938735962,-0.1954740285873413
1.311566710472107,3.5870156288146973,-0.19431541860103607
1.601935625076294,4.290858745574951,-0.23055896162986755
1.6338022947311401,4.287309646606445,-0.2284838855266571
1.663399338722229,4.2760467529296875,-0.22597065567970276
1.6864484548568726,4.246161460876465,-0.22244518995285034
1.7197978496551514,4.2455315589904785,-0.22041261196136475
1.7469033002853394,4.230365753173828,-0.21758709847927094
1.7665672302246094,4.196938514709473,-0.2138262838125229
1.7957186698913574,4.184686183929443,-0.21111960709095
1.8250685930252075,4.172109603881836,-0.2083384394645691
1.8467200994491577,4.145628452301025,-0.20482635498046875
1.871291160583496,4.12616491317749,-0.2016838937997818
1.9031872749328613,4.1202898025512695,-0.1991390734910965
1.921832799911499,4.085903167724609,-0.19523128867149353
1.9496357440948486,4.0728535652160645,-0.19220922887325287
1.9768141508102417,4.059871196746826,-0.18924124538898468
2.0013184547424316,4.039280414581299,-0.18585489690303802
2.0294277667999268,4.025372505187988,-0.18276454508304596
2.056326389312744,4.011840343475342,-0.1796278953552246
2.073976755142212,3.9808907508850098,-0.17572078108787537
2.0981903076171875,3.959493637084961,-0.172124445438385
2.129427194595337,3.951794147491455,-0.16914980113506317
2.121859073638916,3.8760862350463867,-0.1632383167743683
2.1266109943389893,3.8245584964752197,-0.1584181785583496
2.145394802093506,3.796266555786133,-0.15447866916656494
2.171919822692871,3.7812931537628174,-0.15102781355381012
2.200692653656006,3.773796319961548,-0.14789249002933502
2.2258434295654297,3.7591514587402344,-0.14443685114383698
2.247906446456909,3.737027406692505,-0.14058621227741241
2.280906915664673,3.735422134399414,-0.13748864829540253
2.2933075428009033,3.700423002243042,-0.1331065148115158
2.3187308311462402,3.684680461883545,-0.12932375073432922
2.3437798023223877,3.668931007385254,-0.1254945695400238
2.3717620372772217,3.660343647003174,-0.12187720090150833
2.387892484664917,3.631293296813965,-0.11744439601898193
2.4218533039093018,3.62766170501709,-0.11366984993219376
2.4494569301605225,3.618642568588257,-0.10976111143827438
2.460561752319336,3.5828418731689453,-0.10486926138401031
2.480393171310425,3.55975341796875,-0.10025157034397125
2.5210015773773193,3.5695505142211914,-0.09653991460800171
2.5412755012512207,3.545668840408325,-0.09151472896337509
2.5826666355133057,3.5544497966766357,-0.0873165875673294
2.174795627593994,2.9528861045837402,-0.06871023774147034
2.6786205768585205,3.7781405448913574,0.1165950670838356
2.6446876525878906,3.7922935485839844,0.12149762362241745
2.6214911937713623,3.817688226699829,0.12646105885505676
2.593301296234131,3.8367371559143066,0.13110828399658203
2.572373628616333,3.869410276412964,0.1361200511455536
2.54498028755188,3.8873331546783447,0.14031770825386047
2.5166778564453125,3.905564785003662,0.14444831013679504
2.4952330589294434,3.937647819519043,0.14906196296215057
2.4544029235839844,3.935497760772705,0.15220001339912415
2.4732742309570312,4.029265403747559,0.15897132456302643
2.4650700092315674,4.08437967300415,0.1642499715089798
2.4353716373443604,4.1020073890686035,0.16794663667678833
2.4184765815734863,4.1389946937561035,0.17234747111797333
2.4067742824554443,4.190736293792725,0.17736363410949707
2.3676838874816895,4.194874286651611,0.18032264709472656
2.3060128688812256,4.153207302093506,0.18110209703445435
2.2431883811950684,4.107453346252441,0.1816091537475586
2.2126882076263428,4.123826026916504,0.18472401797771454
2.196209192276001,4.167810440063477,0.18913456797599792
2.1743037700653076,4.1967363357543945,0.19271859526634216
2.144798755645752,4.211755752563477,0.19566316902637482
2.1137382984161377,4.227296352386475,0.19852396845817566
2.0860040187835693,4.249612331390381,0.20171727240085602
2.059122085571289,4.271237373352051,0.20482252538204193
2.0292818546295166,4.285364151000977,0.20754197239875793
1.9913949966430664,4.285768032073975,0.20945808291435242
1.9664440155029297,4.314306735992432,0.21274906396865845
2.0058064460754395,4.484796047210693,0.22307059168815613
1.9510104656219482,4.444927215576172,0.2229437530040741
1.9233909845352173,4.469568729400635,0.22600440680980682
1.893820881843567,4.490525722503662,0.22878800332546234
1.8790225982666016,4.547318458557129,0.2334248572587967
1.8502265214920044,4.56741189956665,0.2361370176076889
1.8370393514633179,4.627227306365967,0.24093638360500336
1.8143856525421143,4.6695404052734375,0.2447357177734375
1.7721842527389526,4.660566806793213,0.24580374360084534
3.902036190032959,10.486867904663086,0.5565198063850403
1.316338062286377,3.6144919395446777,0.19296903908252716
1.2937369346618652,3.6308391094207764,0.19500485062599182
1.260667324066162,3.62172269821167,0.19555546343326569
1.5999794006347656,4.705423831939697,0.2554025948047638
1.571351170539856,4.731400966644287,0.2581425905227661
1.5359346866607666,4.734711170196533,0.2596323490142822
1.5170376300811768,4.789821147918701,0.2639855146408081
1.5084930658340454,4.886397838592529,0.2704949975013733
1.4812365770339966,4.923152923583984,0.27370500564575195
1.4340088367462158,4.892321586608887,0.2731603682041168
1.4181848764419556,4.965835094451904,0.27843010425567627
1.3835958242416382,4.975486755371094,0.28014910221099854
1.3034846782684326,4.819414138793945,0.2723489999771118
1.2743911743164062,4.85130500793457,0.275124192237854
1.2436212301254272,4.875302314758301,0.27745577692985535
1.2105480432510376,4.8875555992126465,0.2791144549846649
1.1837900876998901,4.926119327545166,0.2822946608066559
1.149156928062439,4.934234619140625,0.28366148471832275
1.1202647686004639,4.972788333892822,0.28668949007987976
1.084911823272705,4.98054838180542,0.2879466116428375
1.0546618700027466,5.010884761810303,0.2905192971229553
1.0205448865890503,5.021852493286133,0.2919785678386688
0.9885277152061462,5.044077396392822,0.29411086440086365
1.4860403537750244,7.883096694946289,0.460659384727478
1.4392075538635254,7.943215847015381,0.46517491340637207
1.3782358169555664,7.9262213706970215,0.46520066261291504
1.8539950847625732,11.12052059173584,0.6541154980659485
1.7471137046813965,10.948172569274902,0.6454185247421265
1.6532689332962036,10.856125831604004,0.6412899494171143
1.555391550064087,10.7207670211792,0.6342816352844238
1.45940101146698,10.584593772888184,0.6272305250167847
1.368461012840271,10.466874122619629,0.6212705969810486
1.2864609956741333,10.4025239944458,0.6184818148612976
1.1888147592544556,10.19422435760498,0.6071336269378662
1.1038787364959717,10.089947700500488,0.601657509803772
1.028516173362732,10.054729461669922,0.6001607775688171
0.41426390409469604,4.351505279541016,0.2600118815898895
0.37774524092674255,4.284344673156738,0.25627803802490234
0.3469574451446533,4.2751851081848145,0.25602033734321594
0.31555479764938354,4.261951446533203,0.2555340826511383
0.28755199909210205,4.291273593902588,0.2574169635772705
0.261714369058609,4.363226890563965,0.2618646025657654
0.22952182590961456,4.333786964416504,0.2602408230304718
0.20003415644168854,4.350846767425537,0.26142096519470215
0.16714909672737122,4.2975897789001465,0.25838974118232727
0.1351134330034256,4.232383728027344,0.2546123266220093
0.10392323136329651,4.166955471038818,0.25066354870796204
0.07726719230413437,4.300127983093262,0.2586740255355835
0.04867226257920265,4.429225921630859,0.2664523422718048
-0.005854049697518349,1.9261947870254517,0.11590351164340973
-0.018473735079169273,1.8481279611587524,0.11119899153709412
-0.06895160675048828,4.070188522338867,0.24477113783359528
-0.09818393737077713,4.108601093292236,0.24696588516235352
-0.12434603273868561,4.029880523681641,0.24213269352912903
-0.06696725636720657,1.765082836151123,0.10601390153169632
-0.26448115706443787,5.889718055725098,0.3536328375339508
-0.18416783213615417,3.55134916305542,0.21308836340904236
-0.2082829773426056,3.542222261428833,0.212325781583786
-0.23074573278427124,3.509586811065674,0.21016649901866913
-0.2779054045677185,3.8151190280914307,0.2282487004995346
-0.3103135824203491,3.8869667053222656,0.23234350979328156
-0.3353397250175476,3.8614234924316406,0.23062501847743988
-0.34745731949806213,3.7037465572357178,0.22091801464557648
-0.3624701201915741,3.5965332984924316,0.2142006754875183
-0.3885691463947296,3.601680040359497,0.21418872475624084
-0.42860230803489685,3.730649471282959,0.22154396772384644
-0.45025885105133057,3.6927735805511475,0.2189921885728836
-0.47686025500297546,3.6973249912261963,0.2189696729183197
-0.4948674440383911,3.639906406402588,0.21514476835727692
-0.5175146460533142,3.617098331451416,0.21336114406585693
-0.5353525280952454,3.567225217819214,0.2100069224834442
-0.956125795841217,6.082920074462891,0.35741233825683594
-0.9478212594985962,5.768337249755859,0.3382818400859833
-0.5726502537727356,3.3401644229888916,0.19549086689949036
-1.1245437860488892,6.30001974105835,0.36776968836784363
-1.1762256622314453,6.33429479598999,0.3688108026981354
-1.2256019115447998,6.356785774230957,0.36918580532073975
-1.284254550933838,6.420862674713135,0.37196800112724304
-1.3423360586166382,6.476779937744141,0.3742741048336029
-1.3868427276611328,6.4674882888793945,0.3726796507835388
-0.7842217683792114,3.537325859069824,0.20318083465099335
-1.2224713563919067,5.341651916503906,0.305863618850708
-1.2538777589797974,5.3104071617126465,0.3031247854232788
-1.281575322151184,5.263739585876465,0.2995217740535736
-0.6936995387077332,2.7654788494110107,0.1568768322467804
-0.7128075361251831,2.760664939880371,0.156000018119812
-0.7245541214942932,2.729414701461792,0.15364877879619598
-0.7502783536911011,2.7508153915405273,0.15426862239837646
-0.7715310454368591,2.753082513809204,0.1538010835647583
-0.8057960867881775,2.8001697063446045,0.15583200752735138
-0.929165780544281,3.1461892127990723,0.17434123158454895
-0.9629106521606445,3.180947780609131,0.17547252774238586
-0.991391658782959,3.196763277053833,0.17555110156536102
-1.0264173746109009,3.2308080196380615,0.17660926282405853
-1.0705866813659668,3.2904300689697266,0.17904061079025269
-1.0936485528945923,3.2829065322875977,0.17776301503181458
-1.137123942375183,3.338315010070801,0.17980189621448517
-1.1544568538665771,3.3159148693084717,0.1776442527770996
-1.1600886583328247,3.2602391242980957,0.17371651530265808
-1.4948015213012695,4.110104084014893,0.2177903801202774
-1.5178335905075073,4.085103511810303,0.21525542438030243
-1.5484801530838013,4.082032680511475,0.21373164653778076
-1.5561707019805908,4.020687580108643,0.2092028558254242
-1.5562793016433716,3.9411461353302,0.20375968515872955
-1.5748943090438843,3.9086129665374756,0.20075900852680206
-1.6003894805908203,3.8941216468811035,0.19868944585323334
-2.3489692211151123,5.607167720794678,0.28398147225379944
-2.374088764190674,5.562798023223877,0.2796749472618103
-1.6432597637176514,3.778858184814453,0.1885564625263214
-1.6442588567733765,3.7103333473205566,0.18370398879051208
-1.652038812637329,3.6599299907684326,0.17975537478923798
-1.6670180559158325,3.627481698989868,0.17661353945732117
-1.6779059171676636,3.5881223678588867,0.17319096624851227
-1.6841986179351807,3.537788152694702,0.16921880841255188
-1.7019535303115845,3.512042284011841,0.1664435714483261
-1.718537449836731,3.4866623878479004,0.1636381596326828
-1.7419333457946777,3.475135326385498,0.16144594550132751
-1.7688474655151367,3.470379114151001,0.15956862270832062
-1.7965737581253052,3.4650068283081055,0.15760701894760132
-1.8383480310440063,3.4873147010803223,0.1568593531847
-2.4675116539001465,4.607302188873291,0.204825296998024
-2.488607168197632,4.573875427246094,0.20092231035232544
-1.1868044137954712,2.1449170112609863,0.09300164878368378
-1.1823805570602417,2.102754831314087,0.08998007327318192
-2.5625643730163574,4.488393783569336,0.18941229581832886
-2.572463274002075,4.437804222106934,0.18462969362735748
-2.6032934188842773,4.419936180114746,0.18108317255973816
-2.6318211555480957,4.398608207702637,0.177323579788208
-1.2561923265457153,2.0689923763275146,0.08203941583633423
-2.044128656387329,3.317023277282715,0.1292673945426941
-2.0588698387145996,3.289597272872925,0.12583740055561066
-2.072124481201172,3.262889862060547,0.12242233008146286
-2.670665979385376,4.145439147949219,0.15239828824996948
-1.3164215087890625,2.0129168033599854,0.07238783687353134
-2.7421751022338867,4.131621837615967,0.14517928659915924
-2.7575843334198,4.097983360290527,0.14055697619915009
-2.789431571960449,4.085976600646973,0.13651135563850403
-2.8133084774017334,4.060223579406738,0.13180111348628998
-2.7939252853393555,3.978663682937622,0.12538260221481323
-2.7956020832061768,3.925008535385132,0.11970040947198868
-2.721144437789917,3.767101526260376,0.11086530238389969
-2.753645896911621,3.76291561126709,0.10667755454778671
-2.800546646118164,3.7721502780914307,0.10235147178173065
-2.4581074714660645,3.4660778045654297,-0.08069770038127899
-2.4137885570526123,3.4589483737945557,-0.08458254486322403
-2.7591919898986816,4.012969970703125,-0.10238754749298096
-2.7281646728515625,4.034003257751465,-0.10720136761665344
-2.22273588180542,3.338393211364746,-0.09200114011764526
-2.1688692569732666,3.3083548545837402,-0.09428227692842484
-2.6601409912109375,4.125354766845703,-0.12138695269823074
-2.6391124725341797,4.157228946685791,-0.12591595947742462
-1.307559847831726,2.0930280685424805,-0.06517397612333298
-1.2714585065841675,2.0693960189819336,-0.0661362037062645
-1.2445603609085083,2.0582923889160156,-0.06738247722387314
-2.008835554122925,3.3755359649658203,-0.11305150389671326
-2.685744285583496,4.589969635009766,-0.15711379051208496
-2.659611225128174,4.623047828674316,-0.16161946952342987
-2.6715638637542725,4.719485759735107,-0.1682271957397461
-2.6675705909729004,4.793224811553955,-0.1740609109401703
-2.628429651260376,4.805758953094482,-0.1776900440454483
-2.6020302772521973,4.837706089019775,-0.18189987540245056
-1.8174179792404175,3.4375407695770264,-0.13140763342380524
-1.788582682609558,3.443737745285034,-0.13369087874889374
-1.7493202686309814,3.428725004196167,-0.13512030243873596
-1.723689079284668,3.4372200965881348,-0.13737817108631134
-1.6993855237960815,3.449204921722412,-0.13975469768047333
-1.7129242420196533,3.5424060821533203,-0.14545543491840363
-1.7443397045135498,3.6744213104248047,-0.15281091630458832
-1.7154029607772827,3.6793081760406494,-0.15488708019256592
-1.6958307027816772,3.705448627471924,-0.15783724188804626
-1.6721347570419312,3.7246618270874023,-0.16044899821281433
-2.318476915359497,5.265403747558594,-0.2293354719877243
-2.217674970626831,5.134644508361816,-0.22604896128177643
-2.1678872108459473,5.117602825164795,-0.22762185335159302
-1.6056818962097168,3.8677518367767334,-0.17369084060192108
-1.568931221961975,3.857438802719116,-0.17488260567188263
-1.550639033317566,3.8899526596069336,-0.17797178030014038
-1.5329368114471436,3.92620587348938,-0.18128721415996552
-1.5103063583374023,3.9515886306762695,-0.18399186432361603
-1.4845809936523438,3.96956467628479,-0.18635967373847961
-1.453845500946045,3.972520351409912,-0.18800318241119385
-1.4393069744110107,4.019192695617676,-0.19171561300754547
-1.4155775308609009,4.044059753417969,-0.19437450170516968
-1.386618733406067,4.053991317749023,-0.19622449576854706
-1.3600958585739136,4.071105003356934,-0.19843311607837677
-1.3353064060211182,4.091530799865723,-0.20078624784946442
-0.9738627076148987,3.0559637546539307,-0.15098272264003754
-0.964432954788208,3.103863000869751,-0.15430229902267456
-0.9445046782493591,3.118076801300049,-0.15593960881233215
-0.8141840100288391,2.757889747619629,-0.13874411582946777
-0.790682315826416,2.7484285831451416,-0.13907335698604584
-0.7619976997375488,2.7200167179107666,-0.13841740787029266
-0.7426648139953613,2.7253096103668213,-0.1393817514181137
-0.7249678373336792,2.7380928993225098,-0.1407499611377716
-0.7106012105941772,2.761953830718994,-0.1426813155412674
-0.6790532469749451,2.7175824642181396,-0.14108192920684814
-1.464238166809082,6.03972053527832,-0.31500691175460815
-1.4606648683547974,6.2169508934021,-0.32559734582901
-1.4270131587982178,6.276679515838623,-0.3301224410533905
-1.3915364742279053,6.324490547180176,-0.33401134610176086
-1.3377676010131836,6.288130760192871,-0.3334643244743347
-1.293743371963501,6.297243118286133,-0.3352023959159851
-1.24092435836792,6.264041423797607,-0.334553599357605
-1.188605546951294,6.234385967254639,-0.33411622047424316
-1.137431263923645,6.200222015380859,-0.3334040939807892
-1.0746557712554932,6.096492767333984,-0.3289380669593811
-0.9559111595153809,5.653789520263672,-0.305968314409256
-0.9435333609580994,5.829736709594727,-0.3163137435913086
-0.9351282715797424,6.052148818969727,-0.32926633954048157
-0.6841806769371033,4.642243385314941,-0.2532327175140381
-0.6572951674461365,4.685466289520264,-0.25627803802490234
-0.6430908441543579,4.829085350036621,-0.26475316286087036
-0.22386766970157623,1.7762601375579834,-0.09756935387849808
-0.21415580809116364,1.8010118007659912,-0.09912251681089401
-0.20397672057151794,1.8257274627685547,-0.10068570077419281
-0.19248764216899872,1.8387246131896973,-0.10160759091377258
-0.17967647314071655,1.8400068283081055,-0.10185819119215012
-0.16433613002300262,1.8140171766281128,-0.10054541379213333
-0.15097562968730927,1.8073397874832153,-0.10030568391084671
-0.13933724164962769,1.8239104747772217,-0.10136351734399796
-0.12098497152328491,1.7431156635284424,-0.09700732678174973
-0.11151286214590073,1.7867261171340942,-0.09955849498510361
-0.10270924866199493,1.8536573648452759,-0.1033477783203125
-0.08937671780586243,1.8465328216552734,-0.10301518440246582
-0.07788018137216568,1.8860833644866943,-0.10529389977455139
-0.19256167113780975,5.609047889709473,-0.3133605420589447
-0.15292266011238098,5.5868425369262695,-0.3123512864112854
-0.11400038003921509,5.587769508361816,-0.3123878836631775
-0.07465548068284988,5.56112813949585,-0.3108983635902405
-0.03506148234009743,5.530315399169922,-0.3091910481452942
0.0026454704347997904,4.41497802734375,-0.24685831367969513
0.03128959611058235,4.145748615264893,-0.2318383753299713
0.079018734395504,5.455757141113281,-0.3049345314502716
0.11639826744794846,5.431694030761719,-0.30340084433555603
0.11568482220172882,4.0779500007629395,-0.22765344381332397
0.18725377321243286,5.2814412117004395,-0.29468077421188354
0.22236423194408417,5.241054058074951,-0.29228729009628296
0.25916367769241333,5.247195243835449,-0.2923426926136017
0.24244049191474915,4.302935600280762,-0.23943832516670227
0.26860928535461426,4.242783546447754,-0.23581020534038544
0.2964009642601013,4.209675312042236,-0.23369762301445007
0.3247528374195099,4.195868015289307,-0.23267515003681183
0.3580980896949768,4.24406623840332,-0.23500831425189972
0.45869144797325134,5.022244453430176,-0.27758461236953735
0.494157999753952,5.026755332946777,-0.2773313522338867
0.4801691770553589,4.553829669952393,-0.2507860064506531
0.5117981433868408,4.550417900085449,-0.2501639425754547
0.5498507022857666,4.601014137268066,-0.2524518668651581
0.5879664421081543,4.647460460662842,-0.2543576955795288
0.6556167006492615,4.9101128578186035,-0.2680663764476776
0.6891124248504639,4.8976969718933105,-0.26672106981277466
0.7190922498703003,4.865834712982178,-0.2643444836139679
0.7516331672668457,4.853071212768555,-0.26298773288726807
0.7787131071090698,4.809348106384277,-0.25980475544929504
0.8104695677757263,4.79624605178833,-0.258294939994812
0.8530327081680298,4.844379901885986,-0.26008450984954834
0.8901246786117554,4.8536272048950195,-0.25976723432540894
0.9209533929824829,4.832049369812012,-0.25780779123306274
0.946544885635376,4.787414073944092,-0.25444266200065613
0.9762645959854126,4.765584945678711,-0.2523126006126404
1.0107496976852417,4.7664361000061035,-0.2513919770717621
1.0411052703857422,4.74399471282959,-0.24923251569271088
1.0714905261993408,4.725295543670654,-0.24729089438915253
1.1002581119537354,4.702733516693115,-0.244987353682518
1.1269375085830688,4.672414779663086,-0.2423001378774643
1.1553739309310913,4.649464130401611,-0.240007221698761
1.1824445724487305,4.6185736656188965,-0.23729655146598816
1.2164689302444458,4.617877006530762,-0.23615117371082306
1.2438853979110718,4.59448766708374,-0.23369796574115753
1.2741751670837402,4.582215785980225,-0.2318262904882431
1.301449179649353,4.558401584625244,-0.2293744534254074
1.329293966293335,4.534185409545898,-0.2268884927034378
1.3606572151184082,4.524959087371826,-0.22514942288398743
1.3868504762649536,4.500762939453125,-0.22256024181842804
1.4104286432266235,4.4689764976501465,-0.21961750090122223
1.4364763498306274,4.444363594055176,-0.21702922880649567
1.466620683670044,4.430489540100098,-0.21495065093040466
1.4895082712173462,4.398228168487549,-0.21194839477539062
1.514183521270752,4.37337589263916,-0.20924603939056396
1.271744966506958,3.5942275524139404,-0.17073287069797516
1.294060468673706,3.5780346393585205,-0.1687048226594925
1.5908865928649902,4.3047685623168945,-0.20145466923713684
1.6233940124511719,4.301059246063232,-0.19964778423309326
1.652450442314148,4.290078163146973,-0.19751524925231934
1.6846214532852173,4.286035060882568,-0.19568975269794464
1.7085968255996704,4.259818077087402,-0.19283606112003326
1.7335370779037476,4.2371826171875,-0.19012761116027832
1.7595407962799072,4.218097686767578,-0.18747565150260925
1.787942886352539,4.206238269805908,-0.18518619239330292
1.8108484745025635,4.1795220375061035,-0.18220816552639008
1.830410122871399,4.145506858825684,-0.17893028259277344
1.8678748607635498,4.154556751251221,-0.17742420732975006
1.886405110359192,4.120537281036377,-0.17404121160507202
1.9146013259887695,4.107616424560547,-0.17155718803405762
1.939807415008545,4.087238311767578,-0.16874238848686218
1.9606654644012451,4.060044765472412,-0.1656179130077362
1.9877415895462036,4.046962261199951,-0.16305354237556458
2.012195110321045,4.026239395141602,-0.1601203829050064
2.0437021255493164,4.019205570220947,-0.15772658586502075
2.0673036575317383,3.99843430519104,-0.15475353598594666
2.084737539291382,3.967439651489258,-0.1513630598783493
2.1152760982513428,3.960202217102051,-0.14884525537490845
2.139094352722168,3.938610553741455,-0.14573335647583008
2.118868112564087,3.838512659072876,-0.1397121250629425
2.136552572250366,3.8109042644500732,-0.13642017543315887
2.1663951873779297,3.8031117916107178,-0.13377106189727783
2.1928443908691406,3.7880256175994873,-0.13081923127174377
2.217808723449707,3.7735660076141357,-0.12784092128276825
2.2390096187591553,3.7520360946655273,-0.12458369135856628
2.2690722942352295,3.743170976638794,-0.1216556578874588
2.286130428314209,3.714550733566284,-0.1180858463048935
2.3184921741485596,3.7129647731781006,-0.11536064743995667
2.3477797508239746,3.7038662433624268,-0.11227759718894958
2.36535906791687,3.674204111099243,-0.10844583809375763
2.3890864849090576,3.6589183807373047,-0.10508868098258972
2.4134292602539062,3.6430060863494873,-0.1016295775771141
2.442967414855957,3.632779359817505,-0.09820646047592163
2.461665391921997,3.610781669616699,-0.09445198625326157
2.505981206893921,3.6230850219726562,-0.09138845652341843
2.5240590572357178,3.5963072776794434,-0.08721078932285309
2.542252779006958,3.5739810466766357,-0.08314968645572662
2.591564416885376,3.5915963649749756,-0.07974052429199219
2.6334455013275146,3.5998830795288086,-0.07596562057733536
2.1842308044433594,2.9461286067962646,-0.058807604014873505
2.677344799041748,3.750873327255249,0.09545734524726868
2.6601479053497314,3.7820932865142822,0.10004238039255142
2.639998435974121,3.815082550048828,0.10466218739748001
2.611903429031372,3.834258794784546,0.10872071981430054
2.5845186710357666,3.8526601791381836,0.112575002014637
2.563483715057373,3.8853023052215576,0.11680126935243607
2.5307815074920654,3.8972620964050293,0.12026142328977585
2.5071332454681396,3.9216809272766113,0.1239553764462471
2.4731922149658203,3.9338412284851074,0.1272205263376236
2.448868751525879,3.9581072330474854,0.13074550032615662
2.429295778274536,3.988342523574829,0.13439422845840454
2.382697105407715,3.9798824787139893,0.13670077919960022
2.3691225051879883,4.024160385131836,0.14073577523231506
2.3430252075195312,4.043820858001709,0.14379340410232544
2.329261064529419,4.087648868560791,0.14768517017364502
2.3255136013031006,4.152438163757324,0.1523403525352478
2.2575411796569824,4.100761890411377,0.15267397463321686
2.2232847213745117,4.106019496917725,0.15499943494796753
2.2060444355010986,4.146188259124756,0.15857850015163422
2.178920030593872,4.169216632843018,0.16150550544261932
2.152902841567993,4.1913909912109375,0.16432709991931915
2.1266796588897705,4.213404178619385,0.1671570986509323
2.0890591144561768,4.214664936065674,0.16903376579284668
2.0682907104492188,4.250861644744873,0.17229850590229034
2.0413801670074463,4.272408485412598,0.17493227124214172
2.001652240753174,4.265212535858154,0.17635460197925568
1.9776461124420166,4.2935004234313965,0.1791793406009674
1.9553496837615967,4.329318046569824,0.18231332302093506
1.9809625148773193,4.471704006195068,0.18995442986488342
1.959040641784668,4.50680685043335,0.19304804503917694
1.9304418563842773,4.527525424957275,0.19552822411060333
1.9064438343048096,4.562983989715576,0.19853468239307404
1.857810139656067,4.540765285491943,0.19906269013881683
1.8504040241241455,4.61526346206665,0.20377801358699799
1.791088342666626,4.558935165405273,0.20270609855651855
1.7671581506729126,4.593277931213379,0.20559315383434296
4.609025478363037,12.243329048156738,0.551443874835968
1.3251891136169434,3.6002283096313477,0.1631864309310913
1.3026598691940308,3.6166749000549316,0.16491825878620148
1.274871587753296,3.618225336074829,0.1659751832485199
1.6392097473144531,4.759930610656738,0.21954265236854553
1.5974260568618774,4.749341011047363,0.22018738090991974
1.5759766101837158,4.801623344421387,0.22378301620483398
1.552091360092163,4.842115879058838,0.22679729759693146
1.5276752710342407,4.882518291473389,0.2298337072134018
1.4907737970352173,4.885679244995117,0.231035515666008
1.4346461296081543,4.8250837326049805,0.22915256023406982
1.4119782447814941,4.87639856338501,0.23259149491786957
1.3793919086456299,4.893754482269287,0.23442476987838745
1.3473516702651978,4.910696029663086,0.23623201251029968
1.2856056690216064,4.818195819854736,0.23268809914588928
1.2551469802856445,4.842284679412842,0.23466116189956665
1.2262681722640991,4.873763084411621,0.2370116412639618
1.1959863901138306,4.901305198669434,0.2391921430826187
1.1654489040374756,4.924636363983154,0.24116145074367523
1.1362690925598145,4.955412864685059,0.24349603056907654
1.101035237312317,4.9633073806762695,0.2445535808801651
1.0690182447433472,4.986212253570557,0.24636514484882355
1.0362496376037598,5.009010314941406,0.248197540640831
1.0028893947601318,5.0237016677856445,0.2496202290058136
0.9679005742073059,5.030508041381836,0.25066423416137695
1.4636926651000977,7.906752109527588,0.3949072062969208
1.4063193798065186,7.909165859222412,0.3958611786365509
1.3480570316314697,7.911320686340332,0.39683473110198975
1.8023896217346191,11.043243408203125,0.5551316142082214
1.7039180994033813,10.916644096374512,0.5499696135520935
1.6024898290634155,10.758378982543945,0.5431647896766663
1.5107704401016235,10.65731430053711,0.5388717651367188
1.4113980531692505,10.497679710388184,0.5316375494003296
1.3211454153060913,10.379582405090332,0.5264946222305298
1.236336588859558,10.28387451171875,0.5224834680557251
1.1555562019348145,10.210753440856934,0.5196297764778137
1.0702933073043823,10.08660888671875,0.51399165391922
0.9917440414428711,10.016189575195312,0.5108767151832581
0.39232325553894043,4.2733612060546875,0.21817940473556519
0.36173003911972046,4.2682108879089355,0.2181386947631836
0.330836683511734,4.255046844482422,0.2176961749792099
0.3028547465801239,4.280577659606934,0.21924470365047455
0.27563202381134033,4.325405597686768,0.2216682732105255
0.24479834735393524,4.327250003814697,0.22186130285263062
0.21157963573932648,4.270403861999512,0.21905307471752167
0.18215952813625336,4.279560089111328,0.21963927149772644
0.1527084857225418,4.288509368896484,0.22022560238838196
0.12086436152458191,4.219267845153809,0.2168048769235611
0.09371381253004074,4.348724365234375,0.22343188524246216
0.057354461401700974,3.931896686553955,0.20200344920158386
0.0326789952814579,4.291091442108154,0.22045449912548065
0.0028539360500872135,4.357532978057861,0.22387593984603882
-0.011585794389247894,1.837383508682251,0.09440676122903824
-0.025271635502576828,1.8879657983779907,0.09699973464012146
-0.08234354108572006,4.048518180847168,0.20787358283996582
-0.11048496514558792,4.047855854034424,0.2077188342809677
-0.1355496048927307,3.957324504852295,0.2029648721218109
-0.07243373245000839,1.757920742034912,0.09011725336313248
-0.28561827540397644,5.930666923522949,0.30389416217803955
-0.19489850103855133,3.5290684700012207,0.18070241808891296
-0.21876339614391327,3.5198655128479004,0.18004080653190613
-0.24415916204452515,3.533850908279419,0.1805732101202011
-0.29764121770858765,3.9133036136627197,0.1997687816619873
-0.3228592574596405,3.887831449508667,0.1982850283384323
-0.3461396396160126,3.8388407230377197,0.1956114023923874
-0.3541811406612396,3.646111249923706,0.18553224205970764
-0.37523114681243896,3.6048054695129395,0.18313653767108917
-0.39447301626205444,3.5517477989196777,0.18015921115875244
-0.7416400909423828,6.280399322509766,0.31808096170425415
-0.7861019968986511,6.275027275085449,0.3173271417617798
-0.8271548748016357,6.25010871887207,0.3156105875968933
-0.8604759573936462,6.174760818481445,0.3111554682254791
-0.897861659526825,6.133997917175293,0.30845868587493896
-0.9399915337562561,6.127730846405029,0.3075156509876251
-0.5321723222732544,3.3128037452697754,0.16590891778469086
-0.5513115525245667,3.285964012145996,0.1642387956380844
-0.5780376195907593,3.3051626682281494,0.1648404896259308
-0.604828417301178,3.3241941928863525,0.1653393656015396
-0.6123406291007996,3.239501953125,0.16069456934928894
-0.6345851421356201,3.2352495193481445,0.1600564867258072
-0.6496762037277222,3.1924784183502197,0.15751312673091888
-0.6621887683868408,3.142104387283325,0.154620960354805
-0.6696307063102722,3.072707414627075,0.15073977410793304
-0.6794242858886719,3.018620491027832,0.14760082960128784
-0.7000158429145813,3.013946771621704,0.14689217507839203
-0.7120809555053711,2.9710452556610107,0.14431963860988617
-0.6934108734130859,2.806959629058838,0.1359041929244995
-0.7031781077384949,2.764317274093628,0.1333891600370407
-0.7189746499061584,2.7481889724731445,0.13208600878715515
-0.7375987768173218,2.7432851791381836,0.13133129477500916
-0.7577115893363953,2.7418837547302246,0.1307363063097
-0.7852991819381714,2.7666125297546387,0.13138706982135773
-0.8547492623329163,2.93345308303833,0.13875477015972137
-0.9417391419410706,3.151942729949951,0.14841468632221222
-0.9710626006126404,3.1716582775115967,0.1486462503671646
-0.9905576705932617,3.1574928760528564,0.1472807079553604
-1.0172662734985352,3.1654372215270996,0.14694546163082123
-1.0795063972473145,3.2806642055511475,0.15156714618206024
-1.1068954467773438,3.2880518436431885,0.1511257439851761
-1.1316018104553223,3.287940502166748,0.150291308760643
-1.1537383794784546,3.2802915573120117,0.14911839365959167
-1.4752527475357056,4.102130889892578,0.18540841341018677
-1.506458044052124,4.099159240722656,0.18421946465969086
-1.5235055685043335,4.059591770172119,0.18134911358356476
-1.5479449033737183,4.042050838470459,0.17941291630268097
-1.566502332687378,4.009835243225098,0.17684324085712433
-1.5671464204788208,3.929929733276367,0.17215225100517273
-1.5841702222824097,3.893688917160034,0.16942019760608673
-1.6047121286392212,3.868443250656128,0.16713029146194458
-2.358431816101074,5.5798258781433105,0.23927219212055206
-1.6269656419754028,3.7786707878112793,0.16081993281841278
-1.6379101276397705,3.7314252853393555,0.15754187107086182
-1.6479099988937378,3.684372901916504,0.15432129800319672
-1.6613383293151855,3.6484084129333496,0.15151944756507874
-1.6757322549819946,3.616095542907715,0.14886939525604248
-1.6817225217819214,3.5659682750701904,0.1454993188381195
-1.6866511106491089,3.51181960105896,0.14193488657474518
-1.7073612213134766,3.49318265914917,0.13983702659606934
-1.726922631263733,3.474911689758301,0.13769784569740295
-1.7463425397872925,3.4565207958221436,0.13556404411792755
-1.7773149013519287,3.4583399295806885,0.1341632753610611
-1.8122161626815796,3.4667088985443115,0.13299560546875
-1.8557238578796387,3.492400646209717,0.13237956166267395
-2.477694272994995,4.589861869812012,0.17188729345798492
-2.5013911724090576,4.559290409088135,0.16858451068401337
-1.1866419315338135,2.1277356147766113,0.07764361798763275
-2.540037155151367,4.484314441680908,0.16138750314712524
-2.5444610118865967,4.423449993133545,0.15690693259239197
-2.5665719509124756,4.3926825523376465,0.15347911417484283
-2.597039222717285,4.374844074249268,0.15046337246894836
-1.233203649520874,2.046827554702759,0.06923841685056686
-1.2586716413497925,2.058823823928833,0.06846743822097778
-2.051745891571045,3.3038878440856934,0.10782011598348618
-2.057586431503296,3.2634646892547607,0.10446633398532867
-2.648637056350708,4.1417694091796875,0.1299419403076172
-2.6802878379821777,4.130773067474365,0.12686419486999512
-2.1654839515686035,3.2870733737945557,0.09865174442529678
-2.7446491718292236,4.107301712036133,0.12028869241476059
-2.7536752223968506,4.063673496246338,0.11604447662830353
-2.7907354831695557,4.057391166687012,0.11266032606363297
-2.8078725337982178,4.0266242027282715,0.10855966061353683
-2.833690881729126,4.008598327636719,0.10473530739545822
-2.657132625579834,3.7029330730438232,0.09331732243299484
-2.7146825790405273,3.7337253093719482,0.09063611924648285
-2.748535633087158,3.728400230407715,0.08681565523147583
-2.9938178062438965,4.187702178955078,-0.0813489779829979
-2.4580154418945312,3.4950428009033203,-0.07144411653280258
-2.7775697708129883,4.0101728439331055,-0.08571048080921173
-2.756911277770996,4.043237686157227,-0.09003153443336487
-2.752455949783325,4.102739334106445,-0.0949302390217781
-2.194140672683716,3.3201751708984375,-0.07947053760290146
-2.1689562797546387,3.3366072177886963,-0.08253053575754166
-2.636723041534424,4.12226676940918,-0.10509642213582993
-1.263374924659729,2.0057930946350098,-0.0525687150657177
-1.304003357887268,2.1046926975250244,-0.05662847310304642
-1.2721959352493286,2.0875234603881836,-0.057587478309869766
-2.008554458618164,3.3489632606506348,-0.09456567466259003
-1.9920159578323364,3.3769032955169678,-0.09747124463319778
-2.666275978088379,4.597474575042725,-0.13554473221302032
-2.674731492996216,4.687119007110596,-0.1408998966217041
-1.204182744026184,2.1451900005340576,-0.06570522487163544
-2.6458311080932617,4.7971577644348145,-0.14963705837726593
-2.6149818897247314,4.822828769683838,-0.15303513407707214
-2.6016018390655518,4.878692150115967,-0.157335564494133
-1.8052200078964233,3.4446208477020264,-0.11282236129045486
-1.7656755447387695,3.429892063140869,-0.11404109001159668
-1.737389087677002,3.435487985610962,-0.11589913070201874
-1.7116512060165405,3.443955898284912,-0.1178010031580925
-1.6883301734924316,3.4597251415252686,-0.11990389227867126
-1.7541323900222778,3.6620211601257324,-0.1285535842180252
-1.728323221206665,3.674201726913452,-0.13056297600269318
-1.7059671878814697,3.693166971206665,-0.13280682265758514
-1.6820647716522217,3.7126173973083496,-0.1350289136171341
-1.6583118438720703,3.7317636013031006,-0.13721196353435516
-2.277860641479492,5.224873065948486,-0.19413654506206512
-2.189218282699585,5.118474960327148,-0.19213920831680298
-2.172257661819458,5.180678844451904,-0.1963653415441513
-1.5913316011428833,3.8747341632843018,-0.14827440679073334
-1.5579187870025635,3.8713929653167725,-0.14950793981552124
-1.5395218133926392,3.9038665294647217,-0.152106374502182
-1.519034743309021,3.9327473640441895,-0.15454520285129547
-1.4962778091430664,3.9580934047698975,-0.15678967535495758
-1.4754664897918701,3.9908106327056885,-0.15936678647994995
-1.4423192739486694,3.986243724822998,-0.16040697693824768
-1.4249694347381592,4.025554180145264,-0.16322371363639832
-1.4013253450393677,4.0503082275390625,-0.1653730422258377
-1.3697683811187744,4.052786350250244,-0.1666109263896942
-1.3479671478271484,4.084694862365723,-0.16907408833503723
-1.323128342628479,4.105050563812256,-0.17104001343250275
-0.9781292080879211,3.1088712215423584,-0.13035869598388672
-0.9582576751708984,3.123175859451294,-0.13171446323394775
-0.9203653335571289,3.077516555786133,-0.13053621351718903
-0.8026639223098755,2.7541074752807617,-0.11748083680868149
-0.7670988440513611,2.7033803462982178,-0.11597876995801926
-0.752161979675293,2.7237374782562256,-0.1174616664648056
-0.7347595691680908,2.736531972885132,-0.11858545243740082
-0.7113018035888672,2.726557493209839,-0.11872698366641998
-0.7028717994689941,2.7730185985565186,-0.12132345139980316
-1.3572031259536743,5.517862796783447,-0.24258121848106384
-1.3101698160171509,5.493052959442139,-0.24251100420951843
-1.2994027137756348,5.623798847198486,-0.2492738515138626
-1.232344388961792,5.510913848876953,-0.24525003135204315
-1.1956146955490112,5.5269246101379395,-0.24693845212459564
-1.156449556350708,5.535190582275391,-0.24831148982048035
-1.1243739128112793,5.577574253082275,-0.25106459856033325
-1.0834723711013794,5.577661514282227,-0.25187569856643677
-1.055582880973816,5.646486282348633,-0.2558102607727051
-1.016235113143921,5.653648376464844,-0.2569623589515686
-0.9787907600402832,5.676037788391113,-0.2588363587856293
-0.9420308470726013,5.701985836029053,-0.26071393489837646
-0.9487154483795166,6.005231857299805,-0.27525508403778076
-0.6986886858940125,4.634196758270264,-0.21294331550598145
-0.6686923503875732,4.654355525970459,-0.21440455317497253
-0.6600667834281921,4.8367791175842285,-0.2233830988407135
-0.2357783019542694,1.8227226734161377,-0.08435556292533875
-0.22347500920295715,1.8281925916671753,-0.08476215600967407
-0.21242889761924744,1.8452107906341553,-0.08571019768714905
-0.1979180872440338,1.831114649772644,-0.08521567285060883
-0.18519948422908783,1.832434058189392,-0.08544111251831055
-0.17183421552181244,1.8298075199127197,-0.08545466512441635
-0.15834622085094452,1.8231836557388306,-0.08524324744939804
-0.1449759304523468,1.8164595365524292,-0.08503035455942154
-0.13174033164978027,1.8096359968185425,-0.08481577038764954
-0.11862333863973618,1.8027153015136719,-0.08459970355033875
-0.10401109606027603,1.7723428010940552,-0.08326714485883713
-0.09040839970111847,1.7496426105499268,-0.08224467933177948
-0.25332197546958923,5.671675205230713,-0.2667616009712219
-0.21288228034973145,5.649897575378418,-0.2659047544002533
-0.17405936121940613,5.666831016540527,-0.2668820321559906
-0.13230429589748383,5.597694396972656,-0.2638055980205536
-0.0929771363735199,5.578973293304443,-0.2628903388977051
-0.053955111652612686,5.563878536224365,-0.26215890049934387
-0.012282395735383034,4.498898983001709,-0.2119731307029724
0.018452489748597145,4.374014854431152,-0.2060931771993637
0.06160774827003479,5.458439826965332,-0.2572067081928253
0.10006853193044662,5.489099025726318,-0.2584972381591797
0.1365935206413269,5.425871849060059,-0.25534048676490784
0.17399948835372925,5.417003631591797,-0.25475648045539856
0.20961323380470276,5.364988803863525,-0.2521573007106781
0.2461768090724945,5.34782075881958,-0.2512097954750061
0.2804346978664398,5.279724597930908,-0.24776044487953186
0.2549695372581482,4.245512008666992,-0.19896794855594635
0.2838543653488159,4.235872745513916,-0.19826553761959076
0.3115047812461853,4.2104692459106445,-0.19683626294136047
0.3401142954826355,4.200440883636475,-0.1961366981267929
0.37584662437438965,4.26792573928833,-0.19900375604629517
0.485050767660141,5.104318141937256,-0.2375520020723343
0.5119343996047974,5.019357204437256,-0.23316578567028046
0.4934502840042114,4.526943683624268,-0.20990927517414093
0.5334576368331909,4.59707498550415,-0.2127816528081894
0.5712007284164429,4.635815620422363,-0.21417050063610077
0.6142755150794983,4.716925144195557,-0.21736183762550354
0.6780853271484375,4.940704345703125,-0.22710217535495758
0.7100359797477722,4.920480251312256,-0.22561076283454895
0.7407906651496887,4.892300605773926,-0.2237662523984909
0.7735894918441772,4.8754048347473145,-0.2224436104297638
0.8007468581199646,4.831510543823242,-0.21973800659179688
0.8426098227500916,4.875919818878174,-0.22105184197425842
0.8755344152450562,4.866194248199463,-0.21991342306137085
0.9079489707946777,4.852354049682617,-0.21859502792358398
0.9371926784515381,4.822983741760254,-0.21659281849861145
0.9662672877311707,4.793409824371338,-0.21443921327590942
0.9959500432014465,4.771435737609863,-0.21262794733047485
1.0254184007644653,4.749271392822266,-0.21082240343093872
1.0558518171310425,4.730652809143066,-0.20917968451976776
