X,Y,Z
-1.3319730758666992,2.5252130031585693,-0.05337068811058998
-1.3210742473602295,2.548520565032959,-0.05463584139943123
-1.2855843305587769,2.522829532623291,-0.0548262856900692
-1.2900259494781494,2.577444553375244,-0.05675658956170082
-1.2849539518356323,2.614813804626465,-0.05832972377538681
-1.2694823741912842,2.631014108657837,-0.05943360924720764
-1.2411141395568848,2.6185858249664307,-0.059864625334739685
-1.215545892715454,2.6133131980895996,-0.06041901186108589
-1.2030354738235474,2.636256456375122,-0.0616246722638607
-1.190704107284546,2.658954381942749,-0.06281924992799759
-1.1454110145568848,2.6063976287841797,-0.0622173547744751
-1.1432688236236572,2.654158115386963,-0.06398965418338776
-1.1680461168289185,2.7666923999786377,-0.06734101474285126
-1.1513044834136963,2.782135248184204,-0.06834688037633896
-1.143701434135437,2.818993330001831,-0.06987472623586655
-1.1266083717346191,2.834254741668701,-0.07085325568914413
-1.1129475831985474,2.860588550567627,-0.07210356742143631
-1.117416262626648,2.934169054031372,-0.07455480843782425
-1.09696626663208,2.9418559074401855,-0.07533106952905655
-1.0830984115600586,2.967763662338257,-0.07657685875892639
-1.0696550607681274,2.9975059032440186,-0.07789123803377151
-1.0528757572174072,3.019968032836914,-0.07903722673654556
-1.0365911722183228,3.042083501815796,-0.08016420900821686
-1.02653968334198,3.082535982131958,-0.08177869021892548
-1.0120567083358765,3.1119496822357178,-0.08308185636997223
-0.9898203611373901,3.1190755367279053,-0.08376840502023697
-0.9717854857444763,3.1410768032073975,-0.08486935496330261
-0.9611217379570007,3.185148239135742,-0.08655981719493866
-0.9444068670272827,3.210482358932495,-0.08775349706411362
-0.9259093403816223,3.2320992946624756,-0.08880536258220673
-0.9112186431884766,3.2686963081359863,-0.09026871621608734
-0.8940935134887695,3.297685384750366,-0.09153229743242264
-0.8777107000350952,3.330341100692749,-0.0929068997502327
-0.8603717684745789,3.3590354919433594,-0.09417392313480377
-0.84222412109375,3.3877625465393066,-0.0953805148601532
-0.821846067905426,3.408816337585449,-0.09637986123561859
-0.802219569683075,3.4335250854492188,-0.09748943895101547
-0.7813032269477844,3.454343557357788,-0.0984996110200882
-0.7638712525367737,3.490208148956299,-0.09993817657232285
-0.7496516704559326,3.545175552368164,-0.10187371075153351
-0.7323176264762878,3.5886423587799072,-0.1034933477640152
-0.507258415222168,2.578423500061035,-0.07462736964225769
-0.49626296758651733,2.62030291557312,-0.07611575722694397
-0.4696459174156189,2.5775797367095947,-0.0751420184969902
-0.4555065333843231,2.6038942337036133,-0.07611944526433945
-0.43975141644477844,2.6224300861358643,-0.07687611132860184
-0.42625612020492554,2.65628981590271,-0.07808934152126312
-0.40799835324287415,2.6630964279174805,-0.07851602882146835
-0.3865904211997986,2.646550416946411,-0.07825303822755814
-0.36796459555625916,2.6491968631744385,-0.07849880307912827
-0.523162305355072,3.971769332885742,-0.11793900281190872
-0.5019506216049194,4.0295867919921875,-0.11991545557975769
-0.4771309196949005,4.0601115226745605,-0.1210874542593956
-0.45567506551742554,4.1293511390686035,-0.12343108654022217
-0.4316047728061676,4.1790337562561035,-0.12512564659118652
-0.4071834683418274,4.232470989227295,-0.12692293524742126
-0.3782210350036621,4.2429890632629395,-0.1274421066045761
-0.34932538866996765,4.253292083740234,-0.1279604732990265
-0.3175007402896881,4.232285022735596,-0.12754566967487335
-0.2912124693393707,4.281131744384766,-0.12918011844158173
-0.3084210455417633,5.054704666137695,-0.1526670902967453
-0.2714178264141083,5.025538921356201,-0.15193775296211243
-0.23639611899852753,5.0273027420043945,-0.15214954316616058
-0.1995168924331665,4.997633457183838,-0.15141931176185608
-0.16497071087360382,5.006701469421387,-0.15182432532310486
-0.12924249470233917,4.976502418518066,-0.15095475316047668
-0.0944909155368805,4.977281093597412,-0.1510319709777832
-0.05959172546863556,4.9582953453063965,-0.15051637589931488
-0.024390144273638725,4.9429731369018555,-0.1501200944185257
0.009927472099661827,4.9352126121521,-0.1499527394771576
0.04404813051223755,4.911599636077881,-0.1491909772157669
0.07796511054039001,4.895560264587402,-0.14866682887077332
0.11183973401784897,4.887094497680664,-0.14838001132011414
0.1449732482433319,4.85888147354126,-0.14750105142593384
0.1787300705909729,4.842130184173584,-0.14697709679603577
0.21194419264793396,4.832977771759033,-0.14659567177295685
0.24338865280151367,4.792407035827637,-0.1452416181564331
0.27657607197761536,4.790611743927002,-0.14507050812244415
0.3091256618499756,4.776888847351074,-0.1445450335741043
0.34187349677085876,4.75900411605835,-0.14389924705028534
0.37307488918304443,4.73316764831543,-0.1429629772901535
0.4058528542518616,4.730478763580322,-0.14267480373382568
0.437168687582016,4.712011337280273,-0.14191827178001404
0.46755847334861755,4.685558319091797,-0.14092916250228882
0.49985793232917786,4.674378395080566,-0.1404041051864624
0.5309125185012817,4.659173488616943,-0.1397390514612198
0.5639193058013916,4.663171291351318,-0.13957099616527557
0.5950666069984436,4.6514387130737305,-0.13893833756446838
0.6229878067970276,4.616275787353516,-0.1376143842935562
0.6556777358055115,4.611759185791016,-0.13720545172691345
0.6854709386825562,4.591646194458008,-0.13633932173252106
0.7158635258674622,4.5791168212890625,-0.13560007512569427
0.7448976635932922,4.558673858642578,-0.13463427126407623
0.7717154622077942,4.526501655578613,-0.133331760764122
0.8031068444252014,4.521052837371826,-0.13282263278961182
0.8293452858924866,4.484565258026123,-0.13140428066253662
0.7260511517524719,3.780897855758667,-0.110427126288414
0.7473360896110535,3.752878427505493,-0.10924698412418365
0.8211551904678345,3.980957508087158,-0.11550654470920563
0.9417956471443176,4.410482406616211,-0.12754671275615692
0.9772617220878601,4.422774791717529,-0.12747560441493988
1.0093883275985718,4.423583507537842,-0.12700895965099335
1.0361281633377075,4.401372909545898,-0.1258663535118103
1.0662559270858765,4.394191265106201,-0.12516185641288757
1.0967528820037842,4.386699676513672,-0.12444751709699631
1.1248459815979004,4.367505073547363,-0.1233992800116539
1.1507447957992554,4.344618797302246,-0.12218669801950455
1.1782951354980469,4.329157829284668,-0.12116745859384537
1.205688238143921,4.3135223388671875,-0.12015103548765182
1.2334351539611816,4.2975687980651855,-0.11912335455417633
1.2615655660629272,4.281277179718018,-0.11808348447084427
1.2907204627990723,4.272602558135986,-0.1171996146440506
1.3173894882202148,4.25630521774292,-0.1160983070731163
1.343967080116272,4.2398200035095215,-0.11499794572591782
1.3734256029129028,4.23039436340332,-0.11408133804798126
1.4008803367614746,4.213177680969238,-0.11294960975646973
1.4256600141525269,4.192512035369873,-0.1116626039147377
1.4553483724594116,4.186460018157959,-0.11077077686786652
1.479993462562561,4.165406227111816,-0.10948320478200912
1.5062893629074097,4.147687911987305,-0.10827790945768356
1.5375821590423584,4.144547462463379,-0.10743728280067444
1.5660299062728882,4.133911609649658,-0.10633039474487305
1.5910694599151611,4.115993976593018,-0.10505781322717667
1.6193844079971313,4.104964733123779,-0.10395033657550812
1.6421113014221191,4.079120635986328,-0.10246620327234268
1.6727689504623413,4.075117588043213,-0.10149310529232025
1.6945973634719849,4.049190044403076,-0.09994371235370636
1.7663683891296387,4.141840934753418,-0.10131704062223434
2.019317150115967,4.645229339599609,-0.11257677525281906
2.052841901779175,4.634817123413086,-0.11125211417675018
2.0838048458099365,4.62101411819458,-0.10979128628969193
2.113584280014038,4.603207588195801,-0.10822147876024246
2.1419661045074463,4.581484317779541,-0.10655254125595093
2.178774833679199,4.577108383178711,-0.10528266429901123
2.207498073577881,4.559021949768066,-0.10364755988121033
2.2395150661468506,4.547769069671631,-0.10216923803091049
2.274563789367676,4.539115905761719,-0.10069701075553894
2.3007304668426514,4.5127973556518555,-0.09883873909711838
2.3325939178466797,4.5008463859558105,-0.09724967926740646
2.373281240463257,4.506063461303711,-0.09601946175098419
1.7457927465438843,3.260634660720825,-0.06847760081291199
1.7590826749801636,3.2312941551208496,-0.06684266030788422
1.741135597229004,3.147614002227783,-0.06406120210886002
1.7388973236083984,3.095229387283325,-0.061971161514520645
1.7930256128311157,3.1409051418304443,-0.06179852783679962
1.3639017343521118,2.3514480590820312,-0.04543353244662285
1.317854404449463,2.2381417751312256,-0.04243074730038643
0.960058331489563,1.605736255645752,-0.029840292409062386
0.9711840748786926,1.5990456342697144,-0.029093315824866295
0.9818027019500732,1.5925616025924683,-0.02833927795290947
0.9921274185180664,1.5861634016036987,-0.02758014015853405
1.0008186101913452,1.576082706451416,-0.026727937161922455
1.0265012979507446,1.5921220779418945,-0.02628317102789879
1.0175029039382935,1.5560652017593384,-0.024989299476146698
1.0279189348220825,1.5492175817489624,-0.02415018528699875
1.053764820098877,1.564841628074646,-0.02362283319234848
1.059346079826355,1.5516319274902344,-0.0226496122777462
2.1886744499206543,3.1594533920288086,-0.04443139582872391
2.2434611320495605,3.1926960945129395,-0.04313995689153671
2.2861557006835938,3.2103652954101562,-0.04158176854252815
2.628187417984009,3.638032913208008,-0.044898755848407745
2.6329588890075684,3.5959534645080566,-0.04210522025823593
2.679379463195801,3.610290050506592,-0.039871010929346085
2.2103562355041504,3.0963268280029297,0.05228406935930252
2.2046689987182617,3.1386008262634277,0.05508902668952942
1.068452000617981,1.5452862977981567,0.028093039989471436
1.066185474395752,1.5657695531845093,0.02937791869044304
1.0541918277740479,1.5738494396209717,0.030434776097536087
1.0300066471099854,1.561766505241394,0.031035352498292923
1.031152606010437,1.5890005826950073,0.03240839019417763
1.0106281042099,1.583611011505127,0.033100277185440063
0.9994211196899414,1.590688705444336,0.03399037569761276
0.9879633188247681,1.5978115797042847,0.034865520894527435
0.971896231174469,1.59848153591156,0.03558995947241783
0.9642207622528076,1.6122123003005981,0.036587733775377274
1.333236813545227,2.265146493911743,0.05232575163245201
1.3319827318191528,2.3020269870758057,0.054088957607746124
1.799656867980957,3.163806915283203,0.07557041198015213
1.760421872138977,3.145552396774292,0.0762869268655777
1.7505019903182983,3.1822845935821533,0.07832714915275574
1.7584750652313232,3.2535197734832764,0.08120732754468918
2.392789840698242,4.504167079925537,0.11393249779939651
2.368643045425415,4.534494876861572,0.116164430975914
2.332139253616333,4.544551849365234,0.11783807724714279
2.2876081466674805,4.540859699249268,0.11916176974773407
2.255131959915161,4.5570292472839355,0.12094468623399734
2.2267165184020996,4.579620361328125,0.12287452071905136
2.1935296058654785,4.59556245803833,0.12458140403032303
2.166415214538574,4.625615119934082,0.126664936542511
2.1331610679626465,4.640998363494873,0.1283310502767563
2.100257396697998,4.655935764312744,0.12997423112392426
2.0670247077941895,4.670740604400635,0.1315551996231079
2.026782512664795,4.6712775230407715,0.132696732878685
1.737645149230957,4.085704326629639,0.11704429239034653
1.7061452865600586,4.090460777282715,0.11812499165534973
1.6755471229553223,4.0988335609436035,0.11932303756475449
1.6501826047897339,4.121695518493652,0.12087155878543854
1.6231838464736938,4.140756130218506,0.12231778353452682
1.5937799215316772,4.152126789093018,0.12352745980024338
1.5648796558380127,4.163069248199463,0.1247132271528244
1.5376029014587402,4.181507110595703,0.12610192596912384
1.5074809789657593,4.192427635192871,0.12720678746700287
1.482424259185791,4.217877388000488,0.12876279652118683
1.4477611780166626,4.2133564949035645,0.12938900291919708
1.4233946800231934,4.238096237182617,0.13091449439525604
1.3951568603515625,4.25566291809082,0.13218021392822266
1.3645737171173096,4.265536785125732,0.13317179679870605
1.3362841606140137,4.2826337814331055,0.13439607620239258
1.3086515665054321,4.299291133880615,0.13559697568416595
1.2831493616104126,4.3232340812683105,0.13703610002994537
1.2557227611541748,4.343445777893066,0.13829483091831207
1.2209804058074951,4.341145038604736,0.13882318139076233
1.193028450012207,4.361026763916016,0.14005832374095917
1.1625549793243408,4.3692216873168945,0.1409129798412323
1.1321043968200684,4.377182960510254,0.14176540076732635
1.1030749082565308,4.392614364624023,0.14279988408088684
1.0730773210525513,4.408051013946533,0.14380806684494019
1.045278787612915,4.430747985839844,0.14505401253700256
1.014184832572937,4.437944412231445,0.14579421281814575
0.9832877516746521,4.444868564605713,0.14652855694293976
0.952078640460968,4.451633930206299,0.14723175764083862
0.8244897127151489,3.9957010746002197,0.13254599273204803
0.7526865601539612,3.783172607421875,0.1258680820465088
0.727537214756012,3.7960221767425537,0.1266707330942154
0.8356295228004456,4.530459880828857,0.15162815153598785
0.8088000416755676,4.56306266784668,0.15317226946353912
0.7785564661026001,4.584142684936523,0.15422199666500092
0.7474145889282227,4.597217082977295,0.1550055295228958
0.7160825729370117,4.610085487365723,0.1557915061712265
0.685180127620697,4.622655868530273,0.1565699726343155
0.6552287936210632,4.642749786376953,0.1576126664876938
0.6231672763824463,4.655024528503418,0.15832963585853577
0.5904185771942139,4.659277439117432,0.15873149037361145
0.5589864253997803,4.674934387207031,0.15953074395656586
0.5271987318992615,4.686469554901123,0.16019606590270996
0.4970511496067047,4.71330451965332,0.16139277815818787
0.46423211693763733,4.7166361808776855,0.1617809534072876
0.43201133608818054,4.735367774963379,0.16259849071502686
0.4007580876350403,4.761612415313721,0.16368068754673004
0.368257611989975,4.775972843170166,0.16436375677585602
0.33608192205429077,4.793989658355713,0.16518042981624603
0.3037201166152954,4.81178617477417,0.16599853336811066
0.27041488885879517,4.829405307769775,0.16675537824630737
0.23736244440078735,4.846771717071533,0.1674545705318451
0.20440739393234253,4.8717122077941895,0.16842450201511383
0.17112231254577637,4.892520427703857,0.16926030814647675
0.13732533156871796,4.90139102935791,0.16969163715839386
0.10262399911880493,4.90223503112793,0.1698559671640396
0.06849079579114914,4.902829170227051,0.16988570988178253
0.03468002378940582,4.9500322341918945,0.17153257131576538
0.0002138891868526116,4.965768814086914,0.17209750413894653
-0.034393809735774994,4.977360725402832,0.1725272238254547
-0.07012184709310532,5.008219242095947,0.17363420128822327
-0.10492400079965591,5.007611274719238,0.17361299693584442
-0.13995124399662018,5.014570236206055,0.17376987636089325
-0.17535237967967987,5.029086112976074,0.17419669032096863
-0.211238831281662,5.051154136657715,0.1748930811882019
-0.24596799910068512,5.041769027709961,0.17450854182243347
-0.28617820143699646,5.121762752532959,0.17722448706626892
-0.31646642088890076,5.03784704208374,0.17418639361858368
-0.30159035325050354,4.322857856750488,0.14932329952716827
-0.3269686698913574,4.2622904777526855,0.14709827303886414
-0.35653170943260193,4.259926795959473,0.14689026772975922
-0.38736554980278015,4.265081405639648,0.14694607257843018
-0.41126546263694763,4.204015731811523,0.14472107589244843
-0.43538033962249756,4.154496192932129,0.14279989898204803
-0.46096011996269226,4.1242499351501465,0.14155206084251404
-0.4820398688316345,4.058954238891602,0.13911208510398865
-0.5072879195213318,4.02834415435791,0.13786740601062775
-0.5280990600585938,3.970548629760742,0.13570581376552582
-0.5506359338760376,3.9320223331451416,0.13415804505348206
-0.5731150507926941,3.8972573280334473,0.13269564509391785
-0.5903492569923401,3.831507682800293,0.1301913857460022
-0.6166446208953857,3.823423385620117,0.12965111434459686
-0.6340982913970947,3.765165328979492,0.12742294371128082
-0.6514837741851807,3.710690975189209,0.12533552944660187
-0.6740822196006775,3.6907949447631836,0.1243293434381485
-0.6934893131256104,3.655428647994995,0.12281136214733124
-0.7132323980331421,3.6237950325012207,0.1214292049407959
-0.7309765219688416,3.5804357528686523,0.11965619772672653
-0.7477446794509888,3.537092447280884,0.11790140718221664
-0.7612054347991943,3.482301950454712,0.11573457717895508
-0.7883599996566772,3.4922845363616943,0.11569134891033173
-0.8015153408050537,3.4412190914154053,0.11363429576158524
-0.8210245370864868,3.4165613651275635,0.11245173215866089
-0.8391324281692505,3.3880488872528076,0.11115464568138123
-0.8548938632011414,3.3518996238708496,0.10960209369659424
-0.8736996650695801,3.3309245109558105,0.10848357528448105
-0.8922598958015442,3.3098487854003906,0.10737072676420212
-0.9058675765991211,3.2697227001190186,0.10564170032739639
-0.9264405965805054,3.2558553218841553,0.10477160662412643
-0.9424861669540405,3.2268691062927246,0.10342392325401306
-0.9576465487480164,3.1979777812957764,0.10201951116323471
-0.9666611552238464,3.15038800239563,0.10002770274877548
-0.9836835861206055,3.1287686824798584,0.09886437654495239
-0.9981969594955444,3.0995876789093018,0.09746948629617691
-1.019661784172058,3.0926146507263184,0.09678163379430771
-1.0343598127365112,3.0671567916870117,0.09546448290348053
-1.049902319908142,3.045379161834717,0.09425687789916992
-1.0626038312911987,3.0161657333374023,0.09282983094453812
-1.0732828378677368,2.979224920272827,0.09115336835384369
-1.0939834117889404,2.9717092514038086,0.09039482474327087
-1.108583688735962,2.9496381282806396,0.08915334939956665
-1.1046254634857178,2.880162000656128,0.08648669719696045
-1.1353524923324585,2.9017820358276367,0.08656594157218933
-1.131223201751709,2.832059383392334,0.08390196412801743
-1.1449800729751587,2.809690237045288,0.0826709046959877
-1.1637547016143799,2.8019912242889404,0.08181970566511154
-1.1672415733337402,2.7582123279571533,0.07992523163557053
-1.1503123044967651,2.6678056716918945,0.07670257985591888
-1.1629130840301514,2.645308494567871,0.07542912662029266
-1.1730740070343018,2.6194639205932617,0.07406605035066605
-1.1953903436660767,2.622260570526123,0.07348175346851349
-1.207915186882019,2.603630542755127,0.07230104506015778
-1.2374935150146484,2.6199913024902344,0.07206973433494568
-1.2695279121398926,2.6393556594848633,0.07189228385686874
-1.2579392194747925,2.571218252182007,0.0693148672580719
-1.294081687927246,2.6013126373291016,0.06938780844211578
-1.281639575958252,2.533306837081909,0.06683959811925888
-1.2956467866897583,2.5174169540405273,0.06566675007343292
-1.2981117963790894,2.480966091156006,0.0639457255601883
-1.3073782920837402,2.4584431648254395,0.06256642192602158
-1.3237438201904297,2.4496958255767822,0.06154908984899521
-1.3313524723052979,2.423339605331421,0.06006356328725815
-1.3476784229278564,2.4143242835998535,0.05900302901864052
-1.3557469844818115,2.3918886184692383,0.05760987475514412
-1.3758546113967896,2.38942289352417,0.05667080730199814
-1.4003522396087646,2.3932924270629883,0.05585438385605812
-1.4042623043060303,2.363811731338501,0.054237768054008484
-1.4034838676452637,2.3278918266296387,0.052480556070804596
-1.4232983589172363,2.3250200748443604,0.05144045129418373
-1.4396240711212158,2.314974308013916,0.050194498151540756
-1.435803771018982,2.2759172916412354,0.04832874983549118
-1.4527184963226318,2.269822359085083,0.04716799035668373
-1.457809567451477,2.243328809738159,0.045524343848228455
-1.4767301082611084,2.240307331085205,0.044346537441015244
-1.4912240505218506,2.2307121753692627,0.043011199682950974
-1.4934688806533813,2.2009730339050293,0.041222505271434784
-1.470261812210083,2.136437177658081,0.03880070894956589
-1.4837740659713745,2.1270999908447266,0.03740518540143967
-1.4939223527908325,2.110447645187378,0.03577582910656929
-1.507582664489746,2.1007368564605713,0.03422946482896805
-1.5072684288024902,2.0720765590667725,0.03236536309123039
-1.5119847059249878,2.049278974533081,0.030501609668135643
-1.5140336751937866,2.1201207637786865,-0.03545394167304039
-1.491605281829834,2.1216206550598145,-0.03714340180158615
-1.478341817855835,2.1356041431427,-0.038955822587013245
-1.497122883796692,2.1984803676605225,-0.04169246554374695
-1.4600107669830322,2.176391124725342,-0.04269358888268471
-1.465203881263733,2.2198166847229004,-0.04497699812054634
-1.457008957862854,2.2438206672668457,-0.046884000301361084
-1.449774980545044,2.267035484313965,-0.048687294125556946
-1.434837818145752,2.2811007499694824,-0.050291065126657486
-1.4263584613800049,2.3047711849212646,-0.0520867183804512
-1.4224646091461182,2.334627866744995,-0.053983546793460846
-1.400799036026001,2.3385565280914307,-0.05530261993408203
-1.4033557176589966,2.38242769241333,-0.05754970759153366
-1.3867080211639404,2.392122507095337,-0.05892685428261757
-1.3693084716796875,2.4020907878875732,-0.06029556691646576
-1.347664713859558,2.4053170680999756,-0.06148707494139671
-1.3378406763076782,2.428610324859619,-0.06316759437322617
-1.3244363069534302,2.4447991847991943,-0.064634770154953
-1.3119261264801025,2.464780569076538,-0.06618799269199371
-1.2975326776504517,2.481170654296875,-0.06764711439609528
-1.2909263372421265,2.510955810546875,-0.0694403424859047
-1.2761908769607544,2.5271949768066406,-0.07087375968694687
-1.2906813621520996,2.602874994277954,-0.07396836578845978
-1.2753511667251587,2.6190755367279053,-0.07538994401693344
-1.2436103820800781,2.5996737480163574,-0.07575233280658722
-1.213411808013916,2.583704948425293,-0.07617596536874771
-1.2011568546295166,2.6065995693206787,-0.07772836834192276
-1.1966170072555542,2.6472671031951904,-0.07983308285474777
-1.1655079126358032,2.626938581466675,-0.0800638496875763
-1.1811565160751343,2.713860511779785,-0.08355534821748734
-1.1722584962844849,2.7474241256713867,-0.08541467040777206
-1.1615562438964844,2.777343511581421,-0.08717392385005951
-1.150739312171936,2.8071448802948,-0.08893625438213348
-1.130987286567688,2.8151276111602783,-0.08998984843492508
-1.1349884271621704,2.8849337100982666,-0.09300225973129272
-1.1197991371154785,2.907571792602539,-0.09451954811811447
-1.1104488372802734,2.944528818130493,-0.09649647772312164
-1.0895875692367554,2.952277660369873,-0.0975373312830925
-1.0751254558563232,2.9783058166503906,-0.09912633895874023
-1.0667394399642944,3.022722005844116,-0.10133922845125198
-1.0452619791030884,3.0301830768585205,-0.10231982916593552
-1.0378451347351074,3.078054666519165,-0.10466641932725906
-1.0158110857009888,3.0853636264801025,-0.10563504695892334
-0.9985049962997437,3.1073837280273438,-0.10705216974020004
-0.9809615612030029,3.1293046474456787,-0.10847693681716919
-0.9726531505584717,3.180889129638672,-0.11093718558549881
-0.9515833258628845,3.191298246383667,-0.11197152733802795
-0.9355220198631287,3.2204129695892334,-0.11361810564994812
-0.9184808135032654,3.2496328353881836,-0.1152661070227623
-0.9015076160430908,3.2786519527435303,-0.11690991371870041
-0.8857632279396057,3.3112072944641113,-0.11867933720350266
-0.8725288510322571,3.3550426959991455,-0.12087136507034302
-0.8487634062767029,3.3611061573028564,-0.12163130193948746
-0.8300679922103882,3.389863967895508,-0.12322046607732773
-0.8124040365219116,3.4222054481506348,-0.12494290620088577
-0.7885549664497375,3.4277520179748535,-0.12568944692611694
-0.7714570760726929,3.4636151790618896,-0.12755849957466125
-0.7567869424819946,3.5147581100463867,-0.1299172043800354
-0.7386112809181213,3.55448842048645,-0.13187991082668304
-0.507912278175354,2.5338101387023926,-0.09435901790857315
-0.5013889074325562,2.594754219055176,-0.09698446840047836
-0.4833486080169678,2.5981569290161133,-0.09746889770030975
-0.4677736461162567,2.616854190826416,-0.09845320135354996
-0.44635698199272156,2.604736089706421,-0.09828809648752213
-0.4280586540699005,2.607790470123291,-0.09869257360696793
-0.4050578773021698,2.579840898513794,-0.09792251139879227
-0.38943350315093994,2.59801983833313,-0.0989060178399086
-0.37559452652931213,2.6315925121307373,-0.10040152072906494
-0.35258182883262634,2.60325288772583,-0.09954189509153366
-0.5146350264549255,4.011074542999268,-0.15371549129486084
-0.4890902638435364,4.03391170501709,-0.15493842959403992
-0.4672386646270752,4.091490268707275,-0.15750963985919952
-0.4439866244792938,4.145101070404053,-0.15984024107456207
-0.41958513855934143,4.194705486297607,-0.16201382875442505
-0.3936116695404053,4.240330219268799,-0.1640523225069046
-0.36344486474990845,4.235172748565674,-0.16412942111492157
-0.33340710401535034,4.229797840118408,-0.1642046421766281
-0.30559027194976807,4.255367755889893,-0.1653974950313568
-0.3268110156059265,5.0442094802856445,-0.19625841081142426
-0.29139193892478943,5.054186820983887,-0.19686031341552734
-0.25381872057914734,5.009303092956543,-0.19532893598079681
-0.21858860552310944,5.003138542175293,-0.1953144371509552
-0.18311923742294312,4.988930702209473,-0.1949082911014557
-0.14804095029830933,4.982280254364014,-0.1947224885225296
-0.1124294251203537,4.97539758682251,-0.19453845918178558
-0.0775870531797409,4.964346885681152,-0.19419892132282257
-0.04289275407791138,4.941342830657959,-0.19340020418167114
-0.008561626076698303,4.941519260406494,-0.19347059726715088
0.025653796270489693,4.9102349281311035,-0.19220447540283203
0.060255181044340134,4.902127265930176,-0.19185473024845123
0.09420780092477798,4.8937859535217285,-0.1915058046579361
0.12774044275283813,4.873504161834717,-0.19069898128509521
0.1611201912164688,4.856895446777344,-0.19003449380397797
0.1942063421010971,4.840067386627197,-0.18921586871147156
0.2263323813676834,4.8074188232421875,-0.18778938055038452
0.2594672441482544,4.790116786956787,-0.18697033822536469
0.29271358251571655,4.788208484649658,-0.18676429986953735
0.3241327702999115,4.758806228637695,-0.18549539148807526
0.35647857189178467,4.748676776885986,-0.18486830592155457
0.3867586851119995,4.714989185333252,-0.18331244587898254
0.4185267388820648,4.6966142654418945,-0.18235917389392853
0.45116835832595825,4.693603992462158,-0.18201492726802826
0.48222872614860535,4.674831867218018,-0.18106865882873535
0.5146088004112244,4.671395778656006,-0.1806240677833557
0.5454740524291992,4.656121730804443,-0.17967377603054047
0.5762555003166199,4.6366987228393555,-0.17856772243976593
0.6073926091194153,4.624867916107178,-0.17776905000209808
0.6384762525558472,4.612817287445068,-0.17697075009346008
0.6681075096130371,4.592862606048584,-0.1758161187171936
0.6973225474357605,4.57274866104126,-0.1745930016040802
0.7293215394020081,4.567779064178467,-0.1739499419927597
0.75835120677948,4.547244548797607,-0.17272919416427612
0.7893399000167847,4.53803014755249,-0.17194585502147675
0.812410295009613,4.486386299133301,-0.16951707005500793
0.7104031443595886,3.774855375289917,-0.142154261469841
0.7348155975341797,3.762249708175659,-0.1412094235420227
0.7643654346466064,3.772315740585327,-0.14111003279685974
0.9284985661506653,4.424044609069824,-0.1649421900510788
0.9591219425201416,4.417537212371826,-0.16412711143493652
0.988496720790863,4.407089710235596,-0.1630842238664627
1.023055911064148,4.419266223907471,-0.1628839671611786
1.049523115158081,4.39302396774292,-0.16125920414924622
1.0781711339950562,4.378073692321777,-0.16006718575954437
1.1065481901168823,4.3629679679870605,-0.1588442623615265
1.1402353048324585,4.370462894439697,-0.15835785865783691
1.1639633178710938,4.33999490737915,-0.1565045714378357
1.1881334781646729,4.30918550491333,-0.15463390946388245
1.2223496437072754,4.315875053405762,-0.15412330627441406
1.247767448425293,4.292374134063721,-0.15250280499458313
1.2747353315353394,4.276336193084717,-0.15108749270439148
1.3015426397323608,4.260130405426025,-0.14967621862888336
1.3314385414123535,4.250923156738281,-0.14849291741847992
1.358601689338684,4.234161376953125,-0.14706258475780487
1.3876080513000488,4.22478723526001,-0.14583837985992432
1.4162516593933105,4.215314865112305,-0.14456532895565033
1.439756989479065,4.190878391265869,-0.14278903603553772
1.4674853086471558,4.1771559715271,-0.1413685381412506
1.4943792819976807,4.159358501434326,-0.13979960978031158
1.517217993736267,4.134496212005615,-0.13794346153736115
1.5423933267593384,4.116878509521484,-0.13632537424564362
1.570350170135498,4.10634183883667,-0.13494382798671722
1.5989117622375488,4.095351696014404,-0.1335286945104599
1.6305371522903442,4.091317653656006,-0.1323053389787674
1.65220046043396,4.065812587738037,-0.13034962117671967
1.6795711517333984,4.054630279541016,-0.12886303663253784
1.716565728187561,4.064598083496094,-0.12802430987358093
1.9871740341186523,4.615687847137451,-0.14405764639377594
2.0345458984375,4.637732028961182,-0.1432979851961136
2.065565824508667,4.624057292938232,-0.1414337307214737
2.0936667919158936,4.60288143157959,-0.13932976126670837
2.128880739212036,4.595367431640625,-0.13761115074157715
2.1601271629333496,4.5808210372924805,-0.13565076887607574
2.1962451934814453,4.576671600341797,-0.13393661379814148
2.223453998565674,4.554884433746338,-0.13173095881938934
2.2533888816833496,4.535849094390869,-0.1295536607503891
2.280860185623169,4.5134077072143555,-0.1272650510072708
2.3197200298309326,4.515580654144287,-0.1256270557641983
2.357023000717163,4.51391077041626,-0.12386901676654816
1.745875597000122,3.286668539047241,-0.08886473625898361
1.7478171586990356,3.236943244934082,-0.08621205389499664
1.761650562286377,3.2116739749908447,-0.08420834690332413
1.7431350946426392,3.128244638442993,-0.08070505410432816
1.7686681747436523,3.1229026317596436,-0.07919426262378693
1.834730863571167,3.1886608600616455,-0.07939817756414413
1.3217759132385254,2.26273775100708,-0.05530363321304321
0.958473265171051,1.6155861616134644,-0.038716040551662445
0.9656311869621277,1.6022276878356934,-0.03760604187846184
0.9760625958442688,1.595916748046875,-0.03664976730942726
0.9867044687271118,1.5893815755844116,-0.035670243203639984
0.9977415800094604,1.5824989080429077,-0.03465002775192261
1.0124297142028809,1.5824458599090576,-0.03376598283648491
1.0226562023162842,1.5758779048919678,-0.032736487686634064
1.0270224809646606,1.5590462684631348,-0.03144596889615059
1.044064998626709,1.5618211030960083,-0.03052295185625553
1.0496447086334229,1.5486700534820557,-0.029302828013896942
1.0690945386886597,1.5543293952941895,-0.028364824131131172
2.245753765106201,3.219496011734009,-0.05652417615056038
2.2752275466918945,3.2179312705993652,-0.054234616458415985
2.598432779312134,3.620757818222046,-0.058185651898384094
2.630282402038574,3.617072343826294,-0.05529618635773659
2.6447973251342773,3.587127923965454,-0.05184166878461838
2.211390256881714,3.124039888381958,0.06833574175834656
2.1841752529144287,3.133547067642212,0.0710572674870491
1.0717154741287231,1.561836838722229,0.03660433366894722
1.055153250694275,1.5636265277862549,0.03783448040485382
1.0442204475402832,1.570918321609497,0.03907173126935959
1.021752119064331,1.5623124837875366,0.03988766670227051
1.0247830152511597,1.5928999185562134,0.041692234575748444
1.0011330842971802,1.5801695585250854,0.042293477803468704
0.9891884326934814,1.5876436233520508,0.04342535138130188
0.9813107848167419,1.6016610860824585,0.04471975192427635
0.9660752415657043,1.6017534732818604,0.045563265681266785
0.9584184288978577,1.6154052019119263,0.046787239611148834
1.3614243268966675,2.334239959716797,0.06879616528749466
1.8300578594207764,3.1909003257751465,0.09561976045370102
1.7808804512023926,3.1559250354766846,0.09605088084936142
1.7498202323913574,3.155348300933838,0.09743916988372803
1.7730704545974731,3.2539074420928955,0.10192486643791199
1.7466779947280884,3.2592382431030273,0.10344225913286209
2.391030788421631,4.539540767669678,0.14596058428287506
2.3468570709228516,4.536097049713135,0.14764158427715302
2.3171114921569824,4.5600481033325195,0.15021149814128876
2.278254747390747,4.562060832977295,0.1519797146320343
2.249310255050659,4.585026264190674,0.15442533791065216
2.215003728866577,4.601624011993408,0.1566222906112671
2.174497604370117,4.603562831878662,0.15829582512378693
2.1456453800201416,4.625619411468506,0.16058562695980072
2.110074281692505,4.633304595947266,0.16237300634384155
2.0762641429901123,4.648484706878662,0.1643344610929489
2.0517783164978027,4.684858798980713,0.16705891489982605
1.9856538772583008,4.624102592468262,0.16629649698734283
1.7261006832122803,4.098053932189941,0.1485816240310669
1.6907968521118164,4.095798969268799,0.14963732659816742
1.666922688484192,4.122365474700928,0.15172003209590912
1.639979600906372,4.141499996185303,0.15353916585445404
1.6106059551239014,4.152955055236816,0.15506179630756378
1.581612467765808,4.164027214050293,0.15655268728733063
1.5514941215515137,4.175290107727051,0.15794909000396729
1.5213313102722168,4.186321258544922,0.15934382379055023
1.4888696670532227,4.189639091491699,0.1604386866092682
1.4643033742904663,4.21476936340332,0.16237281262874603
1.4372060298919678,4.232280731201172,0.1639830321073532
1.4091953039169312,4.249866962432861,0.16553159058094025
1.3786393404006958,4.259828090667725,0.1667921394109726
1.3555184602737427,4.2917609214782715,0.1689131110906601
1.325080394744873,4.301206588745117,0.1701631397008896
1.2970612049102783,4.317843437194824,0.17165318131446838
1.2683271169662476,4.3344621658325195,0.17306117713451385
1.2351044416427612,4.335884094238281,0.17387227714061737
1.2044050693511963,4.344467639923096,0.17496846616268158
1.1792411804199219,4.37153959274292,0.17680850625038147
1.150086522102356,4.387326717376709,0.17819426953792572
1.1207398176193237,4.4029316902160645,0.17947010695934296
1.089316487312317,4.410771369934082,0.1804405003786087
1.0599019527435303,4.425920009613037,0.1817149817943573
1.0326281785964966,4.448352813720703,0.18328964710235596
1.002801537513733,4.463132381439209,0.18457363545894623
0.9711440205574036,4.470093250274658,0.18540190160274506
0.934559166431427,4.453925609588623,0.1852721869945526
0.768197238445282,3.794790267944336,0.1583205610513687
0.7417626976966858,3.8000173568725586,0.15900377929210663
0.7271114587783813,3.870349407196045,0.1624348908662796
0.8233598470687866,4.558996200561523,0.1918220967054367
0.7937965989112854,4.580052852630615,0.19314314424991608
0.7626538872718811,4.593225955963135,0.19414418935775757
0.7316744923591614,4.606137752532959,0.1951410323381424
0.7014106512069702,4.626605033874512,0.1964743435382843
0.6702572107315063,4.639079570770264,0.19745203852653503
0.6375414133071899,4.643666744232178,0.19797329604625702
0.6073576807975769,4.667367458343506,0.1993202418088913
0.5753970742225647,4.679256916046143,0.20017509162425995
0.5428568720817566,4.683121681213379,0.20069214701652527
0.5122292637825012,4.7101030349731445,0.20221804082393646
0.48008689284324646,4.721314907073975,0.20298568904399872
0.4483782649040222,4.740096092224121,0.2040308266878128
0.41647613048553467,4.758659839630127,0.20507793128490448
0.38411635160446167,4.773110389709473,0.20595857501029968
0.35143691301345825,4.791264057159424,0.2070140242576599
0.3191337585449219,4.809152603149414,0.20806503295898438
0.2859490215778351,4.819049835205078,0.20861037075519562
0.2534075975418091,4.844309329986572,0.20983044803142548
0.2202211320400238,4.86154842376709,0.21071428060531616
0.1863720864057541,4.878576755523682,0.21160215139389038
0.15304340422153473,4.899249076843262,0.21265678107738495
0.11936039477586746,4.9157938957214355,0.21348562836647034
0.08521462976932526,4.924309253692627,0.21386699378490448
0.051197800785303116,4.956000328063965,0.21526551246643066
0.016074493527412415,4.964041709899902,0.21564806997776031
-0.018421612679958344,4.971837043762207,0.21602986752986908
-0.0532824844121933,4.998903751373291,0.21725986897945404
-0.08801373839378357,4.998415946960449,0.21719378232955933
-0.12311144173145294,5.013294696807861,0.2177523821592331
-0.15837030112743378,5.027927875518799,0.2183104157447815
-0.19423560798168182,5.034486293792725,0.21852676570415497
-0.23036342859268188,5.056407928466797,0.21942131221294403
-0.26655104756355286,5.074174404144287,0.2201458215713501
-0.30404025316238403,5.1111741065979,0.22154274582862854
-0.2876763939857483,4.330154895782471,0.18752160668373108
-0.31390827894210815,4.26964807510376,0.1847415566444397
-0.34354299306869507,4.267376899719238,0.18449483811855316
-0.37456414103507996,4.280447006225586,0.18491961061954498
-0.401297003030777,4.246677398681641,0.18328295648097992
-0.42545339465141296,4.193349361419678,0.18072184920310974
-0.446851909160614,4.116561412811279,0.17716166377067566
-0.4716878831386566,4.082377910614014,0.17545369267463684
-0.494331955909729,4.032535076141357,0.17308421432971954
-0.5208224654197693,4.017408847808838,0.1722164750099182
-0.5400371551513672,3.951875925064087,0.169109508395195
-0.5615116953849792,3.90553617477417,0.1667967140674591
-0.582500159740448,3.8630168437957764,0.16466720402240753
-0.6037246584892273,3.82422137260437,0.16270796954631805
-0.6251855492591858,3.7891504764556885,0.16091899573802948
-0.6448172330856323,3.746283769607544,0.1587974578142166
-0.6669952869415283,3.722599983215332,0.15739870071411133
-0.6871920228004456,3.6871936321258545,0.15550999343395233
-0.7020628452301025,3.6287765502929688,0.1526733636856079
-0.7219155430793762,3.5970420837402344,0.15096928179264069
-0.7421215176582336,3.5690362453460693,0.14943453669548035
-0.7584373950958252,3.525718927383423,0.14719580113887787
-0.7752891182899475,3.4861040115356445,0.1450728476047516
-0.7938287854194641,3.4579336643218994,0.14344879984855652
-0.8104773759841919,3.4220170974731445,0.1415122002363205
-0.8296042084693909,3.3973727226257324,0.1400519609451294
-0.8473995327949524,3.368863344192505,0.13842280209064484
-0.8707007169723511,3.362948417663574,0.13764198124408722
-0.8784715533256531,3.300407648086548,0.13456867635250092
-0.8989380598068237,3.286830186843872,0.13350528478622437
-0.9175071716308594,3.2655117511749268,0.13212914764881134
-0.9293031096458435,3.221599578857422,0.1298540234565735
-0.9492826461791992,3.20766282081604,0.12870138883590698
-0.9607289433479309,3.1675937175750732,0.12651483714580536
-0.977496325969696,3.146146774291992,0.12508593499660492
-0.9874697923660278,3.1021244525909424,0.12275993078947067
-1.0138444900512695,3.110065221786499,0.12249964475631714
-1.0242334604263306,3.0696816444396973,0.12027321755886078
-1.0449116230010986,3.0627403259277344,0.11935710161924362
-1.0578569173812866,3.0335347652435303,0.11758258938789368
-1.0657309293746948,2.9894022941589355,0.11523127555847168
-1.0864852666854858,2.9819576740264893,0.11430520564317703
-1.0972105264663696,2.9489259719848633,0.11235518753528595
-1.1118181943893433,2.9267897605895996,0.11079765856266022
-1.1173460483551025,2.882891893386841,0.10844671726226807
-1.1258227825164795,2.8460702896118164,0.10636066645383835
-1.135374665260315,2.8128621578216553,0.10442566871643066
-1.1513526439666748,2.797957181930542,0.10312143713235855
-1.149228572845459,2.7396926879882812,0.10021212697029114
-1.1630281209945679,2.7211685180664062,0.09878700226545334
-1.146073818206787,2.630725383758545,0.0947561115026474
-1.1611039638519287,2.6156225204467773,0.09346229583024979
-1.1785093545913696,2.60786509513855,0.09238099306821823
-1.2076059579849243,2.6246731281280518,0.09215141832828522
-1.2287851572036743,2.6234889030456543,0.09128060936927795
-1.2671728134155273,2.6572072505950928,0.09159576892852783
-1.257828950881958,2.5924205780029297,0.08848833292722702
-1.2853527069091797,2.605074167251587,0.08801452070474625
-1.299471139907837,2.589366912841797,0.08656161278486252
-1.2979638576507568,2.54203200340271,0.08404512703418732
-1.2937767505645752,2.4915270805358887,0.08144502341747284
-1.3028993606567383,2.469163179397583,0.07975708693265915
-1.3191802501678467,2.460543155670166,0.07852092385292053
-1.3305453062057495,2.441124200820923,0.07690364867448807
-1.3437861204147339,2.4249768257141113,0.07536608725786209
-1.3480932712554932,2.3957786560058594,0.07341209799051285
-1.3598408699035645,2.3801801204681396,0.07188885658979416
-1.3920187950134277,2.397739887237549,0.07129482179880142
-1.3885180950164795,2.354586601257324,0.06888595968484879
-1.4080934524536133,2.3520822525024414,0.06763673573732376
-1.4154853820800781,2.329423189163208,0.06581749022006989
-1.4275286197662354,2.312931537628174,0.06412528455257416
-1.4303085803985596,2.283653497695923,0.06207643076777458
-1.4449771642684937,2.2744407653808594,0.060577355325222015
-1.4607124328613281,2.2644100189208984,0.05896243825554848
-1.4653584957122803,2.238144636154175,0.05692031607031822
-1.4796488285064697,2.2287635803222656,0.055297061800956726
-1.4595811367034912,2.167053699493408,0.0523519404232502
-1.496444582939148,2.1892788410186768,0.051377955824136734
-1.4882757663726807,2.1475307941436768,0.04884941875934601
-1.486815094947815,2.1152515411376953,0.046527229249477386
-1.5168321132659912,2.1275393962860107,0.0451168529689312
-1.5003342628479004,2.0769221782684326,0.04238802194595337
-1.5098344087600708,2.0603907108306885,0.040240559726953506
-1.518215298652649,2.0445404052734375,0.0380677655339241
-1.485670566558838,2.0970048904418945,-0.04312850907444954
-1.4844293594360352,2.126481294631958,-0.04567400738596916
-1.488053798675537,2.166677713394165,-0.048489246517419815
-1.4850926399230957,2.197002649307251,-0.05106262490153313
-1.473520278930664,2.2141213417053223,-0.05324288830161095
-1.460950255393982,2.231727361679077,-0.055444538593292236
-1.4536337852478027,2.2550601959228516,-0.05768122151494026
-1.443487524986267,2.2754063606262207,-0.059829339385032654
-1.4260812997817993,2.286304473876953,-0.061761535704135895
-1.4263540506362915,2.322827100753784,-0.06427450478076935
-1.41354238986969,2.3397252559661865,-0.06625358760356903
-1.4040387868881226,2.3635759353637695,-0.06843715906143188
-1.3715015649795532,2.3464386463165283,-0.06935453414916992
-1.381844162940979,2.4035825729370117,-0.07247276604175568
-1.3525530099868774,2.3932600021362305,-0.0735282152891159
-1.3427999019622803,2.416579484939575,-0.07559046894311905
-1.3258861303329468,2.4258506298065186,-0.07717921584844589
-1.3211431503295898,2.4594571590423584,-0.07953151315450668
-1.302708387374878,2.4692184925079346,-0.08114399015903473
-1.292457938194275,2.4921560287475586,-0.08312612771987915
-1.2785261869430542,2.508049488067627,-0.08486822247505188
-1.2741893529891968,2.54518461227417,-0.08731254935264587
-1.2848793268203735,2.6139214038848877,-0.09088631719350815
-1.2730685472488403,2.6369943618774414,-0.09287982434034348
-1.2310656309127808,2.5964457988739014,-0.09258490055799484
-1.2154649496078491,2.612349271774292,-0.09424850344657898
-1.202959418296814,2.6352570056915283,-0.09617755562067032
-1.1909531354904175,2.657776117324829,-0.09806507080793381
-1.1487181186676025,2.6124045848846436,-0.0974251851439476
-1.1650080680847168,2.7031922340393066,-0.10185151547193527
-1.1682049036026,2.7654428482055664,-0.10524310916662216
-1.154848337173462,2.7879059314727783,-0.10711457580327988
-1.141318917274475,2.8102822303771973,-0.1089940071105957
-1.1268894672393799,2.8328614234924316,-0.11082959920167923
-1.1274060010910034,2.8955326080322266,-0.11427833139896393
-1.1096991300582886,2.9106709957122803,-0.11584534496068954
-1.0975444316864014,2.9402382373809814,-0.11799027025699615
-1.0886681079864502,2.9809153079986572,-0.12055455893278122
-1.0724704265594482,3.0033159255981445,-0.12237004190683365
-1.0608603954315186,3.040478467941284,-0.12481903284788132
-1.0459920167922974,3.066204309463501,-0.1267772614955902
-1.0295084714889526,3.0881905555725098,-0.12858553230762482
-1.0050026178359985,3.0879967212677,-0.12940512597560883
-0.9947544932365417,3.1322429180145264,-0.1321006417274475
-0.9792022705078125,3.1616151332855225,-0.13419552147388458
-0.9628306031227112,3.186983346939087,-0.13611264526844025
-0.942596435546875,3.2011187076568604,-0.1375105082988739
-0.9241196513175964,3.222700834274292,-0.13918885588645935
-0.9116779565811157,3.266735792160034,-0.14185628294944763
-0.8959759473800659,3.299349784851074,-0.14403705298900604
-0.8765390515327454,3.3206686973571777,-0.14575256407260895
-0.8607900738716125,3.356985092163086,-0.14804939925670624
-0.8425801992416382,3.385694980621338,-0.1500052511692047
-0.8221744298934937,3.406726360321045,-0.15163621306419373
-0.8065140247344971,3.446507453918457,-0.15410321950912476
-0.7838581204414368,3.459691047668457,-0.15540988743305206
-0.7678231596946716,3.503208875656128,-0.15796644985675812
-0.7487315535545349,3.535228729248047,-0.16001610457897186
-0.7285058498382568,3.5633153915405273,-0.16190274059772491
-0.5035934448242188,2.553682804107666,-0.116469606757164
-0.4898512065410614,2.580162525177002,-0.11813405901193619
-0.47162219882011414,2.5835330486297607,-0.11865092813968658
-0.4533698260784149,2.5867745876312256,-0.11916781216859818
-0.43255457282066345,2.57448673248291,-0.118972048163414
-0.41587886214256287,2.5851144790649414,-0.11983533948659897
-0.3940373361110687,2.5648248195648193,-0.11927422136068344
-0.38620129227638245,2.637005090713501,-0.12292494624853134
-0.3687340021133423,2.6473641395568848,-0.12370891869068146
-0.5254676342010498,3.9767353534698486,-0.1862892210483551
-0.5035621523857117,4.026731967926025,-0.18910184502601624
-0.479613721370697,4.064988613128662,-0.19138188660144806
-0.45572367310523987,4.114826202392578,-0.19406713545322418
-0.43125054240226746,4.160594463348389,-0.19655963778495789
-0.40765708684921265,4.22175407409668,-0.19979724287986755
-0.3803623914718628,4.247783660888672,-0.20138561725616455
-0.3489115834236145,4.226969242095947,-0.20076237618923187
-0.3188655376434326,4.229324817657471,-0.20111609995365143
-0.29246440529823303,4.2781500816345215,-0.20366017520427704
-0.3098727762699127,5.051187515258789,-0.24073408544063568
-0.2734856903553009,5.029824733734131,-0.23999843001365662
-0.23634694516658783,4.9848151206970215,-0.23814158141613007
-0.20071382820606232,4.978555679321289,-0.2380150705575943
-0.16577214002609253,4.972024917602539,-0.23782257735729218
-0.13109196722507477,4.97305154800415,-0.23800309002399445
-0.09641969949007034,4.96993350982666,-0.23799632489681244
-0.06165153905749321,4.954868793487549,-0.23742839694023132
-0.026514118537306786,4.939570903778076,-0.23675209283828735
0.007828607223927975,4.924030303955078,-0.23597218096256256
0.04195379838347435,4.9082512855529785,-0.23519249260425568
0.0757388323545456,4.884434700012207,-0.23403912782669067
0.1095014363527298,4.8720879554748535,-0.23344674706459045
0.14319151639938354,4.8634114265441895,-0.23297660052776337
0.17677102982997894,4.838891506195068,-0.23162515461444855
0.20974165201187134,4.821963310241699,-0.23065291345119476
0.24204882979393005,4.797020435333252,-0.22930988669395447
0.27446702122688293,4.7796525955200195,-0.2283412367105484
0.3063391149044037,4.758178234100342,-0.22716009616851807
0.3392332196235657,4.748142719268799,-0.22637774050235748
0.3708382844924927,4.730142593383789,-0.2252330631017685
0.402916818857193,4.719705581665039,-0.22446033358573914
0.4343198537826538,4.70126485824585,-0.2233177125453949
0.4647138714790344,4.674849987030029,-0.2218092679977417
0.49714452028274536,4.667618274688721,-0.22101563215255737
0.5285143256187439,4.656344890594482,-0.22004827857017517
