X,Y,Z
2.344632863998413,3.7856850624084473,0.040102824568748474
2.316239833831787,3.803112268447876,0.04111678525805473
2.2881104946136475,3.820091485977173,0.042116809636354446
2.2574901580810547,3.8291895389556885,0.042984724044799805
2.2292075157165527,3.8457131385803223,0.04391085356473923
2.2043886184692383,3.868976354598999,0.04491167515516281
2.173593521118164,3.877396821975708,0.04569484293460846
2.145674228668213,3.8929061889648438,0.0465712808072567
2.1206209659576416,3.9154860973358154,0.04751605913043022
2.103123903274536,3.951470136642456,0.048620693385601044
2.0755529403686523,3.9660117626190186,0.04943973571062088
2.0507564544677734,3.987666368484497,0.050338264554739
2.0244038105010986,4.009851932525635,0.05124151334166527
2.0076191425323486,4.048813343048096,0.05234375223517418
1.9828294515609741,4.069693088531494,0.053198881447315216
1.9674164056777954,4.1118245124816895,0.05432537943124771
1.947353720664978,4.14725923538208,0.05535382032394409
1.9451125860214233,4.221524715423584,0.0569097101688385
1.9328614473342896,4.274336814880371,0.05818120762705803
1.9123717546463013,4.30918550491333,0.05920346453785896
1.8903675079345703,4.3444437980651855,0.06021469086408615
1.867951512336731,4.379609107971191,0.06123300641775131
1.8312064409255981,4.378159046173096,0.06172434240579605
1.8105593919754028,4.416292667388916,0.06278330087661743
1.7817864418029785,4.436389446258545,0.06355822086334229
1.7525346279144287,4.456411838531494,0.0643269345164299
1.7234549522399902,4.476099967956543,0.06509023159742355
1.6978274583816528,4.502575397491455,0.06594449281692505
1.3318486213684082,3.609405040740967,0.05324120074510574
1.3005776405334473,3.6041781902313232,0.05349361523985863
1.2746171951293945,3.613433599472046,0.053962789475917816
1.5814096927642822,4.586071968078613,0.06890261918306351
1.5519306659698486,4.604366779327393,0.0695895254611969
1.5189311504364014,4.615349769592285,0.07016632705926895
1.4893399477005005,4.6372833251953125,0.07088349014520645
1.4630557298660278,4.670198440551758,0.07177447527647018
1.4325106143951416,4.68781852722168,0.0724283829331398
1.4021201133728027,4.705141067504883,0.07307861745357513
1.3734228610992432,4.729859828948975,0.07382743060588837
1.3485658168792725,4.773538112640381,0.07484788447618484
1.3186205625534058,4.798093795776367,0.0755695253610611
1.2809317111968994,4.792114734649658,0.075808085501194
1.2515522241592407,4.816008567810059,0.07651987671852112
1.225476861000061,4.8549346923828125,0.07746393233537674
1.1922638416290283,4.8712334632873535,0.07802151888608932
1.1630247831344604,4.902378082275391,0.0788181945681572
1.1329361200332642,4.929451942443848,0.07955238968133926
1.103691816329956,4.960085868835449,0.0803477093577385
1.0740330219268799,4.990559101104736,0.08114233613014221
1.036385416984558,4.9905290603637695,0.08138275146484375
1.007118821144104,5.028382301330566,0.08224180340766907
0.9723771214485168,5.039187908172607,0.08266296237707138
0.9530335664749146,5.130297660827637,0.08440616726875305
0.9262415170669556,5.186782360076904,0.0855906680226326
0.8864848017692566,5.17786979675293,0.08566807210445404
1.8053961992263794,11.011642456054688,0.1826396882534027
1.7039772272109985,10.873624801635742,0.18080496788024902
1.6061975955963135,10.73844051361084,0.17900770902633667
1.5210553407669067,10.675868034362793,0.17841899394989014
1.4246762990951538,10.535457611083984,0.17647844552993774
1.330636739730835,10.390253067016602,0.1743444800376892
1.2405881881713867,10.259765625,0.1724574863910675
1.1523915529251099,10.124608039855957,0.17049036920070648
1.07648503780365,10.081891059875488,0.17008066177368164
0.9995825886726379,10.023075103759766,0.16940437257289886
0.3968941271305084,4.289660453796387,0.07259839028120041
0.3644424378871918,4.265097618103027,0.0722745954990387
0.3314397633075714,4.228611469268799,0.07175085693597794
0.3042580485343933,4.261977195739746,0.07241477072238922
0.2761262059211731,4.287373065948486,0.07294803857803345
0.24620962142944336,4.297017574310303,0.07319735735654831
0.21642452478408813,4.302529335021973,0.07333814352750778
0.1812947392463684,4.1868743896484375,0.07141587883234024
0.1491069197654724,4.106070518493652,0.07008910179138184
0.12157124280929565,4.142143726348877,0.07076004147529602
0.046613167971372604,2.0929253101348877,0.03578346222639084
0.06352633237838745,4.151250839233398,0.0709884986281395
0.03430137783288956,4.116442680358887,0.07039597630500793
0.005516762845218182,4.046279430389404,0.06920213997364044
-0.01138894073665142,2.0387322902679443,0.03487245738506317
-0.048923052847385406,3.8663125038146973,0.06614552438259125
-0.07547692209482193,3.85025954246521,0.06587720662355423
-0.10301919281482697,3.880878210067749,0.06637108325958252
-0.12850609421730042,3.837131977081299,0.06559641659259796
-0.15181289613246918,3.7541966438293457,0.06415574997663498
-0.17719098925590515,3.7374448776245117,0.06384972482919693
-0.194913849234581,3.576202630996704,0.06107890233397484
-0.21708843111991882,3.531883716583252,0.06028013676404953
-0.2436772733926773,3.561469554901123,0.06072564795613289
-0.2688901126384735,3.5674896240234375,0.060771696269512177
-0.2917371392250061,3.542182683944702,0.0602869912981987
-0.3167777955532074,3.540032386779785,0.060198791325092316
-0.33760228753089905,3.4988725185394287,0.059450868517160416
-0.3633353114128113,3.512002944946289,0.059581201523542404
-0.3858022391796112,3.4938910007476807,0.05918445438146591
-0.4089812934398651,3.4833905696868896,0.05891993269324303
-0.4355323016643524,3.495917320251465,0.05904543772339821
-0.46085625886917114,3.5005505084991455,0.0590413436293602
-0.4796984791755676,3.4585938453674316,0.05823118984699249
-0.496153861284256,3.4049723148345947,0.05720384791493416
-0.5106833577156067,3.3435730934143066,0.05605262517929077
-0.5268058776855469,3.2936182022094727,0.05509674921631813
-0.5438420176506042,3.2552170753479004,0.05434146523475647
-0.5610721707344055,3.220582962036133,0.053653765469789505
-0.5802868604660034,3.201303482055664,0.05318961292505264
-0.5942274928092957,3.1550405025482178,0.05228126794099808
-0.6143049597740173,3.1432371139526367,0.05194859579205513
-0.6349826455116272,3.1311585903167725,0.051609914749860764
-0.6904662251472473,3.287208080291748,0.054040782153606415
-0.718058705329895,3.3052802085876465,0.05417216569185257
-0.7320647835731506,3.2621936798095703,0.053284164518117905
-0.750803530216217,3.241901397705078,0.05277393385767937
-0.7654119729995728,3.2023565769195557,0.05195033177733421
-0.6885830760002136,2.794980049133301,0.04518838971853256
-0.7040541768074036,2.7750115394592285,0.04470718652009964
-0.7209365963935852,2.7626051902770996,0.044325146824121475
-0.7346222996711731,2.7387874126434326,0.043764032423496246
-0.7557990550994873,2.7411272525787354,0.04361874610185623
-0.7748412489891052,2.735809803009033,0.04335393011569977
-0.8145393133163452,2.801626682281494,0.04421403631567955
-0.938381016254425,3.1478958129882812,0.04944133758544922
-0.9573971629142761,3.134002923965454,0.04898802936077118
-0.9966280460357666,3.183199644088745,0.04951370507478714
-1.068852424621582,3.3324005603790283,0.05158049613237381
-1.1041688919067383,3.3620071411132812,0.051784224808216095
-1.1393389701843262,3.3914873600006104,0.05193968862295151
-1.171104907989502,3.409578323364258,0.051911789923906326
-1.2019898891448975,3.4236669540405273,0.051819510757923126
-1.2262262105941772,3.4150683879852295,0.051370877772569656
-1.2580382823944092,3.4284584522247314,0.05125927925109863
-1.2729295492172241,3.3979501724243164,0.050461504608392715
-1.3306769132614136,3.4805076122283936,0.051335062831640244
-1.3543092012405396,3.4713871479034424,0.050846513360738754
-1.375930905342102,3.454474449157715,0.05023287236690521
-2.2570242881774902,5.554507255554199,0.08018511533737183
-2.3165383338928223,5.5934319496154785,0.08009617030620575
-2.3599679470062256,5.592220783233643,0.07942810654640198
-2.3781375885009766,5.529299736022949,0.07787559181451797
-2.4172515869140625,5.512324810028076,0.07695663720369339
-2.551974058151245,5.713265419006348,0.0790436640381813
-2.57869291305542,5.6712470054626465,0.07771925628185272
-3.0462841987609863,6.582653045654297,0.08934453874826431
-3.0735886096954346,6.522499084472656,0.08763564378023148
-3.1196236610412598,6.5006232261657715,0.08643381297588348
-2.6109282970428467,5.349560737609863,0.07033985108137131
-2.646277904510498,5.332176208496094,0.06932263821363449
-2.3235716819763184,4.602654933929443,0.059133194386959076
-2.380464792251587,4.635061740875244,0.058826033025979996
-2.4042210578918457,4.605177402496338,0.05770449712872505
-2.4350428581237793,4.5889668464660645,0.056738417595624924
-2.4549448490142822,4.551753044128418,0.055510856211185455
-2.4715378284454346,4.507171154022217,0.05418321117758751
-1.1937830448150635,2.142909288406372,0.02537594921886921
-2.1694047451019287,3.8349344730377197,0.0447096973657608
-2.182180643081665,3.7961838245391846,0.04352137818932533
-2.1967391967773438,3.760671377182007,0.042373932898044586
-2.2294578552246094,3.759554624557495,0.041591376066207886
-1.2488116025924683,2.074955463409424,0.02252456732094288
-1.2446961402893066,2.036341905593872,0.0216576736420393
-1.2855905294418335,2.070796489715576,0.021550185978412628
-2.624826192855835,4.16795015335083,0.042409032583236694
-2.639753818511963,4.130736827850342,0.04103856906294823
-2.6683754920959473,4.112318515777588,0.03981325030326843
-2.2010622024536133,3.344487428665161,0.031514428555965424
-2.7435426712036133,4.109629154205322,0.037618834525346756
-2.7545292377471924,4.064591407775879,0.036042600870132446
-2.76315975189209,4.020881175994873,0.03448401391506195
-2.815742015838623,4.04150915145874,0.03345257043838501
-2.5709242820739746,3.635908842086792,0.02890847437083721
-2.566988229751587,3.5811827182769775,0.027247516438364983
-2.6432600021362305,3.6369409561157227,0.02637290768325329
-2.709209442138672,3.675814151763916,0.025253307074308395
-2.775858163833618,3.8831565380096436,-0.037566110491752625
-2.454010486602783,3.488860607147217,-0.03523392602801323
-2.805608034133911,4.048466682434082,-0.04244513809680939
-2.752443552017212,4.03759241104126,-0.043881792575120926
-2.7536768913269043,4.10275936126709,-0.046058040112257004
-2.185906410217285,3.307617664337158,-0.038258813321590424
-2.1561107635498047,3.31778883934021,-0.039512213319540024
-2.1409943103790283,3.3461124897003174,-0.040894243866205215
-2.647667169570923,4.204231262207031,-0.05265972763299942
-2.6283254623413086,4.243922710418701,-0.054429225623607635
-1.2685725688934326,2.08119797706604,-0.027277015149593353
-2.0088694095611572,3.349809408187866,-0.04483252391219139
-2.0374393463134766,3.4555037021636963,-0.04716089740395546
-2.3240365982055664,4.007330894470215,-0.055712830275297165
-2.3076817989349365,4.043760299682617,-0.057208672165870667
-1.1925230026245117,2.125643253326416,-0.030577678233385086
-2.2681448459625244,4.115161418914795,-0.060184307396411896
-2.250654697418213,4.151413440704346,-0.061630118638277054
-2.214097499847412,4.1533122062683105,-0.06256510317325592
-2.1908795833587646,4.183234214782715,-0.0639125183224678
-2.171234130859375,4.21981954574585,-0.06536325812339783
-2.1501433849334717,4.252482891082764,-0.06674342602491379
-2.1303701400756836,4.2885894775390625,-0.0681629627943039
-2.105888843536377,4.318035125732422,-0.06946811825037003
-2.081467390060425,4.347170829772949,-0.07076741009950638
-2.0577778816223145,4.375688552856445,-0.07203805446624756
-2.0366148948669434,4.411386966705322,-0.07342149317264557
-2.0119848251342773,4.444103717803955,-0.07474958151578903
-1.9893426895141602,4.479921340942383,-0.07612230628728867
-1.967443585395813,4.515139579772949,-0.07746860384941101
-1.9388508796691895,4.535970687866211,-0.07857103645801544
-1.9120408296585083,4.564263820648193,-0.07977183908224106
-1.59669828414917,3.8916518688201904,-0.0686333030462265
-1.5606921911239624,3.8809704780578613,-0.06902952492237091
-1.539446473121643,3.9062302112579346,-0.07006268948316574
-1.5172016620635986,3.9316606521606445,-0.07107344269752502
-1.4958335161209106,3.9607083797454834,-0.07214496284723282
-1.4698396921157837,3.9787425994873047,-0.07302747666835785
-1.450074315071106,4.010903358459473,-0.07415584474802017
-1.427175521850586,4.035668849945068,-0.07514671981334686
-1.4007482528686523,4.053170204162598,-0.07596632093191147
-1.3741432428359985,4.070499897003174,-0.07678840309381485
-1.347463846206665,4.087621688842773,-0.07761058211326599
-1.316575288772583,4.089457035064697,-0.07813356071710587
-0.9634637236595154,3.066509962081909,-0.058937691152095795
-0.962113082408905,3.140526294708252,-0.06069907918572426
-0.9284682869911194,3.1098902225494385,-0.06044406071305275
-0.7976343631744385,2.741279125213623,-0.05357113853096962
-0.7750148177146912,2.7355759143829346,-0.053756244480609894
-0.755682110786438,2.7409720420837402,-0.054130151867866516
-0.7361598610877991,2.7462728023529053,-0.05449077486991882
-0.7126631736755371,2.736316204071045,-0.05455001816153526
-0.7060614824295044,2.790421962738037,-0.05588650703430176
-1.370710849761963,5.583102226257324,-0.11234693229198456
-1.3556784391403198,5.695209503173828,-0.11507245898246765
-1.3538565635681152,5.872117042541504,-0.11910516768693924
-1.328331470489502,5.953982353210449,-0.12123487889766693
-1.2696179151535034,5.882887840270996,-0.12024594843387604
-1.2248311042785645,5.876405239105225,-0.12058382481336594
-1.1704590320587158,5.819756984710693,-0.1198272854089737
-0.6189067363739014,3.1938233375549316,-0.06596710532903671
-0.5978012084960938,3.2057807445526123,-0.06642443686723709
-0.5809550285339355,3.240616798400879,-0.06735914200544357
-0.5652815699577332,3.286980152130127,-0.06854500621557236
-0.5409759879112244,3.2831456661224365,-0.06866009533405304
-0.5239210724830627,3.3254470825195312,-0.06971617043018341
-0.50684654712677,3.371535301208496,-0.07085955142974854
-0.4833090007305145,3.3749847412109375,-0.07111063599586487
-0.4604904353618622,3.3860511779785156,-0.07152851670980453
-0.4448447525501251,3.4511499404907227,-0.07307745516300201
-0.42391401529312134,3.481320381164551,-0.0738498866558075
-0.40035727620124817,3.4919657707214355,-0.07421312481164932
-0.38178178668022156,3.549036979675293,-0.07556859403848648
-0.35826370120048523,3.5632593631744385,-0.07601726800203323
-0.33522459864616394,3.5890309810638428,-0.07672011107206345
-0.31478798389434814,3.6457598209381104,-0.07803022116422653
-0.2901700735092163,3.6595513820648193,-0.07842449843883514
-0.25921666622161865,3.587479829788208,-0.07698066532611847
-0.22941741347312927,3.5151493549346924,-0.07553026080131531
-0.20588813722133636,3.540074586868286,-0.07617370039224625
-0.19339942932128906,3.7793357372283936,-0.08139616250991821
-0.16768479347229004,3.796199083328247,-0.08181221783161163
-0.1433398574590683,3.8558156490325928,-0.08315475285053253
-0.117889903485775,3.903561592102051,-0.08424678444862366
-0.09079550206661224,3.927722454071045,-0.08483615517616272
-0.06411483138799667,3.9712114334106445,-0.08583027869462967
-0.036662910133600235,3.99499249458313,-0.0863562598824501
-0.008917289786040783,4.03420352935791,-0.0872201919555664
0.01928001083433628,4.053694248199463,-0.0876622423529625
0.024985114112496376,2.1126394271850586,-0.04569960758090019
0.07727224379777908,4.115499019622803,-0.08905411511659622
0.10712660849094391,4.1656174659729,-0.09009841084480286
0.13754701614379883,4.211614608764648,-0.09104733914136887
0.21080182492733002,5.322710990905762,-0.11501463502645493
0.24690711498260498,5.30161190032959,-0.11451175808906555
0.22644692659378052,4.219508647918701,-0.0911054015159607
0.25714051723480225,4.241226673126221,-0.09150970727205276
0.2865018844604492,4.2393479347229,-0.0913737341761589
0.3146490454673767,4.221689701080322,-0.09090250730514526
0.34522175788879395,4.234976291656494,-0.09110160917043686
0.3771989941596985,4.255775451660156,-0.09146451950073242
0.49151796102523804,5.139432907104492,-0.1103464812040329
0.5201577544212341,5.069884300231934,-0.10866350680589676
0.49809542298316956,4.54597806930542,-0.09726883471012115
0.5335740447044373,4.577343940734863,-0.09777707606554031
0.5750317573547363,4.647103309631348,-0.09910271316766739
0.6189598441123962,4.732065200805664,-0.10075456649065018
0.6915581822395325,5.017853260040283,-0.1066126748919487
0.7238279581069946,4.997523307800293,-0.10594406723976135
0.7552643418312073,4.97312593460083,-0.10519587993621826
0.7879665493965149,4.952239513397217,-0.10452228039503098
0.818541944026947,4.923532485961914,-0.10369440168142319
0.8484835028648376,4.894688606262207,-0.10282362997531891
0.8792802095413208,4.873386383056641,-0.10207263380289078
0.9091048836708069,4.848053932189941,-0.10124417394399643
0.9426609873771667,4.841650485992432,-0.10081425309181213
0.9722750782966614,4.811895370483398,-0.09989796578884125
1.0023614168167114,4.789768218994141,-0.0991327092051506
1.0318161249160767,4.767537593841553,-0.09832208603620529
1.0610560178756714,4.745119094848633,-0.09751397371292114
1.0893689393997192,4.71867036819458,-0.09662790596485138
1.1208785772323608,4.703266143798828,-0.09596628695726395
1.1515591144561768,4.687816143035889,-0.09530504047870636
1.1796647310256958,4.664721965789795,-0.09442320466041565
1.2094353437423706,4.649033069610596,-0.0936981737613678
1.2352935075759888,4.617988586425781,-0.09266703575849533
1.2658882141113281,4.601606369018555,-0.0919249951839447
1.2957448959350586,4.585183620452881,-0.09118999540805817
1.3236488103866577,4.565021514892578,-0.09032267332077026
1.3524515628814697,4.548435688018799,-0.08953220397233963
1.379083514213562,4.524115085601807,-0.08859189599752426
1.406407117843628,4.4993438720703125,-0.0876358225941658
1.4327878952026367,4.474624156951904,-0.08668901771306992
1.4606174230575562,4.457411766052246,-0.08583183586597443
1.484555721282959,4.428919315338135,-0.08476440608501434
1.5123786926269531,4.411252975463867,-0.08390416204929352
1.2600007057189941,3.5934901237487793,-0.06792014837265015
1.2904815673828125,3.599269151687622,-0.06757940351963043
1.3147445917129517,3.590489625930786,-0.0669388547539711
1.6138839721679688,4.316865921020508,-0.07990920543670654
1.6408236026763916,4.2983527183532715,-0.07898639887571335
1.664955973625183,4.272314548492432,-0.07792798429727554
1.7032426595687866,4.282440662384033,-0.07749009877443314
1.71877920627594,4.238335609436035,-0.07606197148561478
1.7503124475479126,4.233879566192627,-0.07535041123628616
1.7872748374938965,4.239626407623291,-0.07480108737945557
1.8028104305267334,4.194825649261475,-0.0733657255768776
1.8344879150390625,4.1896138191223145,-0.07256154716014862
1.862472414970398,4.17726469039917,-0.07164735347032547
1.884572148323059,4.150204658508301,-0.07047002017498016
1.9068543910980225,4.122823238372803,-0.06928376108407974
1.941437840461731,4.123941898345947,-0.06855446845293045
1.952502965927124,4.075464725494385,-0.06697498261928558
1.9833904504776,4.069230079650879,-0.0661022737622261
2.0046887397766113,4.041363716125488,-0.06485959142446518
2.0322725772857666,4.027580261230469,-0.06383442878723145
2.062483549118042,4.02099084854126,-0.06289857625961304
2.089277982711792,4.007150173187256,-0.06184457615017891
2.11025071144104,3.9784860610961914,-0.060517676174640656
2.128159999847412,3.946777582168579,-0.059157032519578934
2.154146194458008,3.9326717853546143,-0.05804074555635452
2.1860170364379883,3.9284772872924805,-0.057061050087213516
2.203643798828125,3.896212339401245,-0.0556393601000309
2.234269618988037,3.887760877609253,-0.05453815683722496
2.2557003498077393,3.8663408756256104,-0.05326494574546814
2.2777020931243896,3.8443593978881836,-0.051960498094558716
2.3084123134613037,3.8351354598999023,-0.050797898322343826
2.321382761001587,3.7998785972595215,-0.04927010089159012
2.350585699081421,3.7910947799682617,-0.04806657135486603
2.3684372901916504,3.7615342140197754,-0.046553611755371094
2.4021196365356445,3.7586870193481445,-0.045359931886196136
2.430528402328491,3.749708652496338,-0.044071827083826065
2.4472756385803223,3.7201287746429443,-0.04248508810997009
2.4773902893066406,3.709557294845581,-0.04105859994888306
2.4966633319854736,3.6871986389160156,-0.03950924798846245
2.5125484466552734,3.657468557357788,-0.037821631878614426
2.5372629165649414,3.640383005142212,-0.036221694201231
2.56018328666687,3.624316453933716,-0.034628141671419144
2.5943503379821777,3.6191964149475098,-0.0329931303858757
2.604109287261963,3.583263874053955,-0.031068099662661552
2.640881061553955,3.5854156017303467,-0.02942584827542305
2.5710668563842773,3.6260581016540527,0.04603290557861328
2.542875051498413,3.645857810974121,0.0480683371424675
2.5082035064697266,3.650831699371338,0.04974773898720741
2.4805521965026855,3.669649600982666,0.051620740443468094
2.4571897983551025,3.6946933269500732,0.05352776497602463
2.4228675365448,3.698603391647339,0.05501187592744827
2.3994202613830566,3.7231290340423584,0.05678281560540199
2.3717122077941895,3.7408154010772705,0.0584222711622715
2.345186471939087,3.757477045059204,0.059984538704156876
2.3133959770202637,3.7679450511932373,0.061396483331918716
2.293168783187866,3.798525333404541,0.06312961876392365
2.2746143341064453,3.827826738357544,0.06476730853319168
2.2511165142059326,3.850719690322876,0.06630278378725052
2.2257449626922607,3.8744266033172607,0.06787474453449249
2.197845220565796,3.890296459197998,0.06925448775291443
2.1915669441223145,3.943039655685425,0.07127056270837784
2.1739439964294434,3.979482889175415,0.07297281920909882
2.1795568466186523,4.0608086585998535,0.0755145400762558
2.181411027908325,4.135009765625,0.07792596518993378
2.159834861755371,4.163902759552002,0.07947459816932678
2.1257424354553223,4.172621726989746,0.0806024894118309
2.1055908203125,4.20902156829834,0.08227011561393738
2.0725040435791016,4.2166852951049805,0.08334430307149887
2.045928716659546,4.23829460144043,0.08470690995454788
2.015017032623291,4.253054618835449,0.08587023615837097
1.9904215335845947,4.28183126449585,0.0873200073838234
1.9568397998809814,4.288675308227539,0.088299460709095
1.9365580081939697,4.323537349700928,0.0898483544588089
1.908766746520996,4.34438943862915,0.09108609706163406
1.879691243171692,4.365530967712402,0.09233453124761581
1.85138738155365,4.386066436767578,0.09355328232049942
1.8223061561584473,4.402433395385742,0.09466700255870819
1.7972617149353027,4.429557800292969,0.09601152688264847
1.7680221796035767,4.4496941566467285,0.09716566652059555
1.7408967018127441,4.477119445800781,0.09849923104047775
1.7038393020629883,4.474619388580322,0.09914644807577133
1.6645454168319702,4.464364051818848,0.09961267560720444
1.3130316734313965,3.599149465560913,0.08083528280258179
1.2923847436904907,3.6231887340545654,0.08187530189752579
1.267134666442871,3.636216163635254,0.0826822966337204
1.5641995668411255,4.5912861824035645,0.10501743853092194
1.5482338666915894,4.650215148925781,0.10699368268251419
1.5248647928237915,4.6907734870910645,0.10851752012968063
1.4994919300079346,4.727613925933838,0.10994591563940048
1.491536021232605,4.824208736419678,0.11279353499412537
1.455671787261963,4.826974868774414,0.11343581229448318
1.4186972379684448,4.825741767883301,0.11398810148239136
1.3898019790649414,4.854438304901123,0.11519366502761841
1.3550498485565186,4.864235877990723,0.11593117564916611
1.2988297939300537,4.79461669921875,0.11477291584014893
1.266845703125,4.811225891113281,0.11567265540361404
1.2372409105300903,4.8350324630737305,0.11674442887306213
1.2107547521591187,4.8739142417907715,0.1181429922580719
1.1797417402267456,4.897567272186279,0.11914592236280441
1.1493409872055054,4.924827575683594,0.12024565041065216
1.1160305738449097,4.940474510192871,0.1210702657699585
1.0849595069885254,4.9633660316467285,0.12207113206386566
1.05504310131073,4.993747234344482,0.123236745595932
1.0211756229400635,5.008740425109863,0.12396407127380371
0.9811246395111084,4.992849349975586,0.1239321306347847
0.9693171381950378,5.126352310180664,0.12762585282325745
0.9399693012237549,5.167527675628662,0.1290280818939209
0.8992926478385925,5.147000312805176,0.12889695167541504
1.8549108505249023,11.07669448852539,0.27803680300712585
1.7624386548995972,11.000809669494629,0.27676868438720703
1.6527619361877441,10.812417984008789,0.2726774513721466
1.5576974153518677,10.688397407531738,0.27018386125564575
1.465079426765442,10.567438125610352,0.2677639126777649
1.373307228088379,10.441899299621582,0.2651233673095703
1.281488060951233,10.304030418395996,0.2620604336261749
1.2044087648391724,10.273990631103516,0.2617449462413788
1.1103650331497192,10.092083930969238,0.25756824016571045
1.032111406326294,10.02186107635498,0.256232351064682
0.5289191007614136,5.511943817138672,0.14118319749832153
0.38035058975219727,4.27860164642334,0.10971430689096451
0.3471404016017914,4.242239952087402,0.1089041531085968
0.3168725073337555,4.244603633880615,0.1090945303440094
0.2894454002380371,4.277868747711182,0.11008227616548538
0.25967875123023987,4.279773712158203,0.11026930809020996
0.2307296097278595,4.297070503234863,0.11082492023706436
0.2026986926794052,4.3414835929870605,0.11202805489301682
0.16829147934913635,4.253067970275879,0.1098095029592514
0.13784512877464294,4.230719089508057,0.10929928719997406
0.10674256086349487,4.165209770202637,0.10767754912376404
0.077318474650383,4.1424241065979,0.10716403275728226
0.048590317368507385,4.150670528411865,0.10739313811063766
0.019279800355434418,4.174339771270752,0.10800416767597198
-0.004810040816664696,2.046184539794922,0.05294358730316162
-0.03707962483167648,3.986774206161499,0.10316372662782669
-0.035068102180957794,2.159148693084717,0.05587861314415932
-0.09398235380649567,4.05224084854126,0.10488267987966537
-0.11828533560037613,3.92659330368042,0.10157648473978043
-0.1411927491426468,3.796888589859009,0.09817273914813995
-0.08987508714199066,2.03640079498291,0.05263037607073784
-0.18555448949337006,3.630770444869995,0.09379991143941879
-0.20646846294403076,3.555326461791992,0.09181943535804749
-0.22809499502182007,3.507050037384033,0.09051413834095001
-0.2609504461288452,3.618309259414673,0.0932888388633728
-0.28194692730903625,3.565816640853882,0.09184622764587402
-0.3060165345668793,3.5559966564178467,0.09150824695825577
-0.3278270363807678,3.5226821899414062,0.0905708596110344
-0.34841176867485046,3.4814670085906982,0.08943625539541245
-0.3720300495624542,3.47117280960083,0.0890350192785263
-0.389293372631073,3.4103357791900635,0.08733448386192322
-0.40667566657066345,3.3571815490722656,0.08583924174308777
-0.4324411153793335,3.3736507892608643,0.08612862974405289
-0.45223912596702576,3.343477249145508,0.08523129671812057
-0.46699395775794983,3.278355121612549,0.0834309458732605
-0.4906453490257263,3.2828025817871094,0.08336178958415985
-0.5077387690544128,3.244640827178955,0.08221600949764252
-0.5313571095466614,3.248777389526367,0.08214668929576874
-0.5559005737304688,3.2565598487854004,0.0821710154414177
-0.5812303423881531,3.26800799369812,0.08229062706232071
-0.6012134552001953,3.248514413833618,0.08158289641141891
-0.6293355822563171,3.2750096321105957,0.08201814442873001
-0.6471336483955383,3.247659921646118,0.08110849559307098
-0.6656805872917175,3.223982810974121,0.08029424399137497
-0.6848374009132385,3.2040047645568848,0.0795774757862091
-0.6845989227294922,3.0961649417877197,0.0766715556383133
-0.702221691608429,3.076204776763916,0.07591938227415085
-0.724974513053894,3.078955888748169,0.07573190331459045
-0.7194129228591919,2.9638543128967285,0.07265560328960419
-0.6983284950256348,2.792093276977539,0.0682138055562973
-0.7073584198951721,2.745490550994873,0.06684643030166626
-0.7290462851524353,2.7519419193267822,0.06672763079404831
-0.7477202415466309,2.746936559677124,0.06632908433675766
-0.7653830647468567,2.738022804260254,0.0658385157585144
-0.7962338924407959,2.773940324783325,0.06642017513513565
-0.9196051359176636,3.120368242263794,0.07439453899860382
-0.9521695971488953,3.151416063308716,0.074783094227314
-0.968873918056488,3.1299843788146973,0.07390954345464706
-1.0301445722579956,3.2499442100524902,0.07636565715074539
-1.0598537921905518,3.2650341987609863,0.07633505761623383
-1.0828914642333984,3.257479190826416,0.07576829940080643
-1.102591633796692,3.242629051208496,0.07501199841499329
-1.1269662380218506,3.2425224781036377,0.07457444816827774
-1.154003381729126,3.2495946884155273,0.07430242002010345
-1.1791340112686157,3.248885154724121,0.07384083420038223
-1.2166416645050049,3.280897855758667,0.07411777228116989
-1.247687816619873,3.2943012714385986,0.07393303513526917
-1.2838459014892578,3.3222978115081787,0.07405685633420944
-1.3190304040908813,3.346311330795288,0.07408411055803299
-1.34517240524292,3.344325304031372,0.0735156238079071
-2.29353666305542,5.589479446411133,0.12199243903160095
-2.34552264213562,5.606014251708984,0.12138238549232483
-2.3661391735076904,5.55070161819458,0.11921315640211105
-2.4004275798797607,5.527473449707031,0.11773853003978729
-2.453075885772705,5.5427985191345215,0.11705508083105087
-2.5171003341674805,5.582666873931885,0.11687327921390533
-2.5255227088928223,5.5016326904296875,0.11407247930765152
-2.565364122390747,5.491820335388184,0.11278482526540756
-2.5945701599121094,5.456498146057129,0.11094716191291809
-2.6154394149780273,5.403197288513184,0.10874411463737488
-2.6448864936828613,5.371466159820557,0.10695520043373108
-2.695017099380493,5.381487846374512,0.10595621913671494
-2.3678197860717773,4.649794578552246,0.09051370620727539
-2.409022331237793,4.6506123542785645,0.0894566997885704
-2.431464195251465,4.616886138916016,0.08771517872810364
-2.439617156982422,4.55952262878418,0.08549927175045013
-2.4660229682922363,4.536433219909668,0.08393232524394989
-1.1904897689819336,2.15346360206604,0.03926398605108261
-2.5002553462982178,4.450634002685547,0.07995269447565079
-2.5216455459594727,4.420599460601807,0.07819217443466187
-2.539257526397705,4.3834710121154785,0.07630105316638947
-2.551774263381958,4.335483551025391,0.07418642938137054
-2.473041534423828,4.1369853019714355,0.06951821595430374
-1.2600194215774536,2.0771515369415283,0.034263432025909424
-2.0400450229644775,3.3124477863311768,0.05356882885098457
-2.054793119430542,3.284926652908325,0.05201960727572441
-2.626464605331421,4.138906955718994,0.06409996747970581
-2.6538190841674805,4.121447563171387,0.062343209981918335
-2.20363187789917,3.3706130981445312,0.04970112070441246
-2.735265016555786,4.124268054962158,0.059214454144239426
-2.7614965438842773,4.106776714324951,0.05734742060303688
-2.7588956356048584,4.042516231536865,0.05471814423799515
-2.785905122756958,4.023977279663086,0.05267233029007912
-2.8021984100341797,3.9936020374298096,0.050500255078077316
-2.5353076457977295,3.5604498386383057,0.04326397553086281
-2.5968732833862305,3.598040819168091,0.041921451687812805
-2.6961753368377686,3.685244083404541,0.041002679616212845
-2.769927501678467,3.732816457748413,0.03939540684223175
-2.7933013439178467,3.9376914501190186,-0.05335388332605362
-2.4366393089294434,3.4913203716278076,-0.049393344670534134
-2.7641732692718506,4.019898891448975,-0.05903235077857971
-2.7375428676605225,4.047478199005127,-0.061628617346286774
-2.733924388885498,4.106316566467285,-0.06459244340658188
-2.169416666030884,3.3089046478271484,-0.0536256767809391
-2.152797222137451,3.3383171558380127,-0.05566447228193283
-2.63537335395813,4.151647567749023,-0.07105386257171631
-1.2872052192687988,2.060382843017578,-0.03615112602710724
-1.2635776996612549,2.056624412536621,-0.03694811463356018
-1.2689648866653442,2.099062919616699,-0.03855143487453461
-2.0093257427215576,3.3765432834625244,-0.06331446766853333
-2.504934072494507,4.281296730041504,-0.08188305795192719
-2.472965717315674,4.299803733825684,-0.08384443074464798
-2.4659788608551025,4.357712268829346,-0.08649126440286636
-1.2001347541809082,2.1569671630859375,-0.04354715347290039
-2.394556760787964,4.379492282867432,-0.08988524973392487
-2.3671271800994873,4.403213024139404,-0.09178187698125839
-2.332267999649048,4.412906169891357,-0.09338680654764175
-2.2964279651641846,4.422827243804932,-0.09492939710617065
-2.267549991607666,4.446435928344727,-0.09676758944988251
-2.2399637699127197,4.469099998474121,-0.09853269904851913
-2.2191812992095947,4.505556106567383,-0.10060453414916992
-2.201066255569458,4.553469181060791,-0.10293114930391312
-2.1595587730407715,4.551661014556885,-0.10411994904279709
-2.127725601196289,4.566593170166016,-0.10564447194337845
-2.100757598876953,4.591914176940918,-0.10741329938173294
-2.086578369140625,4.649754047393799,-0.10990656912326813
-2.0465011596679688,4.650434494018555,-0.11106148362159729
-1.9838387966156006,4.596767902374268,-0.1108865812420845
-1.9639428853988647,4.639214515686035,-0.11299920827150345
-1.6058963537216187,3.870391845703125,-0.09512998163700104
-1.574971079826355,3.874621629714966,-0.09607792645692825
-1.5474138259887695,3.885681629180908,-0.09718488156795502
-1.5283236503601074,3.918363094329834,-0.09884124249219894
-1.5075993537902832,3.9472646713256836,-0.10037828236818314
-1.481878638267517,3.9653050899505615,-0.10161317139863968
-1.4586575031280518,3.990513801574707,-0.10304133594036102
-1.4360917806625366,4.015257358551025,-0.10444279760122299
-1.4101835489273071,4.032677173614502,-0.10567644238471985
-1.3839161396026611,4.049995422363281,-0.10683567821979523
-1.3598132133483887,4.074596881866455,-0.10818330943584442
-1.3345253467559814,4.0952467918396,-0.10942863672971725
-1.3059743642807007,4.104416370391846,-0.11036217957735062
-0.9711570143699646,3.12900447845459,-0.08466221392154694
-0.9420064091682434,3.113415241241455,-0.08470798283815384
-0.8270050883293152,2.805417537689209,-0.07675153762102127
-0.7878888249397278,2.7435812950134277,-0.07546894997358322
-0.7666927576065063,2.7414560317993164,-0.07581739127635956
-0.7403140068054199,2.7203638553619385,-0.07562168687582016
-0.7266142964363098,2.7482821941375732,-0.07675641030073166
-0.7119407057762146,2.772268056869507,-0.07778413593769073
-0.6840280890464783,2.7430672645568848,-0.07731620222330093
-1.4593327045440674,6.030623912811279,-0.17075364291667938
-1.4509228467941284,6.18513298034668,-0.17588159441947937
-1.4365203380584717,6.328685760498047,-0.1806713491678238
-1.388269305229187,6.323427200317383,-0.18122299015522003
-1.3408377170562744,6.317659854888916,-0.18175509572029114
-1.2937785387039185,6.31149435043335,-0.1822775900363922
-1.242861032485962,6.2858734130859375,-0.18219655752182007
-1.1904584169387817,6.2562408447265625,-0.1819203495979309
-1.139330267906189,6.226038455963135,-0.18161934614181519
-1.0815306901931763,6.153078079223633,-0.18006515502929688
-0.9581639766693115,5.683002471923828,-0.16684311628341675
-0.9483404755592346,5.874557018280029,-0.17299455404281616
-0.9353099465370178,6.070283889770508,-0.17919476330280304
-0.6871179342269897,4.67825174331665,-0.13843849301338196
-0.6635375022888184,4.748671531677246,-0.14086796343326569
-0.6294686794281006,4.745416164398193,-0.14112065732479095
-0.43152186274528503,3.436340570449829,-0.10244673490524292
-0.4170264005661011,3.5207037925720215,-0.10514679551124573
-0.38536694645881653,3.4653782844543457,-0.10368480533361435
-0.3639182150363922,3.495169162750244,-0.1047690361738205
-0.35471853613853455,3.6530544757843018,-0.10970673710107803
-0.3233717381954193,3.5893137454986572,-0.10799887776374817
-0.30444347858428955,3.665408134460449,-0.11043732613325119
-0.2757055461406708,3.6324353218078613,-0.10957898944616318
-0.24144695699214935,3.505725383758545,-0.10588983446359634
-0.21702571213245392,3.5073161125183105,-0.1060757115483284
-0.19922779500484467,3.62959361076355,-0.10992170870304108
-0.18398809432983398,3.8414900302886963,-0.11645512282848358
-0.15711069107055664,3.854402780532837,-0.11692006886005402
-0.13201114535331726,3.910034656524658,-0.11868660897016525
-0.10457883030176163,3.9030497074127197,-0.11855883151292801
-0.0792224109172821,3.9934637546539307,-0.12139717489480972
-0.05165394768118858,4.009531497955322,-0.12196597456932068
-0.023357871919870377,4.02541446685791,-0.12244474142789841
0.004656571429222822,4.060618877410889,-0.12351730465888977
0.01708916388452053,2.108330488204956,-0.06413590908050537
0.0823477953672409,5.46950626373291,-0.16640204191207886
0.09217746555805206,4.188453674316406,-0.12744806706905365
0.15638060867786407,5.401490211486816,-0.16427762806415558
0.1939382404088974,5.384648323059082,-0.16366715729236603
0.2302827090024948,5.359772205352783,-0.16282278299331665
0.21069777011871338,4.219362735748291,-0.12811513245105743
0.2446608543395996,4.299661636352539,-0.13049490749835968
0.27076050639152527,4.23941707611084,-0.12856295704841614
0.3005755543708801,4.237414360046387,-0.12834995985031128
0.3271769881248474,4.200203895568848,-0.12708033621311188
0.3612804412841797,4.256195545196533,-0.12863564491271973
0.47374507784843445,5.155628204345703,-0.15565834939479828
0.5064507722854614,5.121139049530029,-0.15443922579288483
0.48724958300590515,4.597179889678955,-0.13837981224060059
0.5154602527618408,4.562679767608643,-0.1370955854654312
0.5535346865653992,4.613287925720215,-0.13837333023548126
0.5929115414619446,4.667447090148926,-0.13975776731967926
0.670992374420166,5.003777027130127,-0.14957758784294128
0.7060286998748779,4.998969078063965,-0.14907482266426086
0.7392151951789856,4.986289978027344,-0.14833927154541016
0.769355297088623,4.9540863037109375,-0.14703139662742615
0.8012780547142029,4.933215618133545,-0.14606671035289764
0.8316423296928406,4.904442310333252,-0.14487777650356293
0.8614017963409424,4.875532150268555,-0.14360924065113068
0.8947041034698486,4.865579605102539,-0.1428563892841339
0.9251456260681152,4.844001770019531,-0.14177846908569336
0.9557659029960632,4.822150230407715,-0.14069633185863495
0.98617023229599,4.800098896026611,-0.1396174132823944
1.0143970251083374,4.770283222198486,-0.13827666640281677
1.0459729433059692,4.7554850578308105,-0.13732002675533295
1.0758990049362183,4.736813068389893,-0.13627012073993683
1.1051024198532104,4.714065074920654,-0.1351063847541809
1.1341667175292969,4.691110134124756,-0.1339445859193802
1.1608117818832397,4.6604695320129395,-0.13253504037857056
1.1892547607421875,4.637193202972412,-0.1312681883573532
1.2188224792480469,4.621457099914551,-0.1302351951599121
1.25075364112854,4.612940788269043,-0.12940381467342377
1.2775448560714722,4.585351467132568,-0.12804310023784637
1.3069918155670166,4.568946838378906,-0.126968115568161
1.332004427909851,4.5373311042785645,-0.12540163099765778
1.362821340560913,4.528195381164551,-0.12447836250066757
1.391809344291687,4.511223316192627,-0.12333495169878006
1.4184259176254272,4.486572265625,-0.12198757380247116
1.4444631338119507,4.461868762969971,-0.1206112802028656
1.4666153192520142,4.425876617431641,-0.11888166517019272
1.4991134405136108,4.423249244689941,-0.11806966364383698
1.5195099115371704,4.383260726928711,-0.11625352501869202
1.274680495262146,3.5959932804107666,-0.09475868940353394
1.2992085218429565,3.5872275829315186,-0.09387423098087311
1.3342516422271729,3.6076924800872803,-0.09372982382774353
1.6226258277893066,4.296202182769775,-0.11079268157482147
1.6524748802185059,4.2848381996154785,-0.10967016965150833
1.682210087776184,4.273280143737793,-0.10854893177747726
1.7036986351013184,4.24375581741333,-0.10689110308885574
1.7366352081298828,4.243076324462891,-0.10596422106027603
1.7646427154541016,4.227303981781006,-0.10463130474090576
1.7909201383590698,4.207781791687012,-0.10321513563394547
1.816541075706482,4.188302993774414,-0.10178519040346146
1.8414075374603271,4.168924331665039,-0.10033494979143143
1.8629231452941895,4.1422624588012695,-0.09871788322925568
1.892210602760315,4.128997802734375,-0.09737374633550644
1.917529582977295,4.1087141036987305,-0.09588330239057541
1.9482983350753784,4.102893352508545,-0.09466806799173355
1.9688531160354614,4.075759410858154,-0.09296826273202896
1.9933909177780151,4.055144786834717,-0.09139472991228104
2.02551007270813,4.047966480255127,-0.09009731560945511
2.0489039421081543,4.027446746826172,-0.0884837955236435
2.0719423294067383,4.00688362121582,-0.08687041699886322
2.0993056297302246,3.992647647857666,-0.08536171168088913
2.1233232021331787,3.9711039066314697,-0.08368369191884995
2.1460132598876953,3.95003342628479,-0.0819736197590828
2.166818618774414,3.925313949584961,-0.0801653116941452
2.1822383403778076,3.8899478912353516,-0.07812471687793732
2.2208147048950195,3.895085334777832,-0.07688500732183456
2.2345361709594727,3.860208511352539,-0.07483067363500595
2.251877784729004,3.832040309906006,-0.0729203149676323
2.290973663330078,3.8361504077911377,-0.07151477783918381
2.3169639110565186,3.8205416202545166,-0.06974971294403076
2.325424909591675,3.7787892818450928,-0.06749963760375977
2.3673641681671143,3.7895827293395996,-0.06614093482494354
2.38527250289917,3.759880304336548,-0.06402292102575302
2.409952163696289,3.7441415786743164,-0.062093157321214676
2.4344863891601562,3.7282674312591553,-0.06016141548752785
2.4560019969940186,3.7047927379608154,-0.05801655352115631
2.484377384185791,3.6952736377716064,-0.05607767030596733
2.49946928024292,3.6662192344665527,-0.053816135972738266
2.529815673828125,3.6548826694488525,-0.051650311797857285
2.5487213134765625,3.632215738296509,-0.04934553802013397
2.5679337978363037,3.6091055870056152,-0.04697141796350479
2.5924994945526123,3.5915310382843018,-0.04454970732331276
2.610201597213745,3.5690414905548096,-0.04206503927707672
2.2155158519744873,2.9865517616271973,-0.03316595032811165
2.5701098442077637,3.5977556705474854,0.06056223809719086
2.5314712524414062,3.601154088973999,0.06302490085363388
2.5003578662872314,3.6132845878601074,0.06550466269254684
2.4811718463897705,3.640629529953003,0.06813216954469681
2.4662039279937744,3.678985357284546,0.07096981257200241
2.43562650680542,3.68989896774292,0.07313816994428635
2.4213085174560547,3.7272398471832275,0.07581954449415207
2.401388168334961,3.7586114406585693,0.0783555880188942
2.3788576126098633,3.782097816467285,0.0806170105934143
2.3826961517333984,3.8487114906311035,0.08378703147172928
2.378079891204834,3.906491994857788,0.08678189665079117
2.3794727325439453,3.9740359783172607,0.0899956226348877
2.363659620285034,4.010639667510986,0.09245630353689194
2.3416805267333984,4.041530609130859,0.09475942701101303
2.3039093017578125,4.045166492462158,0.09641861170530319
2.2795193195343018,4.067871570587158,0.09843771904706955
2.255747079849243,4.094437599182129,0.1005687564611435
2.2254345417022705,4.110947132110596,0.10239911824464798
2.2065505981445312,4.147629261016846,0.10471908748149872
2.1775808334350586,4.162867546081543,0.10645487159490585
2.151353359222412,4.185222148895264,0.10834745317697525
2.123478412628174,4.208139419555664,0.11025124043226242
2.0895915031433105,4.216309547424316,0.1117272600531578
2.063620090484619,4.237728118896484,0.11351504921913147
2.0402472019195557,4.266308784484863,0.11548276990652084
2.0123655796051025,4.288116931915283,0.11724027246236801
1.9746400117874146,4.288386344909668,0.11840702593326569
1.9506744146347046,4.316445350646973,0.12031761556863785
1.9236608743667603,4.337055206298828,0.12200497835874557
1.8920693397521973,4.350890159606934,0.1234346255660057
1.8772563934326172,4.403992652893066,0.12599313259124756
1.8521981239318848,4.431483745574951,0.1278066486120224
1.842984914779663,4.498644828796387,0.1307912915945053
1.8225412368774414,4.540605068206787,0.13300105929374695
1.8095991611480713,4.604526042938232,0.13584375381469727
1.7679798603057861,4.59553337097168,0.13654285669326782
1.7455930709838867,4.633264541625977,0.1386052370071411
1.3304686546325684,3.6086695194244385,0.10870199650526047
1.3045343160629272,3.6180968284606934,0.10965456068515778
1.275844931602478,3.6200051307678223,0.11037547886371613
1.60866379737854,4.670030117034912,0.14323928952217102
1.5848424434661865,4.706980228424072,0.14521177113056183
1.5709171295166016,4.7774176597595215,0.1482526659965515
1.5545001029968262,4.844296455383301,0.15109030902385712
1.5057127475738525,4.810573577880859,0.1507997065782547
1.4897892475128174,4.880849361419678,0.15377065539360046
1.4368497133255005,4.827447891235352,0.15283773839473724
1.4130083322525024,4.8710455894470215,0.1549786627292633
1.3882163763046265,4.918719291687012,0.15716685354709625
1.3344377279281616,4.860707759857178,0.15596903860569
1.2868140935897827,4.820986747741699,0.15534603595733643
1.2551881074905396,4.837355136871338,0.1565198004245758
1.2233964204788208,4.853516101837158,0.15769647061824799
1.1957964897155762,4.892521858215332,0.1595388799905777
1.1636489629745483,4.912277698516846,0.16073361039161682
1.1304538249969482,4.928008079528809,0.1618061661720276
1.1012202501296997,4.958595275878906,0.16336612403392792
1.069975733757019,4.981378078460693,0.16468116641044617
1.0327593088150024,4.981226921081543,0.16519364714622498
1.0058434009552002,5.030512809753418,0.16728876531124115
0.9664670825004578,5.018324851989746,0.16735009849071503
2.135802984237671,11.523979187011719,0.3853740692138672
2.0228421688079834,11.35399055480957,0.3807552754878998
1.9113887548446655,11.18712329864502,0.3762134313583374
1.8077921867370605,11.050032615661621,0.37237176299095154
1.7080364227294922,10.923619270324707,0.36888810992240906
1.6097897291183472,10.792461395263672,0.3652402460575104
1.5137516260147095,10.656487464904785,0.3614175617694855
1.4221155643463135,10.546956062316895,0.3585028350353241
1.3219397068023682,10.351387023925781,0.35248813033103943
1.2434102296829224,10.313897132873535,0.3517553210258484
1.1496354341506958,10.13616943359375,0.34624457359313965
1.0685076713562012,10.046869277954102,0.3437512218952179
0.9952478408813477,10.019054412841797,0.3433678150177002
0.39605605602264404,4.295666694641113,0.1474718600511551
0.3629564940929413,4.2633209228515625,0.1465071141719818
0.3312416076660156,4.242398738861084,0.1459401696920395
0.30264607071876526,4.260181427001953,0.14671137928962708
0.27502721548080444,4.293342113494873,0.14801988005638123
0.24285487830638885,4.263991832733154,0.1471836119890213
0.2147221714258194,4.296765327453613,0.14844930171966553
0.1816597580909729,4.227951526641846,0.14613649249076843
0.1508745700120926,4.194000244140625,0.1450340300798416
0.06143827363848686,2.1189358234405518,0.07331496477127075
0.0466042160987854,2.127121686935425,0.07364199310541153
0.0020859886426478624,2.0300307273864746,0.07033109664916992
-0.012041914276778698,2.029996395111084,0.07032997161149979
-0.028849007561802864,2.2172319889068604,0.07682071626186371
-0.08072220534086227,4.043642997741699,0.140114426612854
-0.10991139709949493,4.0820088386535645,0.14146272838115692
-0.13966645300388336,4.124070644378662,0.14283651113510132
-0.08707442879676819,2.1336660385131836,0.0738593116402626
-0.2848023772239685,5.962294101715088,0.20629003643989563
-0.19459602236747742,3.547236442565918,0.12267562001943588
-0.21925786137580872,3.5458009243011475,0.12257730960845947
-0.242755725979805,3.5286219120025635,0.12190767377614975
-0.5826488733291626,7.6921491622924805,0.26544874906539917
-0.5161179900169373,6.240624904632568,0.2151235044002533
-0.5803012251853943,6.462369918823242,0.22253070771694183
