X,Y,Z
-1.5165809392929077,4.024778842926025,0.7794855833053589
-1.5409252643585205,4.008291721343994,0.7728977203369141
-1.5679600238800049,3.998795747756958,0.7676945328712463
-1.59625244140625,3.988633871078491,0.7622355222702026
-1.6242835521697998,3.9783363342285156,0.7568127512931824
-1.6521692276000977,3.9678685665130615,0.7513838410377502
-1.6697956323623657,3.936513662338257,0.741543710231781
-1.7084097862243652,3.954573392868042,0.7410441637039185
-1.7295361757278442,3.9296822547912598,0.732398509979248
-1.744564175605774,3.8904244899749756,0.721084475517273
-1.7687257528305054,3.8721513748168945,0.7137321829795837
-1.8015706539154053,3.875142812728882,0.7100040912628174
-1.8208905458450317,3.850234270095825,0.7010125517845154
-1.8470444679260254,3.83894419670105,0.6944786310195923
-1.8775973320007324,3.8339130878448486,0.6889163255691528
-1.9012502431869507,3.814842700958252,0.6808715462684631
-1.93091881275177,3.809809446334839,0.6751072406768799
-1.9598486423492432,3.804957151412964,0.669170618057251
-1.970955729484558,3.7656493186950684,0.6572189927101135
-2.005319833755493,3.766308546066284,0.6519031524658203
-2.0191211700439453,3.7295172214508057,0.6402402520179749
-2.0461812019348145,3.7204737663269043,0.6330876350402832
-1.724143385887146,3.087292194366455,0.52057284116745
-1.748914122581482,3.0833425521850586,0.5150211453437805
-0.8382595777511597,1.4538298845291138,0.24038371443748474
-0.8523585796356201,1.4551308155059814,0.2381465882062912
-0.8659107685089111,1.4566751718521118,0.2358025163412094
-0.8755084872245789,1.4514808654785156,0.2323688268661499
-0.8858048915863037,1.445810079574585,0.22867022454738617
-0.8962690234184265,1.4399412870407104,0.22489513456821442
-0.8974606394767761,1.421494722366333,0.2190922200679779
-0.890052318572998,1.3900474309921265,0.21137414872646332
-0.8999089598655701,1.3842899799346924,0.20738650858402252
-0.9097281694412231,1.378455638885498,0.2033674716949463
-0.9145411849021912,1.3665509223937988,0.19828525185585022
-2.387449026107788,3.518144369125366,0.5018470287322998
-2.4236533641815186,3.5185282230377197,0.49252748489379883
-1.3738106489181519,1.9665921926498413,0.26992133259773254
-1.377517819404602,1.945889949798584,0.2616478204727173
-1.4144178628921509,2.243626594543457,-0.20491953194141388
-1.3708953857421875,2.210405111312866,-0.20878733694553375
-1.242524266242981,2.0684590339660645,-0.20757853984832764
-0.8407157063484192,1.4460489749908447,-0.15326392650604248
-0.8419210314750671,1.4718043804168701,-0.15998557209968567
-1.0749558210372925,1.9112600088119507,-0.21287253499031067
-1.04011070728302,1.8810718059539795,-0.21450774371623993
-1.00445556640625,1.8468021154403687,-0.21528609097003937
-0.9708130955696106,1.8157556056976318,-0.21621164679527283
-0.9194693565368652,1.750023603439331,-0.21273431181907654
-0.8998879194259644,1.7421107292175293,-0.21592704951763153
-0.8696861863136292,1.7133492231369019,-0.2164829969406128
-0.817301869392395,1.6391901969909668,-0.2109203338623047
-0.8122231960296631,1.658431053161621,-0.2171989381313324
-0.7853142023086548,1.6321132183074951,-0.21739879250526428
-0.7504169344902039,1.5880415439605713,-0.21503332257270813
-0.7355784177780151,1.5858677625656128,-0.21817652881145477
-0.7143314480781555,1.5694732666015625,-0.21933017671108246
-0.6921350359916687,1.5491828918457031,-0.21974638104438782
-0.6748036742210388,1.539367437362671,-0.2215227335691452
-0.6636378169059753,1.5436716079711914,-0.22527118027210236
-0.6345512270927429,1.5050328969955444,-0.22263626754283905
-0.6133546829223633,1.483992099761963,-0.22250445187091827
-0.588206946849823,1.4519699811935425,-0.22049595415592194
-0.5720291137695312,1.4412862062454224,-0.22159655392169952
-0.5589382648468018,1.4376202821731567,-0.22371961176395416
-0.5460193753242493,1.4338091611862183,-0.22578008472919464
-0.5107278227806091,1.4006307125091553,-0.2255859375
0.5292576551437378,1.4272398948669434,-0.22712518274784088
0.5419691205024719,1.4312130212783813,-0.22521357238292694
0.5561053156852722,1.4387072324752808,-0.22379229962825775
0.5805676579475403,1.471163034439087,-0.22611099481582642
0.5967192649841309,1.481877088546753,-0.22503942251205444
0.6173496246337891,1.503229022026062,-0.22545988857746124
0.6337444186210632,1.5137028694152832,-0.2241334617137909
0.656486988067627,1.5382297039031982,-0.2247895449399948
0.6799115538597107,1.5624028444290161,-0.22520872950553894
0.7049552202224731,1.590012550354004,-0.2260199636220932
0.7255220413208008,1.6068217754364014,-0.22514964640140533
0.739987313747406,1.6092957258224487,-0.22219125926494598
0.7727157473564148,1.6502172946929932,-0.22440992295742035
0.7944208979606628,1.6662647724151611,-0.2230076938867569
0.8346517086029053,1.7206511497497559,-0.2266044169664383
0.8604227304458618,1.7431796789169312,-0.2257629632949829
0.8901723027229309,1.7723108530044556,-0.22560568153858185
0.9183515906333923,1.797796368598938,-0.22480016946792603
0.9485719799995422,1.8265049457550049,-0.2242424637079239
0.992459774017334,1.8786782026290894,-0.22618454694747925
1.0314794778823853,1.9201419353485107,-0.22664153575897217
1.0688152313232422,1.9580034017562866,-0.22640883922576904
1.110471487045288,2.0022640228271484,-0.22668397426605225
1.1761795282363892,2.0864551067352295,-0.23096643388271332
1.206477403640747,2.105703592300415,-0.227661594748497
1.2774667739868164,2.1956427097320557,-0.23176757991313934
1.302570104598999,2.2041664123535156,-0.22686517238616943
1.3261752128601074,2.208919048309326,-0.22137853503227234
1.349274754524231,2.213820457458496,-0.21583329141139984
1.3522109985351562,2.1852781772613525,-0.2069135308265686
1.3676509857177734,2.176318407058716,-0.19974437355995178
1.386773943901062,2.174077033996582,-0.1931847333908081
1.7632137537002563,2.7247352600097656,-0.23409590125083923
1.8400839567184448,2.8010191917419434,-0.23190931975841522
1.8835653066635132,2.824467658996582,-0.2247404009103775
1.7930458784103394,2.6512322425842285,-0.20249493420124054
1.8424099683761597,2.684389591217041,-0.19592545926570892
1.8652626276016235,2.6787948608398438,-0.18624791502952576
1.4238719940185547,2.017143964767456,-0.13321875035762787
1.4519327878952026,2.0264482498168945,-0.12602578103542328
1.4700366258621216,2.023509979248047,-0.11809200048446655
1.460296869277954,1.9827643632888794,-0.10785547643899918
2.255812644958496,3.191551923751831,0.4095717668533325
2.6323392391204834,3.7798357009887695,0.49657419323921204
2.5939862728118896,3.78564453125,0.5084799528121948
2.496756076812744,3.704429864883423,0.5082008242607117
2.309218645095825,3.4781370162963867,0.4861391484737396
2.2869713306427,3.500532388687134,0.49802669882774353
1.601272702217102,2.492452383041382,0.3606950640678406
1.622672200202942,2.56512451171875,0.3769179582595825
1.6038196086883545,2.5758755207061768,0.3842180073261261
3.0381369590759277,4.962893009185791,0.7505365014076233
3.004338264465332,4.990459442138672,0.7647805213928223
2.9765636920928955,5.023171424865723,0.7792773842811584
2.947779893875122,5.056121349334717,0.7937409281730652
2.933213233947754,5.120687007904053,0.8130481243133545
2.9097514152526855,5.167681694030762,0.8294121623039246
2.8767013549804688,5.1931586265563965,0.8419235348701477
2.8635149002075195,5.2558979988098145,0.8605332374572754
2.8453948497772217,5.316575050354004,0.878376841545105
2.8204054832458496,5.367309093475342,0.8948735594749451
2.7963204383850098,5.412946701049805,0.9100146889686584
2.771944046020508,5.4583740234375,0.9251988530158997
2.7644944190979004,5.54250955581665,0.9466856718063354
1.2408924102783203,2.5345053672790527,0.4360848665237427
1.215114712715149,2.5290462970733643,0.4383292496204376
1.1922123432159424,2.526371955871582,0.44086840748786926
1.179137945175171,2.5445005893707275,0.44706010818481445
1.1602401733398438,2.5524425506591797,0.451212614774704
1.1631176471710205,2.6096136569976807,0.4640957713127136
2.573624849319458,5.888082027435303,1.05329430103302
2.55561900138855,5.961442470550537,1.0725499391555786
2.5239665508270264,6.002560615539551,1.0860399007797241
2.497573137283325,6.06207275390625,1.1023283004760742
2.465702533721924,6.110960006713867,1.1166480779647827
2.437901496887207,6.170273303985596,1.1329498291015625
2.401923656463623,6.207613945007324,1.1452254056930542
2.378647804260254,6.276837348937988,1.1634035110473633
2.350957155227661,6.339174270629883,1.1800445318222046
2.317509651184082,6.390999794006348,1.1944124698638916
2.28348970413208,6.442629337310791,1.2088549137115479
2.2557132244110107,6.51206111907959,1.2267100811004639
2.225965976715088,6.573683738708496,1.2430899143218994
2.1990180015563965,6.646149158477783,1.2616653442382812
2.15079402923584,6.660614967346191,1.2684898376464844
2.0838465690612793,6.616140365600586,1.2640347480773926
2.0247316360473633,6.597005844116211,1.264501690864563
1.963027000427246,6.558279037475586,1.261012077331543
1.9051909446716309,6.530088901519775,1.2595548629760742
1.8467044830322266,6.497773170471191,1.2572009563446045
1.790541172027588,6.476569652557373,1.2562057971954346
1.73179030418396,6.443778991699219,1.2529911994934082
1.6681429147720337,6.392066478729248,1.2461520433425903
0.8131201267242432,3.206861972808838,0.6267560720443726
1.5593488216400146,6.334493637084961,1.241176724433899
0.7966217398643494,3.3363568782806396,0.6553552746772766
1.458957314491272,6.309293746948242,1.2416912317276
1.405421495437622,6.285206317901611,1.239405632019043
1.3522567749023438,6.256784439086914,1.236261010169983
1.2951726913452148,6.2014479637146,1.227759838104248
1.247330904006958,6.1869707107543945,1.2273701429367065
1.1996864080429077,6.172144412994385,1.2269564867019653
1.1457945108413696,6.131021499633789,1.2205380201339722
1.096657156944275,6.108207702636719,1.2177369594573975
1.0505049228668213,6.1001200675964355,1.2179204225540161
1.000902771949768,6.065106391906738,1.2127405405044556
0.9550322890281677,6.04860258102417,1.2112926244735718
0.9069210290908813,6.020501136779785,1.2076005935668945
0.8569214940071106,5.973130702972412,1.199472427368164
0.8114952445030212,5.955822467803955,1.1971399784088135
0.769366443157196,5.960962295532227,1.1993732452392578
0.6138798594474792,5.034214973449707,1.0139628648757935
0.5822871327400208,5.068437099456787,1.0219577550888062
0.5558230876922607,5.159630298614502,1.041535496711731
0.4062320590019226,4.0351691246032715,0.8153694868087769
0.3814338743686676,4.075861930847168,0.8240194916725159
0.36032623052597046,4.165998458862305,0.8427210450172424
0.3316029906272888,4.175868988037109,0.8452387452125549
0.2998540997505188,4.147359371185303,0.8400295972824097
0.2725366950035095,4.172072410583496,0.845630407333374
0.24350450932979584,4.173673152923584,0.8465916514396667
0.3977636694908142,7.746217250823975,1.571715235710144
0.3422897756099701,7.718062400817871,1.566231608390808
0.28668412566185,7.701024055480957,1.5630848407745361
0.2322816252708435,7.6797308921813965,1.5591435432434082
0.17792166769504547,7.642745494842529,1.5520877838134766
0.12423783540725708,7.6092047691345215,1.5458011627197266
0.07105905562639236,7.579147815704346,1.5401381254196167
0.01733158528804779,7.556562423706055,1.535130262374878
-0.0351705402135849,7.525942802429199,1.5285749435424805
-0.08738161623477936,7.514100551605225,1.525909423828125
-0.13878940045833588,7.467448711395264,1.5162506103515625
-0.19033457338809967,7.451062202453613,1.5128116607666016
-0.2412000596523285,7.422844886779785,1.5070441961288452
-0.2947169244289398,7.447915077209473,1.511574149131775
-0.24914635717868805,5.357884883880615,1.0867198705673218
-0.2889321744441986,5.405925273895264,1.0958316326141357
-0.3254716694355011,5.388703346252441,1.0917623043060303
-0.361909419298172,5.371225833892822,1.0876952409744263
-0.3990175724029541,5.357276916503906,1.0843907594680786
-0.4343404471874237,5.331673622131348,1.0787912607192993
-0.4605926275253296,5.210640907287598,1.053233027458191
-0.43945127725601196,4.609132289886475,0.9307317137718201
-0.46961963176727295,4.5910491943359375,0.9262105822563171
-0.4995059669017792,4.565074443817139,0.9201284646987915
-0.530409038066864,4.5541672706604,0.917144775390625
-0.5611327290534973,4.543056488037109,0.9141680598258972
-0.591548502445221,4.531811714172363,0.9109382033348083
-0.6211293935775757,4.516661167144775,0.906609296798706
-0.651583194732666,4.505041122436523,0.9030174016952515
-0.6791529655456543,4.478123188018799,0.8964285254478455
-0.7090859413146973,4.46613073348999,0.8928669691085815
-0.7376304864883423,4.446374893188477,0.8878024220466614
-0.76462721824646,4.418880939483643,0.8812450766563416
-0.7961921691894531,4.421606540679932,0.8801721930503845
-0.8248640298843384,4.40517520904541,0.8752721548080444
-0.8388689756393433,4.317144393920898,0.8562517166137695
-0.7339268326759338,3.6426148414611816,0.7211913466453552
-0.7624319195747375,3.652862310409546,0.721964418888092
-0.9303902387619019,4.307739734649658,0.8499531149864197
-0.9671997427940369,4.331660747528076,0.8528780937194824
-0.994927167892456,4.318123817443848,0.84825199842453
-1.022560954093933,4.304396152496338,0.8436312675476074
-1.0485059022903442,4.282971382141113,0.8375334143638611
-1.0783717632293701,4.276177883148193,0.834317147731781
-1.10874605178833,4.269042491912842,0.831040620803833
-1.1382242441177368,4.2619404792785645,0.8276327848434448
-1.1600267887115479,4.228918552398682,0.8188709020614624
-1.1845552921295166,4.206876277923584,0.8122953772544861
-1.2154102325439453,4.206783294677734,0.8099855184555054
-1.2409558296203613,4.1840410232543945,0.8032640218734741
-1.270142912864685,4.176003932952881,0.7994584441184998
-1.2967664003372192,4.160518646240234,0.7941112518310547
-1.3225642442703247,4.145137786865234,0.788438618183136
-1.3434399366378784,4.114973545074463,0.7800093293190002
-1.374420166015625,4.1136651039123535,0.7770274877548218
-1.4032082557678223,4.104765892028809,0.7726210951805115
-1.4230101108551025,4.070258140563965,0.7634528875350952
-1.453674077987671,4.0684332847595215,0.7602524161338806
-1.4810945987701416,4.059433937072754,0.7554187178611755
-1.48961341381073,3.9997646808624268,0.7412338256835938
-1.5203309059143066,3.9973456859588623,0.7376061081886292
-1.5511246919631958,3.9946765899658203,0.7339525818824768
-1.58766770362854,4.006074905395508,0.7328929901123047
-1.6120336055755615,3.9889960289001465,0.7262812852859497
-1.6388297080993652,3.9790472984313965,0.7208608388900757
-1.6570600271224976,3.9474239349365234,0.7115059494972229
-1.6907939910888672,3.9508817195892334,0.70842045545578
-1.7123984098434448,3.9257616996765137,0.700235903263092
-1.7396290302276611,3.914794683456421,0.6944910287857056
-1.765858769416809,3.904099702835083,0.6884713172912598
-1.7795302867889404,3.8650131225585938,0.6774406433105469
-1.8127740621566772,3.867664337158203,0.6737128496170044
-1.8366472721099854,3.8489294052124023,0.6662091612815857
-1.8703645467758179,3.8509254455566406,0.6622725129127502
-1.8891565799713135,3.82566237449646,0.6532672047615051
-1.9081403017044067,3.8000969886779785,0.6441910862922668
-1.9343018531799316,3.788001775741577,0.6373693346977234
-1.9682095050811768,3.7890982627868652,0.6326518058776855
-1.9874588251113892,3.76274037361145,0.6233081221580505
-2.0087890625,3.743830442428589,0.6148829460144043
-2.0243687629699707,3.7146167755126953,0.604832649230957
-1.7152507305145264,3.095738172531128,0.499359667301178
-1.7315114736557007,3.074401378631592,0.4912533760070801
-0.8339769840240479,1.4578653573989868,0.23064115643501282
-0.8436185717582703,1.4528076648712158,0.2274688184261322
-0.8534411787986755,1.4475654363632202,0.22422467172145844
-0.8678504228591919,1.448544979095459,0.22178402543067932
-0.8738765716552734,1.4363789558410645,0.2173466831445694
-0.8995571732521057,1.4575237035751343,0.21780647337436676
-0.8927568793296814,1.425772786140442,0.21033725142478943
-0.9112136363983154,1.4330189228057861,0.20845447480678558
-0.9045249819755554,1.4010204076766968,0.20081521570682526
-0.8966516852378845,1.3696645498275757,0.19334140419960022
-0.9101203083992004,1.3706185817718506,0.1903928816318512
-0.9545862078666687,1.416155457496643,0.1933145374059677
-2.4080984592437744,3.5224609375,0.4721370041370392
-1.3892536163330078,2.0045807361602783,0.26353785395622253
-1.3050100803375244,1.8558034896850586,0.23883786797523499
-1.4312251806259155,2.288487434387207,-0.20600441098213196
-1.40236496925354,2.278209924697876,-0.21167804300785065
-1.3268190622329712,2.191347122192383,-0.20989204943180084
-1.285141944885254,2.1566877365112305,-0.21247604489326477
-0.835481584072113,1.4493581056594849,-0.15060506761074066
-0.8402898907661438,1.4819972515106201,-0.1578110009431839
-1.1025933027267456,1.9764642715454102,-0.21539530158042908
-1.0582259893417358,1.9292941093444824,-0.21500343084335327
-1.020025372505188,1.8919305801391602,-0.2154579758644104
-0.9845445156097412,1.8574172258377075,-0.2159418761730194
-0.9210119843482971,1.767331838607788,-0.20956072211265564
-0.8867998719215393,1.7319767475128174,-0.20931698381900787
-0.8777508735656738,1.7447179555892944,-0.2147645503282547
-0.8292574882507324,1.6772487163543701,-0.2101229429244995
-0.8203638195991516,1.6896976232528687,-0.21537889540195465
-0.798014223575592,1.6740667819976807,-0.2169400006532669
-0.7695818543434143,1.6440582275390625,-0.2164650708436966
-0.7465854287147522,1.6242696046829224,-0.2171907126903534
-0.7189133763313293,1.5937473773956299,-0.21630018949508667
-0.7073272466659546,1.5984045267105103,-0.2200997918844223
-0.6849431395530701,1.5780771970748901,-0.22041232883930206
-0.6646676659584045,1.5609842538833618,-0.22102543711662292
-0.650439977645874,1.5580767393112183,-0.22351540625095367
-0.6274493932723999,1.5335639715194702,-0.22283297777175903
-0.6050392389297485,1.5087448358535767,-0.22196179628372192
-0.5786277651786804,1.472942590713501,-0.2193974405527115
-0.5736204385757446,1.491025447845459,-0.2246745079755783
-0.5547295212745667,1.47291898727417,-0.2244730144739151
-0.5362430810928345,1.4545893669128418,-0.22414663434028625
-0.5194068551063538,1.4397001266479492,-0.2242814302444458
-0.5063697099685669,1.4356940984725952,-0.2260206937789917
-0.476002037525177,1.4126052856445312,-0.22686271369457245
0.4746226668357849,1.4131255149841309,-0.22651241719722748
0.4869665205478668,1.4175208806991577,-0.22498321533203125
0.4994033873081207,1.4218088388442993,-0.2234225571155548
0.512027382850647,1.425958514213562,-0.22180426120758057
0.5340346693992615,1.4554160833358765,-0.2240525633096695
0.5524442195892334,1.4737943410873413,-0.22436308860778809
0.5681986808776855,1.484825611114502,-0.22354620695114136
0.5899258852005005,1.5100712776184082,-0.22476746141910553
0.6134681701660156,1.5386900901794434,-0.22639727592468262
0.6270347237586975,1.5420573949813843,-0.2241358757019043
0.6497499942779541,1.5667058229446411,-0.2248668074607849
0.671343207359314,1.5875489711761475,-0.22496211528778076
0.6978722810745239,1.6188427209854126,-0.22643578052520752
0.7090579271316528,1.614484429359436,-0.22277289628982544
0.7296897172927856,1.6312836408615112,-0.2219908982515335
0.7510218620300293,1.6476997137069702,-0.22096599638462067
0.7806138396263123,1.6815613508224487,-0.2222220003604889
0.8120914697647095,1.7187515497207642,-0.22368770837783813
0.8390347361564636,1.745128870010376,-0.22360587120056152
0.8615824580192566,1.760622501373291,-0.22193925082683563
0.9001931548118591,1.807061791419983,-0.22395747900009155
0.9266026020050049,1.8291187286376953,-0.22279711067676544
0.9622939825057983,1.868147611618042,-0.22354400157928467
0.9970972537994385,1.9031829833984375,-0.22353202104568481
1.045121669769287,1.961899757385254,-0.22605696320533752
1.0936146974563599,2.0202794075012207,-0.2282177358865738
1.1227877140045166,2.040409803390503,-0.22570767998695374
1.1732655763626099,2.097520589828491,-0.22705212235450745
1.2165534496307373,2.140719413757324,-0.22659897804260254
1.275768518447876,2.2105515003204346,-0.22865483164787292
1.3030563592910767,2.2223432064056396,-0.2242918163537979
1.3149709701538086,2.2069177627563477,-0.21701118350028992
1.3419162034988403,2.218616247177124,-0.2124401479959488
1.340775728225708,2.183457612991333,-0.2033214569091797
1.3644276857376099,2.1877641677856445,-0.19773072004318237
1.4000771045684814,2.211977005004883,-0.19382084906101227
1.5751928091049194,2.4521212577819824,-0.20789919793605804
1.8266983032226562,2.800649404525757,-0.22914330661296844
1.8608511686325073,2.811603546142578,-0.22164016962051392
1.8142571449279785,2.7028286457061768,-0.2049323171377182
1.8244798183441162,2.6777994632720947,-0.19439400732517242
1.8473386764526367,2.6722590923309326,-0.1851394772529602
1.4350545406341553,2.047417163848877,-0.1350892186164856
1.453989863395691,2.0441060066223145,-0.12757503986358643
1.4583431482315063,2.022268533706665,-0.11894963681697845
1.4626445770263672,2.0003156661987305,-0.11015360057353973
1.4648765325546265,1.974886417388916,-0.10086356848478317
2.2514991760253906,3.1599974632263184,0.37812966108322144
2.289051055908203,3.2605812549591064,0.40014827251434326
2.6143429279327393,3.785433769226074,0.47573891282081604
2.539426565170288,3.736240863800049,0.4799840450286865
2.329092025756836,3.4784390926361084,0.4558364748954773
2.2979977130889893,3.4883360862731934,0.46580857038497925
2.259906053543091,3.4885830879211426,0.4744153916835785
1.633945345878601,2.5612335205078125,0.3539792597293854
1.6232441663742065,2.585381031036377,0.36291101574897766
1.5684689283370972,2.5408315658569336,0.36196157336235046
3.0147314071655273,4.963687419891357,0.7169322371482849
2.9866421222686768,4.9968953132629395,0.7313650846481323
2.9609577655792236,5.037365436553955,0.74642014503479
2.9337947368621826,5.078301429748535,0.7614728212356567
2.925459146499634,5.14830207824707,0.7805723547935486
2.9002225399017334,5.1874775886535645,0.7949340343475342
2.876072406768799,5.234529972076416,0.8104166388511658
2.849149703979492,5.2783284187316895,0.8251280188560486
2.8283538818359375,5.331655025482178,0.8412254452705383
2.8137545585632324,5.394506454467773,0.8586935997009277
2.7925875186920166,5.447329998016357,0.8745753765106201
2.7663967609405518,5.498006343841553,0.8898454308509827
2.7454302310943604,5.558639049530029,0.9067524671554565
1.239944577217102,2.555269479751587,0.41989821195602417
1.208585262298584,2.535335063934326,0.4196556508541107
1.178638219833374,2.518878936767578,0.41978156566619873
1.1743253469467163,2.5585036277770996,0.42914435267448425
1.174026370048523,2.6088290214538574,0.44043633341789246
1.136896014213562,2.5739996433258057,0.43719393014907837
2.5642759799957275,5.9167962074279785,1.0110541582107544
2.5393433570861816,5.976409435272217,1.0269441604614258
2.508455753326416,6.025620460510254,1.0408596992492676
2.4776854515075684,6.078524112701416,1.055624008178711
2.4534401893615723,6.140958309173584,1.0718185901641846
2.4242186546325684,6.192549228668213,1.0862456560134888
2.3950345516204834,6.247931003570557,1.1011457443237305
2.362591505050659,6.300107479095459,1.1151113510131836
2.3327362537384033,6.363223552703857,1.131215214729309
2.3055784702301025,6.429113388061523,1.1477179527282715
2.2744109630584717,6.483798027038574,1.1622788906097412
2.2414004802703857,6.534673690795898,1.1762640476226807
2.2097952365875244,6.597012996673584,1.1916261911392212
2.177581548690796,6.66318941116333,1.2078158855438232
2.1175403594970703,6.64089298248291,1.2079488039016724
2.0617730617523193,6.624990940093994,1.2091296911239624
1.9962719678878784,6.575504302978516,1.2041834592819214
1.935522437095642,6.540352821350098,1.2016568183898926
1.879657506942749,6.5235700607299805,1.201866626739502
1.8202018737792969,6.495429992675781,1.200069546699524
1.7595183849334717,6.455325126647949,1.1959847211837769
1.705438494682312,6.4330363273620605,1.1951429843902588
0.8393068909645081,3.2572731971740723,0.6068316698074341
1.5914654731750488,6.361231327056885,1.1881524324417114
0.8050987720489502,3.32037091255188,0.6215259432792664
1.4921073913574219,6.352000713348389,1.1915947198867798
1.4358717203140259,6.312905788421631,1.1868568658828735
1.3768806457519531,6.254435062408447,1.178443431854248
1.327573299407959,6.236793518066406,1.1777420043945312
1.2737743854522705,6.200186729431152,1.173280954360962
1.2250498533248901,6.1858601570129395,1.172426462173462
1.1759428977966309,6.167374134063721,1.1708252429962158
1.1251516342163086,6.1371660232543945,1.1670349836349487
1.0697277784347534,6.072384357452393,1.156653642654419
1.027891993522644,6.086759090423584,1.161423683166504
0.9841469526290894,6.085592746734619,1.1631969213485718
0.9340152740478516,6.046413421630859,1.1569684743881226
0.8860978484153748,6.018238067626953,1.1528887748718262
0.8343698382377625,5.959288597106934,1.1429497003555298
0.796589732170105,5.998830795288086,1.1519538164138794
0.7438499927520752,5.916202545166016,1.1375117301940918
0.597734808921814,5.036858081817627,0.9696998596191406
0.5721272826194763,5.128330707550049,0.9881410002708435
0.5436028242111206,5.2044596672058105,1.0034977197647095
0.39951086044311523,4.1044602394104,0.7919833064079285
0.3681871294975281,4.084064483642578,0.7886724472045898
0.3470812141895294,4.17423677444458,0.8067474365234375
0.3168276250362396,4.161040782928467,0.8048964142799377
0.28623729944229126,4.140005111694336,0.8014094233512878
0.26008567214012146,4.187735080718994,0.8108651041984558
0.4262669086456299,7.7583818435668945,1.5027284622192383
0.3715507984161377,7.753312110900879,1.5022950172424316
0.3158673048019409,7.713357925415039,1.4951677322387695
0.2610611617565155,7.68450927734375,1.4902607202529907
0.20717380940914154,7.670605182647705,1.488318920135498
0.1517520546913147,7.621991157531738,1.4789044857025146
0.09820115566253662,7.592185020446777,1.4729721546173096
0.04503266140818596,7.56967306137085,1.4685276746749878
-0.007636531256139278,7.539121150970459,1.4625952243804932
-0.06000622734427452,7.535048484802246,1.4618701934814453
-0.112630695104599,7.488419532775879,1.452961802482605
-0.16431304812431335,7.472164154052734,1.4497640132904053
-0.21569785475730896,7.455697536468506,1.4458317756652832
-0.26699960231781006,7.442709922790527,1.4426462650299072
-0.3191159963607788,7.452358245849609,1.443917989730835
-0.269192636013031,5.408541202545166,1.0475378036499023
-0.30657556653022766,5.391322612762451,1.0438638925552368
-0.34452107548713684,5.396851539611816,1.044651746749878
-0.37933656573295593,5.360140800476074,1.0368022918701172
-0.41572532057762146,5.350017070770264,1.0339287519454956
-0.45069825649261475,5.324356555938721,1.0281070470809937
-0.42297759652137756,4.61079740524292,0.8896034359931946
-0.4550536274909973,4.607975482940674,0.8883911967277527
-0.4846894443035126,4.582039833068848,0.8827688694000244
-0.5164992809295654,4.5788164138793945,0.8814554810523987
-0.547075092792511,4.5678791999816895,0.8782015442848206
-0.5747050642967224,4.530024528503418,0.869805097579956
-0.6068792343139648,4.533910751342773,0.8694910407066345
-0.6319409608840942,4.484325408935547,0.8589625358581543
-0.6642101407051086,4.487759113311768,0.8586399555206299
-0.6954310536384583,4.483367919921875,0.856858491897583
-0.7242928743362427,4.4636664390563965,0.8517377376556396
-0.7509608864784241,4.436340808868408,0.8450815081596375
-0.7780041694641113,4.412628650665283,0.8391642570495605
-0.8070293664932251,4.400047302246094,0.8354029655456543
-0.8333317637443542,4.372132301330566,0.828766942024231
-0.7206661105155945,3.6432840824127197,0.6895262598991394
-0.7493072152137756,3.6535935401916504,0.6902205944061279
-0.45447683334350586,2.141963243484497,0.4037626385688782
-0.9504937529563904,4.334452152252197,0.8152867555618286
-0.9784329533576965,4.320892333984375,0.8110066652297974
-1.0103340148925781,4.321987152099609,0.8094808459281921
-1.0337516069412231,4.285381317138672,0.8009164929389954
-1.0653642416000366,4.286109447479248,0.7993305921554565
-1.0944688320159912,4.279407978057861,0.7959110736846924
-1.121619701385498,4.265058517456055,0.7911063432693481
-1.1435648202896118,4.231982231140137,0.7828845977783203
-1.1735996007919312,4.22440767288208,0.779338002204895
-1.20089590549469,4.2093706130981445,0.7744981050491333
-1.225885033607483,4.18677282333374,0.768290638923645
-1.2541964054107666,4.179100513458252,0.7643563151359558
-1.28472101688385,4.178590297698975,0.7617626190185547
-1.311181664466858,4.163023948669434,0.7564148306846619
-1.330777883529663,4.1251912117004395,0.7470464706420898
-1.3595679998397827,4.116522789001465,0.7430136799812317
-1.3857181072235107,4.100401878356934,0.7376165390014648
-1.420890212059021,4.113605976104736,0.7370656728744507
-1.4370721578598022,4.072037696838379,0.7267418503761292
-1.459968090057373,4.048319339752197,0.7196002006530762
-1.4936593770980835,4.0532612800598145,0.7175463438034058
-1.5220586061477661,4.043502330780029,0.712914764881134
-1.5388731956481934,4.0049567222595215,0.7030686736106873
-1.565795660018921,3.995384693145752,0.6980674266815186
-1.5902464389801025,3.9782989025115967,0.6917356252670288
-1.6177092790603638,3.9681012630462646,0.6866080164909363
-1.6396671533584595,3.9432735443115234,0.6789347529411316
-1.6734405755996704,3.9467265605926514,0.6761600971221924
-1.7030925750732422,3.9433817863464355,0.6718118786811829
-1.7237958908081055,3.9184818267822266,0.6637202501296997
-1.7535291910171509,3.9146835803985596,0.6592662930488586
-1.7745881080627441,3.889192581176758,0.6510658860206604
-1.8083940744400024,3.8916077613830566,0.647569477558136
-1.8215622901916504,3.8523080348968506,0.6368774175643921
-1.8610669374465942,3.868746519088745,0.6351972818374634
-1.8699687719345093,3.8224880695343018,0.6233147978782654
-1.893507480621338,3.8033063411712646,0.6156883239746094
-1.927348017692566,3.804666757583618,0.6114100217819214
-1.9496219158172607,3.7856786251068115,0.60359787940979
-1.9748131036758423,3.7736802101135254,0.5968001484870911
-1.9970827102661133,3.7542850971221924,0.5887148380279541
-2.014374256134033,3.7241744995117188,0.5788687467575073
-2.0574185848236084,3.7414915561676025,0.5764108896255493
-1.7216053009033203,3.0832104682922363,0.47041961550712585
-1.7476670742034912,3.0828163623809814,0.4657699167728424
-0.8392412066459656,1.4568215608596802,0.21778371930122375
-0.8534770607948303,1.4579858779907227,0.2156129777431488
-0.8712983131408691,1.4659457206726074,0.2143455296754837
-0.8809343576431274,1.4606531858444214,0.21106533706188202
-0.8867927193641663,1.44850492477417,0.2067352682352066
-0.8972254395484924,1.4425747394561768,0.2031545788049698
-0.898766815662384,1.4237923622131348,0.19778279960155487
-0.8996660709381104,1.4053174257278442,0.19244150817394257
-0.9007619023323059,1.3866360187530518,0.1870093196630478
-0.9021005034446716,1.3677101135253906,0.18146656453609467
-0.9114081859588623,1.3620367050170898,0.17758741974830627
-2.3725900650024414,3.497518301010132,0.4479769170284271
-2.4258174896240234,3.5236804485321045,0.4424983859062195
-1.3508819341659546,1.934064507484436,0.2379043996334076
-1.3789762258529663,1.9483180046081543,0.23448669910430908
-1.4538735151290894,2.343493700027466,-0.20729318261146545
-1.4288194179534912,2.3399691581726074,-0.21335525810718536
-1.3656871318817139,2.272839307785034,-0.21338070929050446
-1.285361647605896,2.1750411987304688,-0.20990079641342163
-0.8463120460510254,1.4793611764907837,-0.15017764270305634
-1.1501600742340088,2.04455304145813,-0.2125283032655716
-1.1310213804244995,2.0457041263580322,-0.21765655279159546
-1.0849976539611816,1.9949615001678467,-0.21681912243366241
-1.0377423763275146,1.94035804271698,-0.2152816504240036
-0.9927838444709778,1.8888334035873413,-0.21378177404403687
-0.9648869037628174,1.8677573204040527,-0.21548472344875336
-0.9179840683937073,1.8082853555679321,-0.2125689536333084
-0.8788549304008484,1.7622162103652954,-0.21086595952510834
-0.8522688746452332,1.740174651145935,-0.21185830235481262
-0.8364847302436829,1.7386900186538696,-0.21519505977630615
-0.8092355728149414,1.712465524673462,-0.21537990868091583
-0.786989688873291,1.6966651678085327,-0.21669672429561615
-0.7583507299423218,1.666613221168518,-0.21614423394203186
-0.7323250770568848,1.639566421508789,-0.21571537852287292
-0.7175853252410889,1.6371196508407593,-0.2184576541185379
-0.6797047257423401,1.5812410116195679,-0.2138577550649643
-0.65622478723526,1.5570698976516724,-0.21339400112628937
-0.6480206251144409,1.5684268474578857,-0.21774691343307495
-0.6369373202323914,1.5724984407424927,-0.22105742990970612
-0.6199187636375427,1.5621792078018188,-0.2222193479537964
-0.5946640372276306,1.5300484895706177,-0.22020570933818817
-0.5783592462539673,1.5192906856536865,-0.2211488038301468
-0.5633953809738159,1.512072205543518,-0.22261768579483032
-0.5366537570953369,1.4720269441604614,-0.21900317072868347
-0.5260906219482422,1.4754177331924438,-0.22179710865020752
-0.5054824948310852,1.4494692087173462,-0.2201116979122162
-0.4977509379386902,1.4599025249481201,-0.2239263504743576
-0.4810425043106079,1.4447362422943115,-0.2237154245376587
-0.47071582078933716,1.4477406740188599,-0.2262456715106964
-0.44116485118865967,1.423922061920166,-0.22653508186340332
-0.4288470149040222,1.41924250125885,-0.22768649458885193
0.4279184341430664,1.4196124076843262,-0.22712689638137817
0.460215300321579,1.4187219142913818,-0.22119799256324768
0.47980743646621704,1.4452192783355713,-0.2232474684715271
0.49853894114494324,1.4678683280944824,-0.22461065649986267
0.5138885378837585,1.479349970817566,-0.22419893741607666
0.5218737721443176,1.4687539339065552,-0.22039595246315002
0.5426648259162903,1.4945785999298096,-0.22198987007141113
0.5637778639793396,1.5202245712280273,-0.22342731058597565
0.5716521739959717,1.5094317197799683,-0.21946604549884796
0.5822820663452148,1.5057858228683472,-0.21654629707336426
0.6228402256965637,1.5776801109313965,-0.22428248822689056
0.6279647946357727,1.5594062805175781,-0.21908186376094818
0.6579533219337463,1.6020267009735107,-0.22237633168697357
0.6692419648170471,1.5978009700775146,-0.21906715631484985
0.6925857663154602,1.6220524311065674,-0.219594344496727
0.722521185874939,1.6602866649627686,-0.2217777520418167
0.7418896555900574,1.673431634902954,-0.22054490447044373
0.7664762735366821,1.6969083547592163,-0.22054660320281982
0.7945627570152283,1.727231502532959,-0.221306711435318
0.8179601430892944,1.7468172311782837,-0.22052063047885895
0.85031658411026,1.783556342124939,-0.2217005044221878
0.8781169652938843,1.809471607208252,-0.2214098870754242
0.9010226726531982,1.8247168064117432,-0.21969085931777954
0.9396133422851562,1.8711074590682983,-0.22154539823532104
0.9808328747749329,1.9204448461532593,-0.2234882116317749
1.0140916109085083,1.951945424079895,-0.22309589385986328
1.0659533739089966,2.017486810684204,-0.22626565396785736
1.0943872928619385,2.038141965866089,-0.22424572706222534
1.1234891414642334,2.0583341121673584,-0.22196078300476074
1.181401014328003,2.129150867462158,-0.22485782206058502
1.2207039594650269,2.1657018661499023,-0.2238341122865677
1.2762384414672852,2.228729248046875,-0.22518987953662872
1.2997946739196777,2.2337207794189453,-0.22037164866924286
1.331141710281372,2.252042531967163,-0.2167750895023346
1.3342525959014893,2.223592758178711,-0.2086460292339325
1.3496164083480835,2.214892625808716,-0.20227333903312683
1.3572824001312256,2.1924943923950195,-0.19448699057102203
1.4051004648208618,2.236698627471924,-0.19259677827358246
1.5166006088256836,2.378824234008789,-0.1985154002904892
1.7557623386383057,2.71217679977417,-0.21877145767211914
1.8596153259277344,2.8312692642211914,-0.22042438387870789
1.796705722808838,2.695951461791992,-0.20203754305839539
1.8113245964050293,2.6774075031280518,-0.19250370562076569
1.846875786781311,2.69157075881958,-0.18529066443443298
1.4280905723571777,2.052295684814453,-0.1348552256822586
1.4470157623291016,2.0490353107452393,-0.12779289484024048
1.451540231704712,2.027125597000122,-0.11948242783546448
1.4514567852020264,1.99876070022583,-0.11071296036243439
1.465155839920044,1.9891680479049683,-0.1027546226978302
2.2336318492889404,3.1555211544036865,0.36028921604156494
2.630697727203369,3.778120994567871,0.44255584478378296
2.551435708999634,3.7227094173431396,0.4463784694671631
2.3895649909973145,3.539971113204956,0.4337804317474365
2.310227394104004,3.4795186519622803,0.4350133240222931
2.266731023788452,3.4696543216705322,0.4420337975025177
1.6137417554855347,2.5080206394195557,0.32507067918777466
1.6342871189117432,2.581519365310669,0.3401229977607727
1.6097602844238281,2.586808919906616,0.34632211923599243
3.0302882194519043,4.946699619293213,0.6717832684516907
3.001089096069336,4.976412296295166,0.6852530837059021
2.994476079940796,5.051028728485107,0.7045256495475769
2.9558229446411133,5.072079658508301,0.7164185047149658
2.9326672554016113,5.115211486816406,0.7310121655464172
2.907607078552246,5.1546220779418945,0.7450190782546997
2.887110471725464,5.2089080810546875,0.7607641816139221
2.860429525375366,5.252912521362305,0.7751306891441345
2.8412957191467285,5.30574893951416,0.7904189229011536
2.802962303161621,5.3245439529418945,0.8008317947387695
2.788147211074829,5.39190673828125,0.818045973777771
2.7772183418273926,5.469927787780762,0.8369353413581848
2.756334066390991,5.526601314544678,0.8524854779243469
2.741082191467285,5.593098163604736,0.8694958090782166
1.2226775884628296,2.5408198833465576,0.3980449140071869
1.197081446647644,2.5352401733398438,0.39994221925735474
1.1813842058181763,2.550471782684326,0.40513724088668823
1.1584274768829346,2.5476274490356445,0.40734702348709106
1.1515004634857178,2.579803466796875,0.4151650071144104
2.566577911376953,5.861450672149658,0.9491016268730164
2.5482711791992188,5.939601421356201,0.9673237800598145
2.52227783203125,5.999638557434082,0.9826430678367615
2.4929652214050293,6.048168182373047,0.9959676861763
2.464815139770508,6.100034236907959,1.0099161863327026
2.4369072914123535,6.1556172370910645,1.0244015455245972
2.410377025604248,6.2227630615234375,1.0404592752456665
2.3714559078216553,6.257071018218994,1.05105459690094
2.348130941390991,6.330502033233643,1.068206787109375
2.3180947303771973,6.385486602783203,1.0822893381118774
2.288689613342285,6.443970680236816,1.0970813035964966
2.2548468112945557,6.499628067016602,1.1108464002609253
2.224710702896118,6.565864562988281,1.126393437385559
2.1879377365112305,6.613598346710205,1.1388565301895142
2.158179521560669,6.6789655685424805,1.1543192863464355
2.0973987579345703,6.648674964904785,1.1533164978027344
2.030231237411499,6.599867343902588,1.148874044418335
1.9691979885101318,6.569072723388672,1.1469472646713257
1.9097267389297485,6.541468620300293,1.1455978155136108
1.8483388423919678,6.502048015594482,1.142134189605713
1.793479561805725,6.48046875,1.1417614221572876
1.736075758934021,6.4472761154174805,1.1393520832061768
1.678713321685791,6.417778015136719,1.1372140645980835
0.8252240419387817,3.2498843669891357,0.5772345662117004
1.5705249309539795,6.376084327697754,1.1352208852767944
0.7993521094322205,3.3465921878814697,0.5972691178321838
1.4634321928024292,6.3209333419799805,1.130813717842102
1.404191017150879,6.266534805297852,1.1238666772842407
1.3549840450286865,6.253032207489014,1.1237577199935913
1.2984508275985718,6.2054243087768555,1.1172038316726685
1.2541491985321045,6.213885307312012,1.1207802295684814
1.2029215097427368,6.1841888427734375,1.1174958944320679
1.1540309190750122,6.165472507476807,1.1162430047988892
1.1027946472167969,6.127334117889404,1.1114678382873535
1.0525363683700562,6.092684745788574,1.1070038080215454
1.0067161321640015,6.084350109100342,1.106917142868042
0.9598661065101624,6.06807804107666,1.1054335832595825
0.906522810459137,6.00970458984375,1.0963307619094849
0.8657070994377136,6.023015975952148,1.1003001928329468
0.8205869197845459,6.005581855773926,1.0987021923065186
0.6735115051269531,5.1988654136657715,0.952415943145752
0.6227758526802063,5.088763236999512,0.9330112338066101
0.5780285000801086,5.016397953033447,0.9205427169799805
0.5506368279457092,5.100367546081543,0.9368253350257874
0.4093991219997406,4.056276321411133,0.745757520198822
0.381159245967865,4.058804988861084,0.7469668388366699
0.3586045801639557,4.1262030601501465,0.7601618766784668
0.3345852494239807,4.18973970413208,0.7722691297531128
0.3029898703098297,4.1688971519470215,0.7687618136405945
0.27423664927482605,4.178455352783203,0.7708917856216431
0.24752923846244812,4.222321033477783,0.7793920040130615
0.4006156623363495,7.757076740264893,1.432681918144226
0.3455963134765625,7.736408233642578,1.4297456741333008
0.2894151508808136,7.7039408683776855,1.4243192672729492
0.2351212203502655,7.690357685089111,1.4217973947525024
0.18012559413909912,7.637992858886719,1.4121742248535156
0.12653297185897827,7.619801998138428,1.4089375734329224
0.07342390716075897,7.597393989562988,1.4049875736236572
0.019668694585561752,7.5669355392456055,1.3996200561523438
-0.03276398777961731,7.547626972198486,1.396376609802246
-0.0845969095826149,7.50122594833374,1.3873207569122314
-0.13698886334896088,7.515936374664307,1.3895304203033447
-0.18795789778232574,7.468841552734375,1.3803834915161133
-0.23938967287540436,7.455955505371094,1.3776286840438843
-0.2909103035926819,7.423487186431885,1.3713182210922241
-0.34451279044151306,7.463608741760254,1.3784891366958618
-0.28644534945487976,5.3935627937316895,0.9957675337791443
-0.3241811990737915,5.39932918548584,0.9960668087005615
-0.3604699671268463,5.381832599639893,0.9921228289604187
-0.3963455259799957,5.3525519371032715,0.9860478639602661
-0.4329591989517212,5.34221076965332,0.9835218787193298
-0.4629858434200287,5.258902549743652,0.9676203727722168
-0.43666908144950867,4.5940046310424805,0.8448281288146973
-0.4699055254459381,4.606446743011475,0.8461543321609497
-0.5004889965057373,4.588049411773682,0.8417890667915344
-0.5294420123100281,4.561866760253906,0.8360594511032104
-0.5596181750297546,4.546926975250244,0.832432746887207
-0.59026038646698,4.535580158233643,0.8295032978057861
-0.6207717657089233,4.524025917053223,0.8265789151191711
-0.6503276824951172,4.504671096801758,0.8219688534736633
-0.6789185404777527,4.485278129577637,0.8171222805976868
-0.7072737812995911,4.465701580047607,0.8122897148132324
-0.7380003333091736,4.4611029624938965,0.8102201819419861
-0.7690399289131165,4.456236839294434,0.8081273436546326
-0.7939245104789734,4.417088985443115,0.7998656630516052
-0.823691725730896,4.404207229614258,0.7963055968284607
-0.8494160771369934,4.376279354095459,0.7896250486373901
-0.7336364388465881,3.6467645168304443,0.6566666960716248
-0.758542001247406,3.642052412033081,0.6545175909996033
-0.45879894495010376,2.128840446472168,0.3818192780017853
-0.9687132835388184,4.345426559448242,0.7778339982032776
-0.9920517206192017,4.309040069580078,0.7698527574539185
-1.0213923454284668,4.302726745605469,0.7667904496192932
-1.0506303310394287,4.296234607696533,0.763684093952179
-1.0779471397399902,4.282074928283691,0.7592535018920898
-1.107210636138916,4.271194934844971,0.7553724646568298
-1.1350221633911133,4.256481170654297,0.750878632068634
-1.1606006622314453,4.234166145324707,0.7450931668281555
-1.187380075454712,4.21935510635376,0.7402522563934326
-1.215986967086792,4.2118353843688965,0.7366284132003784
-1.2384980916976929,4.181812286376953,0.7290740013122559
-1.2674548625946045,4.173768520355225,0.7253919243812561
-1.2965294122695923,4.16547155380249,0.7216875553131104
-1.3185231685638428,4.134936332702637,0.7141771912574768
-1.3465137481689453,4.1266069412231445,0.7101215720176697
-1.3748100996017456,4.117985725402832,0.7059333920478821
-1.3988643884658813,4.098360538482666,0.6999412775039673
-1.4223345518112183,4.074662208557129,0.6932185888290405
-1.4482144117355347,4.0580668449401855,0.6877447962760925
-1.47910737991333,4.05584716796875,0.6846930980682373
-1.5036840438842773,4.0393476486206055,0.6788415312767029
-1.525861382484436,4.015303611755371,0.6717132925987244
-1.5559602975845337,4.0127973556518555,0.6682467460632324
-1.5812536478042603,3.995396614074707,0.6622380614280701
-1.6034852266311646,3.970670223236084,0.6550645232200623
-1.6335861682891846,3.967559576034546,0.6512370705604553
-1.6636537313461304,3.9642887115478516,0.6471384167671204
-1.684167742729187,3.93966007232666,0.6396510004997253
-1.7116347551345825,3.9286744594573975,0.6342847347259521
-1.7329694032669067,3.903273582458496,0.6266070008277893
-1.7600181102752686,3.892028570175171,0.6211368441581726
-1.776771903038025,3.8598122596740723,0.6119740605354309
-1.8058544397354126,3.8557353019714355,0.6073822379112244
-1.839124321937561,3.8580515384674072,0.6036756038665771
-1.8695672750473022,3.8529326915740967,0.5987461805343628
-1.8894482851028442,3.826910972595215,0.590523362159729
-1.9031450748443604,3.7908129692077637,0.5804098844528198
-1.931807518005371,3.7859363555908203,0.5752066373825073
-1.959851622581482,3.776851177215576,0.5691739916801453
-1.9900678396224976,3.7707791328430176,0.5635389089584351
-2.0122909545898438,3.7511870861053467,0.5557531118392944
-2.02414608001709,3.7149689197540283,0.5453411936759949
-1.7133630514144897,3.0953307151794434,0.4500752389431
-1.7352335453033447,3.084012746810913,0.4439390003681183
-0.8390608429908752,1.4672768115997314,0.2090705782175064
-0.844882071018219,1.4553991556167603,0.20511534810066223
-0.8662737011909485,1.4702670574188232,0.20490580797195435
-0.8766450881958008,1.4645599126815796,0.20164066553115845
-0.8869863748550415,1.4587684869766235,0.19837146997451782
-0.880427896976471,1.426824688911438,0.19150492548942566
-0.8815096020698547,1.408307671546936,0.18648390471935272
-0.8912202715873718,1.4026345014572144,0.18305395543575287
-0.913952648639679,1.4162116050720215,0.18198740482330322
-0.9147527813911438,1.3976200819015503,0.1767355352640152
-0.9109094738960266,1.3726824522018433,0.170736625790596
-0.9466793537139893,1.405342698097229,0.1715945601463318
-2.4108047485351562,3.526916980743408,0.42244166135787964
-1.410729169845581,2.03576397895813,0.23885515332221985
-1.5453407764434814,2.1986427307128906,0.2523375153541565
-1.3045319318771362,1.8677669763565063,-0.11723722517490387
-1.4543647766113281,2.3618462085723877,-0.2045913189649582
-1.4447734355926514,2.3853399753570557,-0.21282052993774414
-1.3615134954452515,2.284818410873413,-0.20962542295455933
-0.7836319208145142,1.3589856624603271,-0.13131441175937653
-0.8292250633239746,1.4625585079193115,-0.14479173719882965
-1.1752352714538574,2.106844663619995,-0.21332184970378876
-1.141396403312683,2.08054256439209,-0.21529650688171387
-1.105757236480713,2.050659418106079,-0.21671582758426666
-1.0634350776672363,2.0065815448760986,-0.21642053127288818
-1.0204952955245972,1.9583362340927124,-0.21531398594379425
-0.9796785116195679,1.9132663011550903,-0.21428152918815613
-0.9481927156448364,1.885141134262085,-0.214970663189888
-0.9227906465530396,1.8669098615646362,-0.2165515422821045
-0.8787757754325867,1.8100967407226562,-0.21354568004608154
-0.8538844585418701,1.791412115097046,-0.21474240720272064
-0.8277360796928406,1.768919825553894,-0.2153753787279129
-0.8022675514221191,1.7460209131240845,-0.21578316390514374
-0.7786727547645569,1.7264387607574463,-0.21648719906806946
-0.7567455172538757,1.7102710008621216,-0.21746812760829926
