X,Y,Z
-1.432450294494629,2.2770280838012695,-0.1671474725008011
-1.4242773056030273,2.3000681400299072,-0.17407579720020294
-1.4273422956466675,2.3434667587280273,-0.18264199793338776
-1.398084044456482,2.3333535194396973,-0.18698914349079132
-1.4012612104415894,2.3763344287872314,-0.1954059600830078
-1.3797122240066528,2.37943172454834,-0.20056919753551483
-1.3758583068847656,2.4126229286193848,-0.20822995901107788
-1.345483660697937,2.398003339767456,-0.2116193026304245
-1.335096001625061,2.421114206314087,-0.21835970878601074
-1.322780966758728,2.4406630992889404,-0.22474417090415955
-1.3091609477996826,2.4563353061676025,-0.23062525689601898
-1.302422046661377,2.4858169555664062,-0.2378130704164505
-1.2841919660568237,2.494781255722046,-0.24302512407302856
-1.2500295639038086,2.4723827838897705,-0.2451561838388443
-1.2412554025650024,2.498044729232788,-0.25185906887054443
-1.1941930055618286,2.447010040283203,-0.2506999969482422
-1.1864147186279297,2.476196527481079,-0.25768232345581055
-1.1720746755599976,2.491119623184204,-0.26314547657966614
-1.1822962760925293,2.5587825775146484,-0.2742404043674469
-1.2036030292510986,2.6553914546966553,-0.28862613439559937
-1.1575442552566528,2.603116273880005,-0.28680482506752014
-1.17946195602417,2.7033498287200928,-0.30177542567253113
-1.1282689571380615,2.6360535621643066,-0.29806050658226013
-1.1046680212020874,2.6328859329223633,-0.30133089423179626
-1.0985664129257202,2.6727454662323,-0.3096334934234619
-1.0883815288543701,2.7015297412872314,-0.3165932893753052
-1.0693854093551636,2.708583116531372,-0.3210325539112091
-1.058344841003418,2.737396717071533,-0.3278925120830536
-1.0483157634735107,2.7698068618774414,-0.33525851368904114
-1.031072735786438,2.784022092819214,-0.34049126505851746
-1.0247490406036377,2.827141284942627,-0.34924405813217163
-1.0045429468154907,2.833872079849243,-0.353373259305954
-0.9931313991546631,2.8661293983459473,-0.3607047200202942
-0.9852784276008606,2.9092979431152344,-0.3694610297679901
-1.0023045539855957,3.029829263687134,-0.3882548213005066
-1.0058876276016235,3.1137893199920654,-0.40235644578933716
-1.0932941436767578,3.4678525924682617,-0.45173078775405884
-1.0755374431610107,3.4971437454223633,-0.45919615030288696
-1.072133183479309,3.574531078338623,-0.4730605483055115
-1.0588774681091309,3.6223087310791016,-0.48301616311073303
-1.0432380437850952,3.6665496826171875,-0.4924273192882538
-1.0254303216934204,3.7031445503234863,-0.5008370876312256
-1.0045346021652222,3.7283377647399902,-0.5077221393585205
-0.9882411360740662,3.7721381187438965,-0.5172174572944641
-0.9653795957565308,3.7934858798980713,-0.5232941508293152
-0.9445725679397583,3.8260724544525146,-0.531038224697113
-0.9338926076889038,3.8998119831085205,-0.544525682926178
-0.9101856350898743,3.9207382202148438,-0.5507092475891113
-0.8851987719535828,3.9378156661987305,-0.5561379194259644
-0.8574414849281311,3.9434351921081543,-0.5597960352897644
-0.825207531452179,3.930014133453369,-0.5608135461807251
-0.790043830871582,3.89725661277771,-0.5589871406555176
-0.7427399754524231,3.7996909618377686,-0.5477297306060791
-0.7081209421157837,3.7625808715820312,-0.5446913242340088
-0.6747494339942932,3.7289865016937256,-0.5421395301818848
-0.6534689664840698,3.763737440109253,-0.5495758652687073
-0.6233513355255127,3.7448976039886475,-0.549173891544342
-0.579451858997345,3.6380808353424072,-0.5355111360549927
-0.5550752878189087,3.649348735809326,-0.5390181541442871
-0.53278648853302,3.675750255584717,-0.5448024868965149
-0.23464393615722656,1.7036296129226685,-0.2533974349498749
-0.4695865213871002,3.594038724899292,-0.5364031195640564
-0.44824180006980896,3.627635955810547,-0.5428356528282166
-0.41661569476127625,3.5766756534576416,-0.5366322994232178
-0.3925042748451233,3.586900234222412,-0.5396135449409485
-0.3667823374271393,3.581580638885498,-0.5402774214744568
-0.3365984261035919,3.5338642597198486,-0.5343055725097656
-0.3150169551372528,3.570556163787842,-0.540848433971405
-0.28790968656539917,3.5455210208892822,-0.538070559501648
-0.2640530467033386,3.558798313140869,-0.5411277413368225
-0.2374643087387085,3.533379077911377,-0.538321316242218
-0.21374906599521637,3.5579779148101807,-0.5426859259605408
-0.18851514160633087,3.551548719406128,-0.5423033237457275
-0.16409243643283844,3.560371160507202,-0.5442759394645691
-0.14042536914348602,3.5883123874664307,-0.5492010712623596
-0.11522237211465836,3.5813889503479004,-0.5486360192298889
-0.09006110578775406,3.589792490005493,-0.5500956773757935
-0.06536024063825607,3.6057324409484863,-0.5527353286743164
-0.040269430726766586,3.606058120727539,-0.553009033203125
-0.015274755656719208,3.6293752193450928,-0.5568369626998901
0.009830216877162457,3.5753564834594727,-0.5484297275543213
0.035214412957429886,3.5829577445983887,-0.5493617653846741
0.06150539591908455,3.6637370586395264,-0.5615397095680237
0.08614283800125122,3.628519058227539,-0.5559632182121277
0.11337076127529144,3.693492889404297,-0.5656886696815491
0.14046937227249146,3.731323480606079,-0.5708053708076477
0.1672384887933731,3.7496678829193115,-0.5729581713676453
0.19495250284671783,3.7716546058654785,-0.575676679611206
0.22249852120876312,3.7934629917144775,-0.5784000158309937
0.25112348794937134,3.826676368713379,-0.5825788974761963
0.2787718176841736,3.840459108352661,-0.5835527777671814
0.3060106933116913,3.8463423252105713,-0.5833476781845093
0.33790314197540283,3.8981664180755615,-0.5900986790657043
0.37400123476982117,3.9920830726623535,-0.6032289266586304
0.4082808792591095,4.055027008056641,-0.611125111579895
0.44010454416275024,4.086973667144775,-0.6143026351928711
0.4680531919002533,4.080284595489502,-0.6116864085197449
0.5208279490470886,4.2727861404418945,-0.6388524770736694
0.5628922581672668,4.365222454071045,-0.6507954001426697
0.5895220041275024,4.334819316864014,-0.6440381407737732
0.6371384859085083,4.453460693359375,-0.659404993057251
0.6715442538261414,4.472276210784912,-0.6599466800689697
0.7080525159835815,4.498380184173584,-0.6615259647369385
0.7423765659332275,4.5129241943359375,-0.6609841585159302
0.7762823700904846,4.523417949676514,-0.6597265005111694
0.8049256205558777,4.503205299377441,-0.6540220379829407
0.832796037197113,4.478975296020508,-0.6477710604667664
0.8595851063728333,4.450798511505127,-0.6408864259719849
0.8955309391021729,4.467963695526123,-0.6400783061981201
0.9249038100242615,4.454648017883301,-0.634981632232666
0.9510579705238342,4.425969123840332,-0.6277294754981995
0.978604257106781,4.404674053192139,-0.6215750575065613
1.0022473335266113,4.368207931518555,-0.6129817366600037
1.0250028371810913,4.327768802642822,-0.6037006378173828
0.8695241808891296,3.5614888668060303,-0.4939054846763611
0.9057104587554932,3.6008975505828857,-0.49643057584762573
0.9288645386695862,3.5875210762023926,-0.49158015847206116
0.9556286931037903,3.589059829711914,-0.4885097146034241
0.9808555245399475,3.5828142166137695,-0.4843379259109497
1.0037215948104858,3.5689852237701416,-0.4792007803916931
1.0243467092514038,3.5475456714630127,-0.47307834029197693
1.0510929822921753,3.5483810901641846,-0.46967247128486633
1.0710759162902832,3.5267906188964844,-0.46325820684432983
1.0959540605545044,3.5197346210479736,-0.4587121903896332
1.1205698251724243,3.512561321258545,-0.45420482754707336
1.1401855945587158,3.4905266761779785,-0.44768068194389343
1.1629916429519653,3.479515790939331,-0.4424409568309784
1.1882332563400269,3.4756815433502197,-0.43813061714172363
1.2112537622451782,3.4642255306243896,-0.4328266680240631
1.2371745109558105,3.459792137145996,-0.4283214211463928
1.259610891342163,3.4481844902038574,-0.4227762520313263
1.2778739929199219,3.4255149364471436,-0.41591644287109375
1.3653032779693604,3.5840070247650146,-0.4308317005634308
1.5846091508865356,4.074335098266602,-0.48482662439346313
1.6073904037475586,4.049466609954834,-0.47661495208740234
1.6264007091522217,4.017491340637207,-0.46768853068351746
1.6542260646820068,4.006861686706543,-0.4612427055835724
1.6883257627487183,4.010227203369141,-0.45635178685188293
1.9564297199249268,4.55987548828125,-0.5127076506614685
1.9133884906768799,4.376110553741455,-0.48590323328971863
1.9325144290924072,4.338756084442139,-0.47569766640663147
1.9372390508651733,4.269260883331299,-0.4620077908039093
1.5573354959487915,3.3706984519958496,-0.3598534166812897
1.5869280099868774,3.374706983566284,-0.35529011487960815
1.6139541864395142,3.3711459636688232,-0.349770188331604
1.6409810781478882,3.367375135421753,-0.3442293107509613
1.6640503406524658,3.3566794395446777,-0.33788755536079407
2.2718584537506104,4.506414890289307,-0.44649794697761536
2.3082809448242188,4.501851558685303,-0.43877872824668884
2.3470470905303955,4.5001912117004395,-0.43120571970939636
1.7252120971679688,3.253495216369629,-0.30618155002593994
1.7360843420028687,3.2218048572540283,-0.29774191975593567
1.7154687643051147,3.1316933631896973,-0.2839203476905823
1.7297353744506836,3.10661244392395,-0.27609601616859436
1.7621378898620605,3.115809440612793,-0.27125459909439087
1.329440712928772,2.313771963119507,-0.19710825383663177
1.2965342998504639,2.2207040786743164,-0.1849346160888672
0.9499031901359558,1.6022130250930786,-0.1303318589925766
0.9625659584999084,1.5994782447814941,-0.126994788646698
0.9715895652770996,1.5897413492202759,-0.12298326939344406
0.982766330242157,1.5831522941589355,-0.11911357939243317
0.9932516813278198,1.576877236366272,-0.11531783640384674
1.010267734527588,1.5802141427993774,-0.11212107539176941
1.014920711517334,1.563582420349121,-0.10740232467651367
1.02731454372406,1.5604099035263062,-0.10362425446510315
1.0379830598831177,1.553606629371643,-0.09944695979356766
1.0335077047348022,1.5239700078964233,-0.09376335144042969
2.5179443359375,3.66180157661438,-0.2161301076412201
2.573843479156494,3.6901443004608154,-0.20817847549915314
2.585555076599121,3.65390682220459,-0.1961396336555481
2.6002895832061768,3.6248185634613037,-0.18442507088184357
2.599919557571411,3.5726890563964844,-0.17113934457302094
2.6579854488372803,3.603276491165161,-0.16159190237522125
2.6269428730010986,3.716020345687866,0.32675307989120483
2.5929629802703857,3.7293221950531006,0.3374592959880829
2.5744471549987793,3.760073661804199,0.3490343689918518
1.0597773790359497,1.5727118253707886,0.14953650534152985
1.0603694915771484,1.600013017654419,0.1555902659893036
1.0402569770812988,1.594219446182251,0.15819676220417023
1.0160092115402222,1.581721305847168,0.1599697768688202
1.00795316696167,1.5957053899765015,0.16432835161685944
1.000023603439331,1.609480619430542,0.16863121092319489
0.9886112213134766,1.6161565780639648,0.17203885316848755
0.9762981534004211,1.6232658624649048,0.17538923025131226
0.9678204655647278,1.6370129585266113,0.1794688105583191
1.3530925512313843,2.3257813453674316,0.25839248299598694
1.3670090436935425,2.389070749282837,0.26890239119529724
1.802356243133545,3.2052340507507324,0.36513015627861023
1.7593255043029785,3.18405818939209,0.3670305907726288
1.7907136678695679,3.294739007949829,0.38393446803092957
1.7561968564987183,3.2862155437469482,0.3870123624801636
2.3917815685272217,4.557865619659424,0.542177140712738
2.357560873031616,4.574784278869629,0.5495156645774841
2.3179965019226074,4.576714038848877,0.5547893643379211
2.292649269104004,4.605984687805176,0.5633605718612671
2.2550582885742188,4.61505126953125,0.5691335797309875
2.2267863750457764,4.64515495300293,0.5775829553604126
2.189624309539795,4.6534037590026855,0.5831724405288696
2.1568710803985596,4.667891979217529,0.5894107818603516
2.129814624786377,4.696572303771973,0.5973218083381653
2.0982086658477783,4.718518257141113,0.6041408777236938
2.0601911544799805,4.726018905639648,0.6091434955596924
1.993911862373352,4.665162563323975,0.6052178740501404
1.7392460107803345,4.148961544036865,0.5416335463523865
1.7020530700683594,4.142787933349609,0.5439924597740173
1.6759884357452393,4.165342330932617,0.5499735474586487
1.6454578638076782,4.176894187927246,0.5545355081558228
1.6180552244186401,4.195297718048096,0.559999942779541
1.5886142253875732,4.205949783325195,0.5643754601478577
1.5638487339019775,4.231185436248779,0.5705430507659912
1.5277135372161865,4.227343559265137,0.5726104974746704
1.5020394325256348,4.252427577972412,0.5786265134811401
1.4737136363983154,4.269976615905762,0.5836476683616638
1.4463059902191162,4.286983013153076,0.5885399580001831
1.4160672426223755,4.296544075012207,0.5923432111740112
1.3873339891433716,4.313560485839844,0.5968732237815857
1.3607456684112549,4.337771415710449,0.6024413108825684
1.3335376977920532,4.361915111541748,0.6080713868141174
1.3008270263671875,4.36322546005249,0.6104521751403809
1.2746866941452026,4.386584281921387,0.6159482002258301
1.2412279844284058,4.387683391571045,0.6180304884910583
1.2147780656814575,4.41472864151001,0.6236955523490906
1.1870472431182861,4.437862873077393,0.6288520097732544
1.1531624794006348,4.43835973739624,0.630838930606842
1.1240578889846802,4.453380584716797,0.6348652839660645
1.0947285890579224,4.468232154846191,0.6388604044914246
1.0645371675491333,4.483114242553711,0.6424557566642761
1.0359219312667847,4.505330562591553,0.6471425294876099
1.003124713897705,4.51237678527832,0.6497151851654053
0.9731175899505615,4.526498794555664,0.6532843112945557
0.9336631894111633,4.494949817657471,0.6502764821052551
0.7698419690132141,3.841256856918335,0.5569438934326172
0.7424941658973694,3.8463878631591797,0.5586581230163574
0.845840334892273,4.5585784912109375,0.6632997989654541
0.8194968104362488,4.59844446182251,0.6703225374221802
0.7900036573410034,4.619001865386963,0.6745532155036926
0.7602633237838745,4.639368057250977,0.6787970066070557
0.7277679443359375,4.644303798675537,0.6806597113609314
0.6977267861366272,4.6721343994140625,0.6855990290641785
0.6657493114471436,4.6843791007995605,0.6882762312889099
0.6340997815132141,4.700240612030029,0.6915243864059448
0.6032528877258301,4.719659805297852,0.6953213214874268
0.5731936693191528,4.746536731719971,0.7002556920051575
0.540021538734436,4.750216484069824,0.7016767263412476
0.508385181427002,4.776866436004639,0.7061640024185181
0.47472527623176575,4.780171871185303,0.7072282433509827
0.44317296147346497,4.806328296661377,0.7117113471031189
0.41065704822540283,4.8206939697265625,0.7144811749458313
0.3777134120464325,4.830981731414795,0.7166828513145447
0.34513700008392334,4.85651159286499,0.7211330533027649
0.31160053610801697,4.866437911987305,0.7228460311889648
0.2788214087486267,4.8915629386901855,0.7268538475036621
0.24531976878643036,4.908748149871826,0.7297195792198181
0.21158580482006073,4.921834945678711,0.7320120930671692
0.1772831231355667,4.938568592071533,0.7348909974098206
0.1433468759059906,4.9550461769104,0.7377634644508362
0.10916447639465332,4.9713616371154785,0.7401567101478577
0.07481548190116882,4.995174407958984,0.7436554431915283
0.040015809237957,5.003294944763184,0.7448538541793823
0.004570558667182922,5.022764205932617,0.7477788329124451
-0.03041882812976837,5.030394554138184,0.7489774823188782
-0.06581559777259827,5.06096076965332,0.7536280751228333
-0.1007753238081932,5.052700042724609,0.7521799802780151
-0.1371145248413086,5.098296642303467,0.7586081027984619
-0.17226211726665497,5.089568138122559,0.7569866180419922
-0.20900942385196686,5.107598304748535,0.7593765258789062
-0.2456469088792801,5.129248142242432,0.76234370470047
-0.2838094234466553,5.173786640167236,0.7687469720840454
-0.31917887926101685,5.164087772369385,0.766893744468689
-0.29839351773262024,4.340785980224609,0.6440412402153015
-0.32596465945243835,4.300180435180664,0.6374548077583313
-0.35570618510246277,4.297948837280273,0.6366013884544373
-0.3855719268321991,4.295499801635742,0.6357439160346985
-0.41058164834976196,4.242835998535156,0.6274908185005188
-0.4344243109226227,4.1862053871154785,0.6186118125915527
-0.4599241614341736,4.148674011230469,0.6122299432754517
-0.48212921619415283,4.091856002807617,0.603063702583313
-0.5060110688209534,4.054098129272461,0.5967506170272827
-0.5270412564277649,3.9970204830169678,0.5876337289810181
-0.5500485301017761,3.958976984024048,0.5813568830490112
-0.5724886059761047,3.9169118404388428,0.5745087265968323
-0.5941138863563538,3.878727436065674,0.5678803324699402
-0.6145895719528198,3.8366165161132812,0.5607243776321411
-0.6326026320457458,3.782963514328003,0.5519301891326904
-0.6547937989234924,3.755864381790161,0.5470460057258606
-0.6712338924407959,3.6981794834136963,0.5377475619316101
-0.6938228607177734,3.6745595932006836,0.533430278301239
-0.7129697799682617,3.639639139175415,0.5271813869476318
-0.7332085371017456,3.612210273742676,0.5220268368721008
-0.7427307963371277,3.5354700088500977,0.5098026394844055
-0.7605257630348206,3.500288248062134,0.5036157369613647
-0.7836059331893921,3.4875333309173584,0.5006623268127441
-0.8000266551971436,3.448331594467163,0.4939678907394409
-0.8235426545143127,3.443093776702881,0.49185502529144287
-0.8358681201934814,3.392625570297241,0.48329105973243713
-0.8541687726974487,3.3684070110321045,0.4785163104534149
-0.871912956237793,3.3401718139648438,0.4731689989566803
-0.8931154608726501,3.326852798461914,0.46998122334480286
-0.9058881998062134,3.283562421798706,0.46259236335754395
-0.9206987023353577,3.2516231536865234,0.45653823018074036
-0.9361981153488159,3.223345994949341,0.4510420560836792
-0.9539141058921814,3.2023260593414307,0.4465758204460144
-0.9693113565444946,3.1737492084503174,0.44108155369758606
-0.9786974787712097,3.1265923976898193,0.43304771184921265
-1.0003103017807007,3.120084762573242,0.4305931627750397
-1.0117281675338745,3.0841705799102783,0.4239000678062439
-1.0304511785507202,3.070160388946533,0.4202287197113037
-1.0462507009506226,3.0487918853759766,0.41560396552085876
-1.0611021518707275,3.0234971046447754,0.4104345738887787
-1.0796055793762207,3.0090696811676025,0.4067727029323578
-1.0920283794403076,2.9802141189575195,0.40099674463272095
-1.106652021408081,2.95865535736084,0.396169513463974
-1.1268891096115112,2.9513964653015137,0.3932533860206604
-1.1360058784484863,2.915029525756836,0.3864781856536865
-1.1348810195922852,2.8533592224121094,0.37639909982681274
-1.1487035751342773,2.8314828872680664,0.3715362846851349
-1.1617439985275269,2.8097822666168213,0.3665808141231537
-1.14626944065094,2.719979763031006,0.35279184579849243
-1.1418676376342773,2.6590116024017334,0.3428627848625183
-1.148033618927002,2.6229028701782227,0.3361662030220032
-1.1582906246185303,2.597553253173828,0.33084696531295776
-1.1836286783218384,2.6078341007232666,0.32989954948425293
-1.1964176893234253,2.5895819664001465,0.32531464099884033
-1.2487412691116333,2.655534267425537,0.33125582337379456
-1.2539504766464233,2.6191160678863525,0.3243338167667389
-1.2618058919906616,2.589879274368286,0.31829309463500977
-1.27556312084198,2.574901580810547,0.31389880180358887
-1.2859660387039185,2.5527760982513428,0.30862537026405334
-1.2981796264648438,2.5339391231536865,0.3037460446357727
-1.3086985349655151,2.51145339012146,0.29842379689216614
-1.3146706819534302,2.482426166534424,0.29225286841392517
-1.2039768695831299,2.238027334213257,0.2609614133834839
-1.3324625492095947,2.438429594039917,0.2815629243850708
-1.3442083597183228,2.419106960296631,0.2763625979423523
-1.3628263473510742,2.4135854244232178,0.27277296781539917
-1.3728487491607666,2.3949198722839355,0.26758357882499695
-1.3807426691055298,2.3728480339050293,0.2620523273944855
-1.4051594734191895,2.377030372619629,0.2592480480670929
-1.40202796459198,2.334096908569336,0.2512310743331909
-1.429419994354248,2.345271110534668,0.24898096919059753
-1.4119793176651,2.283393144607544,0.23903830349445343
-1.4651148319244385,2.3332910537719727,0.24056699872016907
-1.4770113229751587,2.3170418739318848,0.23512451350688934
-1.4668848514556885,2.2685258388519287,0.22632074356079102
-1.4732472896575928,2.2462737560272217,0.2202402949333191
-1.4782283306121826,2.220142364501953,0.21357490122318268
-1.4666680097579956,2.172114133834839,0.20482568442821503
-1.5025349855422974,2.1952967643737793,0.20277506113052368
-1.4868582487106323,2.1403727531433105,0.19311942160129547
-1.4967575073242188,2.124429702758789,0.187037393450737
-1.5034358501434326,2.1058402061462402,0.18071070313453674
-1.5132871866226196,2.089657783508301,0.17425517737865448
-1.5224961042404175,2.0737931728363037,0.1676752120256424
-1.5307540893554688,2.058478355407715,0.1611391007900238
-1.5181366205215454,2.143463134765625,-0.10943208634853363
-1.484145998954773,2.128833770751953,-0.11487085372209549
-1.4954053163528442,2.177633285522461,-0.12337485700845718
-1.491586685180664,2.2081756591796875,-0.13110236823558807
-1.479995608329773,2.2249648571014404,-0.13765469193458557
-1.463701605796814,2.2353367805480957,-0.14370933175086975
-1.4509990215301514,2.252490282058716,-0.15021394193172455
-1.4392106533050537,2.2688963413238525,-0.15636274218559265
-1.4284785985946655,2.2890632152557373,-0.1628570705652237
-1.415386438369751,2.3059232234954834,-0.169060617685318
-1.4071186780929565,2.328812599182129,-0.17547820508480072
-1.3942005634307861,2.345228910446167,-0.18141762912273407
-1.3885420560836792,2.375281810760498,-0.1884593814611435
-1.3790251016616821,2.3983850479125977,-0.1949201375246048
-1.3657917976379395,2.4144747257232666,-0.20068766176700592
-1.3441940546035767,2.4172186851501465,-0.20531094074249268
-1.3266193866729736,2.4264705181121826,-0.2104223072528839
-1.3149973154067993,2.445626735687256,-0.21630212664604187
-1.3041071891784668,2.468630790710449,-0.2225804328918457
-1.2931119203567505,2.4915153980255127,-0.22881580889225006
-1.2825183868408203,2.5140323638916016,-0.23492328822612762
-1.2647168636322021,2.5225844383239746,-0.2397070676088333
-1.2256876230239868,2.489377737045288,-0.24038423597812653
-1.2140662670135498,2.511906385421753,-0.24646364152431488
-1.1814082860946655,2.488281726837158,-0.24780955910682678
-1.1784921884536743,2.5279035568237305,-0.255412757396698
-1.1795755624771118,2.5783653259277344,-0.2641601860523224
-1.1753734350204468,2.6182382106781006,-0.2719094753265381
-1.188308596611023,2.6971352100372314,-0.2837887406349182
-1.1378713846206665,2.6338300704956055,-0.2807064354419708
-1.1142702102661133,2.630784511566162,-0.2838188111782074
-1.1028624773025513,2.6561834812164307,-0.2899930775165558
-1.0871731042861938,2.670581817626953,-0.294937402009964
-1.082601547241211,2.7138607501983643,-0.30305197834968567
-1.0627820491790771,2.7212204933166504,-0.30717936158180237
-1.0530433654785156,2.7536754608154297,-0.31411585211753845
-1.0363905429840088,2.767822027206421,-0.3189677298069
-1.0274487733840942,2.803805112838745,-0.3263116180896759
-1.0152000188827515,2.8325695991516113,-0.3327573835849762
-1.0035088062286377,2.8650732040405273,-0.33976730704307556
-0.9859539270401001,2.878911018371582,-0.3444894254207611
-0.9755545258522034,2.9147517681121826,-0.3518596291542053
-0.9595956802368164,2.935934066772461,-0.35732483863830566
-0.9504356980323792,2.9792115688323975,-0.36555176973342896
-0.932590126991272,2.9965755939483643,-0.37067168951034546
-0.9206374287605286,3.0322561264038086,-0.37805211544036865
-0.9123674631118774,3.0828845500946045,-0.3871349096298218
-0.9269952178001404,3.215521812438965,-0.4066595137119293
-0.9409614205360413,3.352174758911133,-0.4269257187843323
-1.0053379535675049,3.6798107624053955,-0.4719144403934479
-0.9878934025764465,3.720125913619995,-0.48025280237197876
-0.9712005257606506,3.764070749282837,-0.4888964891433716
-0.9539333581924438,3.807950496673584,-0.49761563539505005
-0.9391998648643494,3.8629727363586426,-0.5078436136245728
-0.9192768931388855,3.899110794067383,-0.5156465172767639
-0.9007094502449036,3.9466934204101562,-0.5247015953063965
-0.8778334856033325,3.9751815795898438,-0.5312405228614807
-0.8580557703971863,4.018640041351318,-0.5398266911506653
-0.8370895981788635,4.05817985534668,-0.5479468107223511
-0.8116942644119263,4.078685760498047,-0.5532827377319336
-0.7919861674308777,4.133389472961426,-0.563170313835144
-0.7727723717689514,4.191721439361572,-0.5735973119735718
-0.7421424984931946,4.188958168029785,-0.5757049322128296
-0.7142070531845093,4.201233863830566,-0.5798798203468323
-0.6871569752693176,4.221061706542969,-0.5846476554870605
-0.6569409370422363,4.225494384765625,-0.5873573422431946
-0.6251037120819092,4.214305877685547,-0.5878700613975525
-0.590343177318573,4.17987585067749,-0.58513343334198
-0.5585578680038452,4.164395332336426,-0.5847922563552856
-0.5298640131950378,4.171751976013184,-0.5874010324478149
-0.487770676612854,4.067519664764404,-0.5742847323417664
-0.4571790397167206,4.05521297454834,-0.574150025844574
-0.42730778455734253,4.042629241943359,-0.573962926864624
-0.3990515172481537,4.045298099517822,-0.5754984617233276
-0.3707982003688812,4.0477752685546875,-0.5769727230072021
-0.34252965450286865,4.050055027008057,-0.5784469246864319
-0.3168070912361145,4.09072208404541,-0.5854611992835999
-0.2834334671497345,4.023204326629639,-0.57684326171875
-0.2563544809818268,4.040388107299805,-0.5799713730812073
-0.2299213856458664,4.072829723358154,-0.5853257775306702
-0.20152011513710022,4.0742011070251465,-0.5862486362457275
-0.17268143594264984,4.075390338897705,-0.5871854424476624
-0.14317625761032104,4.045501232147217,-0.5833038091659546
-0.11477087438106537,4.038618087768555,-0.5825542211532593
-0.0870986059308052,4.062459945678711,-0.586266279220581
-0.05889580771327019,4.06291389465332,-0.5866317749023438
-0.03039267472922802,4.09410285949707,-0.591472327709198
-0.0019552295561879873,4.0633111000061035,-0.5868324041366577
0.026402993127703667,4.08644962310791,-0.5899974703788757
0.05438986048102379,4.055267810821533,-0.5853481292724609
0.08189849555492401,4.020028591156006,-0.5801435708999634
0.11060522496700287,4.046465873718262,-0.5836991667747498
0.14026962220668793,4.076601505279541,-0.5874143242835999
0.16989894211292267,4.106538772583008,-0.5911303162574768
0.1984245628118515,4.105364799499512,-0.5903928279876709
0.22843649983406067,4.131019115447998,-0.593538224697113
0.25949668884277344,4.168086051940918,-0.5979717373847961
0.2851523458957672,4.112334251403809,-0.588905394077301
0.328338086605072,4.303243160247803,-0.6151763200759888
0.37757399678230286,4.532284736633301,-0.6468179821968079
0.4122726619243622,4.564414978027344,-0.6503227949142456
0.4499674141407013,4.623322486877441,-0.6570499539375305
0.48621687293052673,4.65494966506958,-0.6598709225654602
0.5176910161972046,4.644063472747803,-0.6567144393920898
0.5499852299690247,4.640641212463379,-0.6546460390090942
0.5802755951881409,4.621677875518799,-0.6501985788345337
0.6107478141784668,4.606413841247559,-0.6459344029426575
0.6410545706748962,4.587043762207031,-0.6411015391349792
0.6696267127990723,4.559863567352295,-0.6352502703666687
0.7002066969871521,4.547804832458496,-0.6315500736236572
0.7330096960067749,4.550896167755127,-0.6295579075813293
0.7606719136238098,4.523245334625244,-0.6232175827026367
0.7893947958946228,4.5030388832092285,-0.6179482340812683
0.812260091304779,4.448261737823486,-0.60794997215271
0.8432082533836365,4.442939758300781,-0.6047231554985046
0.7272792458534241,3.6928465366363525,-0.5002102851867676
0.7559159994125366,3.703312635421753,-0.49922052025794983
0.7728368043899536,3.6566972732543945,-0.49056604504585266
0.8004516959190369,3.6590967178344727,-0.48848220705986023
0.8241130113601685,3.646334648132324,-0.4841991066932678
0.8493320345878601,3.6409969329833984,-0.4807721674442291
0.8708624243736267,3.6204190254211426,-0.4753701090812683
0.8961620330810547,3.614691972732544,-0.47192156314849854
0.9199036359786987,3.6011838912963867,-0.46740713715553284
0.9447521567344666,3.5952351093292236,-0.46362268924713135
0.9695894122123718,3.589104175567627,-0.4598334729671478
0.9924513101577759,3.575289726257324,-0.45507141947746277
1.0152778625488281,3.561295986175537,-0.4503077566623688
1.0425714254379272,3.5619990825653076,-0.44716140627861023
1.0626349449157715,3.5403871536254883,-0.44117534160614014
1.0847840309143066,3.526059627532959,-0.4361313581466675
1.1070815324783325,3.5115017890930176,-0.43105387687683105
1.1315076351165771,3.5042223930358887,-0.42684268951416016
1.1560146808624268,3.4967634677886963,-0.4223206341266632
1.1825093030929565,3.4966235160827637,-0.418761670589447
1.197950839996338,3.463160514831543,-0.41120415925979614
1.2933818101882935,3.656529426574707,-0.43039968609809875
1.4914506673812866,4.12649393081665,-0.481217622756958
1.5143895149230957,4.10223388671875,-0.4738706946372986
1.5350478887557983,4.070317268371582,-0.4655857980251312
1.563525676727295,4.060115814208984,-0.4598615765571594
1.5858811140060425,4.035404205322266,-0.4523748457431793
1.6193002462387085,4.039525508880615,-0.44802290201187134
1.641170859336853,4.014562129974365,-0.4404510259628296
1.669798493385315,4.003417015075684,-0.4342515766620636
1.753812313079834,4.124765872955322,-0.4422851502895355
1.9535247087478638,4.5093674659729,-0.47775930166244507
1.9262878894805908,4.365001678466797,-0.45686212182044983
1.9297460317611694,4.2918219566345215,-0.4435531795024872
1.9503034353256226,4.257598400115967,-0.43423232436180115
1.9710179567337036,4.22731876373291,-0.42534053325653076
1.5861660242080688,3.3427679538726807,-0.33172908425331116
1.6417251825332642,3.398707389831543,-0.33244702219963074
1.6498095989227295,3.3563835620880127,-0.3234640061855316
2.2299768924713135,4.45951509475708,-0.4230864644050598
2.2885868549346924,4.5004682540893555,-0.4202686846256256
2.3201334476470947,4.485060691833496,-0.4119291305541992
2.3708736896514893,4.507664680480957,-0.4069787263870239
1.7256348133087158,3.228440761566162,-0.2863917350769043
1.7440253496170044,3.210226535797119,-0.2796001732349396
1.7274062633514404,3.126613140106201,-0.26703202724456787
1.7619036436080933,3.139143705368042,-0.2627924680709839
1.7945432662963867,3.1480610370635986,-0.25817206501960754
1.3456753492355347,2.3233747482299805,-0.18642441928386688
0.950624406337738,1.615716814994812,-0.12673373520374298
0.9555419087409973,1.5994760990142822,-0.1224958598613739
0.9623018503189087,1.5865675210952759,-0.11854992061853409
0.9734176397323608,1.5800353288650513,-0.11498706042766571
0.9880658388137817,1.5803778171539307,-0.11189664900302887
0.9985265731811523,1.5740396976470947,-0.10831739008426666
0.9970542788505554,1.5474674701690674,-0.10315580666065216
1.0223345756530762,1.5638548135757446,-0.10090717673301697
1.021788239479065,1.541101336479187,-0.09611991792917252
1.041270136833191,1.5470985174179077,-0.09290749579668045
1.066977858543396,1.5629048347473145,-0.09019503742456436
2.5523242950439453,3.686293601989746,-0.20384038984775543
2.578218936920166,3.6687934398651123,-0.19342201948165894
2.6020469665527344,3.6524648666381836,-0.18309111893177032
2.5942845344543457,3.591299057006836,-0.17032957077026367
2.6370689868927,3.5993008613586426,-0.16040603816509247
2.6876766681671143,3.620666265487671,-0.1509176641702652
2.6374497413635254,3.7014217376708984,0.29750946164131165
2.6134047508239746,3.7270891666412354,0.30875125527381897
2.5979340076446533,3.7654523849487305,0.32082417607307434
1.0622265338897705,1.5627814531326294,0.13651852309703827
1.0587035417556763,1.583598256111145,0.1416340321302414
1.0466804504394531,1.5912209749221802,0.14550797641277313
1.0309971570968628,1.5918177366256714,0.1485687494277954
1.0271514654159546,1.612464427947998,0.15337000787258148
1.0065003633499146,1.606749415397644,0.15564468502998352
0.9869977235794067,1.6002228260040283,0.15757499635219574
0.979271650314331,1.6137593984603882,0.16141940653324127
0.9667577147483826,1.620963454246521,0.16463758051395416
0.9587990641593933,1.6344008445739746,0.16837474703788757
1.3459733724594116,2.3315181732177734,0.24343924224376678
1.829512119293213,3.224102735519409,0.34090569615364075
1.7576824426651,3.1523492336273193,0.33744877576828003
1.7570083141326904,3.205472946166992,0.34717661142349243
1.773200273513794,3.2890472412109375,0.3601980209350586
1.7523303031921387,3.30845308303833,0.36606791615486145
2.3768856525421143,4.569278717041016,0.5107040405273438
2.3350329399108887,4.568235874176025,0.5155168771743774
2.30409836769104,4.587509632110596,0.5225864052772522
2.2689061164855957,4.5999555587768555,0.5285733342170715
2.243208885192871,4.633409023284912,0.5368836522102356
2.20573353767395,4.6420392990112305,0.5423223376274109
2.1796281337738037,4.670804500579834,0.549950122833252
2.143249273300171,4.6783647537231445,0.5550639033317566
2.1112060546875,4.700742244720459,0.5616745948791504
2.0795137882232666,4.722653865814209,0.5682092905044556
2.0331990718841553,4.7083001136779785,0.5702842473983765
1.7685327529907227,4.174883842468262,0.508963406085968
1.7193756103515625,4.140219688415527,0.5078681111335754
1.6797091960906982,4.130797386169434,0.5096678137779236
1.6580228805541992,4.16408109664917,0.5167145729064941
1.62834632396698,4.175245761871338,0.5209754705429077
1.5990831851959229,4.186017036437988,0.5251659154891968
1.5733699798583984,4.207665920257568,0.5306060314178467
1.5448535680770874,4.225982189178467,0.5354709625244141
1.5192773342132568,4.251229763031006,0.5412139892578125
1.4889376163482666,4.261464595794678,0.5450300574302673
1.4616343975067139,4.278623104095459,0.5497135519981384
1.433946132659912,4.29568338394165,0.5543546080589294
1.4023102521896362,4.305668354034424,0.5578114986419678
1.373495101928711,4.322641372680664,0.5621699094772339
1.344675064086914,4.339370250701904,0.566521406173706
1.3120839595794678,4.3408074378967285,0.5688433647155762
1.2883015871047974,4.371740341186523,0.5750658512115479
1.2592235803604126,4.387872219085693,0.5790612101554871
1.227052092552185,4.3965840339660645,0.5820389986038208
1.1974639892578125,4.412377834320068,0.5859529972076416
1.1692296266555786,4.431582450866699,0.5903269052505493
1.140219807624817,4.4467549324035645,0.5941771268844604
1.112762451171875,4.469299793243408,0.5989879965782166
1.0801899433135986,4.47694730758667,0.6015000343322754
1.0499231815338135,4.491765975952148,0.6049819588661194
1.019453525543213,4.506387710571289,0.6084755063056946
0.9879562258720398,4.513071060180664,0.6108930706977844
0.9580647349357605,4.527100086212158,0.6143348813056946
0.7877703309059143,3.8582420349121094,0.5247704982757568
0.7557691335678101,3.840733766555786,0.5233611464500427
0.7255384922027588,3.83056902885437,0.5229679346084595
0.8349140882492065,4.585720062255859,0.6272789835929871
0.8043171167373657,4.598776340484619,0.6302856206893921
0.7755135893821716,4.626997470855713,0.6354340314865112
0.7454296350479126,4.64738130569458,0.6392807960510254
0.7125501036643982,4.65232515335083,0.6408148407936096
0.6818239092826843,4.672361850738525,0.6444640755653381
0.6488217711448669,4.676846504211426,0.6460007429122925
0.6191738247871399,4.707975387573242,0.6512596607208252
0.5864232778549194,4.71195650100708,0.6527817845344543
0.5561087131500244,4.738830089569092,0.6572704315185547
0.5235652327537537,4.750172138214111,0.6594134569168091
0.49168315529823303,4.768989562988281,0.6626294851303101
0.4596131145954132,4.787585258483887,0.665850818157196
0.42704853415489197,4.805986404418945,0.6690873503684998
0.3948141932487488,4.82412052154541,0.6723126769065857
0.36113736033439636,4.82663631439209,0.6731869578361511
0.32912930846214294,4.85598611831665,0.6775543093681335
0.2959713339805603,4.87354040145874,0.6803120374679565
0.26246964931488037,4.898620128631592,0.6841619610786438
0.2291146218776703,4.915701389312744,0.6869226694107056
0.1954345554113388,4.928686618804932,0.6891458034515381
0.16142801940441132,4.937592506408691,0.6907035112380981
0.1276189088821411,4.961784362792969,0.6940714120864868
0.09240108728408813,4.962547302246094,0.6941962838172913
0.05818374827504158,4.994000434875488,0.6986481547355652
0.023550648242235184,5.0174784660339355,0.7020187973976135
-0.011353764683008194,5.017503261566162,0.7021425366401672
-0.046504586935043335,5.044368743896484,0.7060227990150452
-0.08259023725986481,5.06717586517334,0.7088838219642639
-0.11834099143743515,5.089738368988037,0.7117484211921692
-0.15370850265026093,5.088846683502197,0.7113661766052246
-0.19007499516010284,5.114770889282227,0.714765727519989
-0.22601191699504852,5.121108055114746,0.7154608964920044
-0.2628360986709595,5.1426472663879395,0.718313455581665
-0.29907283186912537,5.140783786773682,0.7174744009971619
-0.28357556462287903,4.354976177215576,0.6072940826416016
-0.3092765510082245,4.291268825531006,0.5979360938072205
-0.34025219082832336,4.3045525550842285,0.5993393063545227
-0.37080997228622437,4.309898853302002,0.5996631383895874
-0.3966311514377594,4.2571892738342285,0.5919349789619446
-0.4206075668334961,4.200590133666992,0.5834210515022278
-0.446670264005661,4.170815467834473,0.5785478353500366
-0.4683516323566437,4.106281280517578,0.5688967704772949
-0.492507666349411,4.0685272216796875,0.5629971027374268
-0.5163597464561462,4.0267109870910645,0.5565584301948547
-0.5396541953086853,3.988661289215088,0.5506908297538757
-0.5595554113388062,3.9313740730285645,0.5419925451278687
-0.581960141658783,3.897014856338501,0.5363273024559021
-0.6008893847465515,3.8434154987335205,0.528059720993042
-0.620293915271759,3.7934699058532715,0.5203226804733276
-0.6408248543739319,3.754911422729492,0.5141963362693787
-0.661487877368927,3.720066785812378,0.508618950843811
-0.6829249262809753,3.692784309387207,0.5039364099502563
-0.7015906572341919,3.654043674468994,0.4975420832633972
-0.720514714717865,3.619014024734497,0.4916958212852478
-0.7386913895606995,3.5800063610076904,0.485330730676651
-0.7522780895233154,3.521989345550537,0.47643938660621643
-0.7675986886024475,3.47529673576355,0.46913039684295654
-0.7932366132736206,3.477727174758911,0.4683168828487396
-0.8098080158233643,3.4423489570617676,0.4622764587402344
-0.8263474702835083,3.406806230545044,0.4562356173992157
-0.8449429869651794,3.3825438022613525,0.4517615735530853
-0.8607574701309204,3.3468270301818848,0.44577544927597046
-0.8840779066085815,3.341005325317383,0.4438019394874573
-0.8987952470779419,3.305248737335205,0.43768587708473206
-0.9132364988327026,3.2694129943847656,0.4314696788787842
-0.9300474524497986,3.2448103427886963,0.4268028438091278
-0.9479133486747742,3.223773241043091,0.4226231575012207
-0.9546889066696167,3.165430784225464,0.4135803282260895
-0.9790183901786804,3.166396379470825,0.4123261570930481
-0.9926297664642334,3.1340274810791016,0.4064663350582123
-1.0042105913162231,3.098064661026001,0.4001968801021576
-1.0177916288375854,3.0694432258605957,0.3949206471443176
-1.041520118713379,3.0699825286865234,0.39338237047195435
-1.0603652000427246,3.055635929107666,0.38994458317756653
-1.0697325468063354,3.0156853199005127,0.3831785023212433
-1.0903621912002563,3.008636713027954,0.38043349981307983
-1.1106128692626953,3.001561403274536,0.37773245573043823
-1.1145588159561157,2.9507250785827637,0.3695507347583771
-1.129568338394165,2.9287281036376953,0.3649856448173523
-1.1258127689361572,2.8597331047058105,0.35462871193885803
-1.142398715019226,2.8451499938964844,0.3507958650588989
-1.1526061296463013,2.816237688064575,0.3452691435813904
-1.158043622970581,2.7765419483184814,0.33846819400787354
-1.1394883394241333,2.679405689239502,0.3246844708919525
-1.1365934610366821,2.6218392848968506,0.3158150315284729
-1.1702322959899902,2.6498661041259766,0.31705906987190247
-1.1815462112426758,2.628178119659424,0.3123595416545868
-1.202362060546875,2.627622365951538,0.3101859986782074
-1.2272794246673584,2.6336002349853516,0.3086879551410675
-1.245675802230835,2.625319242477417,0.3055218756198883
-1.2854069471359253,2.662688732147217,0.30741554498672485
-1.2876664400100708,2.6230812072753906,0.300443559885025
-1.2809628248214722,2.5660760402679443,0.29154008626937866
-1.2901551723480225,2.5400805473327637,0.28612786531448364
-1.297033667564392,2.5107414722442627,0.28034764528274536
-1.3100227117538452,2.4956037998199463,0.27604803442955017
-1.3231661319732666,2.480246067047119,0.2717032730579376
-1.3290802240371704,2.4509711265563965,0.2658228576183319
-1.3387181758880615,2.428370237350464,0.26066678762435913
-1.3529598712921143,2.4164090156555176,0.25655215978622437
-1.3611090183258057,2.394343852996826,0.2513611912727356
-1.3736037015914917,2.3786253929138184,0.24674639105796814
-1.3863288164138794,2.3626255989074707,0.2420607954263687
-1.414108395576477,2.373737096786499,0.2400510311126709
-1.401394009590149,2.318232297897339,0.23128950595855713
-1.4209721088409424,2.315833568572998,0.2278081476688385
-1.4375081062316895,2.3060386180877686,0.22338081896305084
-1.4444340467453003,2.283721685409546,0.21773330867290497
-1.4592162370681763,2.2747206687927246,0.21334606409072876
-1.4598326683044434,2.2422914505004883,0.20662328600883484
-1.4797035455703735,2.239004611968994,0.2024935483932495
-1.4943002462387085,2.2297239303588867,0.1976509392261505
-1.491338849067688,2.194544792175293,0.19056090712547302
-1.5111891031265259,2.190842628479004,0.1859407126903534
-1.482912302017212,2.1207621097564697,0.17572066187858582
-1.4964336156845093,2.1116597652435303,0.17064248025417328
-1.5115597248077393,2.1013147830963135,0.16493317484855652
-1.5203953981399536,2.0857229232788086,0.15883907675743103
-1.5199558734893799,2.057457685470581,0.15168379247188568
-1.4966168403625488,2.09690523147583,-0.09926997870206833
-1.510194182395935,2.1491527557373047,-0.10772201418876648
-1.4767850637435913,2.134070634841919,-0.11254681646823883
-1.4911388158798218,2.190148115158081,-0.12117400765419006
-1.484313726425171,2.2132699489593506,-0.12769341468811035
-1.4721416234970093,2.2303988933563232,-0.1338832974433899
-1.4636669158935547,2.254239320755005,-0.14054012298583984
-1.4478074312210083,2.2641143798828125,-0.14597129821777344
-1.4371471405029297,2.284374237060547,-0.15207527577877045
-1.4202537536621094,2.2945523262023926,-0.15746307373046875
-1.4203214645385742,2.3307600021362305,-0.16447459161281586
-1.4067860841751099,2.3476717472076416,-0.17024093866348267
-1.3972748517990112,2.371081590652466,-0.17642126977443695
-1.3806235790252686,2.3804454803466797,-0.18134978413581848
-1.3517895936965942,2.369675874710083,-0.18468041718006134
-1.3495663404464722,2.4063668251037598,-0.1917051523923874
-1.3358542919158936,2.4225196838378906,-0.19709962606430054
-1.3241912126541138,2.4418320655822754,-0.20265299081802368
-1.3098711967468262,2.457982301712036,-0.2079296112060547
-1.295573115348816,2.4739482402801514,-0.2131822258234024
-1.3120572566986084,2.5483717918395996,-0.22345522046089172
-1.2740670442581177,2.5192580223083496,-0.22470508515834808
-1.2418127059936523,2.5001797676086426,-0.2266674041748047
-1.1812329292297363,2.4211275577545166,-0.22296753525733948
-1.1641714572906494,2.4289944171905518,-0.22710342705249786
-1.1763533353805542,2.5003795623779297,-0.237171933054924
-1.1858491897583008,2.5685431957244873,-0.24710611999034882
-1.191419243812561,2.629765748977661,-0.2564975619316101
-1.1523652076721191,2.591449022293091,-0.2561104893684387
-1.1662770509719849,2.674182891845703,-0.2676032483577728
-1.1209388971328735,2.6213266849517822,-0.2655588388442993
-1.1129605770111084,2.6538681983947754,-0.27205759286880493
-1.091056227684021,2.654130697250366,-0.27530696988105774
-1.0923136472702026,2.711989402770996,-0.2843780219554901
-1.0728209018707275,2.7193541526794434,-0.2882259786128998
-1.0620030164718628,2.748211145401001,-0.2943404018878937
-1.0495551824569702,2.7733676433563232,-0.3001014292240143
-1.0293134450912476,2.7805392742156982,-0.3038235306739807
-1.0199247598648071,2.8166778087615967,-0.3106907308101654
-1.0103678703308105,2.8527109622955322,-0.3175794780254364
-0.9929388761520386,2.8666419982910156,-0.32202979922294617
-0.9788467884063721,2.891601085662842,-0.32760006189346313
-0.972489595413208,2.942467212677002,-0.33616769313812256
-0.953999400138855,2.956275463104248,-0.3405057489871979
-0.9402769804000854,2.9847023487091064,-0.34653910994529724
-0.9226422309875488,3.001993417739868,-0.35121840238571167
-0.9101791977882385,3.037846088409424,-0.35796427726745605
-0.8929011821746826,3.058758497238159,-0.36300525069236755
-0.8827979564666748,3.105700731277466,-0.3712010085582733
-0.8693724274635315,3.141315221786499,-0.37806379795074463
-0.8511454463005066,3.1620116233825684,-0.3829094171524048
-0.8395416140556335,3.208871603012085,-0.3909846842288971
-0.8227173089981079,3.2368717193603516,-0.39681029319763184
-0.8303879499435425,3.3665108680725098,-0.41525089740753174
-0.8166598081588745,3.4133758544921875,-0.4233909249305725
-0.8284976482391357,3.573566198348999,-0.4455912113189697
-0.8763284683227539,3.904294967651367,-0.4893927574157715
-0.8539256453514099,3.932652473449707,-0.49552762508392334
-0.8378403186798096,3.995123863220215,-0.5060557126998901
-0.8211390376091003,4.057559490203857,-0.5162198543548584
-0.8013706803321838,4.108530044555664,-0.5250083804130554
-0.7818381190299988,4.163186073303223,-0.5343313813209534
-0.7583369612693787,4.1986541748046875,-0.5412465929985046
-0.7370660901069641,4.253209590911865,-0.5504897832870483
-0.7122904658317566,4.288520812988281,-0.5570278763771057
-0.691311240196228,4.350469589233398,-0.5670940279960632
-0.6656418442726135,4.3854804039001465,-0.5737033486366272
-0.6417365074157715,4.435672760009766,-0.5823624134063721
-0.6159145832061768,4.482051372528076,-0.5901461243629456
-0.5909938812255859,4.5359039306640625,-0.5988874435424805
-0.5649491548538208,4.585765361785889,-0.6071622967720032
-0.5388711094856262,4.639301776885986,-0.6159790754318237
-0.5099042057991028,4.673464775085449,-0.622145414352417
-0.47570502758026123,4.661280155181885,-0.621745765209198
-0.3935462534427643,4.147774696350098,-0.5543861985206604
-0.36903297901153564,4.2003631591796875,-0.5625675320625305
-0.33884793519973755,4.191054344177246,-0.5624952912330627
-0.31441760063171387,4.258797645568848,-0.5725040435791016
-0.29756465554237366,4.453901290893555,-0.5994887351989746
-0.29191839694976807,4.892452716827393,-0.659396767616272
-0.22554326057434082,4.279534339904785,-0.5775671005249023
-0.19617554545402527,4.288598537445068,-0.5795977711677551
-0.19109487533569336,4.928039073944092,-0.6664003729820251
-0.12936411798000336,4.066380977630615,-0.5501711368560791
-0.10172491520643234,4.113574028015137,-0.5568819642066956
-0.07249337434768677,4.083163738250732,-0.5531104207038879
-0.05286743491888046,4.900232791900635,-0.66410893201828
-0.01603359542787075,4.203744888305664,-0.5695847272872925
0.013311033137142658,4.223122596740723,-0.5721057057380676
0.04345176741480827,4.246160984039307,-0.575148344039917
0.07196231186389923,4.187714576721191,-0.5671834945678711
0.09834545850753784,4.0749382972717285,-0.5516247153282166
0.12844830751419067,4.132277011871338,-0.5588642954826355
0.1571451723575592,4.131369113922119,-0.5582458972930908
0.19523181021213531,4.339094638824463,-0.5858222246170044
0.2263009399175644,4.345427513122559,-0.5862042307853699
0.2797391712665558,4.738094806671143,-0.6382186412811279
0.3133433163166046,4.747805595397949,-0.6384801864624023
0.34681370854377747,4.753416538238525,-0.6382169723510742
0.37771645188331604,4.724048137664795,-0.6332882642745972
0.40912875533103943,4.698297023773193,-0.6288077235221863
0.4221222400665283,4.487416744232178,-0.5991446375846863
