X,Y,Z
0.9393588900566101,3.5711309909820557,-0.4058215916156769
0.9781153798103333,3.617422342300415,-0.4085499048233032
1.0448436737060547,3.7605743408203125,-0.42206892371177673
1.209650993347168,4.239100456237793,-0.47278955578804016
1.239411473274231,4.230960845947266,-0.4686022996902466
1.2684794664382935,4.222799777984619,-0.4644100069999695
1.296480417251587,4.210683822631836,-0.459792822599411
1.3270058631896973,4.2057013511657715,-0.4559434652328491
1.3526324033737183,4.185749530792236,-0.45040932297706604
1.3842449188232422,4.184084892272949,-0.44657763838768005
1.4104348421096802,4.16760778427124,-0.4412461817264557
1.4394179582595825,4.158173084259033,-0.4366360306739807
1.4684950113296509,4.148478984832764,-0.43200013041496277
1.4916638135910034,4.124174118041992,-0.4256367087364197
1.5279650688171387,4.136244773864746,-0.4230048656463623
1.54879891872406,4.104071140289307,-0.4157632291316986
1.577431321144104,4.093653202056885,-0.4107964038848877
1.5942511558532715,4.054222106933594,-0.4028266370296478
1.6189887523651123,4.036535739898682,-0.39696502685546875
1.649536371231079,4.03306245803833,-0.3925066292285919
1.6752347946166992,4.0145463943481445,-0.3864365518093109
1.759401798248291,4.135831356048584,-0.39371457695961
1.9144264459609985,4.4170966148376465,-0.41563740372657776
1.9319127798080444,4.376025676727295,-0.4069521725177765
1.978438377380371,4.398477554321289,-0.40405920147895813
2.015948534011841,4.399128437042236,-0.39899471402168274
2.0934317111968994,4.488273620605469,-0.40177029371261597
2.152204751968384,4.53435754776001,-0.40051186084747314
2.197392225265503,4.5478596687316895,-0.39612460136413574
2.228926658630371,4.53308629989624,-0.3892129957675934
2.2600131034851074,4.518276214599609,-0.38209226727485657
2.286956787109375,4.496547698974609,-0.37450936436653137
2.3237555027008057,4.491405963897705,-0.3681114912033081
2.369218349456787,4.5034379959106445,-0.3630290925502777
1.7233192920684814,3.2233965396881104,-0.25542017817497253
1.7488802671432495,3.2188961505889893,-0.25058144330978394
1.7321683168411255,3.135159969329834,-0.2394629716873169
1.7629567384719849,3.1407341957092285,-0.23528727889060974
1.7993286848068237,3.1563961505889893,-0.23179426789283752
1.3462024927139282,2.3245363235473633,-0.1671471744775772
0.9550480246543884,1.6231321096420288,-0.11416254192590714
0.9580042362213135,1.603459119796753,-0.11017411202192307
0.9687250256538391,1.597210168838501,-0.107159323990345
0.9778421521186829,1.5872749090194702,-0.10378983616828918
0.9905380606651306,1.5841889381408691,-0.10085362195968628
0.9988706707954407,1.5745285749435425,-0.09749928116798401
1.0163135528564453,1.577473759651184,-0.09471862763166428
1.0162622928619385,1.5544487237930298,-0.0904167890548706
1.0263937711715698,1.5479674339294434,-0.08710978180170059
1.0414378643035889,1.547497272491455,-0.08395665884017944
1.0540239810943604,1.5438696146011353,-0.0805714949965477
2.548260450363159,3.6806259155273438,-0.18429017066955566
2.5828659534454346,3.6759729385375977,-0.17574800550937653
2.602313995361328,3.6530771255493164,-0.16630245745182037
2.6125049591064453,3.617356777191162,-0.15613245964050293
2.6418395042419434,3.6060895919799805,-0.14648059010505676
2.6877896785736084,3.621105194091797,-0.1378108412027359
2.6391751766204834,3.7035117149353027,0.25284889340400696
2.6026296615600586,3.70959210395813,0.26141059398651123
2.599921941757202,3.767805576324463,0.27362754940986633
1.063086986541748,1.563812494277954,0.11655595153570175
1.0599429607391357,1.5844769477844238,0.12103898078203201
1.043418049812317,1.5858145952224731,0.12402694672346115
1.0362812280654907,1.5995278358459473,0.12778379023075104
1.0159378051757812,1.5938166379928589,0.12987589836120605
0.9995309710502625,1.5947104692459106,0.13245373964309692
0.9922488927841187,1.6081736087799072,0.1358991116285324
0.9806392788887024,1.615037202835083,0.13874460756778717
0.9681447148323059,1.6223102807998657,0.14161090552806854
0.964012622833252,1.6426175832748413,0.14554597437381744
1.3478130102157593,2.3337337970733643,0.20969489216804504
1.8285366296768188,3.2203328609466553,0.2932136356830597
1.7510664463043213,3.1383750438690186,0.28943589329719543
1.756004810333252,3.20194149017334,0.2989515960216522
1.7723554372787476,3.2856767177581787,0.31032440066337585
1.748146891593933,3.2981879711151123,0.31489136815071106
2.372331380844116,4.556933879852295,0.43967103958129883
2.335758686065674,4.566460609436035,0.44506019353866577
2.306576728820801,4.589396953582764,0.4517228305339813
2.2662923336029053,4.591506481170654,0.45608532428741455
2.238940954208374,4.621641159057617,0.4631316363811493
2.2049195766448975,4.6374053955078125,0.46873584389686584
2.1740779876708984,4.655697345733643,0.47442856431007385
2.144413471221924,4.6774516105651855,0.480455219745636
2.104593276977539,4.682185173034668,0.4845050871372223
2.071688413619995,4.700562953948975,0.48992761969566345
2.036496877670288,4.711167335510254,0.4944683909416199
1.7818958759307861,4.202200412750244,0.44405215978622437
1.7205064296722412,4.138992786407471,0.4401904046535492
1.6896946430206299,4.151238918304443,0.44420385360717773
1.6593097448349,4.163054466247559,0.4481501579284668
1.6298370361328125,4.174269676208496,0.4519672989845276
1.6033596992492676,4.1924238204956055,0.4565364420413971
1.5733357667922974,4.203388690948486,0.4601600766181946
1.5421675443649292,4.214533805847168,0.4637141525745392
1.5180063247680664,4.24354887008667,0.46922874450683594
1.487992286682129,4.25378942489624,0.4726337790489197
1.4582605361938477,4.263698577880859,0.47599872946739197
1.430480718612671,4.280928611755371,0.48006510734558105
1.3989896774291992,4.290971755981445,0.48319533467292786
1.3726264238357544,4.31543493270874,0.4879506528377533
1.3396129608154297,4.317321300506592,0.4901474714279175
1.3139656782150269,4.341088771820068,0.4948188066482544
1.2879177331924438,4.364747047424316,0.49947965145111084
1.256496787071228,4.373591423034668,0.5021389126777649
1.2224105596542358,4.374868392944336,0.5039799809455872
1.1950366497039795,4.3982133865356445,0.5083629488945007
1.1663146018981934,4.41364860534668,0.5118169784545898
1.1373916864395142,4.428905010223389,0.5152833461761475
1.1088205575942993,4.447869300842285,0.5189807415008545
1.0800549983978271,4.470647811889648,0.523032546043396
1.049787998199463,4.485559463500977,0.5261750817298889
1.0180532932281494,4.4926066398620605,0.5284062027931213
0.9900925755500793,4.514485836029053,0.5323905348777771
0.9537821412086487,4.498238563537598,0.5319040417671204
0.7828666567802429,3.828122854232788,0.4536045789718628
0.7541626691818237,3.8257875442504883,0.454254150390625
0.7225990295410156,3.8079984188079834,0.4530855715274811
0.8366519212722778,4.583733558654785,0.5465264916419983
0.8080466389656067,4.608340263366699,0.5506272315979004
0.7752631306648254,4.613754749298096,0.5524169206619263
0.7438044548034668,4.626617431640625,0.5547721982002258
0.7122024297714233,4.639263153076172,0.5571321845054626
0.6815813183784485,4.659368991851807,0.5604201555252075
0.6501282453536987,4.671522617340088,0.562770664691925
0.6191153526306152,4.691208839416504,0.5660730004310608
0.5891979932785034,4.718353271484375,0.5701838135719299
0.5559666156768799,4.722259044647217,0.5712164640426636
0.5248411893844604,4.745204448699951,0.5745829939842224
0.4930208921432495,4.764086723327637,0.5774902701377869
0.46056830883026123,4.77500057220459,0.5794564485549927
0.4288135766983032,4.8011908531188965,0.5833202600479126
0.3947000801563263,4.79622220993042,0.5832938551902771
0.3627605140209198,4.82200288772583,0.5867223143577576
0.33026593923568726,4.843698024749756,0.5896845459938049
0.2977215647697449,4.86904239654541,0.5931232571601868
0.2631676495075226,4.870956897735596,0.5937433838844299
0.23036684095859528,4.8958353996276855,0.5971861481666565
0.19658276438713074,4.905007839202881,0.5986411571502686
0.1634080559015274,4.937241554260254,0.6025945544242859
0.12903210520744324,4.942117214202881,0.6032384634017944
0.09433239698410034,4.966148853302002,0.6062521934509277
0.0598544143140316,4.974419116973877,0.607370138168335
0.025437120348215103,5.005712985992432,0.6113296151161194
-0.009355156682431698,5.005755424499512,0.6114426851272583
-0.044445283710956573,5.032741546630859,0.614499032497406
-0.08014199137687683,5.040087699890137,0.6151825189590454
-0.11558473855257034,5.05494499206543,0.6168150901794434
-0.1511302888393402,5.069555759429932,0.6184470057487488
-0.18722333014011383,5.091663837432861,0.62102210521698
-0.22255590558052063,5.090275287628174,0.6207478642463684
-0.25955209136009216,5.1235527992248535,0.6242921948432922
-0.2965037226676941,5.137171745300293,0.6254582405090332
-0.28171542286872864,4.357276916503906,0.5301192998886108
-0.30725449323654175,4.289535045623779,0.5215209126472473
-0.33656132221221924,4.279627799987793,0.5199840068817139
-0.36867818236351013,4.304298400878906,0.5226727724075317
-0.3949774205684662,4.259241104125977,0.5165641903877258
-0.4190045893192291,4.202499866485596,0.5090650916099548
-0.4426783323287964,4.149486064910889,0.5020568370819092
-0.46883624792099,4.123305797576904,0.4983269274234772
-0.4905107021331787,4.062302112579346,0.4904223382472992
-0.5133415460586548,4.0126752853393555,0.48391926288604736
-0.5352466702461243,3.9669101238250732,0.47761058807373047
-0.5581068396568298,3.932567834854126,0.47268086671829224
-0.5816636085510254,3.905770778656006,0.46869105100631714
-0.5996991395950317,3.844309091567993,0.46057364344596863
-0.6219164729118347,3.8094840049743652,0.45566946268081665
-0.6412451863288879,3.7631404399871826,0.4494362473487854
-0.6588930487632751,3.7129926681518555,0.4425002634525299
-0.6807337999343872,3.689502239227295,0.4387498199939728
-0.7001314163208008,3.6544461250305176,0.4336557686328888
-0.7208159565925598,3.626864433288574,0.4294743835926056
-0.7394281029701233,3.587643623352051,0.4239274859428406
-0.7530375123023987,3.5294535160064697,0.41619691252708435
-0.7611980438232422,3.4524383544921875,0.40600213408470154
-0.7959045171737671,3.4965641498565674,0.41007763147354126
-0.8081815242767334,3.442141056060791,0.4026140868663788
-0.826861560344696,3.4139485359191895,0.3982274830341339
-0.8421623110771179,3.3744120597839355,0.3925641179084778
-0.8597089648246765,3.3461453914642334,0.38819819688796997
-0.876441240310669,3.317941188812256,0.3836511969566345
-0.8948643207550049,3.297154664993286,0.37999388575553894
-0.9082154631614685,3.2574656009674072,0.37417295575141907
-0.9287312626838684,3.2438230514526367,0.37136706709861755
-0.9425327181816101,3.2076973915100098,0.3660193979740143
-0.9600212574005127,3.18652081489563,0.3622768223285675
-0.9769473671913147,3.1653640270233154,0.3584386110305786
-0.9881644248962402,3.125486135482788,0.3524932265281677
-1.0047134160995483,3.104121685028076,0.34868404269218445
-1.0214545726776123,3.082533836364746,0.3448508381843567
-1.040438175201416,3.068218231201172,0.34185799956321716
-1.054716944694519,3.04305100440979,0.3374589681625366
-1.070027232170105,3.021479845046997,0.3334888219833374
-1.088095784187317,3.0070197582244873,0.33030277490615845
-1.1009000539779663,2.9777746200561523,0.3255027234554291
-1.1161222457885742,2.9557533264160156,0.3215254843235016
-1.1096152067184448,2.879474639892578,0.3115602731704712
-1.1231920719146729,2.8577792644500732,0.3074873685836792
-1.136852741241455,2.8359010219573975,0.30339697003364563
-1.1505396366119385,2.8138577938079834,0.2992962896823883
-1.1507295370101929,2.7593729496002197,0.29177752137184143
-1.1437413692474365,2.6908748149871826,0.2827630937099457
-1.1400917768478394,2.6334805488586426,0.27491480112075806
-1.1611573696136475,2.633037567138672,0.2730194926261902
-1.1729072332382202,2.611056089401245,0.2688881754875183
-1.204091191291809,2.6313581466674805,0.2690868079662323
-1.212077260017395,2.602250576019287,0.2641372084617615
-1.2426923513412476,2.6225392818450928,0.264127254486084
-1.2823737859725952,2.6599228382110596,0.2657570540904999
-1.2991406917572021,2.647745370864868,0.2623530924320221
-1.2793999910354614,2.5622994899749756,0.25175604224205017
-1.3176213502883911,2.595642566680908,0.2527220845222473
-1.2937384843826294,2.5076138973236084,0.24189747869968414
-1.310582160949707,2.499150276184082,0.23879443109035492
-1.3209859132766724,2.476344585418701,0.23421654105186462
-1.3267035484313965,2.447052478790283,0.22905467450618744
-1.33897864818573,2.4317758083343506,0.22516344487667084
-1.3530261516571045,2.419827938079834,0.22159786522388458
-1.3622148036956787,2.3970816135406494,0.2169138342142105
-1.3712704181671143,2.3742570877075195,0.21218305826187134
-1.3828343152999878,2.3588268756866455,0.2080806940793991
-1.4022202491760254,2.356732130050659,0.2051636278629303
-1.418639898300171,2.3472094535827637,0.2014174461364746
-1.4307254552841187,2.3310470581054688,0.1970708966255188
-1.4420108795166016,2.315232753753662,0.19263549149036407
-1.4488558769226074,2.2928543090820312,0.1877148151397705
-1.4522508382797241,2.263301134109497,0.1820567399263382
-1.4673126935958862,2.2538902759552,0.17799341678619385
-1.4796191453933716,2.2414803504943848,0.17366769909858704
-1.482057809829712,2.2121028900146484,0.16781727969646454
-1.501617193222046,2.2086405754089355,0.163884699344635
-1.4802335500717163,2.147998809814453,0.15571756660938263
-1.489977478981018,2.1320676803588867,0.1507406383752823
-1.4979809522628784,2.1124584674835205,0.14529497921466827
-1.5069494247436523,2.096798896789551,0.1400347501039505
-1.520845890045166,2.087070941925049,0.13503903150558472
-1.5208557844161987,2.058363914489746,0.12861678004264832
-1.4924174547195435,2.0907604694366455,-0.08897320926189423
-1.4861774444580078,2.1140756607055664,-0.09504380822181702
-1.4743024110794067,2.1316165924072266,-0.10090451687574387
-1.5010484457015991,2.202958345413208,-0.10902249813079834
-1.4844852685928345,2.2138888835906982,-0.11426625400781631
-1.4723604917526245,2.2310593128204346,-0.11972758173942566
-1.460526466369629,2.24786639213562,-0.12503738701343536
-1.4435819387435913,2.258509874343872,-0.12992040812969208
-1.4375171661376953,2.28517746925354,-0.13561829924583435
-1.4254350662231445,2.301640033721924,-0.1406046450138092
-1.4204216003417969,2.331900119781494,-0.1464630663394928
-1.4031535387039185,2.342038631439209,-0.15106606483459473
-1.3986284732818604,2.3716652393341064,-0.15675389766693115
-1.3850139379501343,2.38836932182312,-0.16158390045166016
-1.3809897899627686,2.421870708465576,-0.16758105158805847
-1.3467236757278442,2.4006428718566895,-0.16964657604694366
-1.3364553451538086,2.4238946437835693,-0.17486344277858734
-1.3222174644470215,2.440258026123047,-0.17953743040561676
-1.3066625595092773,2.4527411460876465,-0.18381792306900024
-1.2966245412826538,2.4753758907318115,-0.18882443010807037
-1.285654067993164,2.4983327388763428,-0.19383281469345093
-1.300525426864624,2.5735414028167725,-0.20305491983890533
-1.270344853401184,2.557847499847412,-0.2049897015094757
-1.224762201309204,2.510500431060791,-0.2042565941810608
-1.1610445976257324,2.4241769313812256,-0.20012418925762177
-1.166792631149292,2.4815163612365723,-0.20777453482151031
-1.1804087162017822,2.5565149784088135,-0.2169731706380844
-1.1810802221298218,2.607287645339966,-0.22423170506954193
-1.1558568477630615,2.6012253761291504,-0.22654680907726288
-1.179268717765808,2.705472230911255,-0.23852965235710144
-1.1220667362213135,2.623842716217041,-0.23408496379852295
-1.0943312644958496,2.609922409057617,-0.23549440503120422
-1.0811309814453125,2.631955623626709,-0.2401410937309265
-1.1263017654418945,2.7981531620025635,-0.2580554187297821
-1.1223797798156738,2.8454818725585938,-0.2651691138744354
-1.102181315422058,2.85305118560791,-0.2685396671295166
-1.0789257287979126,2.853297472000122,-0.27114394307136536
-1.0662411451339722,2.882645845413208,-0.2765764892101288
-1.0513890981674194,2.904339551925659,-0.28121522068977356
-1.0387507677078247,2.9333443641662598,-0.2865518033504486
-1.0152305364608765,2.933034658432007,-0.2889176607131958
-0.9942814111709595,2.9398980140686035,-0.2919962406158447
-0.9806029200553894,2.968764066696167,-0.29729318618774414
-0.9502853155136108,2.94563364982605,-0.2973426580429077
-0.6689380407333374,2.1250269412994385,-0.2160695493221283
-0.9276290535926819,3.021479845046997,-0.30943721532821655
-0.9152002334594727,3.0574517250061035,-0.3153519332408905
-0.8981955051422119,3.0783963203430176,-0.31974002718925476
-0.8813992738723755,3.103165626525879,-0.3244672119617462
-0.8697327971458435,3.1465187072753906,-0.3310379385948181
-0.8554772734642029,3.1823463439941406,-0.3368772864341736
-0.8381664156913757,3.206754207611084,-0.3415234386920929
-0.8195574879646301,3.2273147106170654,-0.34578612446784973
-0.8018715381622314,3.2555036544799805,-0.35067278146743774
-0.7896589040756226,3.306173324584961,-0.35800400376319885
-0.7690743803977966,3.322720766067505,-0.3616752624511719
-0.7544040679931641,3.3656342029571533,-0.36824899911880493
-0.7357713580131531,3.3933522701263428,-0.373060405254364
-0.7170218825340271,3.4248995780944824,-0.37820836901664734
-0.7005867958068848,3.467684507369995,-0.3846190869808197
-0.6860114932060242,3.521796703338623,-0.3923340141773224
-0.664329469203949,3.541506290435791,-0.3962630331516266
-0.6490731835365295,3.59936261177063,-0.4042176604270935
-0.6259668469429016,3.6189932823181152,-0.4079039692878723
-0.6062647104263306,3.6575489044189453,-0.41373664140701294
-0.5868420004844666,3.69980525970459,-0.4200274348258972
-0.5685333609580994,3.753493547439575,-0.42760133743286133
-0.5477043390274048,3.795626640319824,-0.4336041510105133
-0.5242544412612915,3.826171636581421,-0.43834736943244934
-0.5035337805747986,3.8757364749908447,-0.44528600573539734
-0.48271700739860535,3.9290316104888916,-0.4527018070220947
-0.459803968667984,3.9706785678863525,-0.4586288332939148
-0.4362540543079376,4.012225151062012,-0.4643724858760834
-0.41407474875450134,4.072936534881592,-0.4723812937736511
-0.3880992829799652,4.1065216064453125,-0.4773031771183014
-0.36658066511154175,4.1901469230651855,-0.48807474970817566
-0.33079078793525696,4.111264705657959,-0.47962436079978943
-0.3068516254425049,4.17915678024292,-0.48820048570632935
-0.2765805423259735,4.165610313415527,-0.48729464411735535
-0.2475801408290863,4.175100803375244,-0.48911410570144653
-0.2161445915699005,4.13012170791626,-0.4845569431781769
-0.18580526113510132,4.096590995788574,-0.4809211492538452
-0.15724530816078186,4.097735404968262,-0.48135876655578613
-0.12846918404102325,4.09092378616333,-0.48088422417640686
-0.09912846982479095,4.076165199279785,-0.47950291633605957
-0.07091303169727325,4.084471702575684,-0.4807768166065216
-0.04229079559445381,4.06934928894043,-0.4789493680000305
-0.013863425701856613,4.038509845733643,-0.4752955436706543
0.014296825043857098,4.0540266036987305,-0.47712069749832153
0.04290267825126648,4.046065330505371,-0.47620636224746704
0.07115580886602402,4.0534467697143555,-0.47695738077163696
0.0983019471168518,4.010241985321045,-0.47150731086730957
0.12493935972452164,3.970736503601074,-0.4665224552154541
0.15282000601291656,3.9775757789611816,-0.46700799465179443
0.17977960407733917,3.9609642028808594,-0.46476277709007263
0.2067393809556961,3.940303325653076,-0.46181055903434753
0.23427917063236237,3.9427483081817627,-0.46140792965888977
0.2593255937099457,3.906284809112549,-0.456478476524353
0.28532910346984863,3.8890092372894287,-0.45382097363471985
0.31238073110580444,3.887028694152832,-0.45297205448150635
0.3384445011615753,3.8694019317626953,-0.4500044584274292
0.3652631640434265,3.8671064376831055,-0.4487675130367279
0.38971608877182007,3.8414597511291504,-0.444847971200943
0.4155685305595398,3.831084966659546,-0.44272366166114807
0.4431087076663971,3.8359529972076416,-0.44238120317459106
0.4686794579029083,3.8213717937469482,-0.4394095540046692
0.49508899450302124,3.8182260990142822,-0.43779414892196655
0.5183860659599304,3.7918143272399902,-0.4335366487503052
0.5458856225013733,3.7959811687469482,-0.4327954649925232
0.5711091756820679,3.7846109867095947,-0.4302194118499756
0.5940672159194946,3.7577240467071533,-0.4255978465080261
0.6200419664382935,3.753748893737793,-0.4236268997192383
0.6447640061378479,3.7419252395629883,-0.42078834772109985
0.6694436073303223,3.72992205619812,-0.41795071959495544
0.6924463510513306,3.7101614475250244,-0.4141005575656891
0.7158311009407043,3.6941120624542236,-0.4105243682861328
0.7471014857292175,3.7159066200256348,-0.4111368954181671
0.769787609577179,3.695664167404175,-0.40712735056877136
0.7955318093299866,3.6904640197753906,-0.4047999083995819
0.8243895173072815,3.700329303741455,-0.4038568437099457
1.004014015197754,4.364917755126953,-0.47394171357154846
1.0310628414154053,4.342986106872559,-0.46909376978874207
1.0631858110427856,4.3435773849487305,-0.4667227864265442
1.0895968675613403,4.321349143981934,-0.46186476945877075
1.1154249906539917,4.299073696136475,-0.45675116777420044
1.1409976482391357,4.276642799377441,-0.4516617953777313
1.169081211090088,4.261368751525879,-0.4472990036010742
1.2009186744689941,4.260953426361084,-0.44454583525657654
1.2303613424301147,4.252931594848633,-0.4408271610736847
1.2551335096359253,4.2298665046691895,-0.4354521632194519
1.2886643409729004,4.236422061920166,-0.4331504702568054
1.3141441345214844,4.212704181671143,-0.42766648530960083
1.3422991037368774,4.200132846832275,-0.42338088154792786
1.3746851682662964,4.202340126037598,-0.42032352089881897
1.3973203897476196,4.174783706665039,-0.4143110513687134
1.4287155866622925,4.172783374786377,-0.41083383560180664
1.447486162185669,4.133768558502197,-0.40372779965400696
1.4816259145736694,4.1386189460754395,-0.40070441365242004
1.5071885585784912,4.121526718139648,-0.39552709460258484
1.5299559831619263,4.096948623657227,-0.3896571099758148
1.5585542917251587,4.086586952209473,-0.38510093092918396
1.589708685874939,4.083354949951172,-0.38116803765296936
1.618018388748169,4.072670936584473,-0.37632372975349426
1.6399006843566895,4.047553539276123,-0.37024620175361633
1.6621050834655762,4.022084712982178,-0.3641001582145691
1.6901711225509644,4.010808944702148,-0.3592478632926941
1.947814702987671,4.536303520202637,-0.40175989270210266
1.9760005474090576,4.516108512878418,-0.3953515887260437
2.024705648422241,4.541928291320801,-0.392943412065506
2.0725107192993164,4.563630104064941,-0.39008229970932007
2.1197896003723145,4.585325241088867,-0.3869873881340027
2.1524264812469482,4.574916839599609,-0.38113877177238464
2.184500217437744,4.56021785736084,-0.37475883960723877
2.2146363258361816,4.541843891143799,-0.36811962723731995
2.245331048965454,4.527268886566162,-0.3616584837436676
2.277552843093872,4.516023635864258,-0.35545679926872253
2.308722496032715,4.500688552856445,-0.348809152841568
2.3401732444763184,4.484934329986572,-0.3420776128768921
1.7296473979949951,3.260789632797241,-0.24451957643032074
1.7385226488113403,3.225471258163452,-0.23778343200683594
1.7253540754318237,3.1487011909484863,-0.2279590666294098
1.7319045066833496,3.1098124980926514,-0.2209686040878296
1.7718344926834106,3.13246750831604,-0.21830223500728607
1.3406083583831787,2.3328325748443604,-0.15928415954113007
1.2939661741256714,2.215902805328369,-0.14809828996658325
0.950793981552124,1.6035557985305786,-0.10482504963874817
0.9634085297584534,1.600742220878601,-0.10227490216493607
0.9744607210159302,1.5942212343215942,-0.09938228875398636
0.9835209250450134,1.584241509437561,-0.09620197117328644
0.9960214495658875,1.581200361251831,-0.09348032623529434
1.010923147201538,1.5811606645584106,-0.0908508151769638
1.0154805183410645,1.5644762516021729,-0.08719085901975632
1.0256553888320923,1.5579942464828491,-0.0841093361377716
1.0427600145339966,1.5608700513839722,-0.08139176666736603
1.0491422414779663,1.5473358631134033,-0.07774520665407181
2.5449461936950684,3.7021749019622803,-0.17891256511211395
2.5698082447052,3.685351848602295,-0.1706657111644745
2.599299669265747,3.6745667457580566,-0.162389874458313
2.6276981830596924,3.664299964904785,-0.1539880484342575
2.6161959171295166,3.595926284790039,-0.1427583247423172
2.66247296333313,3.610780954360962,-0.13478511571884155
2.613907814025879,3.6938769817352295,0.2344900667667389
2.584929943084717,3.713646650314331,0.2432968020439148
2.5748395919799805,3.757979393005371,0.2533760964870453
1.0664218664169312,1.5809684991836548,0.10945384949445724
1.0541404485702515,1.5889525413513184,0.11276014149188995
1.0297291278839111,1.5767899751663208,0.11445072293281555
1.01839017868042,1.5839208364486694,0.11740560084581375
1.0103960037231445,1.5980443954467773,0.12083996832370758
0.9942743182182312,1.5987321138381958,0.1232142224907875
0.9871196746826172,1.6120983362197876,0.12642055749893188
0.9709246158599854,1.612603783607483,0.12853841483592987
0.9586827754974365,1.6197001934051514,0.13117395341396332
1.3532706499099731,2.323129892349243,0.19088038802146912
1.334367275238037,2.3292603492736816,0.19411012530326843
1.7851077318191528,3.1706156730651855,0.2677353620529175
1.7502650022506714,3.162912130355835,0.2705271244049072
1.7820109128952026,3.2739689350128174,0.28339317440986633
1.7619655132293701,3.293257713317871,0.2883559763431549
2.392498731613159,4.554181098937988,0.4032326340675354
2.349867820739746,4.553905963897705,0.4075396656990051
2.3214125633239746,4.5767130851745605,0.41370290517807007
2.288642644882202,4.592690944671631,0.41917887330055237
2.2545385360717773,4.609041690826416,0.42449504137039185
2.224778652191162,4.635936737060547,0.4308806359767914
2.1905136108398438,4.647453308105469,0.43559759855270386
2.157977342605591,4.662178039550781,0.4406174421310425
2.1238014698028564,4.677390098571777,0.4454224109649658
2.0894012451171875,4.692400932312012,0.45021092891693115
2.060155153274536,4.717601776123047,0.4559512436389923
1.9943268299102783,4.656602382659912,0.45329657196998596
1.736807942390442,4.135742664337158,0.40533897280693054
1.7094708681106567,4.155162811279297,0.40980052947998047
1.6703110933303833,4.145536422729492,0.41141030192375183
1.6436383724212646,4.164186477661133,0.4157683849334717
1.6168200969696045,4.182648658752441,0.42013436555862427
1.5871113538742065,4.193664073944092,0.4235953688621521
1.5566630363464355,4.204726219177246,0.4269058406352997
1.5287457704544067,4.222891330718994,0.43096649646759033
1.501377820968628,4.240617752075195,0.4349592924118042
1.4724856615066528,4.254516124725342,0.43859270215034485
1.442401647567749,4.264490127563477,0.44169116020202637
1.4139810800552368,4.2818827629089355,0.445378839969635
1.3878087997436523,4.306471824645996,0.4498455226421356
1.35709810256958,4.315945625305176,0.4527381360530853
1.3310022354125977,4.340025901794434,0.457184761762619
1.2983615398406982,4.341492652893066,0.45921385288238525
1.2692761421203613,4.357913494110107,0.46253129839897156
1.2443031072616577,4.389080047607422,0.4674464762210846
1.2106831073760986,4.390141010284424,0.46918490529060364
1.1840879917144775,4.413219451904297,0.4732540547847748
1.1527931690216064,4.421227931976318,0.47576287388801575
1.1252648830413818,4.444103240966797,0.4796459674835205
1.0916287899017334,4.444252967834473,0.4809782803058624
1.0598912239074707,4.451696395874023,0.48312050104141235
1.0345683097839355,4.485329627990723,0.48812219500541687
1.0026757717132568,4.492332458496094,0.49026793241500854
0.972969114780426,4.506579399108887,0.4931865334510803
0.937674880027771,4.497993469238281,0.4932863712310791
0.7662891149520874,3.811385154724121,0.41888687014579773
0.7406011819839478,3.8242077827453613,0.4212174415588379
0.8442559838294983,4.531681537628174,0.5002546906471252
0.8222360610961914,4.5907793045043945,0.5079050660133362
0.793387234210968,4.615373611450195,0.5116592645645142
0.7606663703918457,4.620724201202393,0.5130547881126404
0.7303715348243713,4.641178131103516,0.5161545872688293
0.6969451904296875,4.6461567878723145,0.517577052116394
0.664538562297821,4.6507487297058105,0.5189547538757324
0.6352843046188354,4.678191661834717,0.5229105353355408
0.6044920086860657,4.697793483734131,0.5258382558822632
0.5731896162033081,4.717246055603027,0.5285775661468506
0.5399275422096252,4.721055507659912,0.5295913815498352
0.5081658363342285,4.743986129760742,0.5327892303466797
0.4767104983329773,4.76274299621582,0.5355308651924133
0.4450187385082245,4.781290531158447,0.5382790565490723
0.4129386246204376,4.799663066864014,0.5408203601837158
0.38049450516700745,4.817849636077881,0.5431876182556152
0.34720543026924133,4.835858345031738,0.5455701351165771
0.3140910863876343,4.8497209548950195,0.5475072264671326
0.2812279760837555,4.8672194480896,0.5498812794685364
0.248136505484581,4.884495258331299,0.5522593259811401
0.21541360020637512,4.917082786560059,0.5561828017234802
0.18074819445610046,4.926219940185547,0.5573033094406128
0.14653705060482025,4.935095310211182,0.5584205985069275
0.1123509556055069,4.947612762451172,0.5599774122238159
0.0782853364944458,4.971533298492432,0.5628528594970703
0.04387667775154114,4.987455368041992,0.5648509860038757
0.00856941007077694,4.979874610900879,0.5640012621879578
-0.02626088075339794,5.0108842849731445,0.5673453211784363
-0.061421915888786316,5.037768840789795,0.5702481269836426
-0.09663974493741989,5.045000076293945,0.5709528923034668
-0.13231311738491058,5.067507266998291,0.573413610458374
-0.16758790612220764,5.066483020782471,0.5732389092445374
-0.20369574427604675,5.072971820831299,0.5737420916557312
-0.239976167678833,5.094768047332764,0.5757737755775452
-0.2779812812805176,5.143439292907715,0.5808650255203247
-0.3110538721084595,5.0988359451293945,0.5754488706588745
-0.29223567247390747,4.298820495605469,0.48486328125
-0.32060307264328003,4.2696075439453125,0.48129186034202576
-0.35147973895072937,4.282830238342285,0.48238605260849
-0.3827221393585205,4.299733638763428,0.4837101697921753
-0.40610021352767944,4.231391906738281,0.4754723906517029
-0.4300995171070099,4.1783833503723145,0.4689958691596985
-0.4545448124408722,4.129025936126709,0.46295079588890076
-0.47919967770576477,4.091152667999268,0.45823386311531067
-0.5017827749252319,4.041608810424805,0.45210811495780945
-0.5249809622764587,4.003548622131348,0.44710302352905273
-0.5482523441314697,3.9692001342773438,0.442544549703598
-0.570406973361969,3.9269726276397705,0.4371296167373657
-0.5900833606719971,3.873136520385742,0.43046340346336365
-0.6109130382537842,3.8307127952575684,0.4251005947589874
-0.6328761577606201,3.799727439880371,0.42090943455696106
-0.6482326984405518,3.734243392944336,0.41276881098747253
-0.6675929427146912,3.6954689025878906,0.40762120485305786
-0.6919177770614624,3.683239459991455,0.40541568398475647
-0.7100814580917358,3.640368700027466,0.39987003803253174
-0.7268759608268738,3.5936222076416016,0.3939371407032013
-0.7452115416526794,3.558286428451538,0.3891313672065735
-0.7587692141532898,3.5039446353912354,0.3821604251861572
-0.7855726480484009,3.5101490020751953,0.38180574774742126
-0.803509533405304,3.4783554077148438,0.37735071778297424
-0.8168876767158508,3.4275050163269043,0.3708524703979492
-0.8351588845252991,3.3992702960968018,0.36683860421180725
-0.8574082851409912,3.3899083137512207,0.3646825850009918
-0.8749422430992126,3.3615384101867676,0.360427588224411
-0.8897271156311035,3.3256800174713135,0.35542526841163635
-0.9012635350227356,3.2784552574157715,0.34923484921455383
-0.9198681116104126,3.257326364517212,0.34584617614746094
-0.935952365398407,3.228663682937622,0.34166190028190613
-0.9537191390991211,3.2074577808380127,0.3380747139453888
-0.9663748145103455,3.171384572982788,0.3329748511314392
-0.9820297360420227,3.146423578262329,0.3290785551071167
-0.996798038482666,3.1175074577331543,0.32476526498794556
-1.0136892795562744,3.0959055423736572,0.32124149799346924
-1.0252935886383057,3.0595202445983887,0.3160528838634491
-1.0458954572677612,3.0527617931365967,0.31389063596725464
-1.060027837753296,3.027514934539795,0.3098503053188324
-1.0808302164077759,3.0203752517700195,0.30765700340270996
-1.0858871936798096,2.9691483974456787,0.3009858727455139
-1.1064000129699707,2.9617934226989746,0.29874029755592346
-1.12110435962677,2.9398579597473145,0.29486897587776184
-1.1338149309158325,2.914358139038086,0.29069966077804565
-1.1278088092803955,2.8417274951934814,0.28186988830566406
-1.1446666717529297,2.826822519302368,0.27878284454345703
-1.1597540378570557,2.8082780838012695,0.2753380239009857
-1.1486247777938843,2.7288644313812256,0.26579248905181885
-1.146889567375183,2.6748828887939453,0.2588425278663635
-1.1447062492370605,2.6209444999694824,0.25194621086120605
-1.2009317874908447,2.6984612941741943,0.2576194107532501
-1.1890392303466797,2.622987985610962,0.24865910410881042
-1.1953628063201904,2.5903878211975098,0.24367395043373108
-1.2439998388290405,2.6495649814605713,0.2473369985818863
-1.2687383890151978,2.655329465866089,0.24592041969299316
-1.290656566619873,2.6536645889282227,0.24376331269741058
-1.2776639461517334,2.582242965698242,0.23517931997776031
-1.282767415046692,2.5495002269744873,0.23007792234420776
-1.288991093635559,2.520399808883667,0.2253865748643875
-1.3029298782348633,2.5047097206115723,0.22182060778141022
-1.3131825923919678,2.4820003509521484,0.21764756739139557
-1.3259100914001465,2.4666497707366943,0.2140093594789505
-1.3309885263442993,2.437579870223999,0.2092108577489853
-1.3478437662124634,2.42857027053833,0.2060537338256836
-1.359033465385437,2.4091854095458984,0.20201651751995087
-1.3673009872436523,2.3868274688720703,0.19767087697982788
-1.3750418424606323,2.364629030227661,0.19334259629249573
-1.4027882814407349,2.3757379055023193,0.19166918098926544
-1.4116226434707642,2.3526196479797363,0.18708685040473938
-1.4393162727355957,2.3634793758392334,0.18517674505710602
-1.430038571357727,2.314570903778076,0.1785898655653
-1.4498473405838013,2.311699867248535,0.17547738552093506
-1.453401803970337,2.2820639610290527,0.17026308178901672
-1.4598441123962402,2.259685516357422,0.16548781096935272
-1.4722580909729004,2.2472288608551025,0.16151238977909088
-1.4880244731903076,2.2371106147766113,0.15744075179100037
-1.4941526651382446,2.214512586593628,0.15247373282909393
-1.503891110420227,2.198742389678955,0.1479872763156891
-1.4836008548736572,2.137226104736328,0.1402188390493393
-1.4910534620285034,2.1180167198181152,0.13529349863529205
-1.4997987747192383,2.102527141571045,0.13060127198696136
-1.5050644874572754,2.0798134803771973,0.12515155971050262
-1.5140094757080078,2.06392240524292,0.12002468854188919
-1.5223678350448608,2.0483238697052,0.11486508697271347
-1.4896478652954102,2.1024281978607178,-0.08645237982273102
-1.507081389427185,2.1615281105041504,-0.0937383696436882
-1.4963467121124268,2.1782352924346924,-0.09891191124916077
-1.488215684890747,2.202434778213501,-0.10453225672245026
-1.4808249473571777,2.225956678390503,-0.10990794748067856
-1.4733279943466187,2.2493791580200195,-0.11517919600009918
-1.4520857334136963,2.2536301612854004,-0.11947199702262878
-1.440140962600708,2.2702934741973877,-0.12420915812253952
-1.4296261072158813,2.2904961109161377,-0.12915609776973724
-1.416540503501892,2.307525157928467,-0.13387393951416016
-1.4162085056304932,2.3440258502960205,-0.1396021842956543
-1.3994306325912476,2.3538336753845215,-0.1437128335237503
-1.3937571048736572,2.3840930461883545,-0.1490781456232071
-1.3684860467910767,2.3804516792297363,-0.15229937434196472
-1.3479098081588745,2.382955551147461,-0.15573827922344208
-1.3341200351715088,2.3993773460388184,-0.16003724932670593
-1.3277301788330078,2.429356813430786,-0.16526906192302704
-1.310713291168213,2.4383270740509033,-0.16896049678325653
-1.3056330680847168,2.471696615219116,-0.1743953675031662
-1.2982913255691528,2.501680612564087,-0.17957094311714172
-1.3034073114395142,2.555772542953491,-0.18649403750896454
-1.2889618873596191,2.571545124053955,-0.19063319265842438
-1.2616766691207886,2.5630736351013184,-0.19288517534732819
-1.2189011573791504,2.522960901260376,-0.1927352398633957
-1.176035761833191,2.478421688079834,-0.19200202822685242
-1.1684976816177368,2.5075466632843018,-0.1969214528799057
-1.184313178062439,2.5901050567626953,-0.20605982840061188
-1.1894420385360718,2.6516661643981934,-0.21366649866104126
-1.1613954305648804,2.6382882595062256,-0.2151939570903778
-1.1456114053726196,2.6533989906311035,-0.2190604954957962
-1.1234469413757324,2.654143810272217,-0.22158542275428772
-1.0983260869979858,2.647519111633301,-0.22348909080028534
-1.1251646280288696,2.766741991043091,-0.23605558276176453
-1.127380132675171,2.8285434246063232,-0.2438698261976242
-1.1123008728027344,2.8509600162506104,-0.24826063215732574
-1.1111867427825928,2.909543037414551,-0.25582924485206604
-1.1002309322357178,2.94254207611084,-0.2611689567565918
-1.085073471069336,2.9644775390625,-0.265546590089798
-1.0666192770004272,2.9791715145111084,-0.2691575288772583
-1.0604051351547241,3.0306429862976074,-0.2761492133140564
-1.0389310121536255,3.03780198097229,-0.279094398021698
-1.0176417827606201,3.044731616973877,-0.2820073664188385
-0.9985048174858093,3.058986186981201,-0.2855184078216553
-0.9719062447547913,3.0509560108184814,-0.28685563802719116
-0.6600639224052429,2.1251420974731445,-0.20129211246967316
-0.943037748336792,3.1123695373535156,-0.2968903183937073
-0.93011075258255,3.1484618186950684,-0.30243441462516785
-0.9163645505905151,3.184640645980835,-0.3078259229660034
-0.8874647617340088,3.1683435440063477,-0.3081650137901306
-0.8713148236274719,3.1967718601226807,-0.3128523826599121
-0.8595572710037231,3.2439768314361572,-0.31945133209228516
-0.8347931504249573,3.242173433303833,-0.3210815489292145
-0.8174667954444885,3.2704122066497803,-0.3256028890609741
-0.7979761362075806,3.290999174118042,-0.3293967545032501
-0.7812520265579224,3.322744607925415,-0.3343195915222168
-0.766305685043335,3.365870237350464,-0.34046873450279236
-0.7458856701850891,3.3861708641052246,-0.34405016899108887
-0.7268307209014893,3.413952112197876,-0.34842145442962646
-0.7114465236663818,3.4606409072875977,-0.35476186871528625
-0.6933742165565491,3.4957990646362305,-0.35995760560035706
-0.6765138506889343,3.5424246788024902,-0.36630910634994507
-0.657185435295105,3.577488422393799,-0.3712768852710724
-0.6373966336250305,3.61245059967041,-0.37627553939819336
-0.6179774403572083,3.6511073112487793,-0.3816925883293152
-0.5974879264831543,3.6858179569244385,-0.38673722743988037
-0.5789499282836914,3.7397196292877197,-0.39365333318710327
-0.5583298206329346,3.7819690704345703,-0.3992402255535126
-0.5360952019691467,3.81640887260437,-0.40404200553894043
-0.515137791633606,3.862245798110962,-0.41008418798446655
-0.4940866529941559,3.9118199348449707,-0.4165691137313843
-0.4699195325374603,3.942046880722046,-0.42071568965911865
-0.4461270868778229,3.9837660789489746,-0.42609119415283203
-0.4235193729400635,4.036876678466797,-0.43270936608314514
-0.4014970362186432,4.101440906524658,-0.4405968189239502
-0.3739827275276184,4.1156086921691895,-0.4430779218673706
-0.34491193294525146,4.114156246185303,-0.4435252547264099
-0.3120936453342438,4.069940090179443,-0.4393877685070038
-0.2888320982456207,4.145537376403809,-0.4481993615627289
-0.26002052426338196,4.147350788116455,-0.4490645229816437
-0.23074087500572205,4.141221046447754,-0.44898536801338196
-0.2011118084192276,4.127161979675293,-0.44777292013168335
-0.17036131024360657,4.093512535095215,-0.4444589614868164
-0.14162319898605347,4.086785793304443,-0.44407951831817627
-0.11298695206642151,4.07985782623291,-0.44369831681251526
-0.08447428792715073,4.072747707366943,-0.44314244389533997
-0.05604686960577965,4.065464496612549,-0.4423534572124481
-0.0271921306848526,4.050220012664795,-0.4407201111316681
0.00100437190849334,4.050304889678955,-0.44077590107917786
0.028948767110705376,4.01524543762207,-0.4370277523994446
0.05692858248949051,4.014965057373047,-0.43685346841812134
0.08560661226511002,4.049450874328613,-0.4403127133846283
0.1121828556060791,3.9905660152435303,-0.4336417317390442
0.1398438960313797,3.9741861820220947,-0.43161219358444214
0.16681045293807983,3.957634210586548,-0.4295910596847534
0.1942766010761261,3.9564483165740967,-0.42897239327430725
0.22106827795505524,3.943450927734375,-0.4269925057888031
0.2479664534330368,3.934145927429199,-0.4254351258277893
0.27469947934150696,3.9168756008148193,-0.4230306148529053
0.30137014389038086,3.907200574874878,-0.4214785397052765
0.3264857530593872,3.8819098472595215,-0.4179265797138214
0.3526631295681,3.8719358444213867,-0.4160100519657135
0.3787505030632019,3.8617818355560303,-0.41409656405448914
0.40323197841644287,3.8320817947387695,-0.4100980758666992
0.430321604013443,3.8331611156463623,-0.40940743684768677
0.45547056198120117,3.818671464920044,-0.4067362844944
0.47605863213539124,3.76932954788208,-0.40038925409317017
0.5062859058380127,3.7968955039978027,-0.40223413705825806
0.5368891954421997,3.820308208465576,-0.4036214053630829
0.5594038963317871,3.7897486686706543,-0.3992556631565094
0.5908796787261963,3.820542812347412,-0.4011181890964508
0.618464469909668,3.8242337703704834,-0.4001389741897583
0.7517001628875732,4.452245235443115,-0.4642695188522339
0.7840437889099121,4.454774379730225,-0.4629637598991394
0.8273482918739319,4.514358043670654,-0.46736618876457214
0.7051122188568115,3.7032480239868164,-0.38179272413253784
0.7427133321762085,3.759511709213257,-0.3859831988811493
0.7641271948814392,3.731633424758911,-0.38152745366096497
0.9328235983848572,4.399471759796143,-0.44793957471847534
0.9603788256645203,4.377906799316406,-0.4435986280441284
0.9922431111335754,4.379054546356201,-0.4415244460105896
1.022397756576538,4.372398376464844,-0.43868058919906616
1.0510751008987427,4.357882976531982,-0.4350450336933136
1.0814175605773926,4.350740909576416,-0.4321555495262146
1.1118683815002441,4.343381404876709,-0.42890408635139465
1.1377854347229004,4.320895671844482,-0.42423152923583984
1.1656156778335571,4.305727481842041,-0.42029890418052673
1.1956158876419067,4.297807216644287,-0.4170786142349243
1.2210781574249268,4.274787902832031,-0.41229248046875
1.2508864402770996,4.266502380371094,-0.40873995423316956
1.2801334857940674,4.258152484893799,-0.40524744987487793
1.3051432371139526,4.2346086502075195,-0.40030068159103394
1.3346401453018188,4.225738525390625,-0.39676380157470703
1.3611901998519897,4.20943546295166,-0.39230215549468994
1.3904441595077515,4.200222492218018,-0.38844019174575806
1.4155975580215454,4.179840564727783,-0.38360175490379333
1.439647912979126,4.155499458312988,-0.37839698791503906
1.4683704376220703,4.145795822143555,-0.3744518756866455
1.4940038919448853,4.128716945648193,-0.3697141408920288
1.5221701860427856,4.11877965927124,-0.36563876271247864
1.5458579063415527,4.0936808586120605,-0.3601231873035431
1.571584701538086,4.075892925262451,-0.35533320903778076
1.602134108543396,4.072728633880615,-0.35162532329559326
1.6211111545562744,4.040421009063721,-0.3454298675060272
1.651965618133545,4.03669548034668,-0.3416508734226227
1.6776461601257324,4.018031597137451,-0.33652469515800476
1.7554502487182617,4.125100612640381,-0.3417554199695587
2.006544589996338,4.628107070922852,-0.37917810678482056
2.041407585144043,4.6217942237854,-0.3743646740913391
2.073608160018921,4.607879638671875,-0.3688749074935913
2.107271671295166,4.597320079803467,-0.36348700523376465
2.136601209640503,4.579906463623047,-0.35757818818092346
2.1677770614624023,4.565674781799316,-0.35189104080200195
2.199676990509033,4.550839424133301,-0.3460529148578644
2.2308313846588135,4.536094665527344,-0.3401578962802887
2.2549092769622803,4.507197856903076,-0.33307796716690063
2.285583972930908,4.492161750793457,-0.32708191871643066
2.3258326053619385,4.493858814239502,-0.3221854269504547
2.363574743270874,4.492196083068848,-0.3169379234313965
1.7244120836257935,3.225160837173462,-0.22381481528282166
1.7501347064971924,3.2204720973968506,-0.21966992318630219
1.725809931755066,3.1229593753814697,-0.2091509997844696
1.754273533821106,3.1252686977386475,-0.2054203599691391
1.7962687015533447,3.1511054039001465,-0.2031753659248352
1.3469488620758057,2.325471878051758,-0.14688919484615326
0.9514704346656799,1.6170949935913086,-0.0999831035733223
0.9563404321670532,1.6007615327835083,-0.09676709771156311
0.9772644639015198,1.6110892295837402,-0.09514835476875305
0.9782779216766357,1.5877639055252075,-0.09147053956985474
0.9846071004867554,1.5748043060302734,-0.08840733766555786
0.9991620779037476,1.5750095844268799,-0.08607587218284607
1.0124589204788208,1.5712970495224,-0.08333554863929749
1.0207428932189941,1.5614172220230103,-0.08030903339385986
1.0330520868301392,1.558130145072937,-0.07762238383293152
1.0438956022262573,1.5510363578796387,-0.0745658352971077
1.058516502380371,1.5507010221481323,-0.07181716710329056
2.548556089401245,3.6813902854919434,-0.1637875884771347
2.5787010192871094,3.670229196548462,-0.15616822242736816
2.6112442016601562,3.66666316986084,-0.14884985983371735
2.6080973148345947,3.6115894317626953,-0.13919764757156372
2.63240122795105,3.594233512878418,-0.13067305088043213
2.6945581436157227,3.6311798095703125,-0.12400472909212112
2.6366360187530518,3.6983962059020996,0.20997254550457
2.600179672241211,3.7045931816101074,0.21744778752326965
2.5711829662323,3.7242913246154785,0.2256055474281311
1.0596636533737183,1.5580155849456787,0.09699470549821854
1.0564844608306885,1.5787895917892456,0.10087466239929199
1.044431209564209,1.5865938663482666,0.10389893501996994
1.0373201370239258,1.6003679037094116,0.10717202723026276
1.0168448686599731,1.5947990417480469,0.10904586315155029
1.0046453475952148,1.6023236513137817,0.11178188771009445
0.9852172136306763,1.5958659648895264,0.11334747821092606
0.9816567897796631,1.6161562204360962,0.11678139865398407
0.9612051844596863,1.6100850105285645,0.1183183342218399
0.9909886121749878,1.6874113082885742,0.12593795359134674
1.3458038568496704,2.3286075592041016,0.17637425661087036
1.8210887908935547,3.2059879302978516,0.24619460105895996
1.7494220733642578,3.1341891288757324,0.24395187199115753
1.7512613534927368,3.1907551288604736,0.25151747465133667
1.7712970972061157,3.281571388244629,0.261807918548584
1.74323570728302,3.287425994873047,0.2652495205402374
2.372066020965576,4.554298400878906,0.3715820610523224
2.339825391769409,4.570517539978027,0.3768211305141449
2.3035471439361572,4.579752445220947,0.38152673840522766
2.2660815715789795,4.589301586151123,0.3859427571296692
2.235393524169922,4.612563610076904,0.3915331959724426
2.2024126052856445,4.627992153167725,0.39635008573532104
2.173351764678955,4.649904251098633,0.40166985988616943
2.1429545879364014,4.672165870666504,0.40684962272644043
2.109602928161621,4.691189289093018,0.41174134612083435
2.073838472366333,4.702461242675781,0.41589269042015076
2.0378379821777344,4.709311008453369,0.41954129934310913
1.7827056646347046,4.199902057647705,0.37684717774391174
1.711621880531311,4.115441799163818,0.37167423963546753
1.6868925094604492,4.142133712768555,0.37655165791511536
1.6572074890136719,4.153785228729248,0.3800013065338135
1.628161072731018,4.164947509765625,0.3833674192428589
1.6070599555969238,4.197843551635742,0.3886832892894745
1.5738064050674438,4.201822280883789,0.39114078879356384
