X,Y,Z
-1.308958888053894,4.7175750732421875,0.7513711452484131
-1.3386294841766357,4.697752952575684,0.7461118698120117
-1.3691710233688354,4.681448459625244,0.7414558529853821
-1.1096431016921997,3.6995317935943604,0.5839048624038696
-1.1255594491958618,3.6628966331481934,0.5761330127716064
-1.1526267528533936,3.663058042526245,0.5741872191429138
-1.4822471141815186,4.600703239440918,0.7186755537986755
-1.5095428228378296,4.57617712020874,0.7123467922210693
-1.5419261455535889,4.566017150878906,0.7081720232963562
-1.6282206773757935,4.716955184936523,0.7285370826721191
-1.6356115341186523,4.637295722961426,0.7132598757743835
-1.6668987274169922,4.626842021942139,0.7087041139602661
-1.681595802307129,4.56870698928833,0.6968295574188232
-1.7216405868530273,4.579277038574219,0.695464015007019
-1.7534921169281006,4.567934989929199,0.6904571056365967
-1.8052769899368286,4.610860824584961,0.6934952139854431
-1.8276314735412598,4.577833652496338,0.6851117014884949
-1.845621943473816,4.533806324005127,0.6751115918159485
-1.8818161487579346,4.532268524169922,0.6713852286338806
-1.9063130617141724,4.501821994781494,0.6632618308067322
-1.9088239669799805,4.4258012771606445,0.6482129693031311
-1.9508813619613647,4.44209623336792,0.6467452049255371
-1.964903473854065,4.394345283508301,0.6359725594520569
-2.005361318588257,4.402428150177002,0.6331520676612854
-2.0628414154052734,4.445080757141113,0.6351675987243652
-2.072641134262085,4.390057563781738,0.6228851675987244
-2.088505268096924,4.349052906036377,0.6126900315284729
-2.1277952194213867,4.356738090515137,0.6093779802322388
-2.151449680328369,4.328713893890381,0.6008791327476501
-2.185593366622925,4.321196556091309,0.5951205492019653
-2.1769700050354004,4.2351250648498535,0.5783821940422058
-2.2319741249084473,4.273062229156494,0.578623354434967
-2.2644383907318115,4.265671730041504,0.5725963711738586
-2.28149151802063,4.226706504821777,0.56217360496521
-2.2300376892089844,4.065714359283447,0.5355687737464905
-2.2610576152801514,4.058394432067871,0.5291334986686707
-2.291623592376709,4.0510735511779785,0.5227940678596497
-2.319843292236328,4.035962104797363,0.5151557326316833
-2.3480067253112793,4.0206298828125,0.5073989033699036
-2.3743371963500977,4.006132125854492,0.4994789958000183
-2.4010391235351562,3.9911868572235107,0.49141618609428406
-2.4183619022369385,3.9589855670928955,0.4810793399810791
-2.4481735229492188,3.9462249279022217,0.4729577600955963
-2.4780001640319824,3.937786817550659,0.46506059169769287
-2.4931459426879883,3.9061927795410156,0.4544723629951477
-2.5122578144073486,3.8764917850494385,0.4435892105102539
-2.5217745304107666,3.8341891765594482,0.4312624931335449
-2.6004464626312256,3.8997747898101807,0.4307865500450134
-2.6086010932922363,3.857879638671875,0.41820424795150757
-2.078782320022583,3.0286855697631836,0.3215343654155731
-2.065430164337158,2.96783447265625,0.3080858886241913
-2.0754241943359375,2.942661762237549,0.29859399795532227
-2.0915474891662598,2.922553300857544,0.2889934480190277
-1.058681607246399,1.4596171379089355,0.14043740928173065
-1.0886127948760986,1.4816012382507324,0.13854259252548218
-1.108420491218567,1.4868090152740479,0.1344558149576187
-2.0498979091644287,2.8991165161132812,-0.16984176635742188
-2.5243759155273438,3.6235780715942383,-0.22401796281337738
-2.4679043292999268,3.6001510620117188,-0.23414228856563568
-2.464989185333252,3.6531918048858643,-0.2489287406206131
-2.4382286071777344,3.6702816486358643,-0.2608066499233246
-2.401754379272461,3.6747748851776123,-0.2717663645744324
-2.3753747940063477,3.6910400390625,-0.2829667925834656
-2.3482398986816406,3.707500696182251,-0.294041246175766
-2.3136086463928223,3.71453595161438,-0.30453237891197205
-2.2830452919006348,3.7233920097351074,-0.3144463300704956
-2.25993013381958,3.7456822395324707,-0.3253958821296692
-2.231996774673462,3.7614803314208984,-0.33579301834106445
-2.2088253498077393,3.78324818611145,-0.34645000100135803
-2.17718768119812,3.791635513305664,-0.3558864891529083
-2.154762029647827,3.8169050216674805,-0.3667268753051758
-2.1269021034240723,3.831557273864746,-0.37644150853157043
-2.1072959899902344,3.8591859340667725,-0.3872116804122925
-2.0789473056793213,3.8735804557800293,-0.3966112434864044
-2.0499300956726074,3.8880274295806885,-0.40617209672927856
-2.0258922576904297,3.9084150791168213,-0.415971577167511
-1.653725028038025,3.2462596893310547,-0.3517598807811737
-1.612565040588379,3.2226850986480713,-0.35532432794570923
-1.5822887420654297,3.219538450241089,-0.3610234260559082
-1.5557516813278198,3.223010540008545,-0.36738321185112
-1.5324794054031372,3.2333457469940186,-0.3743187189102173
-1.5121796131134033,3.2506539821624756,-0.3820543885231018
-1.4888372421264648,3.260605573654175,-0.3888710141181946
-1.4690061807632446,3.2772960662841797,-0.39642560482025146
-1.44533109664917,3.2870049476623535,-0.4030112326145172
-1.4272305965423584,3.310992479324341,-0.41146400570869446
-1.4005863666534424,3.3131167888641357,-0.4170536994934082
-1.3831754922866821,3.336418390274048,-0.4252779185771942
-1.3620896339416504,3.3526570796966553,-0.43244677782058716
-1.3408020734786987,3.368767261505127,-0.4396279752254486
-1.3163617849349976,3.3775665760040283,-0.44592487812042236
-1.2994332313537598,3.4040563106536865,-0.4544681906700134
-1.2722468376159668,3.405240535736084,-0.4594341516494751
-1.2464138269424438,3.4098565578460693,-0.4648389220237732
-1.2260459661483765,3.428779125213623,-0.47217878699302673
-1.4942457675933838,4.273856163024902,-0.5945153832435608
-1.4563486576080322,4.261410713195801,-0.5983232259750366
-1.4333069324493408,4.292757034301758,-0.6082212328910828
-1.406385898590088,4.312902450561523,-0.6165878772735596
-1.378365397453308,4.329094886779785,-0.6243914365768433
-1.3540270328521729,4.360123157501221,-0.6342511773109436
-1.3206921815872192,4.36132287979126,-0.639541506767273
-1.2917855978012085,4.377101421356201,-0.6470021605491638
-1.2568386793136597,4.370243549346924,-0.6510527729988098
-1.2240030765533447,4.370610237121582,-0.6560521721839905
-1.1757662296295166,4.3148956298828125,-0.6522355675697327
-1.131780743598938,4.273813724517822,-0.6506288051605225
-1.0863678455352783,4.2209248542785645,-0.6470198035240173
-1.0680480003356934,4.272556304931641,-0.6594390273094177
-0.9678141474723816,3.990161895751953,-0.6195997595787048
-0.9396393895149231,3.996161460876465,-0.624284029006958
-0.9041385054588318,3.9719252586364746,-0.6243051886558533
-0.8621658086776733,3.913344383239746,-0.6187877655029297
-0.8258037567138672,3.877105951309204,-0.6164292693138123
-0.7859978079795837,3.821715831756592,-0.6107584238052368
-0.4264362156391144,2.1498231887817383,-0.3453453779220581
-0.7267500758171082,3.804666757583618,-0.614368736743927
-0.6827438473701477,3.7141902446746826,-0.6027437448501587
-0.6425777673721313,3.6386020183563232,-0.592989444732666
-0.599669337272644,3.539839506149292,-0.5793583989143372
-0.5773459672927856,3.5586700439453125,-0.5849384665489197
-0.5449778437614441,3.516446113586426,-0.5805262327194214
-0.5169867873191833,3.496852159500122,-0.5793935060501099
-0.4908827543258667,3.488520622253418,-0.5799920558929443
-0.4700238108634949,3.518195867538452,-0.5869468450546265
-0.43630772829055786,3.448330879211426,-0.577288031578064
-0.4094848334789276,3.4279487133026123,-0.5757507085800171
-0.3803625702857971,3.388334035873413,-0.5705971717834473
-0.3558725118637085,3.382929563522339,-0.5711842775344849
-0.3330347537994385,3.39267897605896,-0.5743544101715088
-0.30943235754966736,3.3945956230163574,-0.5762263536453247
-0.28772011399269104,3.419447183609009,-0.5816014409065247
-0.25754401087760925,3.3443756103515625,-0.5698822736740112
-0.23369957506656647,3.338182210922241,-0.5698826909065247
-0.21382851898670197,3.3933067321777344,-0.58039391040802
-0.1871894747018814,3.340691328048706,-0.5723498463630676
-0.16615286469459534,3.387932538986206,-0.5810195207595825
-0.14212501049041748,3.3888916969299316,-0.5817984938621521
-0.11800722032785416,3.374277353286743,-0.5799177289009094
-0.09496194869279861,3.3902785778045654,-0.5833269357681274
-0.06998787820339203,3.3253703117370605,-0.5723965167999268
-0.04776189476251602,3.3911802768707275,-0.5838596820831299
-0.023810388520359993,3.399097204208374,-0.5853896141052246
-0.00020613647939171642,3.422243356704712,-0.5895693898200989
0.023266814649105072,3.3759589195251465,-0.5816676616668701
0.046493157744407654,3.3603808879852295,-0.578657329082489
0.070010706782341,3.3677356243133545,-0.5796244144439697
0.09427334368228912,3.3980157375335693,-0.5845618844032288
0.11939208954572678,3.4281063079833984,-0.589486300945282
0.14561700820922852,3.485029935836792,-0.5986022353172302
0.17150914669036865,3.518709421157837,-0.6035798192024231
0.19640479981899261,3.5252864360809326,-0.6039270758628845
0.22236385941505432,3.5470597743988037,-0.606900155544281
0.24636755883693695,3.530226469039917,-0.603143036365509
0.2738308906555176,3.5670931339263916,-0.6081303954124451
0.29988956451416016,3.5807249546051025,-0.6091662645339966
0.33067575097084045,3.6440329551696777,-0.6186542510986328
0.356042742729187,3.641916275024414,-0.6170389652252197
0.3878144323825836,3.697124481201172,-0.6246896386146545
0.41861221194267273,3.7406625747680664,-0.6302100419998169
0.4514276683330536,3.7954320907592773,-0.6376007199287415
0.48460298776626587,3.8461034297943115,-0.6442763209342957
0.5159454345703125,3.8774266242980957,-0.6475705504417419
0.5433506369590759,3.874178171157837,-0.6445913314819336
0.566318154335022,3.8441014289855957,-0.6372392773628235
0.5895717144012451,3.8176827430725098,-0.6305467486381531
0.6112543344497681,3.7835071086883545,-0.6226357817649841
0.6305093765258789,3.73787522315979,-0.6124913692474365
0.6524685025215149,3.711167335510254,-0.605374813079834
0.6745458245277405,3.6842517852783203,-0.598239004611969
0.6944899559020996,3.6496784687042236,-0.5899646878242493
0.713170051574707,3.6112449169158936,-0.5810045003890991
0.7336001396179199,3.5841290950775146,-0.5735718011856079
0.7464864253997803,3.5229101181030273,-0.5607768297195435
0.7731238007545471,3.5256683826446533,-0.558171808719635
0.6996287703514099,3.0877349376678467,-0.48623132705688477
0.6814916729927063,2.9141604900360107,-0.4561234414577484
0.6971715688705444,2.8911314010620117,-0.4497184157371521
0.7191285490989685,2.8942487239837646,-0.44740691781044006
0.7320926189422607,2.8596510887145996,-0.4392387270927429
0.7441704273223877,2.825127124786377,-0.4310621917247772
0.7637601494789124,2.8204658031463623,-0.4273057281970978
0.781268835067749,2.8082098960876465,-0.42242395877838135
0.7955842614173889,2.7846529483795166,-0.4158709943294525
0.806684136390686,2.7498021125793457,-0.40762707591056824
0.8145677447319031,2.70770001411438,-0.39817431569099426
0.8310251832008362,2.6951775550842285,-0.3931432366371155
0.8707613945007324,2.756316900253296,-0.3987886905670166
0.8662572503089905,2.677079916000366,-0.3841277062892914
0.9021855592727661,2.722946882247925,-0.3872120678424835
0.9160481691360474,2.7025768756866455,-0.38083434104919434
0.9055914282798767,2.6126043796539307,-0.3647904098033905
0.9161732792854309,2.5848543643951416,-0.35754239559173584
0.9275667071342468,2.5607831478118896,-0.3507727086544037
0.9452477693557739,2.5549042224884033,-0.3464134633541107
0.9864609837532043,2.6104354858398438,-0.3502538204193115
1.002001404762268,2.5968079566955566,-0.3447512090206146
1.0258077383041382,2.6047775745391846,-0.34207385778427124
1.0495296716690063,2.612654685974121,-0.3392110764980316
1.0645831823349,2.598790168762207,-0.33353081345558167
1.080068588256836,2.5846107006073,-0.3277227580547333
1.0920592546463013,2.563314199447632,-0.3210899233818054
1.1065375804901123,2.54925274848938,-0.3152708411216736
1.1271322965621948,2.549311399459839,-0.3112170696258545
1.1321876049041748,2.513650417327881,-0.30276909470558167
1.143674612045288,2.4919750690460205,-0.29596883058547974
1.1607301235198975,2.4846785068511963,-0.29087433218955994
1.169411063194275,2.459704875946045,-0.2837498188018799
1.1831942796707153,2.4450647830963135,-0.27779364585876465
1.200286865234375,2.4373061656951904,-0.2725975811481476
1.210206389427185,2.4156103134155273,-0.26571381092071533
1.2196084260940552,2.3940067291259766,-0.25897613167762756
1.232785701751709,2.37906551361084,-0.2528912127017975
1.24203360080719,2.3572447299957275,-0.2460782378911972
1.257994294166565,2.349323272705078,-0.24069662392139435
1.2665349245071411,2.3275747299194336,-0.23391477763652802
1.2813384532928467,2.3155760765075684,-0.22791025042533875
1.2895596027374268,2.2937047481536865,-0.22103041410446167
1.3011866807937622,2.2786965370178223,-0.21484243869781494
1.3129820823669434,2.26344895362854,-0.20857173204421997
1.332778811454773,2.261420249938965,-0.20342104136943817
1.340180516242981,2.239424705505371,-0.1963777393102646
1.355222225189209,2.23085355758667,-0.1906202882528305
1.3545182943344116,2.1952414512634277,-0.18239396810531616
1.373450517654419,2.193136215209961,-0.17699304223060608
1.3796495199203491,2.171265125274658,-0.1700095385313034
1.3949750661849976,2.1619367599487305,-0.1637147068977356
1.4011327028274536,2.139798164367676,-0.15651243925094604
1.4152330160140991,2.1309452056884766,-0.15031424164772034
1.4298804998397827,2.1215929985046387,-0.1438443511724472
1.4332919120788574,2.0961427688598633,-0.13619624078273773
1.4427664279937744,2.0805673599243164,-0.129156693816185
1.466080904006958,2.083735704421997,-0.1230362057685852
1.4527229070663452,2.036214828491211,-0.11389701813459396
1.4612901210784912,2.020825147628784,-0.10668409615755081
1.48470139503479,2.0234689712524414,-0.09982962906360626
1.4836018085479736,1.9955189228057861,-0.09150369465351105
1.4404793977737427,2.0268678665161133,0.217506542801857
1.4755243062973022,2.110870122909546,0.2326546162366867
1.464164137840271,2.1274542808532715,0.24020902812480927
1.448412537574768,2.137467622756958,0.2467225044965744
1.43588387966156,2.154498338699341,0.25397226214408875
1.4283413887023926,2.1773903369903564,0.26169291138648987
1.4122343063354492,2.1871442794799805,0.26770156621932983
1.4076772928237915,2.217017650604248,0.2760014832019806
1.3907276391983032,2.2269649505615234,0.28178855776786804
1.383036494255066,2.2493176460266113,0.28886666893959045
1.3660880327224731,2.258962392807007,0.29420509934425354
1.3583197593688965,2.285538673400879,0.3018036484718323
1.3414860963821411,2.294781446456909,0.3069174587726593
1.332943081855774,2.317012310028076,0.31366395950317383
1.3230458498001099,2.339860439300537,0.32034537196159363
1.3089931011199951,2.355959892272949,0.32613810896873474
1.298862338066101,2.378582715988159,0.3328075706958771
1.2820206880569458,2.3870632648468018,0.33735910058021545
1.2714532613754272,2.409623384475708,0.3437328040599823
1.2586085796356201,2.4288246631622314,0.34963536262512207
1.2511317729949951,2.4581642150878906,0.3570023775100708
1.233435034751892,2.466470241546631,0.36126741766929626
1.2189894914627075,2.4816694259643555,0.3664020299911499
1.2071515321731567,2.504059076309204,0.37248605489730835
1.1983543634414673,2.533395528793335,0.37966302037239075
1.183409333229065,2.5483615398406982,0.38462764024734497
1.1670324802398682,2.5595743656158447,0.38900771737098694
1.1637656688690186,2.602924346923828,0.39816397428512573
1.1444745063781738,2.610901117324829,0.4018397033214569
1.1220502853393555,2.61163330078125,0.4044187664985657
1.115512728691101,2.6474857330322266,0.4123716950416565
1.0998321771621704,2.6618566513061523,0.4170101284980774
1.087314248085022,2.687318801879883,0.4232425093650818
1.0732375383377075,2.709082841873169,0.42883285880088806
1.056078553199768,2.723578929901123,0.43331605195999146
1.0394322872161865,2.7377264499664307,0.437704861164093
1.0255614519119263,2.7589292526245117,0.4432348608970642
1.0132778882980347,2.787631034851074,0.44986772537231445
0.9955058693885803,2.801744222640991,0.4540199637413025
0.959825336933136,2.7646865844726562,0.44988203048706055
0.928779125213623,2.738138437271118,0.44739624857902527
0.9071407914161682,2.7367963790893555,0.44897955656051636
0.8898897171020508,2.7501115798950195,0.45296624302864075
0.8850328326225281,2.8039135932922363,0.46336787939071655
0.8840094804763794,2.872512102127075,0.4762979745864868
0.8842244744300842,2.9486169815063477,0.4905740022659302
0.8655986189842224,2.9617457389831543,0.4943945109844208
0.8512055277824402,2.989550828933716,0.5006937980651855
0.8357447385787964,3.0175092220306396,0.5069139003753662
0.8179865479469299,3.0379598140716553,0.5117164254188538
0.8009837865829468,3.0620274543762207,0.5171679258346558
0.7846574187278748,3.089728593826294,0.523276686668396
0.7667438387870789,3.1097195148468018,0.5280835628509521
0.748198390007019,3.1296916007995605,0.5329529047012329
0.729392945766449,3.1496028900146484,0.5375587940216064
0.7110503911972046,3.173208713531494,0.5427134037017822
0.6915913224220276,3.1929423809051514,0.5472457408905029
0.673531711101532,3.2200822830200195,0.5530858039855957
0.656747043132782,3.254652261734009,0.5602442622184753
0.6369829177856445,3.273939371109009,0.564794659614563
0.6159247159957886,3.289429187774658,0.5684493780136108
0.5952606797218323,3.3086092472076416,0.5726557374000549
0.5795578956604004,3.358018636703491,0.5821412205696106
0.5590472221374512,3.3846261501312256,0.5877374410629272
0.5360651016235352,3.391963481903076,0.5899887681007385
0.5181409120559692,3.4334068298339844,0.5982149243354797
0.49617254734039307,3.451965808868408,0.6022530794143677
0.4759308993816376,3.485685348510742,0.6087847948074341
0.45427900552749634,3.515524387359619,0.6146931052207947
0.43218502402305603,3.541358709335327,0.6199303865432739
0.40658485889434814,3.5364291667938232,0.6198057532310486
0.3881724178791046,3.5963480472564697,0.6310851573944092
0.36770379543304443,3.644718885421753,0.6402491927146912
0.3442406952381134,3.670055627822876,0.6451020240783691
0.32031965255737305,3.6991095542907715,0.650653600692749
0.2979815900325775,3.747148275375366,0.6595785021781921
0.27427616715431213,3.783529281616211,0.6664918661117554
0.24944937229156494,3.8082332611083984,0.671386182308197
0.22474150359630585,3.8404526710510254,0.6776458024978638
0.19995185732841492,3.891829252243042,0.6868624687194824
0.17436814308166504,3.931497097015381,0.6940388083457947
0.1481388658285141,3.967149019241333,0.7005434632301331
0.12204714119434357,4.021846294403076,0.7104504108428955
0.09443552047014236,4.037909984588623,0.7135703563690186
0.06654685735702515,4.080711364746094,0.7214603424072266
0.03864958882331848,4.13490629196167,0.7310894131660461
0.00995892658829689,4.177402973175049,0.7384855151176453
-0.01930404268205166,4.215851783752441,0.745199978351593
-0.049235135316848755,4.2656331062316895,0.7539525032043457
-0.08017680048942566,4.303652286529541,0.7606620192527771
-0.11068297177553177,4.326079368591309,0.7646529078483582
-0.1399848461151123,4.302171230316162,0.7603858709335327
-0.17146365344524384,4.34348726272583,0.7672455310821533
-0.23836146295070648,5.133906841278076,0.9063867926597595
-0.27618977427482605,5.174516677856445,0.9131162762641907
-0.3180766999721527,5.260889530181885,0.9279476404190063
-0.3577532470226288,5.304744720458984,0.9353209137916565
-0.3934270441532135,5.286919593811035,0.9318625330924988
-0.4305846393108368,5.291962623596191,0.9319692850112915
-0.46370771527290344,5.250782489776611,0.9238415956497192
-0.5034946203231812,5.278285026550293,0.9278294444084167
-0.5614590048789978,5.485466003417969,0.9634242653846741
-0.5844851732254028,5.343976020812988,0.9378103017807007
-0.6140857934951782,5.275045394897461,0.92500239610672
-0.6520115733146667,5.282413482666016,0.9253695011138916
-0.6873913407325745,5.266641139984131,0.9213177561759949
-0.7214834094047546,5.246890068054199,0.9166405200958252
-0.7531343102455139,5.211678981781006,0.9093159437179565
-0.7828313112258911,5.1648268699646,0.9000123143196106
-0.8266211152076721,5.209028244018555,0.9066105484962463
-0.8552548289299011,5.154043197631836,0.8959132432937622
-0.890480101108551,5.148526668548584,0.8933090567588806
-0.927089273929596,5.150338172912598,0.892013430595398
-0.946769654750824,5.061041355133057,0.8750028610229492
-0.9903929829597473,5.1002197265625,0.8802505731582642
-1.018311619758606,5.05588960647583,0.8711062669754028
-1.0501365661621094,5.0301594734191895,0.8652035593986511
-1.0861656665802002,5.030918121337891,0.8633987307548523
-1.1170635223388672,5.008904457092285,0.85764479637146
-1.142578363418579,4.9641571044921875,0.8480556607246399
-1.1783177852630615,4.964256763458252,0.8461735248565674
-1.2244813442230225,5.001258373260498,0.8505353927612305
-1.208430528640747,4.7913312911987305,0.8130354285240173
-1.2189137935638428,4.697726249694824,0.7950059175491333
-1.265713095664978,4.745815277099609,0.8008612394332886
-1.2938642501831055,4.722838401794434,0.794741153717041
-1.3245265483856201,4.706938743591309,0.7898129820823669
-1.3498700857162476,4.6722588539123535,0.7817743420600891
-1.3966715335845947,4.711421489715576,0.7861225008964539
-1.1192388534545898,3.683725595474243,0.6126055717468262
-1.1441196203231812,3.676621437072754,0.609310507774353
-1.4658433198928833,4.599388599395752,0.7595710158348083
-1.4948408603668213,4.582616329193115,0.7541892528533936
-1.5268503427505493,4.572752475738525,0.7499239444732666
-1.5849560499191284,4.639390468597412,0.7582012414932251
-1.6315383911132812,4.673097610473633,0.760543167591095
-1.6850507259368896,4.724611282348633,0.7657341361045837
-1.7042293548583984,4.677449703216553,0.7548916935920715
-1.7216252088546753,4.626566410064697,0.7435229420661926
-1.7484464645385742,4.600771427154541,0.7362151145935059
-1.7801588773727417,4.589415550231934,0.7310758829116821
-1.81661057472229,4.592597007751465,0.727952241897583
-1.8233695030212402,4.520013809204102,0.7128254771232605
-1.85384202003479,4.508448600769043,0.707447350025177
-1.8914258480072021,4.510462760925293,0.704081118106842
-1.9109256267547607,4.469485282897949,0.6940451860427856
-1.9579083919525146,4.496470928192139,0.6941138505935669
-1.9650332927703857,4.430900573730469,0.6798535585403442
-2.0042426586151123,4.439696788787842,0.6771400570869446
-2.035212993621826,4.426533222198486,0.6709182858467102
-2.049914598464966,4.377991676330566,0.6593690514564514
-2.0860142707824707,4.3790411949157715,0.6549657583236694
-2.1156866550445557,4.365781784057617,0.6482712030410767
-2.1670494079589844,4.397688865661621,0.6483404040336609
-2.1612777709960938,4.310749053955078,0.6307345628738403
-2.1951653957366943,4.303301811218262,0.6248182654380798
-2.204224109649658,4.25175666809082,0.6121681332588196
-2.248711585998535,4.268890857696533,0.6094014048576355
-2.2740378379821777,4.247714519500732,0.6010456681251526
-2.2483105659484863,4.130505561828613,0.5790799260139465
-2.250542640686035,4.0684075355529785,0.564949631690979
-2.2735354900360107,4.047763347625732,0.5563983917236328
-2.3155343532562256,4.060693264007568,0.552464485168457
-2.336169958114624,4.032032012939453,0.5425138473510742
-2.3646225929260254,4.016509056091309,0.53432697057724
-2.3830740451812744,3.988621473312378,0.5242025256156921
-2.4051716327667236,3.967350959777832,0.5149832367897034
-2.4402453899383545,3.9652445316314697,0.508027195930481
-2.4687893390655518,3.9487099647521973,0.49881935119628906
-2.486394166946411,3.9204134941101074,0.48798897862434387
-2.5098140239715576,3.9019789695739746,0.4784044921398163
-2.5323143005371094,3.8793129920959473,0.467952162027359
-2.5830490589141846,3.8983206748962402,0.462178498506546
-2.613008499145508,3.888897657394409,0.4525541663169861
-2.101861000061035,3.0855352878570557,0.3523538112640381
-2.050668478012085,2.9659900665283203,0.33163490891456604
-2.0700840950012207,2.953430652618408,0.3229837715625763
-2.088872194290161,2.9411118030548096,0.3143158555030823
-2.1096808910369873,2.927241802215576,0.30466708540916443
-1.0931780338287354,1.4964276552200317,0.15146617591381073
-1.0933301448822021,1.4774788618087769,0.1452554613351822
-2.065358877182007,2.897705316543579,-0.17030125856399536
-2.0500330924987793,2.9221856594085693,-0.18230794370174408
-2.4813973903656006,3.5907411575317383,-0.23601844906806946
-2.469182252883911,3.631326913833618,-0.25071126222610474
-2.4469165802001953,3.65486741065979,-0.26378509402275085
-2.4329299926757812,3.6913349628448486,-0.27754226326942444
-2.395848274230957,3.6959784030914307,-0.2891402244567871
-2.358891725540161,3.6956565380096436,-0.2994315028190613
-2.3276267051696777,3.7052865028381348,-0.3103329837322235
-2.299818754196167,3.7216386795043945,-0.32177671790122986
-2.279200792312622,3.7470264434814453,-0.33359724283218384
-2.245396137237549,3.752779483795166,-0.3437218964099884
-2.221297264099121,3.7751269340515137,-0.35518747568130493
-2.1940042972564697,3.7900562286376953,-0.36568307876586914
-2.1687657833099365,3.808032512664795,-0.3762921392917633
-2.138632297515869,3.819552421569824,-0.38623425364494324
-2.112043857574463,3.837705373764038,-0.3969128727912903
-2.0996718406677246,3.8788809776306152,-0.4096243679523468
-1.711435317993164,3.2167677879333496,-0.3466126620769501
-1.6661125421524048,3.187039613723755,-0.3502122163772583
-1.6362013816833496,3.1841647624969482,-0.35646679997444153
-1.6095787286758423,3.1881232261657715,-0.3634621202945709
-1.5897173881530762,3.2058794498443604,-0.37184134125709534
-1.566317081451416,3.2164926528930664,-0.3794138729572296
-1.5435330867767334,3.226616144180298,-0.38676151633262634
-1.520310878753662,3.2367446422576904,-0.39404118061065674
-1.496711254119873,3.246840715408325,-0.40126410126686096
-1.4760342836380005,3.2639071941375732,-0.40943434834480286
-1.4561567306518555,3.28043270111084,-0.41733837127685547
-1.4418689012527466,3.3112549781799316,-0.4269971549510956
-1.420971155166626,3.3278183937072754,-0.4348263442516327
-1.3971220254898071,3.3370018005371094,-0.44167560338974
-1.3702185153961182,3.3388473987579346,-0.44757533073425293
-1.3491727113723755,3.354877471923828,-0.4551222324371338
-1.3320797681808472,3.3816401958465576,-0.4641410708427429
-1.6132830381393433,4.181679725646973,-0.5805472731590271
-1.5783255100250244,4.1773362159729,-0.5864456295967102
-1.5560168027877808,4.20937442779541,-0.5973477959632874
-1.5311001539230347,4.233885765075684,-0.6070475578308105
-1.5034517049789429,4.250899314880371,-0.6157095432281494
-1.4759794473648071,4.2676100730896,-0.6243094205856323
-1.4505584239959717,4.291580677032471,-0.6337932348251343
-1.4120174646377563,4.278901100158691,-0.637824296951294
-1.3767108917236328,4.273077011108398,-0.6427450180053711
-1.324697494506836,4.211495399475098,-0.6390947103500366
-1.2791072130203247,4.167976379394531,-0.6378829479217529
-1.2196097373962402,4.0760087966918945,-0.6288278102874756
-1.174426794052124,4.027965545654297,-0.626394510269165
-1.1192259788513184,3.9424023628234863,-0.6180106997489929
-1.0678526163101196,3.863633394241333,-0.6103425621986389
-1.0364683866500854,3.8553338050842285,-0.6133189797401428
-0.9701182842254639,3.7123332023620605,-0.5947142243385315
-0.9334922432899475,3.677109956741333,-0.5931746363639832
-0.8822827339172363,3.5817010402679443,-0.5818530917167664
-0.8533727526664734,3.5721020698547363,-0.583903431892395
-0.8159404397010803,3.5247113704681396,-0.579659104347229
-0.7767425775527954,3.4656896591186523,-0.5734071731567383
-0.7451357841491699,3.436424732208252,-0.5719830393791199
-0.7024245858192444,3.3542046546936035,-0.5614727139472961
-0.43371114134788513,2.145785093307495,-0.36104387044906616
-0.650765597820282,3.3398425579071045,-0.5648574829101562
-0.6160550713539124,3.283114433288574,-0.5581202507019043
-0.5924198031425476,3.2829601764678955,-0.5609212517738342
-0.5624064803123474,3.248628616333008,-0.557470440864563
-0.5213580131530762,3.141805410385132,-0.5414536595344543
-0.5029666423797607,3.16770076751709,-0.548271894454956
-0.46872609853744507,3.0907022953033447,-0.5372571349143982
-0.44710367918014526,3.0934746265411377,-0.5397253632545471
-0.42817753553390503,3.119049072265625,-0.5460940599441528
-0.4053497016429901,3.113926887512207,-0.5470893979072571
-0.38271069526672363,3.108628749847412,-0.5480627417564392
-0.35660165548324585,3.072619676589966,-0.54347825050354
-0.3326405882835388,3.0517735481262207,-0.5411899089813232
-0.3113287389278412,3.0537075996398926,-0.5429571866989136
-0.2864065170288086,3.021057605743408,-0.5386081337928772
-0.2647121846675873,3.0150041580200195,-0.5389795303344727
-0.23904114961624146,2.9590470790863037,-0.5299929976463318
-0.2167270928621292,2.9374172687530518,-0.5270630121231079
-0.19626329839229584,2.9386420249938965,-0.5282520651817322
-0.174968883395195,2.932065963745117,-0.5280799269676208
-0.15838193893432617,3.005976676940918,-0.5422306656837463
-0.1388058066368103,3.037605047225952,-0.5484725832939148
-0.11584559082984924,2.9922780990600586,-0.5408422946929932
-0.09452270716428757,2.9775195121765137,-0.5387512445449829
-0.07382304966449738,2.9933578968048096,-0.5422329902648926
-0.053413476794958115,3.016822338104248,-0.5466061234474182
-0.032267797738313675,3.001718759536743,-0.5439765453338623
-0.011422296985983849,3.0095293521881104,-0.5455256104469299
0.009554552845656872,3.0248818397521973,-0.5484692454338074
0.031045138835906982,3.032442092895508,-0.5497711300849915
0.05226567015051842,3.0399091243743896,-0.5507773160934448
0.07359154522418976,3.047227621078491,-0.5517815351486206
0.09535644203424454,3.065922975540161,-0.5548702478408813
0.11723843961954117,3.0806219577789307,-0.557259202003479
0.1396590918302536,3.10294246673584,-0.5604961514472961
0.16355964541435242,3.140444040298462,-0.56646329164505
0.18538393080234528,3.1394033432006836,-0.5655085444450378
0.20773272216320038,3.1458826065063477,-0.5659330487251282
0.2299133986234665,3.148418426513672,-0.5653766989707947
0.25547802448272705,3.1930124759674072,-0.5721088647842407
0.28074127435684204,3.222053050994873,-0.5760292410850525
0.3078259229660034,3.27007794380188,-0.5833629369735718
0.33290520310401917,3.2911036014556885,-0.585842490196228
0.35946938395500183,3.3235130310058594,-0.5898187160491943
0.38517871499061584,3.3442509174346924,-0.5917214155197144
0.41633617877960205,3.402937173843384,-0.6002873182296753
0.4390510022640228,3.392711639404297,-0.5967275500297546
0.4642069637775421,3.4014625549316406,-0.5961830615997314
0.5015406012535095,3.4938881397247314,-0.6100417971611023
0.5338468551635742,3.5441081523895264,-0.6164641380310059
0.569205641746521,3.6053948402404785,-0.6247138977050781
0.603735625743866,3.65885853767395,-0.6314951181411743
0.6396161317825317,3.715916156768799,-0.63836270570755
0.6627238392829895,3.696833372116089,-0.6321440935134888
0.6828289031982422,3.662442207336426,-0.623367965221405
0.7040074467658997,3.6354947090148926,-0.6159245371818542
0.7244083881378174,3.6046533584594727,-0.6074336171150208
0.7431783676147461,3.570021629333496,-0.5983036160469055
0.7631246447563171,3.5428264141082764,-0.5904974341392517
0.7820517420768738,3.511719226837158,-0.5820914506912231
0.8048230409622192,3.499345302581787,-0.5766857862472534
0.8206586837768555,3.456775426864624,-0.565998375415802
0.8272586464881897,3.3804967403411865,-0.5499968528747559
0.8508862257003784,3.375332832336426,-0.5456470251083374
0.7329782843589783,2.824512481689453,-0.45367276668548584
0.7545761466026306,2.8274505138397217,-0.4508768320083618
0.7684352993965149,2.8003451824188232,-0.44326087832450867
0.7858647704124451,2.788109064102173,-0.438101202249527
0.8043596744537354,2.7794365882873535,-0.4335148334503174
0.8171212673187256,2.752187728881836,-0.4258822500705719
0.8294903039932251,2.7249131202697754,-0.41820499300956726
0.8441659808158875,2.704868793487549,-0.4116416275501251
0.8772561550140381,2.743717670440674,-0.41405755281448364
0.8892025947570801,2.71612811088562,-0.40633872151374817
0.905538022518158,2.7032458782196045,-0.4007042348384857
0.9054324626922607,2.642674684524536,-0.38810527324676514
0.9137176871299744,2.607696533203125,-0.37935319542884827
0.9244799017906189,2.5799031257629395,-0.37164220213890076
0.9370019435882568,2.5595622062683105,-0.3649229109287262
0.950640082359314,2.5427846908569336,-0.3587667644023895
0.9518030881881714,2.4933090209960938,-0.34806379675865173
0.9777308702468872,2.5088601112365723,-0.3464685380458832
1.0196949243545532,2.5638070106506348,-0.3499530553817749
1.0344412326812744,2.5501973628997803,-0.344063401222229
1.0521727800369263,2.5435984134674072,-0.33910971879959106
1.08213472366333,2.5653672218322754,-0.33785805106163025
1.0937509536743164,2.5442371368408203,-0.33081087470054626
1.1084589958190918,2.530078411102295,-0.3246127963066101
1.122859001159668,2.5158908367156982,-0.31849047541618347
1.1373220682144165,2.5015251636505127,-0.31233343482017517
1.1480374336242676,2.4801881313323975,-0.30524808168411255
1.1600455045700073,2.462376832962036,-0.29862913489341736
1.1807751655578613,2.4617831707000732,-0.2939815819263458
1.1845059394836426,2.426104784011841,-0.2851979732513428
1.2046178579330444,2.425504446029663,-0.28050291538238525
1.210693597793579,2.397017002105713,-0.27260205149650574
1.2238028049468994,2.3822436332702637,-0.26625147461891174
1.2369657754898071,2.367290735244751,-0.25985702872276306
1.249687910079956,2.352424144744873,-0.25334781408309937
1.258278250694275,2.3307785987854004,-0.24624846875667572
1.274585485458374,2.322507858276367,-0.24045833945274353
1.2850285768508911,2.303987741470337,-0.23358751833438873
1.2967565059661865,2.289051055908203,-0.22708538174629211
1.308739185333252,2.2738289833068848,-0.2204640805721283
1.3208019733428955,2.2584071159362793,-0.21378786861896515
1.3321384191513062,2.2432496547698975,-0.20714373886585236
1.3431669473648071,2.228121757507324,-0.20053508877754211
1.3545749187469482,2.2126264572143555,-0.19374826550483704
1.3659902811050415,2.1969778537750244,-0.18680675327777863
1.3723247051239014,2.1751415729522705,-0.17947642505168915
1.3871488571166992,2.1662344932556152,-0.17313162982463837
1.4022328853607178,2.1570162773132324,-0.16659022867679596
1.4057371616363525,2.1319165229797363,-0.15886235237121582
1.4268451929092407,2.132430076599121,-0.1528436243534088
1.4264099597930908,2.1002871990203857,-0.14435547590255737
1.4401682615280151,2.091336727142334,-0.13753452897071838
1.4542315006256104,2.082033634185791,-0.13052710890769958
1.4595513343811035,2.0596559047698975,-0.12244987487792969
1.45944344997406,2.0313966274261475,-0.11401890218257904
1.4733102321624756,2.0217747688293457,-0.10644316673278809
1.472769021987915,1.9935197830200195,-0.0977538451552391
1.473963975906372,2.0917532444000244,0.24187690019607544
1.466577410697937,2.1150271892547607,0.2507666349411011
1.4600841999053955,2.1375503540039062,0.25915297865867615
1.4472002983093262,2.1548125743865967,0.26689204573631287
1.4434734582901,2.1844706535339355,0.2759951651096344
1.4194077253341675,2.180882453918457,0.28054070472717285
1.4109001159667969,2.2040677070617676,0.28835269808769226
1.397829294204712,2.2207512855529785,0.2953598201274872
1.3897535800933838,2.2433226108551025,0.3029068410396576
1.3752517700195312,2.2560272216796875,0.30895769596099854
1.3618298768997192,2.27243971824646,0.31542855501174927
1.3485403060913086,2.28859543800354,0.3218325078487396
1.3478158712387085,2.3242173194885254,0.3307945132255554
1.330262541770935,2.3335647583007812,0.3359999656677246
1.3162211179733276,2.3496689796447754,0.34204280376434326
1.2985413074493408,2.3587560653686523,0.3470384180545807
1.292893886566162,2.387622356414795,0.3547792434692383
1.279085636138916,2.4031288623809814,0.3604755997657776
1.2731555700302124,2.4361917972564697,0.36878150701522827
1.2512258291244507,2.438127040863037,0.37235990166664124
1.2408065795898438,2.4601263999938965,0.37884968519210815
1.2233697175979614,2.4681735038757324,0.3831934332847595
1.2150390148162842,2.4974727630615234,0.3906157910823822
1.2026549577713013,2.519941806793213,0.3970854878425598
1.1906760931015015,2.542058229446411,0.4034501314163208
1.177549123764038,2.5602991580963135,0.40913620591163635
1.1591689586639404,2.568042039871216,0.41307729482650757
1.1494520902633667,2.5971689224243164,0.42030051350593567
1.1363126039505005,2.6191792488098145,0.42642658948898315
1.1229794025421143,2.641096591949463,0.43257930874824524
1.1043546199798584,2.6483373641967773,0.4362436532974243
1.0956186056137085,2.680593967437744,0.4439634382724762
1.0787273645401,2.6951842308044434,0.4485931992530823
1.0616790056228638,2.7096636295318604,0.45324066281318665
1.052659511566162,2.7456870079040527,0.4615580141544342
1.0360552072525024,2.759678363800049,0.4661105275154114
1.0218571424484253,2.780851364135742,0.4718833565711975
1.0067288875579834,2.8022408485412598,0.47742873430252075
0.9632092714309692,2.7435078620910645,0.4693162441253662
0.9402914643287659,2.7427711486816406,0.4711307883262634
0.91487056016922,2.730537176132202,0.4708716571331024
0.9017117619514465,2.754701852798462,0.4769074022769928
0.879619300365448,2.7532782554626465,0.47832754254341125
0.8779776096343994,2.817995309829712,0.4911663830280304
0.8929941654205322,2.9418931007385254,0.5144754648208618
0.8762622475624084,2.962517023086548,0.5197808146476746
0.8618994355201721,2.9903171062469482,0.5263533592224121
0.840944766998291,2.995804786682129,0.5290369391441345
0.8274839520454407,3.0310750007629395,0.5366648435592651
0.8105286955833435,3.055152654647827,0.5423417091369629
0.7919531464576721,3.0754921436309814,0.5474222302436829
0.7738363742828369,3.0955522060394287,0.5524488687515259
0.7576155066490173,3.122910499572754,0.5588014125823975
0.7374874353408813,3.135214328765869,0.5624741911888123
0.7184640765190125,3.155057191848755,0.5671641230583191
0.6995779871940613,3.1786305904388428,0.5725889801979065
0.6831983923912048,3.213296413421631,0.5800389051437378
0.6635777950286865,3.232750415802002,0.5847728848457336
0.6454895734786987,3.2595767974853516,0.5908685326576233
0.6248855590820312,3.274972915649414,0.5949234366416931
0.6081156730651855,3.3169302940368652,0.6034442782402039
0.5885094404220581,3.343594551086426,0.6092151403427124
0.5685543417930603,3.3701412677764893,0.6150082349777222
0.5478240847587585,3.392744779586792,0.6201169490814209
0.5264782309532166,3.4113824367523193,0.624530553817749
0.506760835647583,3.4451444149017334,0.6317737698554993
0.4866989850997925,3.4788472652435303,0.6386533975601196
0.4646167755126953,3.5010218620300293,0.643393337726593
0.443681001663208,3.5344927310943604,0.6502511501312256
0.41872096061706543,3.537306070327759,0.6515061259269714
0.39575791358947754,3.5551846027374268,0.6555618047714233
0.37893617153167725,3.6379125118255615,0.6716415882110596
0.3556620478630066,3.6632330417633057,0.6769010424613953
0.3315926790237427,3.684624671936035,0.681261420249939
0.3095032870769501,3.7326509952545166,0.6905871629714966
0.2855508327484131,3.7652244567871094,0.6970980763435364
0.2617323100566864,3.8091511726379395,0.7057597041130066
0.23663973808288574,3.833726167678833,0.7108694314956665
0.212241068482399,3.8773255348205566,0.7194639444351196
0.18693430721759796,3.9170114994049072,0.7269558906555176
0.1610378473997116,3.956531286239624,0.7344556450843811
0.13401736319065094,3.9920525550842285,0.7412561774253845
0.10759948194026947,4.046568870544434,0.7516210079193115
0.07999222725629807,4.074026107788086,0.7570004463195801
0.05220082029700279,4.1128129959106445,0.7645258903503418
0.02378288470208645,4.147636890411377,0.7709688544273376
-0.005613047629594803,4.193809986114502,0.7794117331504822
-0.03534199669957161,4.258978366851807,0.7914220690727234
-0.06533373892307281,4.2816925048828125,0.7955798506736755
-0.09602117538452148,4.323394298553467,0.8033034801483154
-0.12510055303573608,4.288093566894531,0.7967585325241089
-0.15408305823802948,4.26414155960083,0.7922113537788391
-0.18894311785697937,4.374353885650635,0.812190055847168
-0.2587142884731293,5.159450054168701,0.9574289321899414
-0.298162043094635,5.222875595092773,0.9687084555625916
-0.33788278698921204,5.274496078491211,0.9778329133987427
-0.37751853466033936,5.314321994781494,0.9848101735115051
-0.41126272082328796,5.261887550354004,0.9747319221496582
-0.44692522287368774,5.251521110534668,0.9719480276107788
-0.4845828413963318,5.26388692855835,0.9732914566993713
-0.19761574268341064,1.99569833278656,0.36866292357444763
-0.5782296657562256,5.4559245109558105,1.0069819688796997
-0.6099540591239929,5.39089822769165,0.9941303730010986
-0.24988536536693573,2.0791873931884766,0.38311758637428284
-0.6764696836471558,5.317724704742432,0.978865385055542
-0.7099472880363464,5.290493965148926,0.9724974036216736
-0.7403959035873413,5.244023323059082,0.9626549482345581
-0.7759444117546082,5.231510162353516,0.9590821266174316
-0.8085904717445374,5.203619003295898,0.9527576565742493
-0.8435252904891968,5.190676212310791,0.9492170214653015
-0.8745005130767822,5.154752254486084,0.9415076971054077
-0.9050431251525879,5.122653007507324,0.9339168667793274
-0.9463599920272827,5.150871753692627,0.9373612999916077
-0.9699172973632812,5.080460548400879,0.9228848218917847
-1.010838270187378,5.104343891143799,0.9256110191345215
-1.0332436561584473,5.033631324768066,0.9112180471420288
-1.0786463022232056,5.075730800628662,0.9172989726066589
-1.0960849523544312,4.989894866943359,0.8998344540596008
-1.1289631128311157,4.975278854370117,0.8951008915901184
-1.159358024597168,4.953074932098389,0.8890888094902039
-1.1949173212051392,4.953129291534424,0.8871164917945862
-1.215532660484314,4.889249324798584,0.8737094402313232
-1.214312195777893,4.743272304534912,0.8457511067390442
-1.245493769645691,4.727870464324951,0.8407652378082275
-1.2775577306747437,4.7199811935424805,0.8369711637496948
-1.3096197843551636,4.711860179901123,0.8331708908081055
-1.3395169973373413,4.696110248565674,0.8280640244483948
-1.3700817823410034,4.679943561553955,0.822870671749115
-1.1017862558364868,3.6672725677490234,0.6429702639579773
-1.131380558013916,3.6749584674835205,0.6422402858734131
-1.160789966583252,3.6825451850891113,0.6413367390632629
-1.4826616048812866,4.595860004425049,0.7976349592208862
-1.5065406560897827,4.564496994018555,0.7894668579101562
-1.5673961639404297,4.638444900512695,0.7993760704994202
-1.6363232135772705,4.733839988708496,0.8129576444625854
-1.6363439559936523,4.632572174072266,0.7923560738563538
-1.6702176332473755,4.629533767700195,0.7885321378707886
-1.681410789489746,4.564723968505859,0.7742604613304138
-1.7302669286727905,4.600917339324951,0.7771158218383789
-1.7602369785308838,4.5821685791015625,0.7705665826797485
-1.792048692703247,4.570713043212891,0.7652581930160522
-1.8312822580337524,4.581037998199463,0.763172447681427
-1.856162667274475,4.555288314819336,0.7551050782203674
-1.8777735233306885,4.522282600402832,0.745903730392456
-1.9190131425857544,4.531105995178223,0.7433995008468628
-1.9447784423828125,4.5042572021484375,0.7351198196411133
-1.942659616470337,4.417686939239502,0.7168257236480713
-1.9660028219223022,4.391427040100098,0.7083101272583008
-2.005105495452881,4.400213718414307,0.705472469329834
-2.058835744857788,4.436124324798584,0.7067456245422363
-2.073474884033203,4.387620449066162,0.6945962309837341
-2.1133973598480225,4.395368576049805,0.6910915374755859
-2.1188621520996094,4.333621501922607,0.676537036895752
-2.1546316146850586,4.334313869476318,0.6717933416366577
-2.181582450866699,4.313266754150391,0.6634421348571777
-2.1890017986297607,4.254112720489502,0.6492995023727417
-2.251864433288574,4.305502891540527,0.6517110466957092
-2.262273073196411,4.257392883300781,0.6389296054840088
-2.2942473888397217,4.250190734863281,0.632344663143158
-2.2419984340667725,4.085748195648193,0.6022961735725403
-2.2673211097717285,4.0640459060668945,0.5933622717857361
-2.3055474758148193,4.070401191711426,0.5882476568222046
-2.3245954513549805,4.042837619781494,0.5782533288002014
-2.352053165435791,4.028109550476074,0.5699453353881836
-2.380535364151001,4.012562274932861,0.5612930059432983
-2.403836965560913,3.9908409118652344,0.5514063835144043
-2.4259307384490967,3.969573974609375,0.541659414768219
-2.4525253772735596,3.9544248580932617,0.5326260328292847
-2.4804983139038086,3.938217878341675,0.5230841040611267
-2.5025312900543213,3.9163172245025635,0.5125701427459717
-2.522066593170166,3.8911705017089844,0.5014496445655823
-2.544084072113037,3.8688039779663086,0.490564227104187
-2.612504720687866,3.913353681564331,0.4876634478569031
-2.6464896202087402,3.910580635070801,0.47839057445526123
-2.0758016109466553,3.0260140895843506,0.36323726177215576
-2.0641729831695557,2.9642703533172607,0.3482131063938141
-2.0883920192718506,2.957858085632324,0.33973175287246704
-2.0981996059417725,2.9328486919403076,0.32905545830726624
-1.067230463027954,1.470699667930603,0.16073481738567352
-1.0932002067565918,1.4860271215438843,0.15786084532737732
-1.1072255373001099,1.485884189605713,0.15321603417396545
-2.045285701751709,2.8921327590942383,-0.1808258295059204
-2.5359153747558594,3.6430423259735107,-0.24120059609413147
-2.4874637126922607,3.6281845569610596,-0.25267156958580017
-2.480879068374634,3.678818702697754,-0.26895326375961304
-2.4497873783111572,3.689267873764038,-0.28151535987854004
-2.409925937652588,3.686534881591797,-0.29268747568130493
-2.3714747428894043,3.6872177124023438,-0.30403634905815125
-2.347073554992676,3.7064061164855957,-0.3163076639175415
-2.319355010986328,3.722766637802124,-0.3284097909927368
-2.2893362045288086,3.735671043395996,-0.34001079201698303
-2.258492946624756,3.7442612648010254,-0.35074082016944885
-2.235252857208252,3.76617431640625,-0.3625999391078949
-2.2071683406829834,3.7816073894500732,-0.3738432824611664
-2.17926025390625,3.796647310256958,-0.3849658966064453
-2.1540610790252686,3.8143763542175293,-0.39598992466926575
-2.1296231746673584,3.835855007171631,-0.40738314390182495
-1.723235845565796,3.157334566116333,-0.3427804410457611
-1.6897621154785156,3.148005247116089,-0.34892094135284424
-1.6627553701400757,3.152620792388916,-0.35661599040031433
-1.6359127759933472,3.1569361686706543,-0.3641209304332733
-1.6202448606491089,3.1815154552459717,-0.37382301688194275
-1.5941569805145264,3.1850407123565674,-0.38095641136169434
-1.577731728553772,3.209577798843384,-0.390516072511673
-1.5504875183105469,3.2132246494293213,-0.3976854085922241
-1.5310035943984985,3.2301928997039795,-0.40621858835220337
-1.5111429691314697,3.247130870819092,-0.4147203266620636
-1.4874986410140991,3.2570607662200928,-0.42226332426071167
-1.4702177047729492,3.2809250354766846,-0.431638240814209
-1.4438923597335815,3.2831528186798096,-0.43804627656936646
-1.4230573177337646,3.2996933460235596,-0.4463755786418915
-1.4052345752716064,3.3231842517852783,-0.4555051326751709
-1.3976454734802246,3.371577262878418,-0.4681379199028015
-1.6742252111434937,4.119601726531982,-0.5791980028152466
-1.6519479751586914,4.148229598999023,-0.5902775526046753
-1.6299856901168823,4.1806230545043945,-0.6019789576530457
-1.5971972942352295,4.183751583099365,-0.6093823909759521
-1.5730870962142944,4.20819091796875,-0.6198131442070007
-1.540440559387207,4.210808277130127,-0.626879870891571
-1.507609248161316,4.213267803192139,-0.633760929107666
-1.455235481262207,4.160850524902344,-0.6324055194854736
