X,Y,Z
-1.2444902658462524,2.0207293033599854,-0.09231703728437424
-0.8346020579338074,1.4468402862548828,-0.07251707464456558
-2.1424949169158936,3.778158187866211,-0.19326156377792358
-1.0395370721817017,1.8642629384994507,-0.0972282886505127
-1.7039986848831177,3.1063621044158936,-0.16499614715576172
-2.0260417461395264,3.7571492195129395,-0.20310857892036438
-2.0071210861206055,3.7891430854797363,-0.2084285169839859
-1.9714431762695312,3.7856180667877197,-0.2116013914346695
-1.8969981670379639,3.7052810192108154,-0.21036821603775024
-1.8191355466842651,3.617703437805176,-0.20846618711948395
-1.7565618753433228,3.557138681411743,-0.20797258615493774
-1.6069939136505127,3.3131017684936523,-0.1964256912469864
-1.4997843503952026,3.1480531692504883,-0.18915924429893494
-1.4736024141311646,3.151599168777466,-0.19180350005626678
-1.4638698101043701,3.1903059482574463,-0.19659720361232758
-1.4608213901519775,3.2429168224334717,-0.20223106443881989
-1.419137954711914,3.21008563041687,-0.2025289684534073
-1.3691644668579102,3.1594085693359375,-0.20158065855503082
-1.334218144416809,3.1402783393859863,-0.20254510641098022
-1.2957637310028076,3.1097497940063477,-0.20267510414123535
-1.2445472478866577,3.0463502407073975,-0.2005942463874817
-1.2182426452636719,3.044203758239746,-0.2023838460445404
-1.1873962879180908,3.0310890674591064,-0.20346666872501373
-1.1437608003616333,2.980944871902466,-0.20194293558597565
-1.1078100204467773,2.948566198348999,-0.20156602561473846
-1.0760211944580078,2.9269580841064453,-0.20179139077663422
-1.0496996641159058,2.919785976409912,-0.2029619663953781
-1.0170519351959229,2.8940091133117676,-0.20282433927059174
-0.9917905926704407,2.886136293411255,-0.20387420058250427
-0.95536869764328,2.844855785369873,-0.20249292254447937
-0.9277647137641907,2.829242467880249,-0.20281477272510529
-0.8957030773162842,2.7985289096832275,-0.20203280448913574
-0.8653765320777893,2.7711994647979736,-0.20146317780017853
-0.8392413258552551,2.754661798477173,-0.20163467526435852
-0.8130678534507751,2.7379977703094482,-0.20166583359241486
-0.7838245630264282,2.709904670715332,-0.20081165432929993
-0.7520726919174194,2.670227289199829,-0.19905993342399597
-0.7314127683639526,2.667764902114868,-0.2000565081834793
-0.7064282894134521,2.6501874923706055,-0.19991068542003632
-0.6827459335327148,2.636165142059326,-0.19987982511520386
-0.6602694988250732,2.62571382522583,-0.2001153528690338
-0.6345415115356445,2.5998787879943848,-0.1991560310125351
-0.6146544814109802,2.596543788909912,-0.1999117136001587
-0.5865416526794434,2.5589993000030518,-0.19797344505786896
-0.5667756795883179,2.555380344390869,-0.19854912161827087
-0.5503562092781067,2.5668437480926514,-0.20030657947063446
-0.5246047973632812,2.5323784351348877,-0.19846603274345398
-0.5039191842079163,2.520601749420166,-0.19839629530906677
-0.4815349280834198,2.5010993480682373,-0.1976221650838852
-0.4632003605365753,2.500523567199707,-0.19827625155448914
-0.4415283203125,2.480635404586792,-0.1973995715379715
-0.41897332668304443,2.4528706073760986,-0.19588537514209747
-0.4006005823612213,2.4479727745056152,-0.19619597494602203
-0.3818705677986145,2.44301700592041,-0.19638486206531525
-0.36466002464294434,2.445584774017334,-0.19714023172855377
-0.342570424079895,2.413325548171997,-0.19508801400661469
-0.3216155469417572,2.3847198486328125,-0.19332098960876465
-0.30204206705093384,2.3636691570281982,-0.19216401875019073
-0.283160001039505,2.346351146697998,-0.19115996360778809
-0.2712608277797699,2.3908193111419678,-0.1951892077922821
-0.2529018223285675,2.377124786376953,-0.19447629153728485
-0.23713937401771545,2.386528968811035,-0.19565927982330322
-0.21982622146606445,2.380321502685547,-0.19557173550128937
-0.20452918112277985,2.3972818851470947,-0.1972430795431137
-0.18291863799095154,2.3404247760772705,-0.19283746182918549
-0.16797196865081787,2.3610291481018066,-0.19481390714645386
-0.149319127202034,2.3271427154541016,-0.19230060279369354
-0.13316628336906433,2.328092098236084,-0.19267059862613678
-0.11654909700155258,2.321169853210449,-0.19224116206169128
-0.10041803121566772,2.329699754714966,-0.19309109449386597
-0.08363553136587143,2.3147640228271484,-0.19200238585472107
-0.06795328110456467,2.330838918685913,-0.1934954822063446
-0.05118778347969055,2.3078880310058594,-0.19175760447978973
-0.03474678844213486,2.2848308086395264,-0.1898587942123413
-0.018835391849279404,2.3239448070526123,-0.19312162697315216
-0.0026037381030619144,2.277303457260132,-0.1892671138048172
0.013365129008889198,2.3006207942962646,-0.19123587012290955
0.029161307960748672,2.284899950027466,-0.18996892869472504
0.04501233622431755,2.2846529483795166,-0.18984422087669373
0.060568638145923615,2.272622585296631,-0.18873274326324463
0.07754936814308167,2.2993838787078857,-0.19084951281547546
0.09290555119514465,2.2832424640655518,-0.18941564857959747
0.10841164737939835,2.274775981903076,-0.18862862884998322
0.1254665106534958,2.2973151206970215,-0.1902790069580078
0.14091992378234863,2.2886435985565186,-0.1893315315246582
0.1570713222026825,2.2876174449920654,-0.18902260065078735
0.17297549545764923,2.2864949703216553,-0.18871822953224182
0.18821045756340027,2.277503728866577,-0.18777449429035187
0.20534572005271912,2.2916951179504395,-0.1886037141084671
0.22194626927375793,2.298008918762207,-0.18876531720161438
0.2381412535905838,2.296427011489868,-0.18827968835830688
0.25581952929496765,2.3102338314056396,-0.18906742334365845
0.27281060814857483,2.316169500350952,-0.18921630084514618
0.28787681460380554,2.306548833847046,-0.18796049058437347
0.302808552980423,2.2968342304229736,-0.1866864264011383
0.31898823380470276,2.29469633102417,-0.18602998554706573
0.3383324444293976,2.3155901432037354,-0.18725097179412842
0.354424387216568,2.313234806060791,-0.1865968108177185
0.37406042218208313,2.3338699340820312,-0.1876591295003891
0.3901257812976837,2.331303596496582,-0.1868429332971573
0.40493443608283997,2.320937395095825,-0.18540869653224945
0.41860073804855347,2.3027474880218506,-0.1833505630493164
0.4397111237049103,2.3266241550445557,-0.18465833365917206
0.4587429463863373,2.3389008045196533,-0.18489189445972443
0.4748770296573639,2.335756540298462,-0.1839061826467514
0.4942382276058197,2.3477370738983154,-0.18411360681056976
0.5141471028327942,2.359485149383545,-0.18428602814674377
0.5305179357528687,2.355937957763672,-0.18326398730278015
0.5484251976013184,2.359922170639038,-0.1826993077993393
0.5700427293777466,2.3789234161376953,-0.18329459428787231
0.5949281454086304,2.4090416431427,-0.18472464382648468
0.6196839809417725,2.4350576400756836,-0.18580497801303864
0.6404980421066284,2.445873737335205,-0.1856912076473236
0.653192400932312,2.426482677459717,-0.1831936091184616
0.6853817701339722,2.4783782958984375,-0.1860692799091339
0.6951616406440735,2.447417974472046,-0.18270446360111237
0.7222986817359924,2.4762027263641357,-0.18378706276416779
0.7483018040657043,2.5011343955993652,-0.1845046877861023
0.7630905508995056,2.48862624168396,-0.18240144848823547
0.7929851412773132,2.524343729019165,-0.1838214248418808
0.8224993944168091,2.5559685230255127,-0.18489521741867065
0.8454843163490295,2.5649969577789307,-0.18429714441299438
0.8654672503471375,2.5666768550872803,-0.18306420743465424
0.8994536995887756,2.608746290206909,-0.18467986583709717
0.9226197004318237,2.617310047149658,-0.18388128280639648
0.9461320638656616,2.625612258911133,-0.18304289877414703
0.9750074148178101,2.6484155654907227,-0.18315745890140533
1.0056332349777222,2.6745948791503906,-0.18336671590805054
1.0349795818328857,2.6969473361968994,-0.18331024050712585
1.063712239265442,2.7152187824249268,-0.18291310966014862
1.0854915380477905,2.71512770652771,-0.18126994371414185
1.1156561374664307,2.7367348670959473,-0.1809539943933487
1.1569359302520752,2.783141613006592,-0.1821875274181366
1.1883189678192139,2.803952932357788,-0.18169359862804413
1.1429052352905273,2.6453983783721924,-0.16964919865131378
1.1515419483184814,2.6162538528442383,-0.16597133874893188
1.1627960205078125,2.5943336486816406,-0.16274145245552063
1.180841326713562,2.586319923400879,-0.1603427678346634
1.1922895908355713,2.5640153884887695,-0.15707236528396606
1.2198872566223145,2.577064275741577,-0.1559390425682068
1.2608729600906372,2.618156909942627,-0.15640470385551453
1.4983246326446533,3.0580525398254395,-0.18028926849365234
1.5704760551452637,3.1487627029418945,-0.18305575847625732
1.614998459815979,3.1833205223083496,-0.18245641887187958
1.6541078090667725,3.2073230743408203,-0.18113137781620026
1.418570637702942,2.705552101135254,-0.1504708081483841
1.4300380945205688,2.6819961071014404,-0.14678703248500824
1.4556944370269775,2.6860828399658203,-0.14459766447544098
1.4700292348861694,2.6695199012756348,-0.14122100174427032
1.4805957078933716,2.645961284637451,-0.137472003698349
1.4661939144134521,2.578075647354126,-0.13144417107105255
1.4639034271240234,2.5345611572265625,-0.12671054899692535
1.47469162940979,2.514885187149048,-0.12320475280284882
1.4064767360687256,2.3604094982147217,-0.1130962148308754
1.3802098035812378,2.2807159423828125,-0.10683044791221619
1.3563073873519897,2.2085654735565186,-0.10103728622198105
1.3753317594528198,2.206105947494507,-0.09842140972614288
1.3781507015228271,2.176807165145874,-0.09454884380102158
1.4010920524597168,2.180826425552368,-0.09206930547952652
1.3942090272903442,2.1389071941375732,-0.08767183870077133
1.4177120923995972,2.1422815322875977,-0.08502224087715149
1.4230446815490723,2.1200835704803467,-0.08134780079126358
1.4171773195266724,2.081756114959717,-0.07705481350421906
1.4363211393356323,2.078218460083008,-0.07386483252048492
1.45415198802948,2.075441360473633,-0.07073253393173218
1.4271899461746216,2.008559465408325,-0.06536416709423065
1.4591573476791382,2.0242106914520264,-0.06257519125938416
1.4534344673156738,1.9898722171783447,-0.0582360215485096
1.4647822380065918,1.9767858982086182,-0.05425503849983215
2.2828969955444336,3.195157051086426,0.14764085412025452
2.2645514011383057,3.222217321395874,0.1542891263961792
2.5330586433410645,3.6580495834350586,0.18058179318904877
2.5846526622772217,3.7927513122558594,0.19273222982883453
3.1647331714630127,4.719261646270752,0.24635660648345947
2.4111595153808594,3.650071144104004,0.19521649181842804
3.1166794300079346,4.796961784362793,0.2626497149467468
1.645496129989624,2.57421612739563,0.144048810005188
1.6399054527282715,2.6052849292755127,0.14871647953987122
1.600111484527588,2.5839314460754395,0.15033113956451416
3.047342300415039,5.0049614906311035,0.29657599329948425
3.0196149349212646,5.039560794830322,0.3037009835243225
2.9957451820373535,5.080601215362549,0.31112319231033325
2.9654247760772705,5.116021156311035,0.3180897533893585
2.8197970390319824,4.947420120239258,0.3121117949485779
2.769845724105835,4.93946647644043,0.31589746475219727
2.6902244091033936,4.8807477951049805,0.3163404166698456
2.622159957885742,4.842044830322266,0.3178042769432068
2.5633983612060547,4.815722465515137,0.31987693905830383
2.511645793914795,4.798624515533447,0.3223991096019745
2.450434684753418,4.764173984527588,0.32360008358955383
2.377615213394165,4.709067344665527,0.32327374815940857
2.3192756175994873,4.676919937133789,0.32431918382644653
1.241473913192749,2.547868251800537,0.17838968336582184
1.2200676202774048,2.549386739730835,0.18017515540122986
1.201277732849121,2.5581374168395996,0.1823880523443222
1.1824655532836914,2.5667295455932617,0.1845959573984146
1.1593743562698364,2.564260482788086,0.18596096336841583
1.1524749994277954,2.597093105316162,0.18987925350666046
1.1305357217788696,2.5980708599090576,0.19138625264167786
2.059412956237793,4.828675746917725,0.35831716656684875
2.033792495727539,4.86460542678833,0.36356520652770996
2.0095691680908203,4.90388298034668,0.36908236145973206
1.9926742315292358,4.960930347442627,0.37592554092407227
2.4186558723449707,6.149869441986084,0.4688672721385956
2.36554217338562,6.145132541656494,0.4713599383831024
1.9908735752105713,5.282768726348877,0.40761131048202515
1.9708750247955322,5.344007968902588,0.41477689146995544
1.9413433074951172,5.379398345947266,0.4198964536190033
1.9542537927627563,5.539986610412598,0.43462926149368286
2.0702965259552,6.0066938400268555,0.4736396074295044
2.0103607177734375,5.9692277908325195,0.47302767634391785
1.9642841815948486,5.971973419189453,0.4756104350090027
1.90818452835083,5.940792083740234,0.47543543577194214
1.8851428031921387,6.0173187255859375,0.4835861325263977
1.855465292930603,6.075170040130615,0.49029481410980225
1.818902850151062,6.110352039337158,0.4951974153518677
1.7947334051132202,6.186212539672852,0.5034089684486389
1.7582452297210693,6.224758625030518,0.5086753368377686
1.7324281930923462,6.304483890533447,0.5170362591743469
1.702336311340332,6.372925281524658,0.5244463682174683
1.6665247678756714,6.422389984130859,0.5303458571434021
0.8203969597816467,3.254563093185425,0.2696671485900879
1.5548982620239258,6.357715606689453,0.5286217331886292
0.7986947298049927,3.3678643703460693,0.2809225618839264
1.4474657773971558,6.302755832672119,0.5271707773208618
1.4025243520736694,6.312716007232666,0.5294713973999023
1.3384517431259155,6.230885982513428,0.5240600109100342
1.2951256036758423,6.24382209777832,0.526633083820343
1.2447201013565063,6.218151092529297,0.5259456038475037
1.1897590160369873,6.169281482696533,0.5229974985122681
1.1389031410217285,6.139132499694824,0.5215474367141724
1.0912045240402222,6.123915195465088,0.5213825702667236
1.0378787517547607,6.0737996101379395,0.518257737159729
0.9981158971786499,6.096090793609619,0.5213057994842529
0.9507694840431213,6.071990489959717,0.5203886032104492
0.9014936685562134,6.036098957061768,0.5181115865707397
0.8555730581283569,6.019076824188232,0.5174701809883118
0.8071848154067993,5.986368656158447,0.5155109763145447
0.766441285610199,5.99945592880249,0.5174921751022339
0.27560338377952576,2.2835757732391357,0.19730697572231293
0.26142263412475586,2.3008711338043213,0.19910623133182526
0.2493617981672287,2.3413209915161133,0.20281252264976501
0.23559007048606873,2.370094060897827,0.20552325248718262
0.3758971691131592,4.076812744140625,0.3539201617240906
0.35251906514167786,4.137437343597412,0.35959392786026
0.3282731771469116,4.19793176651001,0.36528629064559937
0.29897671937942505,4.2000732421875,0.36582115292549133
0.2678004503250122,4.17484712600708,0.36383020877838135
0.2387339174747467,4.188270568847656,0.36522841453552246
0.38882675766944885,7.7771759033203125,0.678639829158783
0.33414706587791443,7.764076232910156,0.6779748797416687
0.2786857783794403,7.7233710289001465,0.6749283671379089
0.2242949903011322,7.70174503326416,0.6733293533325195
0.1688297688961029,7.664222717285156,0.6700921654701233
0.11491783708333969,7.6301798820495605,0.6671907305717468
0.061519842594861984,7.599651336669922,0.6646281480789185
0.008657988160848618,7.592098712921143,0.6641063094139099
-0.043960090726614,7.560830593109131,0.6615414023399353
-0.09722776710987091,7.548666000366211,0.6604267358779907
-0.1492089480161667,7.524493217468262,0.6580636501312256
-0.200858935713768,7.499962329864502,0.655702531337738
-0.2517816424369812,7.4634108543396,0.6523236036300659
-0.3030746579170227,7.445952415466309,0.6506460309028625
-0.3561754822731018,7.4709014892578125,0.6527053117752075
-0.29590120911598206,5.404965877532959,0.4719395339488983
-0.33331814408302307,5.402838706970215,0.4713488519191742
-0.3701310455799103,5.3926920890808105,0.47008216381073
-0.40634408593177795,5.37452507019043,0.4681393802165985
-0.4430190324783325,5.363868236541748,0.46687430143356323
-0.4722314178943634,5.263751983642578,0.4578460454940796
-0.44641736149787903,4.617403984069824,0.4011915624141693
-0.4782075583934784,4.614289283752441,0.40039539337158203
-0.5083117485046387,4.595477104187012,0.3982570767402649
-0.5373637676239014,4.568728446960449,0.3954525887966156
-0.5686494708061218,4.55716609954834,0.39397531747817993
-0.5982687473297119,4.53773832321167,0.39184728264808655
-0.6283897757530212,4.525892734527588,0.3901820182800293
-0.6555019617080688,4.494607448577881,0.3867782950401306
-0.6880499124526978,4.501645088195801,0.38669416308403015
-0.717946469783783,4.485244274139404,0.38459518551826477
-0.7478355765342712,4.472558498382568,0.38284629583358765
-0.7762907147407532,4.451996803283691,0.3804442584514618
-0.8040058016777039,4.4313645362854,0.37781238555908203
-0.8264046311378479,4.383791923522949,0.3728746473789215
-0.8533775210380554,4.362869739532471,0.37023404240608215
-0.745566725730896,3.6739509105682373,0.31103718280792236
-0.769477367401123,3.661158800125122,0.3092462420463562
-0.9395853877067566,4.321569442749023,0.3641780614852905
-0.9723961353302002,4.330402851104736,0.36384132504463196
-1.0018551349639893,4.323818206787109,0.36222225427627563
-1.03013277053833,4.309301376342773,0.359933465719223
-1.0544050931930542,4.279507637023926,0.35639798641204834
-1.078355312347412,4.249573707580566,0.35287758708000183
-1.1114577054977417,4.257279872894287,0.3523889183998108
-1.1382733583450317,4.242280006408691,0.3498998284339905
-1.1633497476577759,4.219473838806152,0.34676888585090637
-1.194530963897705,4.219002723693848,0.34549233317375183
-1.2162195444107056,4.184577465057373,0.34144702553749084
-1.243091344833374,4.168700695037842,0.33893996477127075
-1.2758595943450928,4.175252437591553,0.33803701400756836
-1.2998631000518799,4.151695251464844,0.3346690833568573
-1.3280534744262695,4.1429362297058105,0.33253052830696106
-1.3544431924819946,4.12636137008667,0.3297480642795563
-1.3856661319732666,4.124375343322754,0.32814550399780273
-1.411342740058899,4.107606410980225,0.3252527713775635
-1.436392903327942,4.090846538543701,0.3222770690917969
-1.4565279483795166,4.059087753295898,0.31811603903770447
-1.4953590631484985,4.078347682952881,0.3179481625556946
-1.5100018978118896,4.031564235687256,0.3126455247402191
-1.540418028831482,4.028579235076904,0.31069448590278625
-1.5673115253448486,4.01839542388916,0.30806097388267517
-1.588893175125122,3.9933464527130127,0.30427300930023193
-1.6193403005599976,3.989715576171875,0.30211105942726135
-1.650052547454834,3.985755443572998,0.2999154329299927
-1.671335220336914,3.9601738452911377,0.29604455828666687
-1.697691559791565,3.9491641521453857,0.29313358664512634
-1.7181757688522339,3.9235012531280518,0.28911975026130676
-1.7405561208724976,3.901045560836792,0.2853231132030487
-1.7580605745315552,3.867734432220459,0.28074875473976135
-1.7876741886138916,3.8629515171051025,0.2781781852245331
-1.8100091218948364,3.8441481590270996,0.27451634407043457
-1.8226662874221802,3.803839683532715,0.26929816603660583
-1.84909188747406,3.7912955284118652,0.2660243511199951
-1.8858296871185303,3.799518346786499,0.2642074525356293
-1.9039961099624634,3.773223638534546,0.2598324418067932
-1.9288136959075928,3.7608325481414795,0.2564157247543335
-1.9436243772506714,3.7270736694335938,0.25147560238838196
-1.9773831367492676,3.727186918258667,0.2487281709909439
-1.9952001571655273,3.7002105712890625,0.24415770173072815
-1.7010427713394165,3.1057615280151367,0.20253467559814453
-1.7180746793746948,3.0876553058624268,0.19891279935836792
-0.8371154069900513,1.48020601272583,0.09414143115282059
-0.8356673121452332,1.4541956186294556,0.091244637966156
-0.8451158404350281,1.448824405670166,0.08964985609054565
-0.8547750115394592,1.4432474374771118,0.08801324665546417
-0.8849809765815735,1.470752477645874,0.08830311894416809
-0.8948925137519836,1.4648483991622925,0.08653407543897629
-0.9004479050636292,1.4523735046386719,0.08433205634355545
-0.8936779499053955,1.419906497001648,0.08096539974212646
-0.9077824950218201,1.4203076362609863,0.07945622503757477
-0.8915082812309265,1.3752012252807617,0.0753994956612587
-0.893997848033905,1.3596962690353394,0.07300195097923279
-0.940464973449707,1.408600091934204,0.07386532425880432
-2.389723300933838,3.528761863708496,0.1806153804063797
-1.2855560779571533,1.8727328777313232,0.09346118569374084
-1.3097178936004639,1.8799026012420654,0.09116558730602264
-1.1343376636505127,1.5403506755828857,0.06506150960922241
-1.208101511001587,1.742120385169983,-0.06742831319570541
-1.221896767616272,1.7893667221069336,-0.07227484881877899
-1.2547061443328857,1.8660298585891724,-0.07838940620422363
-1.253393530845642,1.8949129581451416,-0.08263232558965683
-1.2952961921691895,1.98866605758667,-0.08966410905122757
-1.2786743640899658,1.9946088790893555,-0.09280479699373245
-1.263774037361145,2.0039286613464355,-0.09607680886983871
-1.1653448343276978,1.8766114711761475,-0.09244351834058762
-1.1008591651916504,1.801601529121399,-0.09109687805175781
-2.130784511566162,3.66283917427063,-0.19880400598049164
-0.895202100276947,1.5913987159729004,-0.09002474695444107
-1.7110614776611328,3.0927987098693848,-0.17840178310871124
-1.9604299068450928,3.6053860187530518,-0.21182513236999512
-1.661987543106079,3.1101326942443848,-0.18600735068321228
-1.6402313709259033,3.121431589126587,-0.18981991708278656
-1.6932650804519653,3.278282642364502,-0.20260876417160034
-1.6389037370681763,3.2313759326934814,-0.2028878629207611
-1.5948472023010254,3.2009050846099854,-0.20400205254554749
-1.556991696357727,3.1802237033843994,-0.20561042428016663
-1.498752236366272,3.1172311305999756,-0.20434246957302094
-1.4527418613433838,3.07845401763916,-0.2045154720544815
-1.4095492362976074,3.0424749851226807,-0.2047363668680191
-1.371760606765747,3.016700506210327,-0.20558710396289825
-1.326429843902588,2.9727694988250732,-0.20502319931983948
-1.2924202680587769,2.9534924030303955,-0.20606251060962677
-1.2514772415161133,2.9158010482788086,-0.20572282373905182
-1.2068898677825928,2.866786241531372,-0.20448046922683716
-1.1698455810546875,2.8355767726898193,-0.20441706478595734
-1.1406395435333252,2.822052478790283,-0.20549386739730835
-1.106223702430725,2.793656826019287,-0.20542870461940765
-1.0655747652053833,2.746619939804077,-0.20390267670154572
-1.0407295227050781,2.739280939102173,-0.20525145530700684
-1.0085258483886719,2.713740587234497,-0.20514623820781708
-0.9811378717422485,2.6987268924713135,-0.20577473938465118
-0.9544717669487,2.6833043098449707,-0.20631195604801178
-0.9216469526290894,2.649252414703369,-0.20538882911205292
-0.8902266621589661,2.6187024116516113,-0.20457099378108978
-0.863823652267456,2.602754592895508,-0.20488210022449493
-0.8275036215782166,2.5530216693878174,-0.202447772026062
-0.8049910068511963,2.5437204837799072,-0.2031770944595337
-0.7847694158554077,2.5417325496673584,-0.204426571726799
-0.756568431854248,2.5135440826416016,-0.20347200334072113
-0.7277525067329407,2.481339693069458,-0.20216251909732819
-0.7079876065254211,2.4788126945495605,-0.20325776934623718
-0.6885948777198792,2.4760496616363525,-0.20431362092494965
-0.6598650217056274,2.43938946723938,-0.20242410898208618
-0.6405587196350098,2.436354398727417,-0.20329098403453827
-0.6137800812721252,2.4029510021209717,-0.20160292088985443
-0.592987596988678,2.3920021057128906,-0.20179356634616852
-0.5735329985618591,2.384612560272217,-0.20222985744476318
-0.5495743751525879,2.358173370361328,-0.20091761648654938
-0.5226114392280579,2.3163249492645264,-0.19827140867710114
-0.5114009976387024,2.342632293701172,-0.20144903659820557
-0.4875819981098175,2.311807870864868,-0.19973111152648926
-0.4667288064956665,2.2921829223632812,-0.1988740861415863
-0.45356854796409607,2.310601234436035,-0.20123687386512756
-0.43440890312194824,2.2983479499816895,-0.2009373903274536
-0.4128139913082123,2.2705976963043213,-0.19927018880844116
-0.3967140316963196,2.273375988006592,-0.20029473304748535
-0.37497779726982117,2.2414803504943848,-0.1981409192085266
-0.35183125734329224,2.1978776454925537,-0.19488564133644104
-0.33756834268569946,2.207914113998413,-0.19638501107692719
-0.32445552945137024,2.2255373001098633,-0.1985691487789154
-0.3086909055709839,2.2277042865753174,-0.19939973950386047
-0.29309627413749695,2.2297494411468506,-0.20007073879241943
-0.2736063301563263,2.2008049488067627,-0.1979321837425232
-0.2564050555229187,2.187150239944458,-0.1971670538187027
-0.24033497273921967,2.1810903549194336,-0.19708894193172455
-0.22514134645462036,2.182654857635498,-0.19770827889442444
-0.20849919319152832,2.172539710998535,-0.19712986052036285
-0.19190195202827454,2.1584055423736572,-0.19617049396038055
-0.17556846141815186,2.1441423892974854,-0.19520303606987
-0.16064214706420898,2.1452722549438477,-0.19564326107501984
-0.14518165588378906,2.138535499572754,-0.19537431001663208
-0.12903860211372375,2.1239564418792725,-0.19423075020313263
-0.11545202136039734,2.148088216781616,-0.19662880897521973
-0.09975516051054001,2.133273124694824,-0.19547148048877716
-0.08399771898984909,2.110569477081299,-0.19359660148620605
-0.0690711960196495,2.1033029556274414,-0.19314225018024445
-0.054954491555690765,2.134840488433838,-0.19608734548091888
-0.03921543061733246,2.0884931087493896,-0.1918867528438568
-0.02485957182943821,2.1042659282684326,-0.19340218603610992
-0.010247042402625084,2.104379892349243,-0.19348807632923126
0.004384220112115145,2.1043930053710938,-0.19356758892536163
0.01913071982562542,2.088758707046509,-0.19204895198345184
0.03390563279390335,2.104140520095825,-0.19339288771152496
0.048536516726017,2.1038618087768555,-0.19330626726150513
0.06268001347780228,2.0879292488098145,-0.19179116189479828
0.0777706503868103,2.1030008792877197,-0.19312261044979095
0.09080571681261063,2.06745982170105,-0.18965183198451996
0.10678590089082718,2.0939857959747314,-0.19188091158866882
0.12178078293800354,2.100984573364258,-0.19232983887195587
0.13641026616096497,2.100109577178955,-0.19206614792346954
0.1510283648967743,2.0991344451904297,-0.19178718328475952
0.1655701994895935,2.098076820373535,-0.19135630130767822
0.18237650394439697,2.1201517581939697,-0.19303472340106964
0.19782096147537231,2.1266207695007324,-0.19330215454101562
0.21026621758937836,2.10200834274292,-0.19075597822666168
0.22319577634334564,2.0850658416748047,-0.18889853358268738
0.24201610684394836,2.1221818923950195,-0.19179968535900116
0.2578571140766144,2.128209352493286,-0.19188299775123596
0.2755907475948334,2.149578332901001,-0.1933578997850418
0.2884543240070343,2.1322410106658936,-0.19135765731334686
0.3010846674442291,2.1148321628570557,-0.18933174014091492
0.3179782032966614,2.1281659603118896,-0.18993325531482697
0.33050912618637085,2.1105732917785645,-0.18777374923229218
0.34893545508384705,2.1313366889953613,-0.18904028832912445
0.3637699782848358,2.12892484664917,-0.18825270235538483
0.3812691271305084,2.141747236251831,-0.18876846134662628
0.4009651243686676,2.1659419536590576,-0.19017453491687775
0.4173567295074463,2.170854330062866,-0.189884215593338
0.4342382848262787,2.175565242767334,-0.18956108391284943
0.4446611702442169,2.1497015953063965,-0.18659953773021698
0.4570869505405426,2.1352431774139404,-0.18457801640033722
0.47009482979774475,2.124540328979492,-0.18281324207782745
0.5046544671058655,2.2086312770843506,-0.18918278813362122
0.5283358693122864,2.239201068878174,-0.1909041702747345
0.545768141746521,2.243131160736084,-0.19036181271076202
0.5593209266662598,2.231872797012329,-0.1884392946958542
0.5785207152366638,2.2431721687316895,-0.18837548792362213
0.5959605574607849,2.246771812438965,-0.1876600980758667
0.6272629499435425,2.2989490032196045,-0.19095149636268616
0.641176700592041,2.2871363162994385,-0.18893299996852875
0.6611518263816833,2.297780990600586,-0.18863728642463684
0.6812864542007446,2.3082642555236816,-0.18831361830234528
0.7062764167785645,2.3334403038024902,-0.18916192650794983
0.7204996347427368,2.3210649490356445,-0.1869344413280487
0.7495521306991577,2.3569767475128174,-0.18856848776340485
0.765635073184967,2.3519411087036133,-0.18681775033473969
0.7841458320617676,2.3541862964630127,-0.1856497973203659
0.815587043762207,2.393061876296997,-0.18732449412345886
0.8386679291725159,2.4058516025543213,-0.1869267225265503
0.8632498979568481,2.422123670578003,-0.18666639924049377
0.8877024054527283,2.438314437866211,-0.18636971712112427
0.9180356860160828,2.468824863433838,-0.1871214061975479
0.9393957257270813,2.473442316055298,-0.18586604297161102
0.976241946220398,2.517895460128784,-0.18754176795482635
1.0093979835510254,2.551116466522217,-0.1882055401802063
1.0325396060943604,2.558823823928833,-0.1869889795780182
1.0681623220443726,2.5949809551239014,-0.18777184188365936
1.0967750549316406,2.6128063201904297,-0.1871902197599411
1.129796028137207,2.641326904296875,-0.1872316151857376
1.1385891437530518,2.6122357845306396,-0.18314184248447418
1.1424012184143066,2.5724070072174072,-0.17833687365055084
1.1683443784713745,2.5823168754577637,-0.1769850254058838
1.1810237169265747,2.5638504028320312,-0.1736220419406891
1.2065529823303223,2.5736632347106934,-0.17214517295360565
1.2345998287200928,2.5864615440368652,-0.17076262831687927
1.3548561334609985,2.7884209156036377,-0.1816834807395935
1.4498493671417236,2.933152437210083,-0.18850795924663544
1.4782309532165527,2.9410018920898438,-0.18635080754756927
1.5232168436050415,2.979626417160034,-0.18602944910526276
1.4720122814178467,2.8307087421417236,-0.1740422546863556
1.434976577758789,2.7138001918792725,-0.16417159140110016
1.4456843137741089,2.6906051635742188,-0.16011399030685425
1.4492336511611938,2.6533844470977783,-0.15518584847450256
1.4601325988769531,2.629760503768921,-0.1510695368051529
1.4450756311416626,2.5623722076416016,-0.1444680392742157
1.4294005632400513,2.4951725006103516,-0.13794773817062378
1.4506874084472656,2.4920754432678223,-0.1349489539861679
1.4717296361923218,2.488959312438965,-0.1319275200366974
1.4760550260543823,2.459306478500366,-0.1274862140417099
1.4459917545318604,2.372767686843872,-0.12013421207666397
1.3950204849243164,2.2531044483184814,-0.11120563000440598
1.39948570728302,2.227480411529541,-0.1071094498038292
1.3701575994491577,2.1491951942443848,-0.10055753588676453
1.3999546766281128,2.1626853942871094,-0.09821825474500656
1.4014543294906616,2.133899688720703,-0.09394443035125732
1.4134258031845093,2.1214499473571777,-0.09034617245197296
1.4303367137908936,2.1149516105651855,-0.08685844391584396
1.442036747932434,2.102405071258545,-0.08311518281698227
1.43340265750885,2.0610599517822266,-0.07822902500629425
1.4567509889602661,2.0639150142669678,-0.07481979578733444
1.456593632698059,2.035423994064331,-0.07021884620189667
1.4472278356552124,1.994176983833313,-0.06514697521924973
1.4791370630264282,2.0096817016601562,-0.061781514436006546
2.2726476192474365,3.2062289714813232,0.16830870509147644
2.2489616870880127,3.222548246383667,0.17467999458312988
2.5883915424346924,3.7702908515930176,0.2106393575668335
3.162480354309082,4.67714262008667,0.26841482520103455
3.1468257904052734,4.729446887969971,0.2783414423465729
2.401630401611328,3.6689047813415527,0.22111956775188446
3.1030421257019043,4.813144683837891,0.29634857177734375
1.6402820348739624,2.585714817047119,0.16248521208763123
1.6202149391174316,2.598078489303589,0.16654957830905914
1.5775301456451416,2.56921648979187,0.1676158308982849
3.0033364295959473,4.970088481903076,0.3298076391220093
2.9996578693389893,5.049116611480713,0.34052836894989014
2.9628634452819824,5.070340156555176,0.3472391963005066
2.864435911178589,4.982718467712402,0.3463033139705658
2.78948712348938,4.935247898101807,0.34776777029037476
2.7164061069488525,4.8908514976501465,0.34926924109458923
2.6572446823120117,4.865167140960693,0.3517853319644928
2.593700647354126,4.828249454498291,0.353336900472641
2.5376949310302734,4.809089183807373,0.3560221791267395
2.483975648880005,4.792802333831787,0.35874977707862854
2.4126875400543213,4.737033367156982,0.3582884967327118
2.3638501167297363,4.722030162811279,0.3607806861400604
2.3091135025024414,4.696619510650635,0.36229830980300903
1.2223944664001465,2.533965826034546,0.19731272757053375
1.2124422788619995,2.5601251125335693,0.20113414525985718
1.1830127239227295,2.5436220169067383,0.20155644416809082
1.1715155839920044,2.5658929347991943,0.2050291895866394
1.1574459075927734,2.584899425506592,0.20815084874629974
1.1509674787521362,2.6216776371002197,0.2127409279346466
2.065720558166504,4.797764778137207,0.39222463965415955
2.0442965030670166,4.840449333190918,0.39857858419418335
2.0260355472564697,4.894201278686523,0.4057537317276001
1.996201515197754,4.922942161560059,0.41077396273612976
1.963309645652771,4.944214820861816,0.41519472002983093
2.4080381393432617,6.191715240478516,0.5232088565826416
2.353644371032715,6.178883075714111,0.5253249406814575
2.2956900596618652,6.158740997314453,0.5265461206436157
2.2416629791259766,6.149250507354736,0.5285463929176331
1.927998661994934,5.409411907196045,0.46742767095565796
2.1329855918884277,6.121149063110352,0.5316943526268005
2.045043468475342,6.002870559692383,0.5241003632545471
1.9924689531326294,5.987390995025635,0.5252004265785217
1.9335979223251343,5.953166484832764,0.5245091319084167
1.8988953828811646,5.9926042556762695,0.5303237438201904
1.8793432712554932,6.079983711242676,0.5404103994369507
1.8706296682357788,6.2044172286987305,0.5538484454154968
1.829087257385254,6.224600791931152,0.5579096674919128
1.7865322828292847,6.244760990142822,0.561743438243866
1.7614610195159912,6.328377723693848,0.571342945098877
1.7351874113082886,6.4079437255859375,0.5806090235710144
1.700634241104126,6.461182117462158,0.5875684022903442
1.6478445529937744,6.4424333572387695,0.5879791975021362
0.8107629418373108,3.266537666320801,0.29900428652763367
1.5383936166763306,6.392927646636963,0.5868951678276062
0.7782342433929443,3.338137149810791,0.30735811591148376
1.4183375835418701,6.284601211547852,0.5803722143173218
1.3596391677856445,6.225663661956787,0.5766245126724243
1.3135615587234497,6.223397254943848,0.577978253364563
1.2692816257476807,6.2323784828186035,0.5801341533660889
1.2205079793930054,6.2181291580200195,0.5801501274108887
1.1636853218078613,6.161527156829834,0.5762362480163574
1.116550326347351,6.146329402923584,0.5761670470237732
1.0750318765640259,6.161429405212402,0.5789626240730286
1.0226213932037354,6.114972114562988,0.5757027268409729
0.970070481300354,6.0642991065979,0.5719091296195984
0.9228315353393555,6.047906398773193,0.5713817477226257
0.8676573634147644,5.9655375480651855,0.5646005272865295
0.822982132434845,5.948160171508789,0.5639730095863342
0.7866290807723999,5.992155075073242,0.5691961646080017
0.736333429813385,5.9318132400512695,0.5641752481460571
0.5956284999847412,5.090838432312012,0.48477157950401306
0.555733323097229,5.063955783843994,0.48282483220100403
0.530407190322876,5.164319038391113,0.4930244982242584
0.39296820759773254,4.107136249542236,0.3926176428794861
0.36368700861930847,4.101950168609619,0.3926592171192169
0.3428475558757782,4.2012410163879395,0.40244731307029724
0.3122504949569702,4.195777416229248,0.40222179889678955
0.2804872989654541,4.162896633148193,0.39937904477119446
0.25199416279792786,4.17246150970459,0.400623619556427
0.4159401059150696,7.78511381149292,0.7481409907341003
0.3607785999774933,7.764420509338379,0.7468273639678955
0.3047960698604584,7.743435859680176,0.7449526190757751
0.2493898570537567,7.702589511871338,0.7412000298500061
0.19525937736034393,7.688559532165527,0.7400624752044678
0.14121083915233612,7.658596515655518,0.7374250292778015
0.0875532329082489,7.632143974304199,0.7351597547531128
0.0334910973906517,7.609209060668945,0.7332581281661987
-0.019443994387984276,7.5781707763671875,0.7300751209259033
-0.07190291583538055,7.550652503967285,0.7272683382034302
-0.1240440085530281,7.526661396026611,0.7248373031616211
-0.1757761836051941,7.502312183380127,0.7224076986312866
-0.22701823711395264,7.469833850860596,0.7192305326461792
-0.27881625294685364,7.440861701965332,0.7164163589477539
-0.3312488794326782,7.4582414627075195,0.7175718545913696
-0.2774309813976288,5.401597023010254,0.5193477869033813
-0.316224604845047,5.422884941101074,0.52106773853302
-0.3533570170402527,5.412848472595215,0.5198014378547668
-0.38935789465904236,5.3792405128479,0.5162938237190247
-0.42607301473617554,5.368705749511719,0.5150265097618103
-0.4624476730823517,5.357974529266357,0.5133909583091736
-0.43039670586586,4.615225315093994,0.44172123074531555
-0.46224072575569153,4.612218379974365,0.4409525394439697
-0.4939976632595062,4.6011786460876465,0.4394267797470093
-0.5250508785247803,4.589983940124512,0.4379175305366516
-0.5531438589096069,4.555419921875,0.4341888129711151
-0.5824728012084961,4.536182403564453,0.4316370189189911
-0.6146478652954102,4.539887428283691,0.43129080533981323
-0.6441676616668701,4.52018404006958,0.42873048782348633
-0.6733038425445557,4.500309944152832,0.4261823892593384
-0.7027967572212219,4.484091281890869,0.42400500178337097
-0.7313579320907593,4.463862895965576,0.4214324951171875
-0.7606050968170166,4.451212406158447,0.41932499408721924
-0.7897132039070129,4.438369274139404,0.41722220182418823
-0.8150129914283752,4.40228271484375,0.4129451513290405
-0.836042046546936,4.346983432769775,0.4069056510925293
-0.7315434813499451,3.6659762859344482,0.3424539268016815
-0.7552863359451294,3.6533291339874268,0.34051045775413513
-0.7834299802780151,3.6634421348571777,0.3405272662639618
-0.9634073972702026,4.356985092163086,0.4038885235786438
-0.9872016906738281,4.32388162612915,0.39975249767303467
-1.0136463642120361,4.301928520202637,0.3966628909111023
-1.0379542112350464,4.272263526916504,0.39289212226867676
-1.0728445053100586,4.287872314453125,0.393140971660614
-1.1024103164672852,4.280549049377441,0.3911491632461548
-1.127405047416687,4.258113384246826,0.3878231346607208
-1.1526784896850586,4.2353925704956055,0.3844747245311737
-1.1800323724746704,4.2199530601501465,0.38180190324783325
-1.2115232944488525,4.219298839569092,0.38048532605171204
-1.2329082489013672,4.184911251068115,0.3758644163608551
-1.264580249786377,4.1878485679626465,0.374632328748703
-1.285001277923584,4.153317928314209,0.3700626790523529
-1.3138642311096191,4.144481182098389,0.36777663230895996
-1.3451088666915894,4.1428351402282715,0.36614182591438293
-1.3739310503005981,4.133583068847656,0.3636876940727234
-1.3992573022842407,4.11707878112793,0.3605044484138489
-1.421830654144287,4.093077659606934,0.3566926121711731
-1.4474902153015137,4.0760369300842285,0.35346725583076477
-1.481136441230774,4.080728530883789,0.35212889313697815
-1.4957692623138428,4.034115314483643,0.3463437259197235
-1.531558871269226,4.045898914337158,0.34536367654800415
-1.5558569431304932,4.02850866317749,0.3419376015663147
-1.5748413801193237,3.9962642192840576,0.3372400104999542
-1.6054623126983643,3.9927005767822266,0.3349583148956299
-1.633108139038086,3.9817163944244385,0.3320479094982147
-1.6630679368972778,3.978001832962036,0.32950544357299805
-1.6834591627120972,3.952741861343384,0.32523298263549805
-1.71041738986969,3.941410779953003,0.3220771253108978
-1.726864218711853,3.9046976566314697,0.3168276846408844
-1.758690357208252,3.903550386428833,0.3144542872905731
-1.770480751991272,3.859950304031372,0.3084603250026703
-1.7961320877075195,3.84834885597229,0.30510205030441284
-1.8159712553024292,3.822053909301758,0.30051130056381226
-1.842622995376587,3.809551954269409,0.29699966311454773
-1.8754645586013794,3.8111507892608643,0.2944973111152649
-1.8802076578140259,3.7568767070770264,0.2875592112541199
-1.9264960289001465,3.7861826419830322,0.28705674409866333
-1.938499927520752,3.7452664375305176,0.28111857175827026
-1.9681496620178223,3.7388696670532227,0.27780330181121826
-1.988978624343872,3.719285249710083,0.2733336389064789
-2.024519920349121,3.7269890308380127,0.2708701193332672
-1.7076406478881836,3.0918664932250977,0.22201016545295715
-1.7330461740493774,3.0868961811065674,0.21896134316921234
-0.8419974446296692,1.4768145084381104,0.10341120511293411
-0.8399306535720825,1.4511414766311646,0.10027512162923813
-0.8656830787658691,1.4723577499389648,0.10031169652938843
-0.8681220412254333,1.4529069662094116,0.0975194200873375
-0.8857278823852539,1.460641860961914,0.09653317183256149
-0.8747447729110718,1.4217716455459595,0.09248034656047821
-0.8970012664794922,1.4356364011764526,0.09176860004663467
-0.8943908214569092,1.4097514152526855,0.08850045502185822
-0.8867211937904358,1.3777443170547485,0.08483142405748367
-0.8894504308700562,1.3621515035629272,0.08219867199659348
-0.9054158926010132,1.3657852411270142,0.08064096421003342
-2.396848440170288,3.565039873123169,0.2057322859764099
-1.3590083122253418,1.9638211727142334,0.10765746980905533
-1.1925550699234009,1.6994740962982178,0.09057442843914032
-2.5924289226531982,3.4961676597595215,0.16196216642856598
-1.2412689924240112,1.7759772539138794,-0.07241801172494888
-1.3855879306793213,2.0130386352539062,-0.08588125556707382
-1.3099123239517212,1.9649311304092407,-0.09096015989780426
-1.2382781505584717,1.8857927322387695,-0.09038805961608887
-1.2921440601348877,1.9995851516723633,-0.0990857183933258
-1.2856700420379639,2.0220940113067627,-0.10339557379484177
-1.3105926513671875,2.0938549041748047,-0.11021741479635239
-1.242024302482605,2.0168185234069824,-0.10910572111606598
-2.121957302093506,3.617511749267578,-0.21058116853237152
-0.8718593120574951,1.5370007753372192,-0.0934375748038292
-1.7295631170272827,3.09959077835083,-0.1922256201505661
-1.7067044973373413,3.111954927444458,-0.19672580063343048
-1.6971901655197144,3.1479225158691406,-0.20267894864082336
-1.6619395017623901,3.135528087615967,-0.20548656582832336
-1.6285208463668823,3.126377582550049,-0.20834989845752716
-1.578961968421936,3.085859537124634,-0.20902332663536072
-1.5098581314086914,3.0026023387908936,-0.20653696358203888
-1.4612420797348022,2.9568748474121094,-0.20645014941692352
-1.4309666156768799,2.949732780456543,-0.20895464718341827
-1.3860597610473633,2.910508155822754,-0.2090682089328766
-1.3408855199813843,2.866926908493042,-0.2086775302886963
-1.2899019718170166,2.8086884021759033,-0.2071128934621811
-1.2535361051559448,2.7821767330169678,-0.20768950879573822
-1.2176120281219482,2.7552945613861084,-0.20818328857421875
-1.1809464693069458,2.7243192195892334,-0.208266481757164
-1.1390327215194702,2.678480386734009,-0.20709775388240814
-1.1212279796600342,2.6899831295013428,-0.2102203220129013
-1.0767894983291626,2.63645076751709,-0.20821510255336761
-1.0394705533981323,2.596701145172119,-0.20716217160224915
-1.012487530708313,2.5820376873016357,-0.2080920785665512
-0.9759191274642944,2.5417091846466064,-0.20677627623081207
-0.9412351846694946,2.504688024520874,-0.20564205944538116
-0.9181504845619202,2.4964547157287598,-0.20681023597717285
-0.8914434909820557,2.476969003677368,-0.2070089429616928
-0.8555012345314026,2.4317023754119873,-0.20497246086597443
-0.8355528116226196,2.4302148818969727,-0.20648525655269623
-0.8046059608459473,2.395318031311035,-0.20512880384922028
-0.7757441997528076,2.363703966140747,-0.20398017764091492
-0.7639819979667664,2.3837153911590576,-0.20727595686912537
-0.7315720319747925,2.340726613998413,-0.20497484505176544
-0.7080813646316528,2.3233726024627686,-0.20485912263393402
-0.6851691603660583,2.305720806121826,-0.2046753466129303
-0.666960597038269,2.302793025970459,-0.2057829350233078
-0.6444340944290161,2.284795045852661,-0.20545542240142822
-0.6262003183364868,2.2816452980041504,-0.206381157040596
-0.5967518091201782,2.2370615005493164,-0.20355859398841858
-0.5772116184234619,2.225966691970825,-0.2037249654531479
-0.5550042986869812,2.2033910751342773,-0.202828511595726
-0.5356993675231934,2.1920204162597656,-0.20280413329601288
-0.5201528072357178,2.195636034011841,-0.20415714383125305
-0.49749690294265747,2.168835401535034,-0.2026863545179367
-0.4807167053222656,2.164524793624878,-0.20328247547149658
-0.4590548574924469,2.1372861862182617,-0.20167751610279083
-0.4431890845298767,2.1365535259246826,-0.20244422554969788
-0.426593154668808,2.131890058517456,-0.20284397900104523
-0.39672964811325073,2.0583786964416504,-0.1966755986213684
-0.3802398443222046,2.0495214462280273,-0.19664473831653595
-0.36656826734542847,2.0558667182922363,-0.19799424707889557
-0.35144370794296265,2.054473876953125,-0.19852641224861145
-0.3401290476322174,2.0759944915771484,-0.20128755271434784
-0.32543280720710754,2.0782601833343506,-0.2022022008895874
-0.3080754578113556,2.061161518096924,-0.20122551918029785
-0.28926482796669006,2.032397508621216,-0.1989767700433731
-0.275005966424942,2.0343072414398193,-0.1996806114912033
-0.26075178384780884,2.036113977432251,-0.20038358867168427
-0.2465895414352417,2.037809133529663,-0.20108142495155334
-0.22865617275238037,2.008531332015991,-0.19873371720314026
-0.21543559432029724,2.0177578926086426,-0.20004242658615112
-0.19977083802223206,2.0036914348602295,-0.19902679324150085
-0.18578213453292847,2.0049855709075928,-0.19954277575016022
-0.16818742454051971,1.9635754823684692,-0.1958085596561432
-0.15367016196250916,1.9569158554077148,-0.19554653763771057
-0.13999149203300476,1.957909107208252,-0.19587451219558716
-0.1268225759267807,1.9665637016296387,-0.19697606563568115
-0.1117718294262886,1.9440850019454956,-0.19496653974056244
-0.09939319640398026,1.9680753946304321,-0.19762685894966125
-0.0837642028927803,1.9298679828643799,-0.19403889775276184
-0.07027898728847504,1.9303911924362183,-0.19418691098690033
-0.05680714547634125,1.9308197498321533,-0.19433476030826569
-0.043191421777009964,1.92338228225708,-0.19369962811470032
-0.029835471883416176,1.9236210584640503,-0.19384613633155823
-0.016294633969664574,1.9315447807312012,-0.19474941492080688
-0.0029213367961347103,1.9627071619033813,-0.19784975051879883
0.010459835641086102,1.9160455465316772,-0.1931147277355194
0.02378760650753975,1.9159297943115234,-0.19308103621006012
0.03696370869874954,1.907949686050415,-0.19226418435573578
0.050623003393411636,1.9231951236724854,-0.19375933706760406
0.06447052955627441,1.9305795431137085,-0.19433124363422394
0.07678171992301941,1.9029213190078735,-0.19138972461223602
0.09001386165618896,1.9023619890213013,-0.19118499755859375
0.10387402027845383,1.9133535623550415,-0.1921495497226715
0.11954345554113388,1.9514068365097046,-0.195785790681839
0.12987706065177917,1.9001412391662598,-0.1903436779975891
0.14801336824893951,1.965124249458313,-0.19655930995941162
0.16165399551391602,1.964087963104248,-0.19617073237895966
0.17530415952205658,1.9629554748535156,-0.1957816332578659
0.19041131436824799,1.9772144556045532,-0.1968681663274765
0.20272085070610046,1.9604159593582153,-0.19475525617599487
0.2103058099746704,1.9049272537231445,-0.18883076310157776
0.2203700840473175,1.8764464855194092,-0.18560805916786194
0.2315211147069931,1.8594872951507568,-0.18354198336601257
0.24644502997398376,1.8733152151107788,-0.18444418907165527
0.2617492377758026,1.8870105743408203,-0.18523956835269928
0.27760985493659973,1.9044601917266846,-0.18641109764575958
0.2920267581939697,1.9102405309677124,-0.1864391565322876
0.3053087890148163,1.9082335233688354,-0.1857140064239502
0.31852105259895325,1.906152367591858,-0.18489301204681396
0.3329939842224121,1.911657452583313,-0.18475590646266937
0.34642672538757324,1.9093555212020874,-0.18385757505893707
0.36980774998664856,1.9604847431182861,-0.188101127743721
0.38868486881256104,1.9846659898757935,-0.18974050879478455
0.4132094383239746,2.035398483276367,-0.19376973807811737
