X,Y,Z
0.2975074350833893,5.262928009033203,-0.25185954570770264
0.2689826190471649,4.236639022827148,-0.2025751769542694
0.2982783913612366,4.226871490478516,-0.20184220373630524
0.3254440426826477,4.197489261627197,-0.20018896460533142
0.35751235485076904,4.23013973236084,-0.20150309801101685
0.46054142713546753,5.031893253326416,-0.23941609263420105
0.49620237946510315,5.036365985870361,-0.239320307970047
0.4757955074310303,4.505065441131592,-0.21365021169185638
0.5151631832122803,4.57537317276001,-0.2165713608264923
0.5514782071113586,4.610466003417969,-0.2178242951631546
0.591862142086029,4.672354698181152,-0.22034303843975067
0.6533047556877136,4.884738445281982,-0.22994454205036163
0.6902344226837158,4.899399280548096,-0.2300291508436203
0.719978928565979,4.867544651031494,-0.2279517501592636
0.7500017285346985,4.839356422424316,-0.22606132924556732
0.7823819518089294,4.826358795166016,-0.22489136457443237
0.8133583664894104,4.805442810058594,-0.22336526215076447
0.8531791567802429,4.838206768035889,-0.22418107092380524
0.8911710977554321,4.855206489562988,-0.22422893345355988
0.9231215715408325,4.841335296630859,-0.22286967933177948
0.9492037892341614,4.7965617179870605,-0.22009803354740143
0.9841179251670837,4.7975335121154785,-0.21944072842597961
1.0106149911880493,4.760164260864258,-0.21691125631332397
1.045435905456543,4.760683059692383,-0.21606764197349548
1.070320963859558,4.71919584274292,-0.2133454829454422
1.1048375368118286,4.719304084777832,-0.2125091552734375
1.1321204900741577,4.688802242279053,-0.210306316614151
1.1642292737960815,4.680990695953369,-0.20901454985141754
0.5518918037414551,2.154953718185425,-0.09576352685689926
0.5616461038589478,2.132286548614502,-0.09431222826242447
0.5876936316490173,2.1697909832000732,-0.09551431238651276
0.6090573072433472,2.1882359981536865,-0.0958685651421547
0.619735062122345,2.169034719467163,-0.09451974183320999
0.6391515731811523,2.1796975135803223,-0.09445247799158096
0.6473056674003601,2.152878999710083,-0.09277427196502686
0.6645705103874207,2.155812978744507,-0.09237737208604813
1.4120184183120728,4.469812393188477,-0.1904526948928833
1.440029501914978,4.452732563018799,-0.1885153204202652
1.4682996273040771,4.435338020324707,-0.18654967844486237
1.492425560951233,4.406747341156006,-0.18413779139518738
1.5204908847808838,4.388950824737549,-0.18217557668685913
1.2732690572738647,3.5946879386901855,-0.1481899619102478
1.294912576675415,3.578706979751587,-0.14643703401088715
1.3299273252487183,3.599212169647217,-0.14617708325386047
1.6184842586517334,4.287363529205322,-0.17276865243911743
1.651054859161377,4.2833662033081055,-0.17126725614070892
1.6802971363067627,4.272053241729736,-0.16941305994987488
1.7090387344360352,4.260711669921875,-0.16751906275749207
1.7348787784576416,4.241896152496338,-0.16533473134040833
1.7633802890777588,4.225975036621094,-0.16320742666721344
1.786522388458252,4.199354648590088,-0.16069968044757843
1.8115688562393188,4.180180549621582,-0.15838764607906342
1.839621663093567,4.167987823486328,-0.15634827315807343
1.858667016029358,4.133938312530518,-0.15346606075763702
1.887880563735962,4.120758533477783,-0.15132923424243927
1.915694236755371,4.107980728149414,-0.14916977286338806
1.936409592628479,4.081056594848633,-0.14648546278476715
1.9675877094268799,4.074868679046631,-0.14452029764652252
1.9890491962432861,4.047121524810791,-0.14176206290721893
2.0170085430145264,4.033341407775879,-0.13943780958652496
2.040299415588379,4.012930393218994,-0.13689541816711426
2.063844680786133,3.9921622276306152,-0.13432323932647705
2.0898072719573975,3.9743027687072754,-0.13180547952651978
2.116713523864746,3.960118055343628,-0.12938208878040314
2.131742477416992,3.925487995147705,-0.126272514462471
2.1285476684570312,3.856091022491455,-0.122011698782444
2.134249210357666,3.803840160369873,-0.11833273619413376
2.1634724140167236,3.7963647842407227,-0.11602272838354111
2.1922693252563477,3.7889111042022705,-0.1136929988861084
2.2181267738342285,3.7739105224609375,-0.11105133593082428
2.244636297225952,3.7582833766937256,-0.10831812769174576
2.2691149711608887,3.7436323165893555,-0.10561759769916534
2.289684534072876,3.721996307373047,-0.10270240157842636
2.3113272190093994,3.699467182159424,-0.09965641051530838
2.335848569869995,3.684110164642334,-0.09678785502910614
2.360032320022583,3.668740749359131,-0.09386797994375229
2.3938353061676025,3.6655237674713135,-0.0911298617720604
2.4012045860290527,3.623353958129883,-0.087393619120121
2.4287989139556885,3.61440372467041,-0.08445511013269424
2.4623172283172607,3.610653877258301,-0.08144475519657135
2.4646191596984863,3.561764717102051,-0.07732509821653366
2.500714063644409,3.56524920463562,-0.07439776510000229
2.5389440059661865,3.567004442214966,-0.07113948464393616
2.548207998275757,3.5316057205200195,-0.06712242215871811
2.5941874980926514,3.546549081802368,-0.06392647325992584
2.2154979705810547,2.9863193035125732,-0.050665877759456635
2.600987672805786,3.642176389694214,0.09499368071556091
2.610867738723755,3.716421604156494,0.10072129219770432
2.6271276473999023,3.795433759689331,0.10631705075502396
2.6070556640625,3.828049659729004,0.11066202074289322
2.5873422622680664,3.8601081371307373,0.11488261818885803
2.5602195262908936,3.8780407905578613,0.11851328611373901
2.5257647037506104,3.8911471366882324,0.1220090240240097
2.501469612121582,3.9159700870513916,0.1256955862045288
2.4783198833465576,3.9397835731506348,0.12922722101211548
2.444540023803711,3.951542615890503,0.13230717182159424
2.419330358505249,3.976062059402466,0.1357698142528534
2.387085199356079,3.9862983226776123,0.13864344358444214
2.361919403076172,4.010220050811768,0.14190740883350372
2.3357934951782227,4.034411430358887,0.14516416192054749
2.311002016067505,4.057548522949219,0.14827489852905273
2.292182445526123,4.090497970581055,0.1517259180545807
2.2442572116851807,4.076817512512207,0.1534031331539154
2.2269821166992188,4.117271900177002,0.15707987546920776
2.2092199325561523,4.153279781341553,0.1604905128479004
2.176342487335205,4.161691665649414,0.1628306359052658
2.152710199356079,4.1914262771606445,0.16593290865421295
2.1248059272766113,4.214283466339111,0.16880878806114197
2.098865270614624,4.235880374908447,0.17151355743408203
2.0657782554626465,4.2433342933654785,0.17364588379859924
2.0514824390411377,4.293471813201904,0.17743989825248718
2.0166430473327637,4.301226615905762,0.17950506508350372
1.9831035137176514,4.308105945587158,0.18146538734436035
1.9589743614196777,4.3361735343933105,0.18434295058250427
1.9846298694610596,4.478542804718018,0.19201168417930603
1.9519686698913574,4.492780685424805,0.19420921802520752
1.922776222229004,4.513743877410889,0.19668537378311157
1.9078446626663208,4.5665483474731445,0.2005302608013153
1.8751150369644165,4.579990386962891,0.20267020165920258
1.8200641870498657,4.539040565490723,0.20226477086544037
1.8084945678710938,4.606524467468262,0.2067020684480667
1.7578098773956299,4.5716986656188965,0.2065199613571167
1.720428228378296,4.569133281707764,0.20777174830436707
1.3299756050109863,3.6108715534210205,0.16524355113506317
1.302554965019226,3.6166412830352783,0.16647928953170776
1.2764160633087158,3.6258840560913086,0.16788259148597717
1.635918378829956,4.752712249755859,0.22130048274993896
1.6027815341949463,4.763906955718994,0.22307083010673523
1.5769115686416626,4.801212310791016,0.2260163575410843
1.5519453287124634,4.842055797576904,0.22906164824962616
1.5031428337097168,4.808310031890869,0.2285880446434021
1.4900033473968506,4.885802268981934,0.23338797688484192
1.4381706714630127,4.836132049560547,0.23212213814258575
0.6026705503463745,2.0801010131835938,0.10028426349163055
1.368737816810608,4.856097221374512,0.2350851446390152
1.3288185596466064,4.846876621246338,0.23559461534023285
1.2867146730422974,4.825857162475586,0.23551537096500397
1.257031798362732,4.849731922149658,0.23762686550617218
1.2269110679626465,4.873469352722168,0.2397121787071228
1.1962027549743652,4.901120662689209,0.24188268184661865
1.1648688316345215,4.924640655517578,0.24385352432727814
1.135332465171814,4.955493450164795,0.24619829654693604
1.102513074874878,4.970831871032715,0.24777834117412567
1.069487452507019,4.985962867736816,0.24936367571353912
1.0367408990859985,5.008759021759033,0.2512046992778778
1.0034748315811157,5.027413845062256,0.25281092524528503
0.970732569694519,5.049679279327393,0.25461509823799133
1.4558123350143433,7.868290901184082,0.39779943227767944
1.4023199081420898,7.88584566116333,0.39977017045021057
0.8884549140930176,5.211143970489502,0.2648431062698364
1.8037898540496826,11.050556182861328,0.562740683555603
1.7069236040115356,10.94345474243164,0.5584270358085632
1.6104750633239746,10.823887825012207,0.5534707307815552
1.5088666677474976,10.649335861206055,0.5456847548484802
1.414249062538147,10.516599655151367,0.5400521755218506
1.3216667175292969,10.379140853881836,0.5338490009307861
1.2341396808624268,10.268052101135254,0.5289114713668823
1.1518503427505493,10.187252044677734,0.525543212890625
1.0676605701446533,10.070831298828125,0.52033931016922
0.9991834163665771,10.093473434448242,0.5223349332809448
0.39251279830932617,4.2731733322143555,0.2214866578578949
0.36189591884613037,4.268028259277344,0.22140830755233765
0.33137041330337524,4.262664318084717,0.22132879495620728
0.3020811676979065,4.272644996643066,0.2220565676689148
0.2770569920539856,4.34859561920166,0.22622668743133545
0.24631191790103912,4.350428104400635,0.22655947506427765
0.21559962630271912,4.344232559204102,0.22642184793949127
0.18323266506195068,4.298856258392334,0.2241407036781311
0.1505812555551529,4.225951671600342,0.22043249011039734
0.12085554003715515,4.219093322753906,0.2201782763004303
0.08937866240739822,4.1457343101501465,0.21646392345428467
0.06422228366136551,4.399781703948975,0.22985872626304626
0.03256916254758835,4.267491817474365,0.22297994792461395
0.00288294511847198,4.333932399749756,0.226418599486351
-0.027457021176815033,4.357253551483154,0.22761490941047668
-0.054108619689941406,4.041003704071045,0.2110843062400818
-0.08253569155931473,4.056131839752197,0.21187472343444824
-0.11156055331230164,4.086657524108887,0.21347977221012115
-0.24469995498657227,5.9400129318237305,0.30994150042533875
-0.28284600377082825,5.875845909118652,0.3064161241054535
-0.1944534182548523,3.5211126804351807,0.18352113664150238
-0.219882994890213,3.5352587699890137,0.18416930735111237
-0.24551697075366974,3.5492212772369385,0.18481460213661194
-0.2931176722049713,3.850857734680176,0.20028874278068542
-0.32095953822135925,3.8643126487731934,0.2007647603750229
-0.34600332379341125,3.838667869567871,0.19921542704105377
-0.3526695966720581,3.630401611328125,0.188213050365448
-0.37141355872154236,3.5657989978790283,0.1846819669008255
-0.4021514654159546,3.6174380779266357,0.18714681267738342
-0.44079944491386414,3.730829954147339,0.19269722700119019
-0.4596298038959503,3.669614315032959,0.18922851979732513
-0.8224956393241882,6.218929290771484,0.32018983364105225
-0.8592979907989502,6.1667280197143555,0.3170182704925537
-0.8981792330741882,6.133626937866211,0.3148502707481384
-0.939306914806366,6.1196160316467285,0.3135523200035095
-0.5259793996810913,3.274111032485962,0.1673862189054489
-0.5458741188049316,3.255058526992798,0.16605742275714874
-0.5737202763557434,3.281982421875,0.16707837581634521
-1.1469732522964478,6.302549362182617,0.32018065452575684
-1.2023935317993164,6.355807304382324,0.32222646474838257
-0.631970226764679,3.2196836471557617,0.1627911925315857
-0.6543359756469727,3.215247631072998,0.16211064159870148
-0.6746917366981506,3.2030975818634033,0.1610574573278427
-0.6952494978904724,3.190746545791626,0.1599971204996109
-0.7242701053619385,3.2163209915161133,0.16084256768226624
-1.2376850843429565,5.324248790740967,0.2654792368412018
-0.6986901164054871,2.9139091968536377,0.14479060471057892
-0.6913853883743286,2.7992703914642334,0.13862398266792297
-0.6961406469345093,2.7377769947052,0.1351204216480255
-0.7171043753623962,2.740462303161621,0.13479340076446533
-0.7320294976234436,2.720388174057007,0.1333552598953247
-0.7705827355384827,2.786754846572876,0.13605378568172455
-0.7873000502586365,2.7740063667297363,0.13487760722637177
-0.8812952637672424,3.027167797088623,0.14658775925636292
-0.9447598457336426,3.1630876064300537,0.1525304913520813
-0.9713320136070251,3.1714026927948,0.15229465067386627
-1.0051298141479492,3.201826333999634,0.15304866433143616
-1.049454927444458,3.2655906677246094,0.15533728897571564
-1.0812785625457764,3.2881226539611816,0.1556483954191208
-1.1250691413879395,3.343522787094116,0.1574869602918625
-1.1241283416748047,3.2655746936798096,0.15304772555828094
-1.1465516090393066,3.2578234672546387,0.15188686549663544
-1.483129620552063,4.123965740203857,0.1911427229642868
-1.51080322265625,4.113980293273926,0.18958024680614471
-1.5307893753051758,4.081659317016602,0.1869792640209198
-1.5536144971847534,4.056387901306152,0.18470336496829987
-1.573003888130188,4.023850440979004,0.18208332359790802
-1.5946624279022217,3.9985923767089844,0.17969894409179688
-1.5743930339813232,3.872191905975342,0.17283980548381805
-1.572558045387268,3.792856454849243,0.16811683773994446
-1.5867669582366943,3.753131151199341,0.16517233848571777
-1.6124070882797241,3.742262363433838,0.16346488893032074
-1.6346423625946045,3.7241580486297607,0.16135729849338531
-1.6387447118759155,3.6669209003448486,0.15760330855846405
-1.647957682609558,3.6200225353240967,0.1542797088623047
-1.6485041379928589,3.5554137229919434,0.1502348929643631
-1.6657054424285889,3.530207633972168,0.14781150221824646
-1.6827538013458252,3.5048789978027344,0.14535152912139893
-1.706335425376892,3.4935357570648193,0.14348694682121277
-1.7340562343597412,3.488659143447876,0.14184777438640594
-1.7649576663970947,3.490713357925415,0.1404615342617035
-1.811123251914978,3.5242230892181396,0.14025327563285828
-1.855998158454895,3.553814649581909,0.13985677063465118
-2.443368911743164,4.599113941192627,0.17880257964134216
-2.484551191329956,4.599305152893066,0.17663876712322235
-1.1756235361099243,2.1426303386688232,0.08122503757476807
-1.1782346963882446,2.1144702434539795,0.07910359650850296
-2.5394928455352783,4.4844770431518555,0.16540400683879852
-2.567229986190796,4.459761619567871,0.1620665192604065
-2.5706493854522705,4.399213790893555,0.15741419792175293
-2.6032369136810303,4.3891987800598145,0.1545998901128769
-1.2492879629135132,2.0735485553741455,0.07179605960845947
-2.5023627281188965,4.090088844299316,0.13913209736347198
-2.0513153076171875,3.3040740489959717,0.11028958112001419
-2.0648066997528076,3.277299404144287,0.1072770208120346
-2.6453232765197754,4.134531021118164,0.13249877095222473
-2.712827444076538,4.179401874542236,0.1309957504272461
-1.2989689111709595,1.9733537435531616,0.060443371534347534
-2.7558417320251465,4.123238563537598,0.12305200099945068
-2.7678287029266357,4.0823283195495605,0.11860179156064987
-2.8024370670318604,4.077725410461426,0.11518844962120056
-2.7812037467956543,3.988044261932373,0.1091485321521759
-2.8255252838134766,3.9952054023742676,0.1057203859090805
-2.860079765319824,3.9898881912231445,0.10183361917734146
-2.8532536029815674,3.9226739406585693,0.09607952833175659
-2.884799003601074,3.9142062664031982,0.09179087728261948
-2.9813876152038574,4.172234535217285,-0.09728922694921494
-2.4456562995910645,3.4747729301452637,-0.08496455103158951
-2.4109411239624023,3.4798552989959717,-0.08888357132673264
-2.7742714881896973,4.068787574768066,-0.10819411277770996
-2.7239465713500977,4.055569171905518,-0.11178459972143173
-2.161309242248535,3.271259307861328,-0.09331798553466797
-2.169097423553467,3.336089611053467,-0.09825336188077927
-2.650686740875244,4.140593528747559,-0.12554186582565308
-1.2775074243545532,2.0289103984832764,-0.06324601173400879
-1.275244116783142,2.057887077331543,-0.06581511348485947
-1.2688500881195068,2.080091714859009,-0.06814822554588318
-1.9919838905334473,3.3219289779663086,-0.1114249899983406
-1.9798203706741333,3.356320858001709,-0.1150558590888977
-2.668034315109253,4.595641136169434,-0.1607845276594162
-2.651758909225464,4.645420551300049,-0.16573472321033478
-1.2036508321762085,2.1450767517089844,-0.07799665629863739
-2.6390914916992188,4.782089710235596,-0.17700505256652832
-2.612614631652832,4.814243316650391,-0.1812388300895691
-2.5901176929473877,4.857236385345459,-0.1858588308095932
-2.5696585178375244,4.903238296508789,-0.1905754655599594
-1.7808266878128052,3.456446647644043,-0.1363605558872223
-1.7448997497558594,3.448392152786255,-0.138041153550148
-1.7161695957183838,3.453965902328491,-0.1402003914117813
-1.6864858865737915,3.4554336071014404,-0.14213348925113678
-1.6640758514404297,3.470515251159668,-0.14459487795829773
-1.6557246446609497,3.5176026821136475,-0.14835843443870544
-1.7120121717453003,3.7065985202789307,-0.15820081532001495
-1.691725492477417,3.732947587966919,-0.16119274497032166
-1.6656758785247803,3.7445435523986816,-0.1635025590658188
-2.2974965572357178,5.265928268432617,-0.23239420354366302
-2.188751459121704,5.117195129394531,-0.2281806468963623
-2.1523091793060303,5.1324944496154785,-0.23117847740650177
-1.5891327857971191,3.8660295009613037,-0.17587138712406158
-1.5588304996490479,3.8698344230651855,-0.1776997148990631
-1.539493441581726,3.902653694152832,-0.18081443011760712
-1.5185102224349976,3.931692361831665,-0.1837710738182068
-1.4938191175460815,3.9493889808654785,-0.18617329001426697
-1.4738119840621948,3.981775999069214,-0.1893063485622406
-1.4504879713058472,4.006843090057373,-0.19196762144565582
-1.4243075847625732,4.024409294128418,-0.19428588449954987
-1.398532509803772,4.041604995727539,-0.19657166302204132
-1.372846007347107,4.058547496795654,-0.19884683191776276
-1.346085786819458,4.075628757476807,-0.2010870724916458
-1.3193612098693848,4.092470169067383,-0.20324209332466125
-0.9728857278823853,3.093010425567627,-0.15460927784442902
-0.9582186937332153,3.122016429901123,-0.1570502072572708
-0.9107729196548462,3.0425617694854736,-0.1540212780237198
-0.8006858825683594,2.745495557785034,-0.13976776599884033
-0.7669549584388733,2.7023682594299316,-0.13835255801677704
-0.7499630451202393,2.7151761054992676,-0.13977615535259247
-0.7350828051567078,2.735351800918579,-0.14158311486244202
-0.7159585356712341,2.7403669357299805,-0.14259971678256989
-0.7051299214363098,2.779362678527832,-0.14530576765537262
-1.4875532388687134,6.0459699630737305,-0.31759288907051086
-1.4650554656982422,6.139623641967773,-0.3240112364292145
-1.4486693143844604,6.263584136962891,-0.33208194375038147
-1.4210337400436401,6.345782279968262,-0.33792126178741455
-1.374523401260376,6.3479390144348145,-0.3393423557281494
-1.3232345581054688,6.330834865570068,-0.33976808190345764
-1.2696692943572998,6.293952465057373,-0.3390968143939972
-1.217702031135559,6.260409355163574,-0.3385954797267914
-1.1624754667282104,6.2073235511779785,-0.33693867921829224
-1.1110955476760864,6.173052787780762,-0.33613210916519165
-1.0283710956573486,5.9578328132629395,-0.3254603147506714
-0.941474199295044,5.6915764808654785,-0.3119056224822998
-0.9499576091766357,6.00227689743042,-0.3299862742424011
-0.913783609867096,6.047267436981201,-0.33343666791915894
-0.6706065535545349,4.659796714782715,-0.25755271315574646
-0.6371956467628479,4.664433002471924,-0.25845134258270264
-0.6046254634857178,4.668717861175537,-0.2593265473842621
-0.572192907333374,4.672755241394043,-0.260197252035141
-0.5405154824256897,4.684332847595215,-0.2614426910877228
-0.5110776424407959,4.718984603881836,-0.26383304595947266
-0.475681871175766,4.699127197265625,-0.263189435005188
-0.447754830121994,4.76059627532959,-0.2671249210834503
-0.41328755021095276,4.748015880584717,-0.26691222190856934
-0.38859277963638306,4.855712890625,-0.27344873547554016
-0.2544076442718506,3.4852075576782227,-0.19647949934005737
-0.23103204369544983,3.5024521350860596,-0.1976729780435562
-0.2070782482624054,3.5195586681365967,-0.19887375831604004
-0.29651591181755066,5.717561721801758,-0.32346251606941223
-0.2552942931652069,5.688290119171143,-0.32221025228500366
-0.21458539366722107,5.662638187408447,-0.3209044635295868
-0.1743667870759964,5.640594482421875,-0.31981638073921204
-0.13319773972034454,5.5948896408081055,-0.31740349531173706
-0.09406570345163345,5.580069541931152,-0.31675225496292114
-0.0549798458814621,5.553277015686035,-0.3154354691505432
-0.013099292293190956,4.453739643096924,-0.2529716491699219
0.017865819856524467,4.445925235748291,-0.2524912357330322
0.060191504657268524,5.424520969390869,-0.3080372214317322
0.09831560403108597,5.4473700523376465,-0.3093201816082001
0.13534654676914215,5.415369033813477,-0.3075034022331238
0.17006637156009674,5.324658393859863,-0.30219221115112305
0.204715758562088,5.264913558959961,-0.29855555295944214
0.23890188336372375,5.212738513946533,-0.29536744952201843
0.2297937273979187,4.342447280883789,-0.24587170779705048
0.257183700799942,4.294043064117432,-0.2429649829864502
0.2825601398944855,4.226020812988281,-0.23887987434864044
0.310675710439682,4.208429336547852,-0.23755685985088348
0.3404455780982971,4.2139763832092285,-0.2375519722700119
0.37220436334609985,4.234807014465332,-0.2384122610092163
0.4771347939968109,5.028099536895752,-0.2827194631099701
0.5060001015663147,4.966508388519287,-0.27885499596595764
0.4925455152988434,4.524808883666992,-0.2535410225391388
0.5313677787780762,4.587206840515137,-0.25652793049812317
0.5693994164466858,4.629841327667236,-0.25839856266975403
0.6091915369033813,4.683817386627197,-0.2609092593193054
0.6730422377586365,4.907492160797119,-0.2728249132633209
0.7030187249183655,4.875759601593018,-0.27033206820487976
0.7377954721450806,4.878562927246094,-0.26977071166038513
0.767274796962738,4.8424787521362305,-0.2670600712299347
0.7983203530311584,4.8216986656188965,-0.2652239203453064
0.8357818722724915,4.839152812957764,-0.26549407839775085
0.8717129826545715,4.848729133605957,-0.2651238739490509
0.9035578370094299,4.835026264190674,-0.2634906768798828
0.9368680715560913,4.8287482261657715,-0.2622726559638977
0.9649021625518799,4.791463851928711,-0.25936463475227356
0.9966111779212952,4.777066707611084,-0.25773152709007263
1.027739405632019,4.762561321258545,-0.25589829683303833
1.0621048212051392,4.763086318969727,-0.25488168001174927
1.0948575735092163,4.755740642547607,-0.25345173478126526
0.5195788145065308,2.186110019683838,-0.11602063477039337
0.5329031348228455,2.174903154373169,-0.11495452374219894
0.5592008829116821,2.2166435718536377,-0.11659052222967148
0.5547304749488831,2.137289047241211,-0.11187028139829636
0.5794705152511597,2.1711575984954834,-0.11308795213699341
0.5844969749450684,2.1294198036193848,-0.1103568822145462
0.5939783453941345,2.1065733432769775,-0.1086260974407196
0.6245964765548706,2.1587328910827637,-0.11068521440029144
0.6393043994903564,2.154466390609741,-0.10983985662460327
0.6541259288787842,2.1500561237335205,-0.1089862585067749
0.664696455001831,2.1305127143859863,-0.10735717415809631
1.426487922668457,4.463679790496826,-0.22356994450092316
1.4543774127960205,4.446558952331543,-0.2212459146976471
1.4783854484558105,4.418163299560547,-0.2183796763420105
1.501344919204712,4.385772705078125,-0.21531379222869873
1.5369621515274048,4.390056133270264,-0.21405431628227234
1.2848116159439087,3.5894341468811035,-0.17372022569179535
1.3037259578704834,3.5660765171051025,-0.17127324640750885
1.6049751043319702,4.299373149871826,-0.20490126311779022
1.6320819854736328,4.280907154083252,-0.20239976048469543
1.664637804031372,4.276831150054932,-0.20059026777744293
1.6896584033966064,4.254521369934082,-0.19777198135852814
1.7198057174682617,4.246740341186523,-0.19566825032234192
1.747464656829834,4.231318473815918,-0.19318988919258118
1.770867943763733,4.204749584197998,-0.19019387662410736
1.796515703201294,4.185469627380371,-0.1874835044145584
1.8251636028289795,4.173167705535889,-0.18500344455242157
1.8438588380813599,4.139425277709961,-0.1816142052412033
1.8758440017700195,4.1337127685546875,-0.17941799759864807
1.9043629169464111,4.120761394500732,-0.17688970267772675
1.9219290018081665,4.086843013763428,-0.17340251803398132
1.949698567390442,4.0737786293029785,-0.17078402638435364
1.9779858589172363,4.060230731964111,-0.16810795664787292
2.0026798248291016,4.039505958557129,-0.16513971984386444
2.0295560359954834,4.026181221008301,-0.16239579021930695
2.047441244125366,3.995305299758911,-0.15896068513393402
2.0714168548583984,3.9742369651794434,-0.15585361421108246
2.0994274616241455,3.959624767303467,-0.15295283496379852
2.1256089210510254,3.9457430839538574,-0.15004940330982208
2.14794921875,3.924837589263916,-0.1468895673751831
2.1410269737243652,3.8485054969787598,-0.14158692955970764
2.1616714000701904,3.823607921600342,-0.138212651014328
2.171696424484253,3.782057046890259,-0.13417553901672363
2.2048168182373047,3.78104305267334,-0.13159635663032532
2.2270755767822266,3.7590110301971436,-0.12818680703639984
2.244174003601074,3.7307207584381104,-0.12455473840236664
2.2725982666015625,3.7227320671081543,-0.12159370630979538
2.2902305126190186,3.693655014038086,-0.117780901491642
2.3196656703948975,3.6845791339874268,-0.11461108177900314
2.3476860523223877,3.676163673400879,-0.11141756176948547
2.3594725131988525,3.6408259868621826,-0.10732864588499069
2.4019107818603516,3.650531053543091,-0.10444443672895432
2.4127769470214844,3.615326404571533,-0.10018220543861389
2.4366390705108643,3.5993895530700684,-0.09644053131341934
2.461601734161377,3.582467794418335,-0.09250223636627197
2.4709479808807373,3.547607421875,-0.08810900896787643
2.4945390224456787,3.531158685684204,-0.08402785658836365
2.5233726501464844,3.5203282833099365,-0.07983333617448807
2.5546600818634033,3.5171117782592773,-0.0758453905582428
2.61126446723938,3.543548345565796,-0.07206013798713684
2.6767430305480957,3.7793941497802734,0.11906497925519943
2.6536614894866943,3.805006980895996,0.12412480264902115
2.625761032104492,3.8241584300994873,0.1288038194179535
2.5999574661254883,3.8510122299194336,0.1337844431400299
2.573056221008301,3.868889808654785,0.1380031406879425
2.5444259643554688,3.8876264095306396,0.14222826063632965
2.5106215476989746,3.9001035690307617,0.14619038999080658
2.4875454902648926,3.923964262008667,0.15030279755592346
2.4666404724121094,3.9554035663604736,0.15474393963813782
2.436694622039795,3.9737696647644043,0.15860028564929962
2.4388246536254883,4.0408711433410645,0.16424407064914703
2.4062917232513428,4.051103115081787,0.16755549609661102
2.4133753776550293,4.1328606605529785,0.17378954589366913
2.3864150047302246,4.157339096069336,0.17766575515270233
2.3650426864624023,4.187331199645996,0.1816195547580719
2.287330389022827,4.118863582611084,0.18120282888412476
2.2416491508483887,4.108222007751465,0.1832215040922165
2.215766191482544,4.130960941314697,0.18663963675498962
2.1973021030426025,4.167164325714111,0.1906633824110031
2.17061448097229,4.189784049987793,0.1939726620912552
2.1360855102539062,4.198598861694336,0.19661769270896912
2.109398126602173,4.2206621170043945,0.1998305320739746
2.0902037620544434,4.25616979598999,0.2036454826593399
2.0590429306030273,4.2711968421936035,0.2064594328403473
2.0209267139434814,4.271969318389893,0.20849287509918213
1.9998432397842407,4.307577133178711,0.21220888197422028
1.96011483669281,4.299954414367676,0.21373137831687927
1.9760857820510864,4.416781425476074,0.22145621478557587
1.9470022916793823,4.438075542449951,0.22432973980903625
1.914083480834961,4.452242851257324,0.22688843309879303
1.8827784061431885,4.465447425842285,0.2293141633272171
1.8516383171081543,4.478325366973877,0.23172004520893097
1.853285551071167,4.574494361877441,0.23838059604167938
1.8243664503097534,4.598578453063965,0.24127249419689178
1.804685354232788,4.6480913162231445,0.24554769694805145
1.7667220830917358,4.6458420753479,0.24702326953411102
1.7343624830245972,4.657899856567383,0.24926455318927765
1.3190369606018066,3.6217281818389893,0.19494210183620453
1.2928519248962402,3.631070375442505,0.19655847549438477
1.2548717260360718,3.6071290969848633,0.1963813155889511
1.6052533388137817,4.7199931144714355,0.25837793946266174
1.5748060941696167,4.738351345062256,0.26080188155174255
1.5732835531234741,4.849602699279785,0.26821357011795044
1.515978217124939,4.790035247802734,0.2661780118942261
1.5098648071289062,4.894008159637451,0.2732633948326111
1.4836366176605225,4.930440902709961,0.2765670120716095
0.6159283518791199,2.099736213684082,0.11832688003778458
1.3980355262756348,4.894374370574951,0.2769410014152527
1.3849303722381592,4.983071804046631,0.28306838870048523
1.3044408559799194,4.827093601226807,0.2752929925918579
1.2721859216690063,4.843668460845947,0.27732551097869873
1.2422823905944824,4.86743688583374,0.2797698378562927
1.210797667503357,4.887333869934082,0.2819080650806427
1.1850872039794922,4.933671474456787,0.2854752540588379
1.146356225013733,4.926718711853027,0.28597867488861084
1.1162569522857666,4.957533359527588,0.2886928915977478
1.0883928537368774,4.995582103729248,0.291827529668808
1.0535993576049805,5.002956390380859,0.2931825816631317
1.0180963277816772,5.0102338790893555,0.294345498085022
0.980995237827301,5.00961446762085,0.2950592339038849
1.4819680452346802,7.86770486831665,0.46461158990859985
1.4258302450180054,7.8700408935546875,0.46594318747520447
1.3623020648956299,7.829729080200195,0.46476516127586365
1.8475708961486816,11.07766342163086,0.6590418815612793
1.756911277770996,11.01331615447998,0.6564545035362244
1.650806188583374,10.84819221496582,0.6478837132453918
1.5618376731872559,10.770625114440918,0.6445131897926331
1.4633827209472656,10.611157417297363,0.6362336874008179
1.3712708950042725,10.48178482055664,0.6297521591186523
1.2794504165649414,10.344014167785645,0.622373104095459
1.1984243392944336,10.28297233581543,0.6195520758628845
1.1060751676559448,10.120660781860352,0.6106548309326172
1.0319974422454834,10.093125343322754,0.6098772883415222
0.5248787999153137,5.511902332305908,0.33355411887168884
0.37690967321395874,4.2724738121032715,0.2589236795902252
0.3444259762763977,4.243898391723633,0.2574010491371155
0.31649547815322876,4.277329444885254,0.259655624628067
0.2865028381347656,4.279420852661133,0.2600187361240387
0.26254764199256897,4.378591060638428,0.2662968933582306
0.23206864297389984,4.3802900314331055,0.2666655480861664
0.19867023825645447,4.319463729858398,0.2631677985191345
0.16764885187149048,4.312965393066406,0.26285240054130554
0.13328075408935547,4.181522846221924,0.25493088364601135
0.10327958315610886,4.15116024017334,0.25318071246147156
0.07688239961862564,4.288211822509766,0.2616557776927948
0.04687276482582092,4.273038387298584,0.26085853576660156
0.017150167375802994,4.413622856140137,0.2694788873195648
-0.012908032163977623,4.206992149353027,0.25681671500205994
-0.04157966375350952,4.14442253112793,0.2529639005661011
-0.06900778412818909,4.062169075012207,0.24792280793190002
-0.0993584394454956,4.151245594024658,0.2533506155014038
-0.12713982164859772,4.115382671356201,0.25116536021232605
-0.15497109293937683,4.083225727081299,0.2490849643945694
-0.26260966062545776,5.8504462242126465,0.3566524088382721
-0.18326903879642487,3.535581588745117,0.21540166437625885
-0.20918379724025726,3.5575904846191406,0.21661892533302307
-0.23186634480953217,3.524937391281128,0.21451832354068756
-0.2823469638824463,3.8732073307037354,0.23559889197349548
-0.3115974962711334,3.902280330657959,0.23710514605045319
-0.3331840932369232,3.837904691696167,0.23292076587677002
-0.3458481729030609,3.688015937805176,0.22357264161109924
-0.36086612939834595,3.5808045864105225,0.21683824062347412
-0.3836551010608673,3.5549278259277344,0.2150437831878662
-0.42970094084739685,3.73814058303833,0.22589260339736938
-0.45445311069488525,3.7273902893066406,0.22486045956611633
-0.4715999364852905,3.6584668159484863,0.2203369289636612
-0.4967474937438965,3.6551706790924072,0.21978288888931274
-0.5142785906791687,3.593702793121338,0.21573765575885773
-0.5380725860595703,3.582364082336426,0.2147245854139328
-0.5592410564422607,3.555473804473877,0.2127428948879242
-0.5791502594947815,3.524667978286743,0.21042728424072266
-0.58878493309021,3.4361038208007812,0.20468804240226746
-0.6137736439704895,3.4396917819976807,0.2044561505317688
-1.1764836311340332,6.3338446617126465,0.3756577670574188
-1.233076810836792,6.390676975250244,0.37822383642196655
-1.2908082008361816,6.450954914093018,0.38082772493362427
-1.3419994115829468,6.476440906524658,0.3812723457813263
-1.3976857662200928,6.520594120025635,0.3828194737434387
-0.79852694272995,3.6018359661102295,0.21087293326854706
-1.2178614139556885,5.318355560302734,0.31052160263061523
-1.2529550790786743,5.302260875701904,0.308747798204422
-0.6726115345954895,2.762434482574463,0.16030186414718628
-0.6989468932151794,2.788113594055176,0.16123929619789124
-0.7104416489601135,2.7530429363250732,0.158660426735878
-0.7316216826438904,2.7556099891662598,0.15825910866260529
-0.7528457045555115,2.7580220699310303,0.1578543335199356
-0.7780951261520386,2.7753686904907227,0.15824384987354279
-0.7850494980812073,2.728846311569214,0.15494687855243683
-0.9816877245903015,3.3256983757019043,0.18804234266281128
-0.9910112023353577,3.2741239070892334,0.18435287475585938
-1.0091267824172974,3.2523186206817627,0.18235532939434052
-1.0410563945770264,3.275064706802368,0.18283860385417938
-1.0679227113723755,3.2828869819641113,0.18237386643886566
-1.103978157043457,3.316267728805542,0.1833052933216095
-1.1291053295135498,3.316113233566284,0.18238307535648346
-1.146998643875122,3.293522357940674,0.18022087216377258
-2.025726556777954,5.689042568206787,0.309719979763031
-2.0546319484710693,5.649755001068115,0.305809885263443
-2.087160348892212,5.621312141418457,0.3025006055831909
-2.112018585205078,5.57045316696167,0.29797229170799255
-2.1464688777923584,5.544858455657959,0.2948092520236969
-2.189267635345459,5.5408244132995605,0.29280680418014526
-1.561547875404358,3.8759045600891113,0.20344220101833344
-1.5622327327728271,3.8041210174560547,0.1983063966035843
-1.5763051509857178,3.7645955085754395,0.19485493004322052
-1.6055688858032227,3.7607967853546143,0.19325152039527893
-1.6316962242126465,3.74963641166687,0.19127124547958374
-1.6376956701278687,3.695966958999634,0.18702442944049835
-1.6478662490844727,3.6530537605285645,0.18336084485054016
-1.6568562984466553,3.6061909198760986,0.17947687208652496
-1.6637356281280518,3.555790424346924,0.1754501760005951
-1.6779671907424927,3.5232837200164795,0.1722961813211441
-1.701288104057312,3.5121874809265137,0.1701383888721466
-1.7210859060287476,3.493933916091919,0.16764456033706665
-1.7492139339447021,3.4887807369232178,0.16568204760551453
-1.776984453201294,3.4835898876190186,0.16374489665031433
-1.8143659830093384,3.4995856285095215,0.1626867651939392
-1.8955732583999634,3.5981786251068115,0.16539709270000458
-2.4654929637908936,4.603755474090576,0.20913000404834747
-2.4938154220581055,4.579738616943359,0.20549578964710236
-1.1906324625015259,2.1516337394714355,0.09528698027133942
-2.5356528759002686,4.5122880935668945,0.19718791544437408
-2.5622384548187256,4.48840856552124,0.1934232860803604
-2.5777363777160645,4.443612575531006,0.1887085735797882
-2.607177734375,4.4265546798706055,0.18510720133781433
-1.2420670986175537,2.077364206314087,0.08547159284353256
-1.260230302810669,2.0756092071533203,0.08395329862833023
-2.028789520263672,3.289691686630249,0.130701944231987
-2.05832839012146,3.2898426055908203,0.1282675862312317
-2.104691505432129,3.316118001937866,0.1268087774515152
-2.6590421199798584,4.1249613761901855,0.15434518456459045
-2.686488389968872,4.1072893142700195,0.1502973586320877
-1.318534255027771,1.9881751537322998,0.07108397036790848
-2.753441333770752,4.091280937194824,0.14258384704589844
-2.7679920196533203,4.05326509475708,0.13745839893817902
-2.8029677867889404,4.048321723937988,0.13334523141384125
-2.8167240619659424,4.010319232940674,0.1279774010181427
-2.8185958862304688,3.9565329551696777,0.12201465666294098
-2.8820266723632812,3.9928853511810303,0.11878335475921631
-2.9001851081848145,3.96052885055542,0.11301247775554657
-2.9021401405334473,3.9107229709625244,0.10669756680727005
-2.9999172687530518,4.230542182922363,-0.11474660784006119
-2.4327352046966553,3.48346209526062,-0.09894898533821106
-2.772066354751587,4.032096862792969,-0.11949927359819412
-2.7236149311065674,4.027156352996826,-0.12425366044044495
-1.3055343627929688,1.9595645666122437,-0.06261102110147476
-2.1812877655029297,3.3277666568756104,-0.10993535816669464
-2.1484603881835938,3.3303489685058594,-0.11348199099302292
-1.289731740951538,2.030163526535034,-0.07117868959903717
-1.3031617403030396,2.0862231254577637,-0.07520745694637299
-1.2491179704666138,2.032358407974243,-0.07516682147979736
-1.2308903932571411,2.0342483520507812,-0.07704778015613556
-1.996445655822754,3.3550102710723877,-0.12999659776687622
-2.6934547424316406,4.6026411056518555,-0.18227548897266388
-2.6567537784576416,4.614734172821045,-0.18655924499034882
-2.6617496013641357,4.701602458953857,-0.19381330907344818
-2.6553609371185303,4.772147178649902,-0.20046767592430115
-2.6253442764282227,4.797443866729736,-0.2051064372062683
-2.6047072410583496,4.839547157287598,-0.21044257283210754
-2.5832016468048096,4.8862199783325195,-0.21599280834197998
-1.7991353273391724,3.463770866394043,-0.15554331243038177
-1.7607523202896118,3.448286294937134,-0.1571546494960785
-1.7258034944534302,3.4395997524261475,-0.1590268760919571
-1.6989514827728271,3.4484620094299316,-0.1616542637348175
-1.6753382682800293,3.4641990661621094,-0.1646232306957245
-1.6511775255203247,3.4756526947021484,-0.16728855669498444
-1.7221735715866089,3.6922686100006104,-0.17992490530014038
-1.7018539905548096,3.718716859817505,-0.18338140845298767
-1.6719497442245483,3.7235682010650635,-0.1857626587152481
-1.6584773063659668,3.7635936737060547,-0.18986551463603973
-2.2179770469665527,5.132816314697266,-0.2617943584918976
-2.1640267372131348,5.109035015106201,-0.2632593512535095
-1.6051111221313477,3.866652250289917,-0.20125597715377808
-1.5781652927398682,3.877596616744995,-0.20377647876739502
-1.5568387508392334,3.9028828144073486,-0.20705533027648926
-1.535376787185669,3.932192802429199,-0.2104942500591278
-1.5154553651809692,3.9648520946502686,-0.2141103446483612
-1.4876552820205688,3.9752371311187744,-0.2164980173110962
-1.4491729736328125,3.9560768604278564,-0.21726563572883606
-1.4065675735473633,3.925748586654663,-0.21728768944740295
-1.3611763715744019,3.887904167175293,-0.21685366332530975
-1.30828058719635,3.8235368728637695,-0.2148583084344864
-1.2679529190063477,3.79176664352417,-0.21463091671466827
-1.2243986129760742,3.748534679412842,-0.2136944830417633
-1.000938892364502,3.140192985534668,-0.18018603324890137
-0.9665060639381409,3.110048770904541,-0.17964066565036774
-0.9447117447853088,3.116649866104126,-0.1811685860157013
-0.8146494626998901,2.756527900695801,-0.16124790906906128
-0.7908982038497925,2.747131586074829,-0.161640927195549
-0.7618682384490967,2.718817949295044,-0.1608637571334839
-0.7425570487976074,2.72408390045166,-0.16206839680671692
-0.7272510528564453,2.744279146194458,-0.1641722172498703
-0.7130157351493835,2.768079996109009,-0.16649486124515533
-0.686816394329071,2.746502161026001,-0.16598565876483917
-1.4818007946014404,6.108791351318359,-0.370905339717865
-1.4672478437423706,6.240413665771484,-0.38065946102142334
-1.4481511116027832,6.360752582550049,-0.38981640338897705
-1.3988205194473267,6.347681045532227,-0.39080810546875
-1.348264217376709,6.330578804016113,-0.39124900102615356
-1.2956092357635498,6.301634788513184,-0.3909640312194824
-1.2429983615875244,6.26837682723999,-0.39040061831474304
-0.9302015900611877,4.871388912200928,-0.304582417011261
-0.89130699634552,4.8508124351501465,-0.30444595217704773
-0.8476391434669495,4.803133487701416,-0.3023826777935028
-0.8027358651161194,4.743552207946777,-0.29956185817718506
-0.7644902467727661,4.7181925773620605,-0.29889339208602905
-0.7244812846183777,4.681029319763184,-0.29748794436454773
-0.6884148120880127,4.662747859954834,-0.29723697900772095
-0.6545239090919495,4.659689426422119,-0.29774075746536255
-0.6227704286575317,4.671841144561768,-0.29923129081726074
-0.5910438895225525,4.683755874633789,-0.3007200360298157
-0.5612746477127075,4.710909366607666,-0.3032010793685913
-0.5301170945167542,4.734066963195801,-0.3054386377334595
-0.4994335174560547,4.760872840881348,-0.3076832890510559
-0.4604296088218689,4.7060065269470215,-0.30466076731681824
-0.43635809421539307,4.8061137199401855,-0.3116898536682129
-0.4070923924446106,4.859487533569336,-0.31571879982948303
-0.37683337926864624,4.916612148284912,-0.32002881169319153
-0.24414806067943573,3.507530927658081,-0.22853966057300568
-0.22010426223278046,3.5169105529785156,-0.2293919026851654
-0.3174852132797241,5.713412284851074,-0.3730691969394684
-0.27697715163230896,5.6998724937438965,-0.372609406709671
-0.23520369827747345,5.666600704193115,-0.37088125944137573
-0.19462387263774872,5.63692045211792,-0.3691069185733795
-0.15467441082000732,5.614747047424316,-0.3678061366081238
-0.11464277654886246,5.572805881500244,-0.3652264475822449
-0.07556799054145813,5.550068378448486,-0.36392056941986084
-0.03617110103368759,5.527061939239502,-0.36261647939682007
0.0018119205487892032,4.412389755249023,-0.28946587443351746
0.029256289824843407,3.971827507019043,-0.2605040371417999
0.07786834985017776,5.436984539031982,-0.356536328792572
0.11546696722507477,5.428524494171143,-0.3559345602989197
0.15312308073043823,5.42759895324707,-0.35584408044815063
0.1874704211950302,5.313431262969971,-0.34815752506256104
0.2224469780921936,5.269192695617676,-0.3449622094631195
0.21341757476329803,4.340959072113037,-0.283961683511734
0.24096395075321198,4.292689800262451,-0.28058841824531555
0.2660934627056122,4.217020034790039,-0.2754437327384949
0.2953201234340668,4.207287311553955,-0.2745046317577362
0.32503145933151245,4.212950706481934,-0.274463415145874
0.35479775071144104,4.218408107757568,-0.2744207978248596
0.4594322741031647,5.042747974395752,-0.3275836706161499
0.4929799735546112,5.023954391479492,-0.325916051864624
0.5121386647224426,4.865326404571533,-0.3151015639305115
0.5100933313369751,4.544070243835449,-0.2936653792858124
0.5474473834037781,4.590816974639893,-0.2960638105869293
0.5846580266952515,4.629507064819336,-0.2979412376880646
0.6297287940979004,4.721988201141357,-0.303274929523468
0.6874794960021973,4.89120626449585,-0.31343233585357666
0.7189016342163086,4.871000289916992,-0.3112597167491913
0.7500354051589966,4.850600242614746,-0.3090961277484894
0.7786446213722229,4.814574241638184,-0.3059541881084442
0.813450276851654,4.816798686981201,-0.3052576184272766
0.8569899201393127,4.868711948394775,-0.30766209959983826
0.8875212073326111,4.843515396118164,-0.30498048663139343
0.9164279699325562,4.814409255981445,-0.30209553241729736
0.9482060670852661,4.800393581390381,-0.30017194151878357
0.9784359335899353,4.7784953117370605,-0.297769695520401
1.0099279880523682,4.7640604972839355,-0.29580166935920715
1.0389587879180908,4.73796272277832,-0.2929149866104126
1.0723190307617188,4.734625816345215,-0.2914736270904541
0.5165526270866394,2.2098278999328613,-0.13546639680862427
0.5319176316261292,2.206228733062744,-0.13467177748680115
0.5490686893463135,2.2101099491119385,-0.13430921733379364
0.5586400628089905,2.1836228370666504,-0.13202233612537384
0.5735695958137512,2.179802656173706,-0.1311306655406952
0.5733615159988403,2.1193699836730957,-0.1268494725227356
0.5755480527877808,2.0702967643737793,-0.12328211963176727
0.5983943343162537,2.096328020095825,-0.12415716052055359
0.6337634325027466,2.1632940769195557,-0.1273583620786667
0.6507407426834106,2.166452407836914,-0.12679490447044373
0.6634671092033386,2.1544883251190186,-0.12533879280090332
1.4120872020721436,4.4745635986328125,-0.2587413191795349
1.434341549873352,4.438924312591553,-0.25501304864883423
1.462615966796875,4.421605587005615,-0.2522628903388977
1.4877572059631348,4.396871566772461,-0.2491367757320404
1.5132275819778442,4.3717942237854,-0.24598032236099243
1.2742373943328857,3.600071668624878,-0.20113129913806915
1.2933320999145508,3.5767812728881836,-0.19828194379806519
1.3229902982711792,3.5826687812805176,-0.19705362617969513
1.6165127754211426,4.285213470458984,-0.23378120362758636
1.6421329975128174,4.263058185577393,-0.230676531791687
1.6785441637039185,4.26995849609375,-0.2290879487991333
1.703001856803894,4.24779748916626,-0.22585563361644745
1.7316654920578003,4.236333847045898,-0.22320763766765594
1.7586312294006348,4.216902732849121,-0.22005535662174225
1.7848966121673584,4.197515487670898,-0.21696007251739502
1.8100106716156006,4.178390026092529,-0.21376648545265198
1.8286354541778564,4.144839763641357,-0.20985817909240723
1.8635220527648926,4.146535396575928,-0.20769739151000977
1.8830946683883667,4.112093448638916,-0.20367583632469177
1.9142435789108276,4.106444835662842,-0.2010490745306015
1.9417345523834229,4.093664646148682,-0.19804024696350098
1.9560019969940186,4.052373886108398,-0.1936400681734085
1.9721144437789917,4.014288425445557,-0.18938133120536804
2.012024402618408,4.025149822235107,-0.18734417855739594
2.035254955291748,4.004846096038818,-0.18385161459445953
2.065957546234131,3.9980311393737793,-0.18093962967395782
2.0901548862457275,3.97676682472229,-0.17730943858623505
2.111577033996582,3.952310085296631,-0.1735083907842636
2.134061813354492,3.931481122970581,-0.16984906792640686
2.1612462997436523,3.916753053665161,-0.16634809970855713
2.1368937492370605,3.80983829498291,-0.1589943766593933
2.1661674976348877,3.8024022579193115,-0.15580323338508606
2.183389186859131,3.7746522426605225,-0.15177510678768158
2.217240571975708,3.7731361389160156,-0.14868181943893433
2.2516324520111084,3.7710604667663574,-0.14545728266239166
2.2641403675079346,3.736342191696167,-0.14098498225212097
2.2889890670776367,3.721311569213867,-0.1372232884168625
2.3148467540740967,3.70542573928833,-0.1332922726869583
2.3351433277130127,3.683565139770508,-0.12912990152835846
2.3594508171081543,3.668181896209717,-0.12513743340969086
2.376410722732544,3.6387178897857666,-0.12049739807844162
2.3877413272857666,3.60335636138916,-0.11567422747612
2.4239892959594727,3.6074674129486084,-0.11210733652114868
2.4444568157196045,3.584318161010742,-0.10741882026195526
2.464109420776367,3.5614778995513916,-0.1026444137096405
2.477893590927124,3.5329654216766357,-0.09777522832155228
2.511509656906128,3.5284738540649414,-0.09321529418230057
2.52490234375,3.499783515930176,-0.08801385015249252
2.552518367767334,3.4895009994506836,-0.08307565003633499
2.191913366317749,2.9548678398132324,-0.0661153644323349
2.6950483322143555,3.7754125595092773,0.1355534791946411
2.6662328243255615,3.795605421066284,0.14135324954986572
2.639587879180908,3.8139827251434326,0.1466774046421051
2.610006093978882,3.834078788757324,0.15200720727443695
2.5819501876831055,3.8528265953063965,0.15703615546226501
2.567333936691284,3.890477418899536,0.16267085075378418
2.519951820373535,3.8839519023895264,0.16647417843341827
2.552767753601074,3.997260332107544,0.17519161105155945
