X,Y,Z
1.2372827529907227,4.48411750793457,-0.7691372632980347
1.2749942541122437,4.498800754547119,-0.7658262252807617
1.3025197982788086,4.4761576652526855,-0.7556029558181763
1.3292479515075684,4.4534687995910645,-0.7455592155456543
1.3582783937454224,4.43790340423584,-0.7367150783538818
1.382564902305603,4.4073967933654785,-0.725462019443512
1.4003087282180786,4.358524799346924,-0.7108755111694336
1.169346570968628,3.5539233684539795,-0.5741643309593201
1.1893008947372437,3.5320546627044678,-0.5652596950531006
1.2116236686706543,3.5173354148864746,-0.5575375556945801
1.2387499809265137,3.5171351432800293,-0.5519291162490845
1.263157844543457,3.5095183849334717,-0.5450488328933716
1.2809722423553467,3.4835352897644043,-0.5353419780731201
1.3086657524108887,3.4825732707977295,-0.5293691158294678
1.324741005897522,3.45271372795105,-0.5190221667289734
1.3515180349349976,3.4517111778259277,-0.5128899216651917
1.3755179643630981,3.4432880878448486,-0.5056549310684204
1.4027066230773926,3.441736936569214,-0.49936026334762573
1.4182994365692139,3.4112777709960938,-0.48875346779823303
1.4388419389724731,3.3953216075897217,-0.48023518919944763
1.4623216390609741,3.386331558227539,-0.47273194789886475
1.465924620628357,3.3308606147766113,-0.458721786737442
1.5035816431045532,3.3533473014831543,-0.4554540514945984
1.8525009155273438,4.056262493133545,-0.54288250207901
1.8821406364440918,4.04813289642334,-0.5338761806488037
1.920664668083191,4.057039260864258,-0.5269184112548828
1.9423431158065796,4.030742645263672,-0.5153499841690063
1.9648642539978027,4.00809907913208,-0.5041802525520325
1.9895344972610474,3.988492012023926,-0.4932577908039093
2.0176913738250732,3.9755632877349854,-0.48315179347991943
2.04541277885437,3.962597370147705,-0.47299906611442566
2.0652501583099365,3.9359586238861084,-0.4611899256706238
2.0614125728607178,3.8644421100616455,-0.44418081641197205
2.116523027420044,3.902186393737793,-0.4395863115787506
2.136368989944458,3.87480092048645,-0.42737317085266113
2.1303930282592773,3.8036320209503174,-0.4106442332267761
2.1531481742858887,3.782986879348755,-0.399278461933136
2.191516637802124,3.789008140563965,-0.39061203598976135
2.193488121032715,3.7349088191986084,-0.3757428228855133
2.211383819580078,3.707313299179077,-0.36346161365509033
2.2577645778656006,3.725935459136963,-0.35547855496406555
2.258784770965576,3.6716175079345703,-0.34056416153907776
2.29162859916687,3.670604705810547,-0.3306705355644226
2.3381428718566895,3.68839693069458,-0.3219259977340698
2.3472981452941895,3.646592617034912,-0.3076842427253723
2.3587424755096436,3.612274646759033,-0.29440659284591675
2.3965342044830322,3.6163721084594727,-0.28388679027557373
2.397745370864868,3.5649523735046387,-0.26882222294807434
2.4321541786193848,3.5660955905914307,-0.25779303908348083
2.479177236557007,3.5820229053497314,-0.24701263010501862
2.4859137535095215,3.5401771068573,-0.2321069836616516
2.5043792724609375,3.5184011459350586,-0.21864116191864014
2.5561282634735107,3.5397515296936035,-0.20694732666015625
2.2293601036071777,3.0447580814361572,-0.16652114689350128
2.170133590698242,2.9242167472839355,-0.14860813319683075
2.80782151222229,3.9426231384277344,0.4726143181324005
2.755950927734375,3.9346110820770264,0.48410865664482117
2.731297254562378,3.959512710571289,0.49856364727020264
2.706418991088867,3.9842753410339355,0.512600839138031
2.674816131591797,4.003854751586914,0.5257567763328552
2.653517723083496,4.034964084625244,0.5398464202880859
2.611240863800049,4.033106803894043,0.5493286848068237
2.592036485671997,4.071495532989502,0.5637375712394714
2.56274676322937,4.09296989440918,0.575701117515564
2.5498111248016357,4.136016845703125,0.59013831615448
2.5111465454101562,4.139956474304199,0.5988550782203674
2.4706530570983887,4.144665718078613,0.607555627822876
2.4632785320281982,4.2015533447265625,0.62357097864151
2.4295101165771484,4.210783958435059,0.6322617530822754
2.4021899700164795,4.23390007019043,0.6428111791610718
2.3848962783813477,4.277727127075195,0.6563634276390076
2.2724928855895996,4.1482391357421875,0.6431143283843994
2.246735095977783,4.169720649719238,0.6526585221290588
2.2274696826934814,4.205010414123535,0.6642990112304688
2.1956868171691895,4.220391750335693,0.6725121736526489
2.174311399459839,4.256198883056641,0.6840530633926392
2.1399660110473633,4.263646125793457,0.6908537149429321
2.1131017208099365,4.284387111663818,0.6997275352478027
2.0914533138275146,4.319546222686768,0.7106330394744873
2.0623321533203125,4.3408613204956055,0.7191892266273499
2.0236358642578125,4.340782642364502,0.7241673469543457
1.9994417428970337,4.367812156677246,0.733466386795044
1.9760007858276367,4.398444652557373,0.7435265779495239
1.9917595386505127,4.521275520324707,0.7687386274337769
1.9612762928009033,4.5418477058410645,0.7766628265380859
1.9339402914047241,4.569177150726318,0.7857610583305359
1.92093825340271,4.627893924713135,0.8001804351806641
1.8876996040344238,4.640409469604492,0.8067747950553894
1.8509604930877686,4.645824909210205,0.8116204738616943
1.8390820026397705,4.715758323669434,0.8276965618133545
1.7850899696350098,4.67768669128418,0.8248612284660339
1.7439875602722168,4.667479991912842,0.8267608880996704
1.3401339054107666,3.6656086444854736,0.6522653698921204
1.3190799951553345,3.6888394355773926,0.6591578125953674
1.2831788063049316,3.672205686569214,0.6586711406707764
1.6418935060501099,4.810500621795654,0.8661300539970398
1.6098015308380127,4.828517436981201,0.8726395964622498
1.580112338066101,4.853575706481934,0.8804627060890198
1.5506869554519653,4.878286838531494,0.8882352709770203
1.5417424440383911,4.9730119705200195,0.9083289504051208
1.5011706352233887,4.968489170074463,0.9102542400360107
1.476001501083374,5.015293121337891,0.9216392040252686
2.5949535369873047,9.05120849609375,1.6683071851730347
2.5087647438049316,8.990144729614258,1.6621321439743042
1.336301565170288,4.920451641082764,0.9124782681465149
1.293070912361145,4.899480819702148,0.9107478260993958
1.2654489278793335,4.937742233276367,0.9200546741485596
1.235487699508667,4.968387603759766,0.928013026714325
1.2035092115402222,4.99133825302124,0.9345890283584595
1.1728910207748413,5.017659664154053,0.9418099522590637
1.1377743482589722,5.025041103363037,0.9455269575119019
1.1067430973052979,5.054976940155029,0.9528969526290894
1.0752983093261719,5.084732532501221,0.9602628350257874
1.0397416353225708,5.099362373352051,0.9648653864860535
1.002409815788269,5.098423480987549,0.9665045738220215
1.6921675205230713,8.934184074401855,1.6968804597854614
1.6271106004714966,8.929640769958496,1.6993236541748047
1.5599820613861084,8.917386054992676,1.699427604675293
1.4903732538223267,8.89734172821045,1.6978739500045776
1.4217177629470825,8.872794151306152,1.6954891681671143
1.360365867614746,8.889392852783203,1.7010260820388794
1.3033255338668823,8.93206787109375,1.7116248607635498
1.2330923080444336,8.883145332336426,1.7047474384307861
1.1626383066177368,8.837770462036133,1.698094367980957
1.1039459705352783,8.8756742477417,1.7068265676498413
1.0376288890838623,8.852213859558105,1.7038428783416748
0.9742170572280884,8.851144790649414,1.705247402191162
0.9114791750907898,8.845710754394531,1.7058647871017456
0.846930742263794,8.820749282836914,1.7027937173843384
0.3877745568752289,4.363323211669922,0.843211829662323
0.3527229428291321,4.312260150909424,0.8336890935897827
0.3252681791782379,4.352723598480225,0.8419015407562256
0.13829673826694489,2.0434367656707764,0.39544233679771423
0.34351420402526855,5.661962509155273,1.0963027477264404
0.30202600359916687,5.637234687805176,1.0921835899353027
0.26446616649627686,5.673470497131348,1.099918246269226
0.2273942530155182,5.736356258392334,1.1124701499938965
0.18875284492969513,5.779905319213867,1.1209502220153809
0.14941643178462982,5.819357872009277,1.1286911964416504
0.1083734780550003,5.835547924041748,1.1319795846939087
0.0679568350315094,5.855273246765137,1.1360071897506714
0.027181707322597504,5.8555450439453125,1.1363162994384766
-0.020600060001015663,8.873414039611816,1.7224302291870117
-0.08275912702083588,8.915363311767578,1.729955792427063
-0.143454447388649,8.768990516662598,1.700980544090271
-0.20377793908119202,8.737241744995117,1.6943436861038208
-0.26134443283081055,8.628416061401367,1.6728482246398926
-0.31845012307167053,8.549877166748047,1.6573137044906616
-0.3572779595851898,8.084007263183594,1.5667941570281982
-0.18277205526828766,3.573495626449585,0.6923375129699707
-0.2079293429851532,3.572267770767212,0.6915744543075562
-0.2310943752527237,3.5479280948638916,0.6863835453987122
-0.5661317706108093,7.854084014892578,1.5184643268585205
-0.524868369102478,6.638132095336914,1.2825994491577148
-0.5723143219947815,6.649881839752197,1.2841497659683228
-0.6147327423095703,6.596287727355957,1.273136019706726
-0.6403798460960388,6.393803596496582,1.232734203338623
-0.6827433705329895,6.374405384063721,1.2276148796081543
-0.7335668802261353,6.430965900421143,1.2371727228164673
-0.7734296917915344,6.3880696296691895,1.227644681930542
-0.8112959265708923,6.325775623321533,1.2144392728805542
-0.849156379699707,6.2747578620910645,1.203497290611267
-0.8893061876296997,6.246404647827148,1.1966798305511475
-0.9344518780708313,6.255899906158447,1.1966290473937988
-0.9856305122375488,6.303005218505859,1.2038116455078125
-1.0339394807815552,6.323071002960205,1.2058324813842773
-1.0869557857513428,6.369285583496094,1.2128819227218628
-1.1399213075637817,6.4113054275512695,1.2191662788391113
-1.1956896781921387,6.464217185974121,1.2275490760803223
-1.2478299140930176,6.498108386993408,1.2315495014190674
-1.3011723756790161,6.535386562347412,1.2361499071121216
-1.3613039255142212,6.598428249359131,1.245595097541809
-1.4156655073165894,6.63096284866333,1.249314785003662
-1.4569693803787231,6.599183559417725,1.240944266319275
-1.4884988069534302,6.525936603546143,1.2248667478561401
-1.5219459533691406,6.467759132385254,1.2112040519714355
-0.6750994920730591,2.782639980316162,0.5197739601135254
-0.6921985745429993,2.7709004878997803,0.5163040161132812
-0.7131152153015137,2.7739198207855225,0.5156004428863525
-0.7265661358833313,2.7469663619995117,0.5093355774879456
-0.7477481365203857,2.749638795852661,0.5085957646369934
-0.7773609757423401,2.7817940711975098,0.5131310224533081
-1.7599472999572754,6.138046741485596,1.1287527084350586
-1.792876124382019,6.097440242767334,1.1178736686706543
-1.8278056383132935,6.063954830169678,1.108359932899475
-1.8576185703277588,6.0116143226623535,1.0954113006591797
-1.8887544870376587,5.962570667266846,1.0830967426300049
-1.9190776348114014,5.917518138885498,1.0713427066802979
-1.949357271194458,5.876277446746826,1.059938669204712
-1.9791653156280518,5.8348822593688965,1.048594355583191
-2.010111093521118,5.796865940093994,1.037907361984253
-2.040381908416748,5.75471305847168,1.026464819908142
-2.07090425491333,5.712155818939209,1.0149683952331543
-2.1005823612213135,5.673716068267822,1.0039352178573608
-2.1278696060180664,5.6317830085754395,0.9920971989631653
-2.163003921508789,5.611303806304932,0.9841120839118958
-2.2158095836639404,5.633321762084961,0.9834966063499451
-2.280442476272583,5.67943000793457,0.9869009256362915
-2.3393218517303467,5.7108964920043945,0.9877948760986328
-2.364241123199463,5.664353847503662,0.974546492099762
-2.393218755722046,5.628345012664795,0.9631960391998291
-2.431121587753296,5.6133928298950195,0.9554983377456665
-2.497760534286499,5.657264232635498,0.9574849009513855
-3.974202871322632,8.834607124328613,1.4868568181991577
-2.551814079284668,5.572227954864502,0.9321097731590271
-4.235142707824707,9.089191436767578,1.5107709169387817
-2.6096341609954834,5.505503177642822,0.909267008304596
-2.630364179611206,5.449956893920898,0.8939434289932251
-2.6517064571380615,5.398026943206787,0.879408061504364
-2.7024588584899902,5.408870697021484,0.874809741973877
-2.717421293258667,5.3508782386779785,0.8588560819625854
-2.7495076656341553,5.327240467071533,0.848505973815918
-2.777890205383301,5.292205810546875,0.8360604643821716
-2.794023275375366,5.232688903808594,0.819703996181488
-1.129514455795288,2.082014560699463,0.3232651650905609
-1.1731840372085571,2.1293530464172363,0.3275928497314453
-1.1988204717636108,2.1423325538635254,0.3264999985694885
-5.759622573852539,10.126922607421875,1.527966022491455
-2.570716142654419,4.447427749633789,0.6640527248382568
-6.0117082595825195,10.247302055358887,1.5133427381515503
-1.2372381687164307,2.078108310699463,0.3035021126270294
-1.2517938613891602,2.0700700283050537,0.29871222376823425
-1.7170429229736328,2.7953522205352783,0.39840877056121826
-1.75626540184021,2.8176608085632324,0.3962123990058899
-1.7663702964782715,2.793943166732788,0.3875992000102997
-1.7732791900634766,2.7629306316375732,0.3776947557926178
-3.0665531158447266,4.705733299255371,0.6334972977638245
-1.8492711782455444,2.798823595046997,0.37068599462509155
-1.863486409187317,2.781050682067871,0.3621141314506531
-1.8613394498825073,2.7366957664489746,0.3497547507286072
-1.8644487857818604,2.7026326656341553,0.3387683033943176
-1.8817311525344849,2.6916427612304688,0.33061185479164124
-1.9001307487487793,2.679748296737671,0.3218860924243927
-1.9100943803787231,2.6546151638031006,0.3111419081687927
-1.9177757501602173,2.630892515182495,0.3006258010864258
-1.9448531866073608,2.631411075592041,0.2923583686351776
-2.4793765544891357,3.4744949340820312,-0.20699132978916168
-2.454366683959961,3.491360902786255,-0.22079436480998993
-2.8699450492858887,4.146928787231445,-0.27710607647895813
-2.3205630779266357,3.406684637069702,-0.23948785662651062
-2.231255292892456,3.324995994567871,-0.24451415240764618
-2.2296996116638184,3.376650094985962,-0.2591615915298462
-2.2171101570129395,3.4119229316711426,-0.2725977897644043
-2.7682952880859375,4.326025485992432,-0.3584068715572357
-1.2910317182540894,2.0507750511169434,-0.17589899897575378
-1.2759648561477661,2.0596110820770264,-0.18247640132904053
-1.241054654121399,2.034785032272339,-0.1857975274324417
-2.1067075729370117,3.5127780437469482,-0.33035674691200256
-2.1302061080932617,3.61102032661438,-0.34909313917160034
-2.5794947147369385,4.442854404449463,-0.4406442642211914
-1.2001944780349731,2.101729393005371,-0.21365457773208618
-2.5882554054260254,4.609961986541748,-0.4799499213695526
-2.5642080307006836,4.644254684448242,-0.49462053179740906
-2.5420894622802734,4.681609153747559,-0.5094481706619263
-2.511237859725952,4.705663681030273,-0.5227992534637451
-2.487839698791504,4.743030548095703,-0.5375767946243286
-2.461359977722168,4.772930145263672,-0.5513354539871216
-2.4385251998901367,4.813704967498779,-0.5665172338485718
-2.4101650714874268,4.843885898590088,-0.5803261399269104
-2.3925023078918457,4.894454002380371,-0.5964825749397278
-2.3661911487579346,4.927312850952148,-0.6105138063430786
-2.336993932723999,4.956934452056885,-0.6240020990371704
-2.3105928897857666,4.993471622467041,-0.6384449005126953
-2.287294864654541,5.03678560256958,-0.6537999510765076
-2.2626779079437256,5.076129913330078,-0.668546199798584
-1.0174062252044678,2.326956272125244,-0.3107428252696991
-1.0050991773605347,2.3442628383636475,-0.317355215549469
-1.00053870677948,2.37919282913208,-0.32633042335510254
-0.971603512763977,2.356950283050537,-0.32753440737724304
-0.9531615376472473,2.3596084117889404,-0.3319215178489685
-0.9219042062759399,2.329709768295288,-0.3316787779331207
-0.9208120703697205,2.3751983642578125,-0.3421189486980438
-0.9095187783241272,2.395418882369995,-0.34902238845825195
-0.8852553367614746,2.383173704147339,-0.3510672152042389
-0.8800308704376221,2.4215054512023926,-0.3605339229106903
-0.868092954158783,2.4415502548217773,-0.3673112988471985
-0.8483474850654602,2.439601182937622,-0.37079745531082153
-0.8384302258491516,2.4668679237365723,-0.3785492479801178
-0.8205096125602722,2.472198009490967,-0.38301703333854675
-0.8125296831130981,2.5066676139831543,-0.3919709622859955
-0.796036958694458,2.515317916870117,-0.39693543314933777
-0.7804476022720337,2.527615547180176,-0.4023277759552002
-0.7713490724563599,2.5620200634002686,-0.4112071990966797
-0.7597030401229858,2.588972568511963,-0.4189653992652893
-0.7433121204376221,2.601066827774048,-0.4244091212749481
-0.7487548589706421,2.6910667419433594,-0.44251304864883423
-0.7296778559684753,2.695645809173584,-0.44649171829223633
-0.7154792547225952,2.71873140335083,-0.45358040928840637
-0.6916240453720093,2.704341173171997,-0.4544077217578888
-0.6769512295722961,2.727242946624756,-0.4615499675273895
-0.6838476061820984,2.8399956226348877,-0.4836612939834595
-0.6506311893463135,2.7878332138061523,-0.47776976227760315
-0.6472104787826538,2.8630876541137695,-0.49373146891593933
-0.642787516117096,2.938386917114258,-0.5098748803138733
-0.9195456504821777,4.351260185241699,-0.7593281269073486
-0.871212899684906,4.269985675811768,-0.7491275668144226
-0.8271058201789856,4.203375816345215,-0.7413800358772278
-0.7855369448661804,4.143925666809082,-0.7347867488861084
-0.7447670698165894,4.084174156188965,-0.7278410196304321
-0.7049575448036194,4.028029918670654,-0.7210884690284729
-0.6620237827301025,3.9449238777160645,-0.7093700766563416
-0.6253514885902405,3.8917958736419678,-0.7029404640197754
-0.595841646194458,3.8801753520965576,-0.7039876580238342
-0.4394863247871399,3.001187324523926,-0.5464828014373779
-0.42022705078125,3.0190184116363525,-0.5517361164093018
-0.4011596441268921,3.036672592163086,-0.5569652318954468
-0.38231900334358215,3.058016300201416,-0.5629230737686157
-0.3654533624649048,3.098365306854248,-0.5721597671508789
-0.3471753001213074,3.131030321121216,-0.5797656178474426
-0.32726815342903137,3.1521189212799072,-0.5852813720703125
-0.30641767382621765,3.169276714324951,-0.5901355147361755
-0.286395400762558,3.193922281265259,-0.5963625907897949
-0.26540857553482056,3.210883378982544,-0.6006393432617188
-0.24562236666679382,3.246849298477173,-0.6085190176963806
-0.22250540554523468,3.2405495643615723,-0.6085137724876404
-0.20050106942653656,3.2570977210998535,-0.6128531694412231
-0.17783571779727936,3.2582149505615234,-0.6139100790023804
-0.15515942871570587,3.2592175006866455,-0.6147376894950867
-0.1340363621711731,3.2984156608581543,-0.6228072047233582
-0.11085083335638046,3.2914371490478516,-0.6221931576728821
-0.08796952664852142,3.307345390319824,-0.6258426308631897
-0.06493886560201645,3.307835340499878,-0.6260669231414795
-0.042440418154001236,3.3503804206848145,-0.6342832446098328
-0.019251756370067596,3.365903615951538,-0.6374170780181885
0.0041128480806946754,3.3505606651306152,-0.6347364783287048
0.028094038367271423,3.388869047164917,-0.6417845487594604
0.05116274952888489,3.35796856880188,-0.6355630159378052
0.07451072335243225,3.3576085567474365,-0.6351556777954102
0.10023143142461777,3.4376559257507324,-0.6499817371368408
0.12376969307661057,3.4254748821258545,-0.6472329497337341
0.1472780704498291,3.4170615673065186,-0.6447177529335022
0.17071455717086792,3.400801181793213,-0.6407435536384583
0.19589079916477203,3.426560878753662,-0.6447321176528931
0.22066938877105713,3.4406442642211914,-0.6465450525283813
0.24672619998455048,3.4699649810791016,-0.650717556476593
0.2740929424762726,3.5106041431427,-0.6568702459335327
0.3014993369579315,3.539525032043457,-0.6608059406280518
0.3261466324329376,3.5376689434051514,-0.6590365767478943
0.3515043556690216,3.5433266162872314,-0.6584847569465637
0.3838358521461487,3.6138248443603516,-0.6695330739021301
0.40811386704444885,3.603883981704712,-0.6656715869903564
0.4391213059425354,3.6471445560455322,-0.6716147661209106
0.46984511613845825,3.6863889694213867,-0.676836371421814
0.5016067028045654,3.7293074131011963,-0.6821339130401611
0.5345200896263123,3.7757928371429443,-0.6879693269729614
0.5715545415878296,3.8448216915130615,-0.6978540420532227
0.6047611832618713,3.879269599914551,-0.701368510723114
0.6317769289016724,3.875612258911133,-0.6977642178535461
0.6697257161140442,3.9362964630126953,-0.705356240272522
0.7206069231033325,4.064850807189941,-0.724981963634491
0.760873019695282,4.124789237976074,-0.7322248816490173
0.8034602403640747,4.191939353942871,-0.7406703233718872
0.8549076914787292,4.296522617340088,-0.7548680901527405
0.9011112451553345,4.370551109313965,-0.7636228203773499
0.9364641904830933,4.3876495361328125,-0.7623497843742371
0.9928523898124695,4.498501300811768,-0.777269184589386
1.03534734249115,4.541286468505859,-0.7799066305160522
1.0771746635437012,4.576162815093994,-0.7807744145393372
1.118140697479248,4.60704231262207,-0.7809889912605286
1.146670937538147,4.585182189941406,-0.7722487449645996
1.1767854690551758,4.570643901824951,-0.7646833062171936
1.2046263217926025,4.548555850982666,-0.7554445862770081
1.231752634048462,4.522432327270508,-0.7455171346664429
1.2654682397842407,4.522238731384277,-0.7399812340736389
1.2843852043151855,4.469839096069336,-0.7259722352027893
1.313259482383728,4.454550743103027,-0.7176238298416138
1.0872108936309814,3.5963549613952637,-0.5745792984962463
1.1059086322784424,3.5673460960388184,-0.5650951862335205
1.1333078145980835,3.5677719116210938,-0.560378909111023
1.1605725288391113,3.568075180053711,-0.5554468631744385
1.1853184700012207,3.560900926589966,-0.5491973757743835
1.210123062133789,3.5535128116607666,-0.5429194569587708
1.2351173162460327,3.545867919921875,-0.5365794897079468
1.2499927282333374,3.5088047981262207,-0.525676429271698
1.2729668617248535,3.4974000453948975,-0.5185585021972656
1.3012582063674927,3.500333547592163,-0.5135745406150818
1.3217644691467285,3.4812021255493164,-0.5052978992462158
1.3462282419204712,3.4727835655212402,-0.4985979199409485
1.3621102571487427,3.442615509033203,-0.48847660422325134
1.3888068199157715,3.4412622451782227,-0.4825933277606964
1.4011691808700562,3.403728723526001,-0.471606582403183
1.4281668663024902,3.4018611907958984,-0.4655977189540863
1.4577447175979614,3.4071428775787354,-0.4603409469127655
1.79628586769104,4.119297504425049,-0.5491687655448914
1.825176477432251,4.107760429382324,-0.5402532815933228
1.8509607315063477,4.088865756988525,-0.5303648710250854
1.87912118434906,4.077175617218018,-0.5212555527687073
1.9038575887680054,4.058272838592529,-0.5112316608428955
1.9261274337768555,4.03173303604126,-0.5000211000442505
1.9579637050628662,4.026156902313232,-0.4915409982204437
1.980394959449768,4.003323078155518,-0.4808180332183838
1.9973175525665283,3.969959259033203,-0.4689065217971802
2.0358221530914307,3.977693557739258,-0.4616619348526001
2.0529773235321045,3.9437172412872314,-0.44956332445144653
2.083926200866699,3.93737530708313,-0.4403873085975647
2.1107847690582275,3.924131155014038,-0.4305717647075653
2.1272878646850586,3.8897387981414795,-0.4182092547416687
2.1146135330200195,3.8045239448547363,-0.4005832374095917
2.144211530685425,3.797898530960083,-0.3913364112377167
2.1631031036376953,3.7702877521514893,-0.37965670228004456
2.1857364177703857,3.7492332458496094,-0.36866462230682373
2.2191073894500732,3.7486910820007324,-0.35963672399520874
2.2322444915771484,3.714632511138916,-0.34742283821105957
2.254302740097046,3.6931612491607666,-0.33604222536087036
2.3008108139038086,3.711268663406372,-0.32798922061920166
2.296546459197998,3.650570869445801,-0.3131715655326843
2.3217451572418213,3.6355350017547607,-0.30208054184913635
2.3641340732574463,3.6462597846984863,-0.29285722970962524
2.388261079788208,3.631399631500244,-0.2815202474594116
2.3961181640625,3.5896828174591064,-0.2676994800567627
2.43878436088562,3.599459409713745,-0.25754645466804504
2.457937717437744,3.577789545059204,-0.24511045217514038
2.4599337577819824,3.529806613922119,-0.23059047758579254
2.5203776359558105,3.564450979232788,-0.22101235389709473
2.5256154537200928,3.5231924057006836,-0.20646630227565765
2.568269729614258,3.53167462348938,-0.19423557817935944
2.170257568359375,2.9434561729431152,-0.15097250044345856
2.784118890762329,3.937969207763672,0.4505460262298584
2.7569472789764404,3.9648923873901367,0.4653267562389374
2.7313427925109863,3.9904298782348633,0.4793373644351959
2.689103603363037,3.9893882274627686,0.4896884560585022
2.666219711303711,4.021849632263184,0.503644585609436
2.6314003467559814,4.033942699432373,0.5147355794906616
2.6214582920074463,4.080571174621582,0.5297397375106812
2.5798988342285156,4.082578182220459,0.5387078523635864
2.5392963886260986,4.088201522827148,0.5481759309768677
2.532254934310913,4.1413116455078125,0.563241720199585
2.4945099353790283,4.144680023193359,0.5714915990829468
2.46262788772583,4.162337779998779,0.5813456773757935
2.4386539459228516,4.1930084228515625,0.593018114566803
2.4160492420196533,4.222627639770508,0.604229748249054
2.3666718006134033,4.204778671264648,0.6084463000297546
2.345923900604248,4.241697788238525,0.6202123165130615
2.2599802017211914,4.1594014167785645,0.614470899105072
2.2340524196624756,4.180974006652832,0.6235516667366028
2.2110965251922607,4.209435939788818,0.6338058710098267
2.1830859184265137,4.231568336486816,0.6426407098770142
2.147686243057251,4.239786624908447,0.6493550539016724
2.1236538887023926,4.268016338348389,0.659001886844635
2.100217819213867,4.295697212219238,0.6684790849685669
2.0753490924835205,4.323789119720459,0.678003191947937
2.046266794204712,4.345081329345703,0.6860873103141785
2.0104918479919434,4.352128505706787,0.6919605135917664
1.9826877117156982,4.372298240661621,0.6997252106666565
2.0115807056427,4.519256114959717,0.7279164791107178
1.9913347959518433,4.5609002113342285,0.7390910387039185
1.9569720029830933,4.574692249298096,0.7456044554710388
1.9261363744735718,4.595094203948975,0.7531636953353882
1.894877314567566,4.611236095428467,0.7599191069602966
1.8854656219482422,4.680747985839844,0.7755188345909119
1.8576040267944336,4.7074785232543945,0.7839362621307373
1.8195953369140625,4.713055610656738,0.7885567545890808
1.7821992635726929,4.7181172370910645,0.7930604219436646
3.4846091270446777,9.427104949951172,1.5917654037475586
1.3266801834106445,3.6673409938812256,0.6219800114631653
1.3009272813796997,3.675839424133301,0.6261953711509705
1.254768967628479,3.6300394535064697,0.6207513213157654
1.6278678178787231,4.822023868560791,0.8276758790016174
1.6144812107086182,4.898779392242432,0.8440160751342773
1.575381875038147,4.894459247589111,0.8463495373725891
1.5410915613174438,4.904524803161621,0.8511984348297119
1.4966293573379517,4.885223865509033,0.8507960438728333
1.463434100151062,4.9025654792785645,0.8563690781593323
1.4365164041519165,4.941871166229248,0.8658429384231567
1.392738699913025,4.921624183654785,0.8648976683616638
1.3817932605743408,5.015913009643555,0.8840952515602112
1.3097870349884033,4.887100696563721,0.8639847040176392
1.2802855968475342,4.918105602264404,0.8717948198318481
1.2562059164047241,4.971341133117676,0.8833032250404358
1.2222633361816406,4.98708438873291,0.8882174491882324
1.1903648376464844,5.0099873542785645,0.8944363594055176
1.1502108573913574,4.995044708251953,0.8939008712768555
1.1239123344421387,5.043765068054199,0.904850959777832
1.0882009267807007,5.051022529602051,0.908013641834259
1.0599250793457031,5.095808982849121,0.9176939725875854
1.0205292701721191,5.087628364562988,0.9178866744041443
0.9888225793838501,5.116869926452637,0.924869954586029
1.7115497589111328,9.20671558380127,1.6672636270523071
1.6364459991455078,9.156937599182129,1.6614059209823608
1.5610029697418213,9.102945327758789,1.6543400287628174
1.5081549882888794,9.185166358947754,1.6714155673980713
1.44050931930542,9.179726600646973,1.6726369857788086
1.362333059310913,9.109298706054688,1.662113904953003
1.302090048789978,9.140694618225098,1.6701595783233643
1.2342572212219238,9.118363380432129,1.6684669256210327
1.1696323156356812,9.118446350097656,1.6707996129989624
1.1037704944610596,9.114542007446289,1.6714164018630981
1.0302928686141968,9.041424751281738,1.6594080924987793
0.23644676804542542,2.216170072555542,0.4071117043495178
0.9093419313430786,9.126770973205566,1.6781545877456665
0.40325984358787537,4.353855133056641,0.8013297915458679
0.3709602952003479,4.33335542678833,0.7983711957931519
0.33732178807258606,4.293552875518799,0.791477382183075
0.31127023696899414,4.36086368560791,0.8042261004447937
0.13688814640045166,2.127729892730713,0.39257606863975525
0.32398468255996704,5.6531758308410645,1.0435718297958374
0.285429447889328,5.670464992523193,1.0473463535308838
0.2468157708644867,5.6913275718688965,1.051835298538208
0.20821385085582733,5.738856315612793,1.0611103773117065
0.16939036548137665,5.782363414764404,1.069140911102295
0.12971262633800507,5.814085483551025,1.0750442743301392
0.08912930637598038,5.814807415008545,1.0752685070037842
0.048995934426784515,5.8536553382873535,1.082595705986023
0.007545053958892822,5.857654571533203,1.0835351943969727
-0.05051564797759056,8.911117553710938,1.6487369537353516
-0.11116214096546173,8.806949615478516,1.629014492034912
-0.17133009433746338,8.752345085144043,1.6182821989059448
-0.22962363064289093,8.65509033203125,1.599752426147461
-0.28708767890930176,8.572805404663086,1.5840775966644287
-0.33270660042762756,8.202240943908691,1.5152262449264526
-0.16974462568759918,3.5723345279693604,0.6597989797592163
-0.19454257190227509,3.571150541305542,0.6593648791313171
-0.2187211662530899,3.562195301055908,0.6571813225746155
-0.5388264656066895,7.884220123291016,1.4534355401992798
-0.5875833630561829,7.7924418449401855,1.4354743957519531
-0.5461283326148987,6.628250598907471,1.2201964855194092
-0.5938918590545654,6.643694877624512,1.2222779989242554
-0.6239035129547119,6.471379280090332,1.1898897886276245
-0.6610221266746521,6.3946661949157715,1.1745473146438599
-0.7083971500396729,6.4131975173950195,1.1765294075012207
-0.7534801363945007,6.41619873046875,1.175736904144287
-0.7911165952682495,6.357851028442383,1.1637654304504395
-0.8278347849845886,6.295430660247803,1.1511162519454956
-0.8658331036567688,6.248031139373779,1.14128839969635
-0.9086993336677551,6.234616756439209,1.1374648809432983
-0.9590041637420654,6.278170585632324,1.1435505151748657
-1.0093421936035156,6.317535877227783,1.1488991975784302
-1.0596325397491455,6.352717399597168,1.1535162925720215
-1.1103577613830566,6.383630275726318,1.157368540763855
-1.1609487533569336,6.4103522300720215,1.1604945659637451
-1.2177314758300781,6.4630022048950195,1.1683170795440674
-1.2714699506759644,6.504293918609619,1.173344373703003
-1.3257790803909302,6.545176982879639,1.1782689094543457
-1.383073329925537,6.596924304962158,1.1851637363433838
-1.4334845542907715,6.610498428344727,1.185199499130249
-1.468597173690796,6.548327922821045,1.1716569662094116
-1.5073363780975342,6.508642196655273,1.1622651815414429
-1.5421159267425537,6.4577741622924805,1.150418996810913
-0.685019850730896,2.7847657203674316,0.4948100447654724
-0.7001880407333374,2.7654693126678467,0.490129679441452
-0.7214738726615906,2.768319845199585,0.48936641216278076
-0.7367345094680786,2.748720169067383,0.4846692383289337
-0.7620144486427307,2.766160011291504,0.48652148246765137
-1.7359514236450195,6.137791633605957,1.0764364004135132
-1.7774651050567627,6.126829624176025,1.0711208581924438
-1.8108097314834595,6.085849761962891,1.0605673789978027
-1.8401145935058594,6.033684253692627,1.048168420791626
-1.870798945426941,5.9848175048828125,1.0363662242889404
-1.9021252393722534,5.939455032348633,1.0252554416656494
-1.9308775663375854,5.890604019165039,1.013209581375122
-1.9616485834121704,5.848944664001465,1.0021411180496216
-1.994994878768921,5.818288326263428,0.993103563785553
-2.0248191356658936,5.776313781738281,0.9821506142616272
-2.0547852516174316,5.733981132507324,0.9711624979972839
-2.0828731060028076,5.687893867492676,0.9596320390701294
-2.1159439086914062,5.660289287567139,0.9507327675819397
-2.1408748626708984,5.6107330322265625,0.9380462765693665
-2.1757872104644775,5.590089797973633,0.9303432703018188
-2.2404043674468994,5.640473365783691,0.9343031048774719
-2.3017475605010986,5.679404258728027,0.9362883567810059
-2.352914810180664,5.6930108070373535,0.9338924884796143
-2.3767993450164795,5.642436981201172,0.9204593300819397
-2.4085750579833984,5.613346099853516,0.9107074737548828
-2.4794719219207764,5.672298908233643,0.9151317477226257
-3.945575714111328,8.858257293701172,1.4209259748458862
-2.5621750354766846,5.646450519561768,0.900505781173706
-2.582711935043335,5.591623783111572,0.8858866691589355
-2.5904226303100586,5.512551784515381,0.8676523566246033
-2.615964412689209,5.471786975860596,0.8555107712745667
-2.637500762939453,5.419790744781494,0.8414821028709412
-2.6893887519836426,5.4301300048828125,0.8371738195419312
-4.749277591705322,9.429708480834961,1.4424394369125366
-2.707580327987671,5.28939151763916,0.8027990460395813
-2.7576606273651123,5.299762725830078,0.7979332208633423
-2.78407883644104,5.261070251464844,0.7854533195495605
-2.8520548343658447,5.30083703994751,0.784603476524353
-1.1778473854064941,2.155487537384033,0.3160874843597412
-1.1772713661193848,2.121009588241577,0.30806493759155273
-2.5095314979553223,4.449633598327637,0.6398611664772034
-2.5602850914001465,4.466653347015381,0.6356934309005737
-6.013953685760498,10.331985473632812,1.4544768333435059
-6.082026958465576,10.295085906982422,1.432925820350647
-1.257256269454956,2.095815658569336,0.28823143243789673
-1.2397594451904297,2.0344913005828857,0.2763049304485321
-1.7395787239074707,2.812148332595825,0.3769659698009491
-1.7455394268035889,2.7818603515625,0.3678377568721771
-1.768272042274475,2.7775490283966064,0.3620660603046417
-1.7692872285842896,2.736294984817505,0.35113096237182617
-3.053422212600708,4.654561996459961,0.5877270102500916
-1.8634330034255981,2.8017868995666504,0.3478916585445404
-1.8477723598480225,2.7383792400360107,0.3339025676250458
-1.8584425449371338,2.7132740020751953,0.32449132204055786
-1.8695473670959473,2.692397117614746,0.3153316080570221
-1.8826936483383179,2.6746459007263184,0.30657052993774414
-1.8925999402999878,2.649528980255127,0.29647308588027954
-1.9052672386169434,2.631791591644287,0.28712064027786255
-1.9313616752624512,2.6329855918884277,0.2796633541584015
-1.9314936399459839,2.5951902866363525,0.2672891318798065
-2.4491708278656006,3.4576573371887207,-0.2057259976863861
-2.4243507385253906,3.4743120670318604,-0.21870464086532593
-2.86781644821167,4.1768975257873535,-0.2772235572338104
-2.2583746910095215,3.3406152725219727,-0.2325034737586975
-2.2382915019989014,3.3626654148101807,-0.24439741671085358
-2.225620746612549,3.3982088565826416,-0.2573566436767578
-2.178213119506836,3.3770511150360107,-0.2653530538082123
-2.157564640045166,3.398660182952881,-0.27660298347473145
-1.262773871421814,2.022737741470337,-0.17035935819149017
-1.2565687894821167,2.044398546218872,-0.17750397324562073
-2.100383996963501,3.4726719856262207,-0.31044885516166687
-2.098278760910034,3.527500629425049,-0.3243452310562134
-2.1142921447753906,3.6120638847351074,-0.3408864140510559
-1.204237937927246,2.0914840698242188,-0.2024446278810501
-1.1925586462020874,2.106553077697754,-0.2088516354560852
-2.581590414047241,4.637139797210693,-0.47036638855934143
-2.5524957180023193,4.660858154296875,-0.48311084508895874
-2.5295603275299072,4.698611259460449,-0.49727028608322144
-2.5016238689422607,4.729841232299805,-0.5109860301017761
-2.4751780033111572,4.760001182556152,-0.524138331413269
-2.4501092433929443,4.793500900268555,-0.5376805067062378
-2.4254510402679443,4.8308258056640625,-0.5515884757041931
-2.3937220573425293,4.853969097137451,-0.5638995170593262
-2.372361898422241,4.897663593292236,-0.5785797238349915
-2.3473241329193115,4.934201240539551,-0.5922640562057495
-2.3262009620666504,4.981444358825684,-0.6072280406951904
-2.2968027591705322,5.010796070098877,-0.6200299263000488
-2.267723560333252,5.039694786071777,-0.6326982378959656
-2.1923866271972656,4.965713024139404,-0.6321765780448914
-1.9973095655441284,4.705157279968262,-0.6153497099876404
-0.9984365701675415,2.3983054161071777,-0.3176896572113037
-0.9622312784194946,2.3580825328826904,-0.31622564792633057
-0.9552932381629944,2.3895184993743896,-0.3242766559123993
-0.9463948607444763,2.417396068572998,-0.3319680690765381
-0.9349163174629211,2.4378247261047363,-0.3385895788669586
-0.9325447678565979,2.483656406402588,-0.34873533248901367
-0.8866971731185913,2.413306951522827,-0.3424268364906311
-0.8616321682929993,2.3970813751220703,-0.34365221858024597
-0.8598533272743225,2.446378231048584,-0.35433968901634216
-0.8475664258003235,2.466413736343384,-0.36074501276016235
-0.8348641395568848,2.4864611625671387,-0.367061972618103
-0.8171145915985107,2.491732597351074,-0.37123265862464905
-0.8019704222679138,2.5041561126708984,-0.37644362449645996
-0.7921051979064941,2.5350327491760254,-0.3845175802707672
-0.7785930037498474,2.5547895431518555,-0.3906736969947815
-0.767019510269165,2.5818824768066406,-0.3980206251144409
-0.7488307952880859,2.586611032485962,-0.40193629264831543
-0.7484721541404724,2.6543960571289062,-0.41574135422706604
-0.7378236055374146,2.688836097717285,-0.42419248819351196
-0.7183951139450073,2.693490505218506,-0.42799440026283264
-0.7100688219070435,2.738994836807251,-0.4382796585559845
-0.6786011457443237,2.6946496963500977,-0.43418753147125244
-0.6669772863388062,2.728771924972534,-0.44256070256233215
-0.6539366841316223,2.759139060974121,-0.45021873712539673
-0.6375876069068909,2.7782294750213623,-0.45614567399024963
-0.6181490421295166,2.7820611000061035,-0.45953547954559326
-0.6002954840660095,2.7933011054992676,-0.46413862705230713
-0.5869078040122986,2.8271491527557373,-0.47218945622444153
-0.5639666318893433,2.8155837059020996,-0.4726942181587219
-0.5453574061393738,2.8265819549560547,-0.4770341217517853
-0.8752750158309937,4.7125701904296875,-0.799436628818512
-0.8381578326225281,4.695065021514893,-0.8000912070274353
-0.7947782874107361,4.63935661315918,-0.7939796447753906
-0.7460554242134094,4.54527473449707,-0.7812156677246094
-0.7053987979888916,4.496479511260986,-0.7762103080749512
-0.6585866212844849,4.397815704345703,-0.7622908353805542
-0.6240021586418152,4.375066757202148,-0.7609406113624573
-0.5824980139732361,4.298659801483154,-0.7502341270446777
-0.546639084815979,4.25624942779541,-0.7454102039337158
-0.5091142654418945,4.194456100463867,-0.7371572256088257
-0.4723481833934784,4.1363348960876465,-0.7290058732032776
-0.4389788806438446,4.097030162811279,-0.7239461541175842
-0.4080648422241211,4.0766119956970215,-0.7222312092781067
-0.3824794888496399,4.109583854675293,-0.7300119996070862
-0.2796127498149872,3.2495603561401367,-0.5786455273628235
-0.25438445806503296,3.224390983581543,-0.5751901268959045
-0.23376446962356567,3.252708911895752,-0.5812876224517822
-0.21266646683216095,3.2770450115203857,-0.5867106914520264
-0.19166043400764465,3.3089182376861572,-0.5935307145118713
-0.16983772814273834,3.333054304122925,-0.5985351800918579
-0.14709258079528809,3.3532416820526123,-0.6027442216873169
-0.1317259669303894,3.569199323654175,-0.6422038078308105
-0.11552099138498306,3.8580899238586426,-0.6949109435081482
-0.08726198226213455,3.797187328338623,-0.6844938397407532
-0.06147896125912666,3.8361120223999023,-0.6915788054466248
-0.033781785517930984,3.7787609100341797,-0.6813417673110962
-0.007550741080194712,3.7980973720550537,-0.6849626302719116
0.018680376932024956,3.763432502746582,-0.6788769960403442
0.04552987962961197,3.820936679840088,-0.6889147758483887
0.07165733724832535,3.7975594997406006,-0.6842398047447205
0.09782914072275162,3.789376735687256,-0.682339608669281
0.12322906404733658,3.74641752243042,-0.6742088198661804
0.15126042068004608,3.7955338954925537,-0.6825095415115356
0.18122945725917816,3.8714165687561035,-0.6951234936714172
0.2091325968503952,3.8894784450531006,-0.6973649263381958
0.24085402488708496,3.9649105072021484,-0.7098999619483948
0.26890531182289124,3.963331460952759,-0.7086457014083862
0.3013349771499634,4.026876926422119,-0.718523383140564
0.3299490809440613,4.032700538635254,-0.7179303765296936
0.35661688446998596,4.015332221984863,-0.71324622631073
0.3874938189983368,4.043734073638916,-0.7167191505432129
0.4161287844181061,4.041274070739746,-0.7145388126373291
0.44546252489089966,4.050227165222168,-0.7139082551002502
0.47807103395462036,4.085721969604492,-0.7179636359214783
0.5102787613868713,4.113322734832764,-0.7206273078918457
0.5494309663772583,4.190284729003906,-0.7319129705429077
0.5901544690132141,4.266947269439697,-0.7425219416618347
0.6220095157623291,4.278591156005859,-0.7416617274284363
0.6337746977806091,4.156764984130859,-0.7177666425704956
0.7428288459777832,4.654831409454346,-0.8006893992424011
0.7790138125419617,4.67303466796875,-0.8005672693252563
0.8075178265571594,4.6455183029174805,-0.7921025156974792
0.8485745191574097,4.685977935791016,-0.7951856255531311
0.8855220675468445,4.703449249267578,-0.7944021224975586
0.9235297441482544,4.7244110107421875,-0.7942036390304565
0.9594431519508362,4.733857154846191,-0.7915173172950745
0.9851661324501038,4.6940155029296875,-0.780509352684021
1.0167986154556274,4.680274486541748,-0.7738264203071594
1.0478492975234985,4.666399002075195,-0.767231285572052
1.076898217201233,4.644855976104736,-0.7592103481292725
1.1091480255126953,4.638228893280029,-0.7532699108123779
1.130274772644043,4.5864057540893555,-0.7400726079940796
1.1562892198562622,4.55301570892334,-0.7298390865325928
0.9577518105506897,3.6642379760742188,-0.583554744720459
0.9831929802894592,3.658313274383545,-0.5783935189247131
1.0106685161590576,3.659651279449463,-0.5743713974952698
1.0256708860397339,3.6161537170410156,-0.5633562207221985
1.0579229593276978,3.631824254989624,-0.5615165829658508
1.0832313299179077,3.625196933746338,-0.5560639500617981
1.1038234233856201,3.6036698818206787,-0.5482014417648315
1.128879427909851,3.596750259399414,-0.5425913333892822
1.1470054388046265,3.5674960613250732,-0.5336270332336426
1.1748011112213135,3.567451000213623,-0.5289117693901062
1.192084550857544,3.53810715675354,-0.519710123538971
1.2165790796279907,3.530628204345703,-0.5137754082679749
1.241340160369873,3.5228705406188965,-0.5077625513076782
1.2686994075775146,3.5222065448760986,-0.5027817487716675
1.2876989841461182,3.4997007846832275,-0.4944237768650055
1.3082233667373657,3.4805705547332764,-0.48649677634239197
1.3297990560531616,3.4649710655212402,-0.4791416525840759
1.3541450500488281,3.4564061164855957,-0.4727720320224762
1.3694734573364258,3.4262216091156006,-0.4633021056652069
1.415030598640442,3.4714229106903076,-0.4639367461204529
1.7254961729049683,4.149625301361084,-0.5478276610374451
1.7607136964797974,4.152732849121094,-0.5415389537811279
1.7895153760910034,4.141483306884766,-0.5332121849060059
1.8148562908172607,4.12304162979126,-0.523895263671875
1.8402822017669678,4.10432243347168,-0.5145280361175537
1.8696783781051636,4.092104911804199,-0.5057861804962158
1.8980404138565063,4.080094814300537,-0.49710023403167725
1.9193061590194702,4.054013252258301,-0.4866703152656555
1.9508001804351807,4.048632621765137,-0.47865933179855347
1.9724836349487305,4.021867752075195,-0.46803998947143555
1.9955193996429443,3.9985251426696777,-0.4576551914215088
2.012260675430298,3.9650216102600098,-0.4462507367134094
2.046902894973755,3.9657821655273438,-0.43861132860183716
2.0675547122955322,3.9385199546813965,-0.42779070138931274
2.09442400932312,3.925304889678955,-0.41844555735588074
2.109872817993164,3.8914828300476074,-0.4069403111934662
2.13008975982666,3.863708019256592,-0.39573946595191956
2.124901294708252,3.791888475418091,-0.38026413321495056
2.15055513381958,3.778348922729492,-0.37069472670555115
2.18019437789917,3.7712578773498535,-0.3617006540298462
2.1909584999084473,3.729879140853882,-0.3492054343223572
2.21290922164917,3.708763599395752,-0.33852702379226685
2.253873586654663,3.7213850021362305,-0.33101484179496765
2.267522096633911,3.6865789890289307,-0.31893816590309143
2.289135217666626,3.6649041175842285,-0.3079468309879303
2.3260610103607178,3.6701550483703613,-0.29918617010116577
2.338886260986328,3.63508939743042,-0.2867591977119446
2.355902671813965,3.606323003768921,-0.27480876445770264
2.4055092334747314,3.6305034160614014,-0.266823410987854
2.408184051513672,3.5826456546783447,-0.2533162534236908
2.442154884338379,3.5792856216430664,-0.24256867170333862
2.4703829288482666,3.5701358318328857,-0.2312021255493164
2.4809951782226562,3.534968614578247,-0.21800757944583893
2.510115623474121,3.5246880054473877,-0.20588384568691254
2.560274600982666,3.547050952911377,-0.19556018710136414
2.2295327186584473,3.045128107070923,-0.15718062222003937
2.175243616104126,2.930554151535034,-0.14065289497375488
2.7714240550994873,3.893381357192993,0.4132794439792633
2.7615180015563965,3.937091588973999,0.4290902018547058
2.7483575344085693,3.982715129852295,0.4450126588344574
2.704599380493164,3.982957363128662,0.4555034935474396
2.689192771911621,4.020120620727539,0.469463974237442
2.6411213874816895,4.013323783874512,0.47801893949508667
2.6094706058502197,4.0325798988342285,0.4896441698074341
2.5932681560516357,4.069403171539307,0.5025730729103088
2.5733542442321777,4.10366678237915,0.5150930881500244
2.537447690963745,4.11553430557251,0.5246308445930481
2.5111634731292725,4.139448642730713,0.5353292226791382
2.4772918224334717,4.149514198303223,0.5441160798072815
2.4577486515045166,4.186915397644043,0.5560880303382874
2.433472156524658,4.217757701873779,0.5671929121017456
2.402923583984375,4.234044551849365,0.576022207736969
2.369072437286377,4.243014812469482,0.5837466716766357
2.2695276737213135,4.137378215789795,0.5753002762794495
2.241759777069092,4.160164833068848,0.5843877196311951
2.227789878845215,4.206076145172119,0.5965614318847656
2.1909005641937256,4.206855773925781,0.6022204756736755
2.1707935333251953,4.242327690124512,0.6126452684402466
2.134880542755127,4.250768184661865,0.6190837025642395
2.106667995452881,4.272401809692383,0.6273409128189087
2.0832793712615967,4.300059795379639,0.6362745761871338
2.0629279613494873,4.33457612991333,0.6462940573692322
2.024186849594116,4.334733486175537,0.6507997512817383
1.9951335191726685,4.355710983276367,0.6584189534187317
1.9723341464996338,4.390552997589111,0.6681831479072571
2.0069103240966797,4.552048206329346,0.6972033977508545
1.9593583345413208,4.529621601104736,0.6981673836708069
1.96961510181427,4.64629602432251,0.7201719880104065
1.9100345373153687,4.599062442779541,0.7168465256690979
1.8789743185043335,4.619243144989014,0.7240164875984192
1.8536468744277954,4.649370193481445,0.7326114773750305
1.8265366554260254,4.675771713256836,0.7406876683235168
1.7840551137924194,4.666480541229248,0.7426263093948364
1.347861647605896,3.6039252281188965,0.5761563181877136
1.3396885395050049,3.6639368534088135,0.5884661674499512
1.315261960029602,3.6762373447418213,0.5930378437042236
1.2779730558395386,3.651923656463623,0.5917116403579712
1.6490799188613892,4.82204532623291,0.7844300270080566
1.6237499713897705,4.8624348640441895,0.7939228415489197
1.5781497955322266,4.844174385070801,0.7939339280128479
1.5355291366577148,4.828760147094727,0.7942976951599121
1.5142265558242798,4.87919807434082,0.805505096912384
1.486750602722168,4.911079406738281,0.813721776008606
1.476332187652588,5.006117820739746,0.831928014755249
1.433756709098816,4.993721961975098,0.8323276042938232
