X,Y,Z
-1.465691089630127,2.2194952964782715,-0.0449562706053257
-1.4656120538711548,2.256862163543701,-0.04713493585586548
-1.4555203914642334,2.277268648147583,-0.04890445992350578
-1.4331451654434204,2.2775518894195557,-0.05019114911556244
-1.426308035850525,2.304802656173706,-0.052076127380132675
-1.4096217155456543,2.3150124549865723,-0.05354156717658043
-1.4051908254623413,2.3450310230255127,-0.05544910207390785
-1.3957271575927734,2.3687922954559326,-0.057182472199201584
-1.3823037147521973,2.385647773742676,-0.058746855705976486
-1.379150629043579,2.4189577102661133,-0.06068292632699013
-1.3481535911560059,2.4050445556640625,-0.061422113329172134
-1.3300226926803589,2.415083408355713,-0.0627797320485115
-1.3203749656677246,2.438117265701294,-0.06441692262887955
-1.3087109327316284,2.4576454162597656,-0.06595586240291595
-1.297896385192871,2.4809820652008057,-0.06758739799261093
-1.2904638051986694,2.5111942291259766,-0.06941919028759003
-1.2796870470046997,2.5341796875,-0.07103876024484634
-1.2842254638671875,2.5886425971984863,-0.07353376597166061
-1.2567791938781738,2.5803439617156982,-0.07423809170722961
-1.2735207080841064,2.6632823944091797,-0.0775814801454544
-1.2250510454177856,2.6084375381469727,-0.07688771188259125
-1.2032420635223389,2.609938383102417,-0.07781009376049042
-1.196792721748352,2.647188663482666,-0.07979924231767654
-1.1808935403823853,2.6628308296203613,-0.08112937957048416
-1.1856968402862549,2.7246603965759277,-0.08386260271072388
-1.1664698123931885,2.7329137325286865,-0.08495000749826431
-1.1617909669876099,2.7772462368011475,-0.08714287728071213
-1.147283673286438,2.800122022628784,-0.08869659900665283
-1.1336015462875366,2.822493314743042,-0.09020297229290009
-1.1210728883743286,2.848450183868408,-0.0918327122926712
-1.125870943069458,2.9219703674316406,-0.09496612101793289
-1.0910730361938477,2.8934171199798584,-0.09479531645774841
-1.0905511379241943,2.956084966659546,-0.09762205183506012
-1.0778950452804565,2.9856083393096924,-0.09935606271028519
-1.0644755363464355,3.0152406692504883,-0.10106882452964783
-1.0530098676681519,3.0522916316986084,-0.10302300751209259
-1.0286734104156494,3.0523078441619873,-0.10373520106077194
-1.0179904699325562,3.0928688049316406,-0.10583095252513885
-1.0059605836868286,3.1295933723449707,-0.10779750347137451
-0.9812608957290649,3.1292126178741455,-0.10842926800251007
-0.9657239317893982,3.1585144996643066,-0.1100989356637001
-0.9512247443199158,3.1914074420928955,-0.1119009479880333
-0.9377201199531555,3.2279069423675537,-0.11383707076311111
-0.9210411906242371,3.257024049758911,-0.11550557613372803
-0.9040905237197876,3.2860419750213623,-0.117111437022686
-0.8706321716308594,3.254640579223633,-0.1165672093629837
-0.6464248895645142,2.486088275909424,-0.0894765853881836
-0.63101726770401,2.4980757236480713,-0.09034587442874908
-0.6093956232070923,2.4873433113098145,-0.09037265926599503
-0.5881301164627075,2.4763906002044678,-0.09035760909318924
-0.5653005242347717,2.457653522491455,-0.09005716443061829
-0.5481322407722473,2.4615204334259033,-0.0905798003077507
-0.5359333753585815,2.4881505966186523,-0.09194661676883698
-0.5244992971420288,2.5224738121032715,-0.09356775879859924
-0.5051592588424683,2.5184385776519775,-0.09373955428600311
-0.4858802556991577,2.514260768890381,-0.0939091295003891
-0.681765079498291,3.6650681495666504,-0.13736647367477417
-0.6630595922470093,3.7081353664398193,-0.1394651234149933
-0.6424801349639893,3.7473831176757812,-0.14136989414691925
-0.6210901737213135,3.7826168537139893,-0.1430889070034027
-0.6010507345199585,3.829301595687866,-0.14525584876537323
-0.5766451358795166,3.848820686340332,-0.14640092849731445
-0.5586835741996765,3.914546489715576,-0.1493178755044937
-0.5365569591522217,3.9609553813934326,-0.15145649015903473
-0.5137224793434143,4.003321647644043,-0.15339981019496918
-0.49075308442115784,4.049438953399658,-0.15550148487091064
-0.4677874743938446,4.099287033081055,-0.15775929391384125
-0.44301486015319824,4.13735294342041,-0.15957686305046082
-0.4195875823497772,4.1947021484375,-0.16208788752555847
-0.3936447203159332,4.240326404571533,-0.16408173739910126
-0.36390796303749084,4.242968559265137,-0.1644190102815628
-0.33430740237236023,4.24539041519165,-0.16475453972816467
-0.3053264021873474,4.255386829376221,-0.16539184749126434
-0.32364675402641296,4.997474193572998,-0.19449545443058014
-0.29148557782173157,5.058091640472412,-0.19702275097370148
-0.25434866547584534,5.0249104499816895,-0.19590407609939575
-0.2186315357685089,5.010953903198242,-0.19554217159748077
-0.1832577884197235,4.996738910675049,-0.19517779350280762
-0.14808720350265503,4.98227596282959,-0.19480052590370178
-0.11260001361370087,4.975392818450928,-0.1945667713880539
-0.07766874134540558,4.956539630889893,-0.1938735693693161
-0.04313007742166519,4.9569573402404785,-0.19394345581531525
-0.008607392199337482,4.941522121429443,-0.19340217113494873
0.025698380544781685,4.925846576690674,-0.1928604692220688
0.06025952100753784,4.902126312255859,-0.19188545644283295
0.09405619651079178,4.88598108291626,-0.19119438529014587
0.12773345410823822,4.873505592346191,-0.19065649807453156
0.16063882410526276,4.841292381286621,-0.1893559992313385
0.19368420541286469,4.824460506439209,-0.1886666715145111
0.22680111229419708,4.815208435058594,-0.1881801038980484
0.2599015533924103,4.797909736633301,-0.18732242286205292
0.29220473766326904,4.780417442321777,-0.18647049367427826
0.32409927248954773,4.7588090896606445,-0.18546773493289948
0.35541531443595886,4.733097076416016,-0.18431539833545685
0.38763928413391113,4.722745895385742,-0.18371063470840454
0.42157185077667236,4.727691173553467,-0.18361465632915497
0.45200592279434204,4.701366424560547,-0.18231911957263947
0.48218074440956116,4.674838066101074,-0.181026428937912
0.514188826084137,4.667514324188232,-0.180487260222435
0.5447434186935425,4.648343086242676,-0.17946867644786835
0.5782305002212524,4.65218448638916,-0.17921960353851318
0.6051995754241943,4.609407424926758,-0.1771918535232544
0.6369959712028503,4.605141639709473,-0.1766556352376938
0.6690509915351868,4.60061502456665,-0.17611455917358398
0.6975290775299072,4.572713851928711,-0.1746838092803955
0.728312075138092,4.560032367706299,-0.17370200157165527
0.7577853202819824,4.543381214141846,-0.17258751392364502
0.7864351272583008,4.5226874351501465,-0.17132988572120667
0.8136841654777527,4.494090557098389,-0.16978147625923157
0.7091439366340637,3.7671453952789307,-0.14193439483642578
0.7349853515625,3.762214183807373,-0.1412653774023056
0.7658441662788391,3.7799806594848633,-0.14143583178520203
0.9272150993347168,4.420324325561523,-0.16482983529567719
0.9587956666946411,4.417606830596924,-0.16416142880916595
0.9911991357803345,4.41848087310791,-0.16363373398780823
1.021501064300537,4.4116082191467285,-0.1627100110054016
1.0522226095199585,4.404417037963867,-0.1617535799741745
1.0776983499526978,4.378188610076904,-0.16012050211429596
1.1061919927597046,4.363056659698486,-0.15889489650726318
1.1364985704421997,4.355294704437256,-0.15794657170772552
1.160199522972107,4.324832916259766,-0.15607231855392456
1.1922507286071777,4.324245452880859,-0.1552608162164688
1.2239115238189697,4.323545455932617,-0.1544613540172577
1.2452707290649414,4.284965991973877,-0.15230584144592285
1.2683770656585693,4.2537841796875,-0.15042901039123535
1.3041473627090454,4.267495632171631,-0.15003126859664917
1.328989028930664,4.24350643157959,-0.14829868078231812
1.3627861738204956,4.249217510223389,-0.14762069284915924
1.385068416595459,4.217400550842285,-0.14563170075416565
1.4142309427261353,4.207753658294678,-0.14439760148525238
1.440203070640564,4.190723896026611,-0.14283835887908936
1.4711849689483643,4.18826961517334,-0.1417825073003769
1.496509313583374,4.166889667510986,-0.14006257057189941
1.5227521657943726,4.149099826812744,-0.13848133385181427
1.5456434488296509,4.123998165130615,-0.13661257922649384
1.5678586959838867,4.098933696746826,-0.13471661508083344
1.6068397760391235,4.117404937744141,-0.13425388932228088
1.627231478691101,4.084229469299316,-0.1320612132549286
1.6496930122375488,4.058401107788086,-0.1301400363445282
1.6858774423599243,4.068922996520996,-0.12930624186992645
1.7162328958511353,4.064739227294922,-0.12800131738185883
1.9770257472991943,4.594551086425781,-0.1433374285697937
2.036128282546997,4.641303062438965,-0.1433863490819931
2.067652463912964,4.6274027824401855,-0.14151792228221893
2.1018073558807373,4.620628356933594,-0.13983693718910217
2.1279611587524414,4.595793724060059,-0.13760721683502197
2.1599011421203613,4.580928325653076,-0.13563638925552368
2.193530559539795,4.56931209564209,-0.13371272385120392
2.22739839553833,4.56165075302124,-0.13188353180885315
2.2543134689331055,4.539750099182129,-0.12964853644371033
2.2840869426727295,4.520528793334961,-0.12743116915225983
2.316880702972412,4.5082597732543945,-0.12539926171302795
2.3575966358184814,4.513612747192383,-0.12379677593708038
1.7671986818313599,3.328404664993286,-0.08997105807065964
1.747635841369629,3.2370426654815674,-0.08617452532052994
1.7621978521347046,3.2113752365112305,-0.08415593951940536
1.747216820716858,3.1349129676818848,-0.08081783354282379
1.7603753805160522,3.109647035598755,-0.07882261276245117
1.8524537086486816,3.219015598297119,-0.08011075854301453
1.3301085233688354,2.2759628295898438,-0.0555865503847599
0.9544499516487122,1.608891487121582,-0.03853622451424599
0.9633206129074097,1.5990606546401978,-0.03751677647233009
0.9763796329498291,1.5957233905792236,-0.036630693823099136
0.9848559498786926,1.5859328508377075,-0.03556888550519943
0.9973481893539429,1.5827466249465942,-0.03466169908642769
1.016743779182434,1.5889588594436646,-0.033905334770679474
1.0186372995376587,1.5691744089126587,-0.03258276730775833
1.028739333152771,1.562591552734375,-0.03153971582651138
1.0397531986236572,1.5553075075149536,-0.030397437512874603
1.0586926937103271,1.5614114999771118,-0.029520485550165176
1.0686746835708618,1.5546177625656128,-0.028387393802404404
2.567898750305176,3.680542230606079,-0.0646054595708847
2.595998764038086,3.6703991889953613,-0.061789680272340775
2.6248281002044678,3.6595065593719482,-0.058822546154260635
2.6357409954071045,3.62276291847229,-0.05532023310661316
2.6582136154174805,3.6063530445098877,-0.05214112624526024
2.6071174144744873,3.6813132762908936,0.08046761900186539
2.582940101623535,3.7077624797821045,0.0841444879770279
1.0718238353729248,1.5617624521255493,0.03661084920167923
1.059815526008606,1.56990385055542,0.03796271234750748
1.0437430143356323,1.571235179901123,0.03909078985452652
1.0242531299591064,1.5653438568115234,0.03995198383927345
1.025078296661377,1.5927108526229858,0.041655879467725754
1.0007596015930176,1.580405831336975,0.04230082035064697
0.9936278462409973,1.5940800905227661,0.043599922209978104
0.9816428422927856,1.6014583110809326,0.04469168186187744
0.9696351885795593,1.6087266206741333,0.04577375575900078
0.9544122219085693,1.6087009906768799,0.046587519347667694
1.3619121313095093,2.333956718444824,0.06874462217092514
1.8394877910614014,3.2080016136169434,0.09607329964637756
1.783890962600708,3.1631956100463867,0.09619680047035217
1.7503864765167236,3.155036211013794,0.097367063164711
1.7736539840698242,3.2535922527313232,0.10182791948318481
1.7494652271270752,3.2666049003601074,0.10365434736013412
2.3937597274780273,4.546930313110352,0.14616654813289642
2.3438165187835693,4.528878211975098,0.14739668369293213
2.317615270614624,4.5597944259643555,0.15015257894992828
2.273616313934326,4.555647850036621,0.1517609804868698
2.2418105602264404,4.571310043334961,0.15394079685211182
2.2125678062438965,4.594130039215088,0.15637925267219543
2.1822738647460938,4.617164134979248,0.15871761739253998
2.1484761238098145,4.632915019989014,0.16081646084785461
2.112575054168701,4.640746593475342,0.16258931159973145
2.083397626876831,4.662402629852295,0.16483810544013977
2.049614429473877,4.677284240722656,0.16675861179828644
1.9887475967407227,4.63127326965332,0.16650839149951935
1.725319266319275,4.098384857177734,0.14853869378566742
1.6936992406845093,4.103048801422119,0.14986953139305115
1.6675227880477905,4.122123718261719,0.15169267356395721
1.6404776573181152,4.141304969787598,0.15347282588481903
1.6098655462265015,4.153243541717529,0.15501441061496735
1.580726146697998,4.164366245269775,0.15647776424884796
1.5544381141662598,4.182525634765625,0.158207505941391
1.52720308303833,4.200803279876709,0.15987277030944824
1.4942970275878906,4.204283237457275,0.16095620393753052
1.4635097980499268,4.215045928955078,0.16234005987644196
1.4341734647750854,4.225067138671875,0.16365543007850647
1.4121060371398926,4.257126331329346,0.16583843529224396
1.3792017698287964,4.259646415710449,0.16677390038967133
1.3533047437667847,4.284274578094482,0.1685740202665329
1.3198119401931763,4.286494255065918,0.16951407492160797
1.2944655418395996,4.310474872589111,0.17128704488277435
1.266655683517456,4.326816558837891,0.17276906967163086
1.2379074096679688,4.343203544616699,0.1741511970758438
1.2079106569290161,4.355649471282959,0.1753733903169632
1.1767829656600952,4.364119529724121,0.17644505202770233
1.1458348035812378,4.3723039627075195,0.17750851809978485
1.1211683750152588,4.402822017669678,0.17947791516780853
1.0918503999710083,4.418186664581299,0.18074287474155426
1.0603827238082886,4.425806522369385,0.18166951835155487
1.0323500633239746,4.448419570922852,0.18322373926639557
1.0007109642028809,4.455605506896973,0.18415230512619019
0.9696875810623169,4.4624223709106445,0.18506138026714325
0.9383298754692078,4.469086170196533,0.18590903282165527
0.7686885595321655,3.794692277908325,0.1582886427640915
0.741727352142334,3.8000264167785645,0.1589527577161789
0.7102263569831848,3.7821872234344482,0.1586558222770691
0.8219233155250549,4.55132532119751,0.1914539933204651
0.7928595542907715,4.572290897369385,0.19286608695983887
0.764376699924469,4.600852012634277,0.1944747120141983
0.7318107485771179,4.606117248535156,0.19511091709136963
0.7022271156311035,4.634378433227539,0.1967395693063736
0.668847382068634,4.631400108337402,0.19703984260559082
0.6386839747428894,4.651387691497803,0.19832804799079895
0.6075819134712219,4.667336463928223,0.19936183094978333
0.5747109055519104,4.671477317810059,0.19984301924705505
0.5436087250709534,4.69089412689209,0.20098866522312164
0.511847734451294,4.710147857666016,0.20214352011680603
0.47988152503967285,4.721336841583252,0.2029556781053543
0.44845837354660034,4.740085601806641,0.20409592986106873
0.41654109954833984,4.75865364074707,0.20509159564971924
0.3841191232204437,4.7731122970581055,0.20592109858989716
0.35118764638900757,4.791286468505859,0.20692628622055054
0.3188683092594147,4.809176445007324,0.20792531967163086
0.28631696105003357,4.826848030090332,0.2089264690876007
0.2535110414028168,4.844302654266357,0.2098563015460968
0.22109071910381317,4.87713623046875,0.2113700956106186
0.1864008605480194,4.8785786628723145,0.2115362584590912
0.15274280309677124,4.891454219818115,0.2122068703174591
0.11910589784383774,4.907997131347656,0.21304713189601898
0.0853814110159874,4.932111740112305,0.21422740817070007
0.05121055245399475,4.94819450378418,0.2149394303560257
0.016219815239310265,4.964042663574219,0.21561484038829803
-0.01837214268743992,4.9718403816223145,0.21595129370689392
-0.05311349034309387,4.983299732208252,0.21645723283290863
-0.08830943703651428,5.0140252113342285,0.21781067550182343
-0.123544842004776,5.028897285461426,0.2184697985649109
-0.1584405153989792,5.027925491333008,0.21831262111663818
-0.1942756325006485,5.034486293792725,0.21849101781845093
-0.2302737683057785,5.05641508102417,0.21934832632541656
-0.266840398311615,5.081980228424072,0.22037293016910553
-0.3040556013584137,5.111172199249268,0.22156448662281036
-0.2872144877910614,4.322360038757324,0.18725086748600006
-0.3144812285900116,4.277431488037109,0.18510586023330688
-0.34278035163879395,4.259608268737793,0.18414905667304993
-0.37501153349876404,4.288244724273682,0.1852084845304489
-0.401134729385376,4.246694087982178,0.18324518203735352
-0.425557941198349,4.193336486816406,0.18078449368476868
-0.4491153657436371,4.135941028594971,0.17804788053035736
-0.4726969301700592,4.090117931365967,0.17579767107963562
-0.4951932728290558,4.040294170379639,0.17338983714580536
-0.5196107029914856,4.009698390960693,0.17181947827339172
-0.5411030650138855,3.959609031677246,0.16942566633224487
-0.5629169940948486,3.913217782974243,0.16717615723609924
-0.5850547552108765,3.8784191608428955,0.16533273458480835
-0.602519154548645,3.8165104389190674,0.16234901547431946
-0.6261475086212158,3.796905755996704,0.1611790806055069
-0.6445321440696716,3.7463366985321045,0.1587040275335312
-0.6643465757369995,3.7072150707244873,0.15672819316387177
-0.6845401525497437,3.6718080043792725,0.1548452377319336
-0.7051442861557007,3.6440837383270264,0.1532595306634903
-0.7215979695320129,3.59710955619812,0.1508781909942627
-0.7368167042732239,3.5462260246276855,0.14834704995155334
-0.7524548172950745,3.499063730239868,0.14598418772220612
-0.7771278619766235,3.4936931133270264,0.14535801112651825
-0.7939712405204773,3.4579031467437744,0.14339877665042877
-0.8103625178337097,3.4220468997955322,0.1414516717195511
-0.8253762125968933,3.3823368549346924,0.13936053216457367
-0.8488541841506958,3.376549482345581,0.13867031037807465
-0.8629457950592041,3.332700490951538,0.13642045855522156
-0.8816659450531006,3.311674118041992,0.13504602015018463
-0.8990051746368408,3.2868120670318604,0.1334984004497528
-0.9170730710029602,3.265634059906006,0.1321127861738205
-0.9309821724891663,3.2292418479919434,0.13011538982391357
-0.949384868144989,3.207631826400757,0.12871497869491577
-0.9634683728218079,3.174919366836548,0.1268465518951416
-0.9779947996139526,3.145991325378418,0.1250947117805481
-0.992146372795105,3.117021322250366,0.1233561709523201
-1.0135350227355957,3.110166549682617,0.12249361723661423
-1.0256481170654297,3.0733237266540527,0.12044354528188705
-1.045498013496399,3.0625383853912354,0.11940598487854004
-1.0558345317840576,3.025970935821533,0.11731091141700745
-1.0709692239761353,3.0041120052337646,0.11580114811658859
-1.086138129234314,2.9820847511291504,0.11428754031658173
-1.0986369848251343,2.9525606632232666,0.11249030381441116
-1.115074872970581,2.9339044094085693,0.1110818088054657
-1.1149646043777466,2.8754422664642334,0.10814748704433441
-1.1256071329116821,2.8461568355560303,0.10633362829685211
-1.1406610012054443,2.8275699615478516,0.10491856932640076
-1.1543524265289307,2.8051669597625732,0.10336122661828995
-1.152623176574707,2.746736764907837,0.10045507550239563
-1.1709333658218384,2.7390193939208984,0.09940413385629654
-1.1424552202224731,2.6237850189208984,0.09448490291833878
-1.1684844493865967,2.633704900741577,0.09407661110162735
-1.202871322631836,2.661120891571045,0.09427694976329803
-1.2013955116271973,2.610339879989624,0.09164433181285858
-1.2320003509521484,2.630606174468994,0.09151727706193924
-1.2429922819137573,2.608179807662964,0.08989410102367401
-1.2747771739959717,2.6275947093963623,0.08968394994735718
-1.2927190065383911,2.6188549995422363,0.08848432451486588
-1.2963570356369019,2.582193374633789,0.08630070835351944
-1.2868226766586304,2.521415948867798,0.0833611935377121
-1.3150650262832642,2.533268928527832,0.08279619365930557
-1.3069626092910767,2.475849151611328,0.07997368276119232
-1.315808892250061,2.4534904956817627,0.07826688885688782
-1.3262860774993896,2.434551477432251,0.07668223232030869
-1.3395005464553833,2.418424129486084,0.07513250410556793
-1.348537802696228,2.39552903175354,0.07338520139455795
-1.3602970838546753,2.3799211978912354,0.07183043658733368
-1.3719096183776855,2.3642611503601074,0.07028333842754364
-1.4000979661941528,2.3749589920043945,0.06945620477199554
-1.4205498695373535,2.371933937072754,0.06818138062953949
-1.4156206846237183,2.3293416500091553,0.06578914076089859
-1.4309461116790771,2.3199994564056396,0.06433619558811188
-1.442919135093689,2.3034026622772217,0.06262160837650299
-1.445470929145813,2.274127960205078,0.06054499000310898
-1.4455076456069946,2.2416861057281494,0.05837598443031311
-1.4737319946289062,2.2513341903686523,0.05723961070179939
-1.4845281839370728,2.234900951385498,0.05540377274155617
-1.4595344066619873,2.167085647583008,0.052322953939437866
-1.4917360544204712,2.1830360889434814,0.051212623715400696
-1.5020750761032104,2.1664786338806152,0.049251556396484375
-1.4909298419952393,2.121906280517578,0.04669792205095291
-1.496229887008667,2.099057197570801,0.044532354921102524
-1.5007637739181519,2.076612710952759,0.042342983186244965
-1.5138282775878906,2.0671472549438477,0.04040442407131195
-1.51871657371521,2.044168710708618,0.0380316898226738
-1.4951494932174683,2.10943603515625,-0.04335970804095268
-1.4994895458221436,2.149308681488037,-0.046215593814849854
-1.497328519821167,2.179259777069092,-0.04877429082989693
-1.4846909046173096,2.197272539138794,-0.05112321674823761
-1.4907513856887817,2.2401833534240723,-0.05390837416052818
-1.4699616432189941,2.244499921798706,-0.05575528368353844
-1.453046441078186,2.255437135696411,-0.05775018408894539
-1.441485047340393,2.2720510959625244,-0.05977197363972664
-1.4306309223175049,2.2926721572875977,-0.06192788481712341
-1.4216924905776978,2.3165225982666016,-0.06415046751499176
-1.4136148691177368,2.339681386947632,-0.06627199798822403
-1.4005682468414307,2.3565540313720703,-0.06822056323289871
-1.390929102897644,2.3803136348724365,-0.07037703692913055
-1.377700924873352,2.3969552516937256,-0.0722915306687355
-1.3702220916748047,2.423642158508301,-0.07447583228349686
-1.3428170680999756,2.416569471359253,-0.07560308277606964
-1.3290632963180542,2.4330127239227295,-0.07743650674819946
-1.3212944269180298,2.4593751430511475,-0.0795569121837616
-1.306746006011963,2.4759178161621094,-0.08136839419603348
-1.2957487106323242,2.4992449283599854,-0.08338858932256699
-1.299336552619934,2.55003023147583,-0.0863104984164238
-1.2902584075927734,2.5764362812042236,-0.08841772377490997
-1.285244345664978,2.6137423515319824,-0.09087495505809784
-1.2726136445999146,2.6372132301330566,-0.09289658814668655
-1.2341063022613525,2.6036455631256104,-0.09283147007226944
-1.2125853300094604,2.6050775051116943,-0.09398604184389114
-1.209898829460144,2.649256467819214,-0.0966656431555748
-1.1906934976577759,2.6578924655914307,-0.09806682914495468
-1.1485024690628052,2.612499237060547,-0.09742219001054764
-1.1655027866363525,2.7029783725738525,-0.10186919569969177
-1.1657377481460571,2.758009910583496,-0.1049555167555809
-1.157790184020996,2.795138359069824,-0.10739263147115707
-1.140964150428772,2.8104262351989746,-0.10898871719837189
-1.1241939067840576,2.8255298137664795,-0.11057739704847336
-1.124815583229065,2.888162136077881,-0.1140163466334343
-1.1095185279846191,2.910738945007324,-0.1158728078007698
-1.099686622619629,2.947770357131958,-0.11831248551607132
-1.0831787586212158,2.9662959575653076,-0.1200060248374939
-1.0727916955947876,3.0031988620758057,-0.12242955714464188
-1.048344373703003,3.00350284576416,-0.12334098666906357
-1.0482503175735474,3.0736799240112305,-0.12712961435317993
-1.0291997194290161,3.088291645050049,-0.12862657010555267
-1.0124871730804443,3.110184669494629,-0.13043640553951263
-0.9950299859046936,3.1321518421173096,-0.13218048214912415
-0.9699470400810242,3.131791353225708,-0.13299120962619781
-0.9612592458724976,3.1833786964416504,-0.13600464165210724
-0.9467505812644958,3.2161667346954346,-0.1382264643907547
-0.9263706207275391,3.230170488357544,-0.13963334262371063
-0.9138486385345459,3.2742297649383545,-0.14227789640426636
-0.8864320516586304,3.265540599822998,-0.1426425576210022
-0.6380853652954102,2.4189071655273438,-0.10621629655361176
-0.6396765112876892,2.4950780868530273,-0.11012130975723267
-0.6221818327903748,2.49946665763855,-0.11083986610174179
-0.5971790552139282,2.473421573638916,-0.11015981435775757
-0.5645530223846436,2.4129557609558105,-0.10793448239564896
-0.5525382161140442,2.4397199153900146,-0.10961133986711502
-0.5430365800857544,2.4777913093566895,-0.11180290579795837
-0.530464231967926,2.504425048828125,-0.11344346404075623
-0.5111767649650574,2.500441074371338,-0.11366976797580719
-0.4995177686214447,2.5345969200134277,-0.11563940346240997
-0.691754937171936,3.646047830581665,-0.16695649921894073
-0.6720049381256104,3.6814403533935547,-0.16918548941612244
-0.6536142826080322,3.7283027172088623,-0.17187583446502686
-0.6312830448150635,3.7558603286743164,-0.17364487051963806
-0.6122815608978271,3.8064072132110596,-0.17649529874324799
-0.5893998742103577,3.8376214504241943,-0.1784725934267044
-0.5705757737159729,3.8956525325775146,-0.18170708417892456
-0.5481376647949219,3.9343042373657227,-0.18396365642547607
-0.5245314240455627,3.9689841270446777,-0.18599362671375275
-0.5023999810218811,4.019011497497559,-0.18876011669635773
-0.4794231653213501,4.065012454986572,-0.19135181605815887
-0.45581990480422974,4.114811420440674,-0.19414803385734558
-0.43237870931625366,4.1683173179626465,-0.19704072177410126
-0.40807783603668213,4.221710205078125,-0.199871227145195
-0.3806129992008209,4.2477593421936035,-0.20142237842082977
-0.35031136870384216,4.242514610290527,-0.20149976015090942
-0.3190583288669586,4.229306221008301,-0.20121213793754578
-0.2922135591506958,4.270338535308838,-0.203433558344841
-0.3108443319797516,5.0628509521484375,-0.24139441549777985
-0.2734793722629547,5.0298237800598145,-0.2400364875793457
-0.23691202700138092,5.000414848327637,-0.2388591766357422
-0.20121803879737854,4.994153022766113,-0.23880085349082947
-0.16648581624031067,4.995419025421143,-0.23905672132968903
-0.13101080060005188,4.973050594329834,-0.23805466294288635
-0.09597640484571457,4.954331874847412,-0.23723816871643066
-0.06145118921995163,4.9548749923706055,-0.23735523223876953
-0.026347186416387558,4.939572811126709,-0.23672600090503693
0.007913021370768547,4.924025058746338,-0.23607410490512848
0.04194382578134537,4.9082489013671875,-0.2352442592382431
0.07575609534978867,4.892239093780518,-0.2344149351119995
0.10947979986667633,4.87989616394043,-0.2337729036808014
0.1430528610944748,4.863417148590088,-0.23294413089752197
0.1766858994960785,4.8388895988464355,-0.2317410409450531
0.20966847240924835,4.821963310241699,-0.23072870075702667
0.24202372133731842,4.797019958496094,-0.22932970523834229
0.2744465470314026,4.779655456542969,-0.2283059060573578
0.30764272809028625,4.777646541595459,-0.22802729904651642
0.3394360840320587,4.748124599456787,-0.22644470632076263
0.3704615533351898,4.722342014312744,-0.2249215692281723
0.4030575156211853,4.719692707061768,-0.22446855902671814
0.4349591135978699,4.709044456481934,-0.22364592552185059
0.4668591320514679,4.6981682777404785,-0.22282303869724274
0.4971931576728821,4.667610168457031,-0.22107401490211487
0.5294736623764038,4.6640849113464355,-0.2205057293176651
0.5588290095329285,4.637109279632568,-0.21876072883605957
0.5907988548278809,4.633175373077393,-0.21811549365520477
0.6198245286941528,4.605789661407471,-0.21637603640556335
0.6524372100830078,4.601314544677734,-0.2157166302204132
0.6819986701011658,4.58128023147583,-0.21426710486412048
0.7135524153709412,4.576509952545166,-0.2134522646665573
0.7425620555877686,4.556116580963135,-0.2119208425283432
0.772138774394989,4.539361000061035,-0.21056923270225525
0.799635112285614,4.510859966278076,-0.20868435502052307
0.8285420536994934,4.489809989929199,-0.2070837765932083
0.7212516069412231,3.76354718208313,-0.17299021780490875
0.7485824823379517,3.7662014961242676,-0.17252229154109955
0.8092427849769592,3.9291470050811768,-0.17937324941158295
0.9423917531967163,4.419610023498535,-0.20107664167881012
0.976850152015686,4.42815637588501,-0.20071271061897278
1.0071790218353271,4.421408653259277,-0.19957178831100464
1.0329970121383667,4.3954572677612305,-0.19757701456546783
1.0614885091781616,4.380683898925781,-0.19609291851520538
1.0947015285491943,4.384622573852539,-0.19545099139213562
1.1205788850784302,4.35798978805542,-0.19338002800941467
1.1462619304656982,4.335217475891113,-0.19142504036426544
1.175816297531128,4.3273515701293945,-0.19013933837413788
1.2057162523269653,4.3191728591918945,-0.18883617222309113
1.2272088527679443,4.280701637268066,-0.1862162947654724
1.257190227508545,4.2720537185668945,-0.1848171055316925
1.286319375038147,4.263435363769531,-0.18338048458099365
1.3107781410217285,4.239702224731445,-0.18130597472190857
1.3472455739974976,4.252889156341553,-0.18079924583435059
1.3671998977661133,4.21376371383667,-0.17807537317276
1.3964496850967407,4.204227447509766,-0.17649731040000916
1.4249945878982544,4.194705009460449,-0.17491665482521057
1.4522610902786255,4.181277275085449,-0.1731795221567154
1.4786733388900757,4.163793087005615,-0.17126215994358063
1.504833698272705,4.146172523498535,-0.16933999955654144
1.530097246170044,4.128661155700684,-0.1673276275396347
1.558437705039978,4.118117332458496,-0.16558526456356049
1.583859920501709,4.100108623504639,-0.1635543406009674
1.606658697128296,4.07451868057251,-0.16121654212474823
1.6403409242630005,4.0779829025268555,-0.15997855365276337
1.6648577451705933,4.0596699714660645,-0.15784473717212677
1.6927030086517334,4.048212051391602,-0.15596190094947815
1.7330526113510132,4.065148830413818,-0.15515264868736267
2.008497476577759,4.622438430786133,-0.1747421771287918
2.0536744594573975,4.641079425811768,-0.1736554652452469
2.081550121307373,4.620167255401611,-0.17108690738677979
2.112208843231201,4.602025508880615,-0.1685553640127182
2.144167900085449,4.58730936050415,-0.16617059707641602
2.176600217819214,4.57642126083374,-0.16384612023830414
2.2105581760406494,4.5688796043396,-0.16163013875484467
2.2382218837738037,4.546778202056885,-0.1588677018880844
2.2686409950256348,4.527400970458984,-0.15613536536693573
2.299020767211914,4.512139320373535,-0.15352772176265717
2.3290061950683594,4.496824264526367,-0.15090425312519073
2.368645429611206,4.498237609863281,-0.14879409968852997
1.7436968088150024,3.2563164234161377,-0.10610981285572052
1.75420343875885,3.224087715148926,-0.1034192442893982
1.7361891269683838,3.1405105590820312,-0.09909561276435852
1.7499548196792603,3.1150217056274414,-0.09662947803735733
1.7888762950897217,3.1334311962127686,-0.09549097716808319
1.3452882766723633,2.321002721786499,-0.06942900270223618
1.3149306774139404,2.234769582748413,-0.06558795273303986
0.9639801383018494,1.6121057271957397,-0.04632437974214554
0.964693546295166,1.5889133214950562,-0.04468418285250664
0.9791470170021057,1.5892609357833862,-0.04370396211743355
0.9898806810379028,1.5826307535171509,-0.04249357804656029
1.0028398036956787,1.57911217212677,-0.041336994618177414
1.030138373374939,1.5987704992294312,-0.040737345814704895
1.0172117948532104,1.5559786558151245,-0.038547225296497345
1.034475564956665,1.558669090270996,-0.037450361996889114
1.0488181114196777,1.5585103034973145,-0.03625733032822609
1.0480451583862305,1.535475730895996,-0.03451072797179222
2.5513198375701904,3.682258367538452,-0.07961157709360123
2.5970711708068848,3.698038339614868,-0.07679937779903412
2.6217119693756104,3.68068528175354,-0.07310709357261658
2.6370890140533447,3.6505026817321777,-0.06902366876602173
2.61611008644104,3.574071168899536,-0.06413731724023819
2.675781011581421,3.6029388904571533,-0.06078435853123665
2.6199119091033936,3.671844482421875,0.09605817496776581
2.5984301567077637,3.7012875080108643,0.10059709846973419
2.57686448097229,3.7257261276245117,0.10468052327632904
1.0697691440582275,1.5723950862884521,0.045597147196531296
1.0495765209197998,1.567134141921997,0.04677335172891617
1.038300633430481,1.5745826959609985,0.04825597628951073
1.0260488986968994,1.5825470685958862,0.049761366099119186
1.014668583869934,1.5898234844207764,0.05115290731191635
0.9949831366539001,1.583757996559143,0.05206722766160965
0.9871175289154053,1.5978147983551025,0.053621865808963776
0.9714469313621521,1.5982155799865723,0.054679788649082184
0.9600584506988525,1.6050392389297485,0.05593296140432358
0.9915668964385986,1.6861768960952759,0.059781987220048904
1.348325490951538,2.3323073387145996,0.0840868279337883
1.8069474697113037,3.1764097213745117,0.11629268527030945
1.7593210935592651,3.144922971725464,0.11685016751289368
1.7562015056610107,3.1956756114959717,0.12045777589082718
1.760880708694458,3.2597343921661377,0.12454698979854584
2.4139468669891357,4.5440449714660645,0.17585936188697815
2.3664638996124268,4.533642292022705,0.17761178314685822
2.3294260501861572,4.543900966644287,0.1801331639289856
2.296173572540283,4.560684680938721,0.18290098011493683
2.2643585205078125,4.57645845413208,0.1855396330356598
2.227834701538086,4.585565567016602,0.18783758580684662
2.2008516788482666,4.615776062011719,0.19097697734832764
2.16090989112854,4.617271423339844,0.19290487468242645
2.131967306137085,4.639197826385498,0.19562992453575134
2.09515643119812,4.647274017333984,0.19775216281414032
2.067542552947998,4.676601409912109,0.2006859928369522
2.030298948287964,4.684283256530762,0.20270420610904694
1.7455806732177734,4.105570316314697,0.17907825112342834
1.707914113998413,4.095935821533203,0.18007028102874756
1.6835596561431885,4.1227922439575195,0.18258197605609894
1.6535638570785522,4.134832859039307,0.18442870676517487
1.6268796920776367,4.153707504272461,0.18656806647777557
1.5979079008102417,4.164858341217041,0.18834178149700165
1.571247935295105,4.183249473571777,0.19041185081005096
1.540492296218872,4.1945953369140625,0.19210749864578247
1.5075241327285767,4.198187828063965,0.19343678653240204
1.4753084182739258,4.201270580291748,0.1947205513715744
1.4460572004318237,4.2113542556762695,0.19632096588611603
1.423710823059082,4.243593692779541,0.19889365136623383
1.397533655166626,4.268643856048584,0.20108897984027863
1.3692257404327393,4.285932540893555,0.20291703939437866
1.3391075134277344,4.2953691482543945,0.204362690448761
1.3114248514175415,4.311991214752197,0.20615427196025848
1.2809841632843018,4.321066379547119,0.2075263261795044
1.2521768808364868,4.3375630378723145,0.20919577777385712
1.2216260433197021,4.350255012512207,0.2107096016407013
1.19302237033844,4.366214275360107,0.21236515045166016
1.166579246520996,4.389442443847656,0.21438008546829224
1.1357617378234863,4.397457122802734,0.2156107872724533
1.1043610572814941,4.405392646789551,0.21674329042434692
1.0760527849197388,4.428398609161377,0.21864387392997742
1.0465131998062134,4.4434332847595215,0.22014613449573517
1.0155794620513916,4.450550556182861,0.22125603258609772
0.9862524271011353,4.465078353881836,0.22273875772953033
0.9545839428901672,4.471908092498779,0.2236846536397934
0.7861323356628418,3.817540407180786,0.19148783385753632
0.7537035346031189,3.7961947917938232,0.1909477710723877
0.7280235290527344,3.805135726928711,0.19192653894424438
0.8343700170516968,4.531407833099365,0.22919821739196777
0.8079137206077576,4.5678558349609375,0.23159731924533844
0.7763459086418152,4.58120059967041,0.23279111087322235
0.7477061152458191,4.609637260437012,0.23475795984268188
0.7153423428535461,4.614730358123779,0.23554660379886627
0.6854960918426514,4.634993553161621,0.2371184378862381
0.654265820980072,4.647345066070557,0.23827628791332245
0.6214219927787781,4.655755519866943,0.2390773445367813
0.5905076265335083,4.67547607421875,0.24046668410301208
0.5584688186645508,4.6872382164001465,0.24145999550819397
0.5275782942771912,4.706487655639648,0.24284790456295013
0.4956780672073364,4.717769145965576,0.24383780360221863
0.4642085134983063,4.736623287200928,0.24513845145702362
0.4310903251171112,4.747564315795898,0.24596218764781952
0.3991039991378784,4.765997886657715,0.24718289077281952
0.3666294813156128,4.780322074890137,0.24820376932621002
0.33443522453308105,4.79830265045166,0.24942660331726074
0.3015202283859253,4.808279037475586,0.25024688243865967
0.2686089873313904,4.8336591720581055,0.2517158091068268
0.23628737032413483,4.866580009460449,0.2535645365715027
0.20270848274230957,4.879795074462891,0.2544001340866089
0.1690165102481842,4.88887357711792,0.25503215193748474
0.135256826877594,4.897716999053955,0.2556646168231964
0.10062327980995178,4.898540496826172,0.2558562159538269
0.06726139038801193,4.953729152679443,0.2587337791919708
0.03287788853049278,4.969679355621338,0.25957444310188293
-0.0017203821334987879,4.973687648773193,0.2598039507865906
-0.03645837679505348,4.989156723022461,0.2606448531150818
-0.07189936935901642,4.996573448181152,0.26107874512672424
-0.10698628425598145,5.011556148529053,0.26182806491851807
-0.14264459908008575,5.041897296905518,0.2632867991924286
-0.17740553617477417,5.032995700836182,0.26270824670791626
-0.21237866580486298,5.031650066375732,0.2625369429588318
-0.24901548027992249,5.065130710601807,0.26419490575790405
-0.28881093859672546,5.133356094360352,0.26767486333847046
-0.321394681930542,5.084532260894775,0.26491203904151917
-0.3011275827884674,4.292247295379639,0.223415806889534
-0.3284034729003906,4.258963108062744,0.22147847712039948
-0.3605048954486847,4.287701606750488,0.2227768748998642
-0.3894103765487671,4.269521236419678,0.2216435968875885
-0.4133257269859314,4.20849609375,0.21829785406589508
-0.43658947944641113,4.15125846862793,0.2150089591741562
-0.46042928099632263,4.105527877807617,0.21233323216438293
-0.48500367999076843,4.071293830871582,0.21026797592639923
-0.5083770155906677,4.025215148925781,0.20759917795658112
-0.5291458368301392,3.96746826171875,0.2043498158454895
-0.5522697567939758,3.932828903198242,0.20224705338478088
-0.5730201601982117,3.8865182399749756,0.19945694506168365
-0.5937934517860413,3.843959093093872,0.1968766748905182
-0.6138661503791809,3.7973711490631104,0.19410067796707153
-0.6350812315940857,3.7622628211975098,0.19193100929260254
-0.6639510989189148,3.7731521129608154,0.1921187937259674
-0.6751229763031006,3.687944173812866,0.18731899559497833
-0.6959893703460693,3.6602749824523926,0.18542808294296265
-0.7142436504364014,3.6210100650787354,0.18296599388122559
-0.7256067991256714,3.5471343994140625,0.17876502871513367
-0.7461778521537781,3.5229620933532715,0.17709486186504364
-0.7655100226402283,3.4948880672454834,0.17521409690380096
-0.7875697612762451,3.482024669647217,0.17400798201560974
-0.8023967742919922,3.4386260509490967,0.1712913066148758
-0.8198544979095459,3.406461238861084,0.16914214193820953
-0.8378438353538513,3.378007411956787,0.1671932488679886
-0.8593401312828064,3.3645899295806885,0.16600143909454346
-0.8723481297492981,3.3209588527679443,0.16324183344841003
-0.8907843828201294,3.2999427318573,0.16158409416675568
-0.9104094505310059,3.282482147216797,0.16010211408138275
-0.924521803855896,3.2461352348327637,0.1577136218547821
-0.9405126571655273,3.217198371887207,0.15569861233234406
-0.954733669757843,3.1845476627349854,0.1534726768732071
-0.9670798778533936,3.148226737976074,0.15102766454219818
-0.984053373336792,3.1266517639160156,0.14929422736167908
-1.0030865669250488,3.1124472618103027,0.14792746305465698
-1.022275447845459,3.0980286598205566,0.14655108749866486
-1.0386478900909424,3.0761570930480957,0.144806906580925
-1.0504508018493652,3.0433149337768555,0.14248144626617432
-1.0605599880218506,3.0067734718322754,0.14000339806079865
-1.0734621286392212,2.9773647785186768,0.13785472512245178
-1.0914552211761475,2.9625511169433594,0.13639426231384277
-1.0940271615982056,2.907508611679077,0.13308389484882355
-1.1163560152053833,2.9074254035949707,0.13223427534103394
-1.1358616352081299,2.899914026260376,0.13105171918869019
-1.1327673196792603,2.8340373039245605,0.1272278130054474
-1.1450486183166504,2.8080875873565674,0.12522423267364502
-1.1612874269485474,2.793013095855713,0.12368779629468918
-1.1585649251937866,2.7349517345428467,0.12021168321371078
-1.141224980354309,2.6447880268096924,0.11537279933691025
-1.1486536264419556,2.611804246902466,0.11302971094846725
-1.1907951831817627,2.65720796585083,0.11407466977834702
-1.1958130598068237,2.6207237243652344,0.11155766993761063
-1.20503568649292,2.5950489044189453,0.10949724912643433
-1.2406901121139526,2.6258175373077393,0.10981321334838867
-1.2592085599899292,2.617046356201172,0.1084098294377327
-1.2617923021316528,2.576796770095825,0.10572652518749237
-1.2944226264953613,2.5999252796173096,0.10558213293552399
-1.2815786600112915,2.5321755409240723,0.10176348686218262
-1.2917343378067017,2.5095183849334717,0.09975267946720123
-1.298362135887146,2.4797446727752686,0.09745685756206512
-1.3114664554595947,2.464057207107544,0.09566638618707657
-1.32398521900177,2.4485385417938232,0.09390312433242798
-1.3348779678344727,2.4293200969696045,0.09198136627674103
-1.3403072357177734,2.3995916843414307,0.08964869379997253
-1.3561816215515137,2.390714645385742,0.08806300163269043
-1.3798154592514038,2.395252227783203,0.08693218231201172
-1.3880897760391235,2.3724498748779297,0.08478903770446777
-1.4045695066452026,2.362790822982788,0.08308804780244827
-1.4118887186050415,2.3402631282806396,0.08090220391750336
-1.435202717781067,2.3444297313690186,0.07963912934064865
-1.426855444908142,2.294585704803467,0.07645022869110107
-1.4424101114273071,2.284900188446045,0.07462427020072937
-1.4507828950881958,2.2657546997070312,0.07247665524482727
-1.4317867755889893,2.2037196159362793,0.0689532607793808
-1.4772181510925293,2.239379405975342,0.06841930747032166
-1.4874002933502197,2.223299741744995,0.0662127360701561
-1.4974534511566162,2.2071683406829834,0.06401468068361282
-1.4773554801940918,2.145282506942749,0.06041917949914932
-1.4842534065246582,2.1263020038604736,0.058054421097040176
-1.4935053586959839,2.1103100776672363,0.05573446676135063
-1.5036073923110962,2.0935757160186768,0.05323609337210655
-1.5119655132293701,2.0779521465301514,0.05079551041126251
-1.5119231939315796,2.0489916801452637,0.04789511486887932
-1.4939830303192139,2.0909676551818848,-0.04874208942055702
-1.4822430610656738,2.108795166015625,-0.05164289474487305
-1.4762728214263916,2.1319453716278076,-0.05447082594037056
-1.4931426048278809,2.191359519958496,-0.058276474475860596
-1.4856270551681519,2.2152276039123535,-0.06112243980169296
-1.4698996543884277,2.22562837600708,-0.06348758190870285
-1.4612599611282349,2.2498891353607178,-0.06628986448049545
-1.4513733386993408,2.2701284885406494,-0.06886052340269089
-1.4350800514221191,2.280395269393921,-0.07107888162136078
-1.42205810546875,2.2976579666137695,-0.07350565493106842
-1.413713812828064,2.321040630340576,-0.07606180012226105
-1.4050229787826538,2.3444690704345703,-0.07861889898777008
-1.3994849920272827,2.374941110610962,-0.08139719814062119
-1.3940465450286865,2.4051826000213623,-0.08415460586547852
-1.3617901802062988,2.3876290321350098,-0.08517849445343018
-1.3442466259002686,2.39747953414917,-0.08713430911302567
-1.3337723016738892,2.4210946559906006,-0.08963069319725037
-1.324273705482483,2.444009780883789,-0.09201172739267349
-1.3122971057891846,2.4636685848236084,-0.09427574276924133
-1.3013889789581299,2.487013816833496,-0.09667874872684479
-1.3119964599609375,2.5518038272857666,-0.10070915520191193
-1.2991820573806763,2.571406364440918,-0.10297366231679916
-1.2841277122497559,2.587603807449341,-0.10505369305610657
-1.2789463996887207,2.624878406524658,-0.10799681395292282
-1.2669774293899536,2.647923231124878,-0.11035129427909851
-1.2218947410583496,2.6001081466674805,-0.10971010476350784
-1.222733974456787,2.651313304901123,-0.11319125443696976
-1.1934468746185303,2.6388697624206543,-0.1139821857213974
-1.1652109622955322,2.6257870197296143,-0.11467616260051727
-1.1656112670898438,2.676703691482544,-0.11815758049488068
-1.1556200981140137,2.706444263458252,-0.12069164216518402
-1.1646991968154907,2.7830440998077393,-0.12534409761428833
-1.1475173234939575,2.798537492752075,-0.12728706002235413
-1.1338447332382202,2.8208656311035156,-0.1295100599527359
-1.118151068687439,2.839639186859131,-0.13154344260692596
-1.117417573928833,2.898491144180298,-0.1354256570339203
-1.0911434888839722,2.8917341232299805,-0.13626134395599365
-1.0908632278442383,2.9542484283447266,-0.14037522673606873
-1.0754358768463135,2.9764304161071777,-0.14257006347179413
-1.067062258720398,3.0207908153533936,-0.14577330648899078
-1.0504674911499023,3.0430490970611572,-0.14793580770492554
-1.0377651453018188,3.0761754512786865,-0.15062791109085083
-1.0183939933776855,3.090789318084717,-0.1524401158094406
-0.996512234210968,3.097846508026123,-0.15379215776920319
-0.9907434582710266,3.156930446624756,-0.1577158123254776
-0.9739837646484375,3.1824817657470703,-0.15999102592468262
-0.9540345668792725,3.19659686088562,-0.16168665885925293
-0.9360925555229187,3.2180869579315186,-0.1637645661830902
-0.9191598296165466,3.247236490249634,-0.16615770757198334
-0.647433876991272,2.350886344909668,-0.12094316631555557
-0.6621301174163818,2.4721732139587402,-0.12786529958248138
-0.6429424285888672,2.469123363494873,-0.12838400900363922
-0.6275327801704407,2.4810879230499268,-0.1296582967042923
-0.6040439009666443,2.462773323059082,-0.12929725646972656
-0.5865781903266907,2.466948986053467,-0.13010752201080322
-0.5622660517692566,2.4405453205108643,-0.12929785251617432
-0.5444215536117554,2.440549612045288,-0.1298810988664627
-0.5445484519004822,2.52435040473938,-0.13489174842834473
-0.520038902759552,2.4976067543029785,-0.133966863155365
-0.5008277893066406,2.4935357570648193,-0.1342492550611496
-0.6999199986457825,3.6151905059814453,-0.19536174833774567
-0.68260657787323,3.6621017456054688,-0.19863581657409668
-0.6651601791381836,3.7128238677978516,-0.20205098390579224
-0.6431459188461304,3.7443599700927734,-0.20439739525318146
-0.6205748915672302,3.7718393802642822,-0.20652949810028076
-0.5991267561912537,3.806849956512451,-0.2090868353843689
-0.5801857709884644,3.8610177040100098,-0.21271856129169464
-0.5608668923377991,3.918999195098877,-0.21646781265735626
-0.5354875326156616,3.942189931869507,-0.21825779974460602
-0.5137796401977539,3.9922330379486084,-0.22154501080513
-0.4897257685661316,4.026649475097656,-0.22398200631141663
-0.4674367308616638,4.080297470092773,-0.22751034796237946
-0.4451580345630646,4.141599178314209,-0.2313704788684845
-0.4207916557788849,4.191155433654785,-0.2345229983329773
-0.39413905143737793,4.228969097137451,-0.23704475164413452
-0.36534425616264343,4.239352703094482,-0.23803505301475525
-0.33461466431617737,4.226208209991455,-0.23771457374095917
-0.30741384625434875,4.2595319747924805,-0.23991119861602783
-0.3296104073524475,5.05938196182251,-0.2852526605129242
-0.292070209980011,5.0343170166015625,-0.2841479778289795
-0.25541961193084717,5.005044460296631,-0.28280991315841675
-0.2198774814605713,4.991093158721924,-0.28234827518463135
-0.18508176505565643,4.99248743057251,-0.28265413641929626
-0.14952658116817474,4.970258712768555,-0.28149664402008057
-0.11443202942609787,4.978982925415039,-0.2821076810359955
-0.07932847738265991,4.952353477478027,-0.2807266414165497
-0.044866353273391724,4.94497537612915,-0.2804492115974426
-0.01042789313942194,4.9217634201049805,-0.2792084217071533
0.02369045652449131,4.906121253967285,-0.2782497704029083
0.05824769288301468,4.890235900878906,-0.2772901654243469
0.09200011193752289,4.8780198097229,-0.27655351161956787
0.12548497319221497,4.8616719245910645,-0.2755962014198303
