X,Y,Z
-1.430557370185852,2.300389289855957,0.10438748449087143
-1.4423593282699585,2.283888578414917,0.10167232900857925
-1.4530627727508545,2.2679340839385986,0.09896054118871689
-1.46759033203125,2.258665084838867,0.09654221683740616
-1.47236168384552,2.23232102394104,0.09326683729887009
-1.4875737428665161,2.222323417663574,0.09060269594192505
-1.5017062425613403,2.212904214859009,0.0879756510257721
-1.498960018157959,2.1770570278167725,0.08418610692024231
-1.4800387620925903,2.119016647338867,0.07953181862831116
-1.493369460105896,2.1097469329833984,0.07673792541027069
-1.503373622894287,2.0931320190429688,0.0734492689371109
-1.5077455043792725,2.07080078125,0.06995201855897903
-1.5114835500717163,2.0487983226776123,0.0664493516087532
-1.4982956647872925,2.0971436500549316,-0.06185898557305336
-1.4913572072982788,2.1210999488830566,-0.06579229980707169
-1.5001881122589111,2.1672041416168213,-0.07033748179674149
-1.493220567703247,2.190829038619995,-0.07408048957586288
-1.4851324558258057,2.215033531188965,-0.07787925750017166
-1.469580054283142,2.2252724170684814,-0.0809609517455101
-1.4613535404205322,2.2492148876190186,-0.08458302170038223
-1.4508708715438843,2.269787073135376,-0.08802991360425949
-1.4287139177322388,2.2698583602905273,-0.09052597731351852
-1.4262441396713257,2.3034987449645996,-0.09435705095529556
-1.4091002941131592,2.313906669616699,-0.09723891317844391
-1.404682993888855,2.3438217639923096,-0.10085757821798325
-1.3954946994781494,2.3673276901245117,-0.10417992621660233
-1.3818156719207764,2.3842432498931885,-0.10723239183425903
-1.3785682916641235,2.4175069332122803,-0.11093233525753021
-1.3479540348052979,2.4033122062683105,-0.1124257743358612
-1.3299332857131958,2.413208246231079,-0.1150357648730278
-1.3255603313446045,2.446608543395996,-0.11870920658111572
-1.3121027946472168,2.4625792503356934,-0.12151025235652924
-1.3230704069137573,2.5272762775421143,-0.1267363727092743
-1.3045053482055664,2.5367825031280518,-0.129238098859787
-1.298647165298462,2.5703017711639404,-0.13293926417827606
-1.2840750217437744,2.5862040519714355,-0.13569456338882446
-1.282366156578064,2.6304049491882324,-0.13991156220436096
-1.2463951110839844,2.604323387145996,-0.14039748907089233
-1.2215276956558228,2.5987231731414795,-0.14188984036445618
-1.2162489891052246,2.635488986968994,-0.1456887274980545
-1.1935304403305054,2.6371681690216064,-0.14754284918308258
-1.156989336013794,2.606398582458496,-0.1475246697664261
-1.1715149879455566,2.6893811225891113,-0.15390953421592712
-1.163330316543579,2.7225279808044434,-0.15749000012874603
-1.1647858619689941,2.7810845375061035,-0.16251780092716217
-1.1502920389175415,2.8038549423217773,-0.16553014516830444
-1.1335649490356445,2.8189456462860107,-0.16803333163261414
-1.118150234222412,2.8375513553619385,-0.17075501382350922
-1.1202032566070557,2.9036061763763428,-0.17627976834774017
-1.1020772457122803,2.9187490940093994,-0.1787576526403427
-1.0959985256195068,2.9666855335235596,-0.18327511847019196
-1.075329065322876,2.9741158485412598,-0.18527494370937347
-1.059389591217041,2.996259927749634,-0.18811936676502228
-1.0506978034973145,3.040485382080078,-0.19234749674797058
-1.0377824306488037,3.073618173599243,-0.1959071308374405
-1.0122861862182617,3.069672107696533,-0.19711703062057495
-0.9966884851455688,3.095139265060425,-0.2001660019159317
-0.9792499542236328,3.116936445236206,-0.20289918780326843
-0.9638345241546631,3.146095037460327,-0.20613771677017212
-0.9540157914161682,3.1937527656555176,-0.21060265600681305
-0.9382571578025818,3.2226696014404297,-0.21386097371578217
-0.9193010330200195,3.2442243099212646,-0.2165665626525879
-0.9044958353042603,3.2806332111358643,-0.22022318840026855
-0.884226381778717,3.298151731491089,-0.22263549268245697
-0.8671396970748901,3.326749563217163,-0.22579623758792877
-0.851564884185791,3.362834930419922,-0.22948889434337616
-0.8328902125358582,3.391491174697876,-0.2325504869222641
-0.8124701976776123,3.412367105484009,-0.23508334159851074
-0.7910636067390442,3.429290533065796,-0.23735769093036652
-0.7705967426300049,3.4498205184936523,-0.23988862335681915
-0.7579816579818726,3.508354425430298,-0.24503818154335022
-0.7399399876594543,3.5479462146759033,-0.24878095090389252
-0.7225634455680847,3.5911922454833984,-0.2527961730957031
-0.6974092721939087,3.5960683822631836,-0.25412505865097046
-0.6845347881317139,3.6658592224121094,-0.26006558537483215
-0.66437828540802,3.701153039932251,-0.2634991705417633
-0.6451342701911926,3.7479727268218994,-0.26769083738327026
-0.6225073337554932,3.7754106521606445,-0.2705132067203522
-0.6010334491729736,3.8103649616241455,-0.2738901972770691
-0.5785879492759705,3.8413379192352295,-0.2770054042339325
-0.559468686580658,3.8992085456848145,-0.28194862604141235
-0.5363227128982544,3.937782049179077,-0.28544098138809204
-0.5146664977073669,3.9877471923828125,-0.289775013923645
-0.49062302708625793,4.0221076011657715,-0.29299870133399963
-0.4683844745159149,4.075672149658203,-0.2976495325565338
-0.44404295086860657,4.117523670196533,-0.30130383372306824
-0.4218055307865143,4.186378002166748,-0.3068729639053345
-0.3958904445171356,4.231895446777344,-0.31077080965042114
-0.3650916814804077,4.218967437744141,-0.310381144285202
-0.33545541763305664,4.217463970184326,-0.31084370613098145
-0.3074188530445099,4.2390875816345215,-0.31284672021865845
-0.32823678851127625,5.010789394378662,-0.370199054479599
-0.29463160037994385,5.04795503616333,-0.3733741044998169
-0.2569611668586731,4.999261379241943,-0.370205283164978
-0.22149434685707092,4.985318183898926,-0.36962249875068665
-0.18621797859668732,4.971141338348389,-0.3688202202320099
-0.15159551799297333,4.972298622131348,-0.36906707286834717
-0.11585547775030136,4.95375919342041,-0.36787253618240356
-0.08131498843431473,4.946635723114014,-0.3675389885902405
-0.046909552067518234,4.947062969207764,-0.36778420209884644
-0.012429906986653805,4.92389440536499,-0.36608487367630005
0.02169783040881157,4.892703533172607,-0.36369219422340393
0.056304775178432465,4.8924336433410645,-0.3636152744293213
0.0898466482758522,4.864664554595947,-0.36151352524757385
0.12369804084300995,4.863927364349365,-0.3614382743835449
0.1564512550830841,4.831823348999023,-0.3588554859161377
0.1896994411945343,4.822864532470703,-0.3578852117061615
0.2224704623222351,4.805893421173096,-0.35633909702301025
0.25564485788345337,4.788668155670166,-0.3547881543636322
0.2873384654521942,4.759581089019775,-0.35238248109817505
0.3193134069442749,4.741966724395752,-0.35067230463027954
0.35104838013648987,4.724147796630859,-0.3488401174545288
0.38381415605545044,4.721649646759033,-0.3481576144695282
0.41576719284057617,4.70335054397583,-0.34632015228271484
0.4462089240550995,4.677130222320557,-0.3439279794692993
0.4777868688106537,4.666238784790039,-0.34251970052719116
0.5078806281089783,4.6435346603393555,-0.3401365280151367
0.5408359169960022,4.647727012634277,-0.33974146842956543
0.571774959564209,4.628391742706299,-0.3376278579235077
0.6019872426986694,4.608913421630859,-0.3355351984500885
0.6328275203704834,4.596996307373047,-0.33384770154953003
0.6634547114372253,4.584893703460693,-0.3320365250110626
0.691567063331604,4.557183265686035,-0.3291182219982147
0.7170498967170715,4.509942054748535,-0.32479605078697205
0.753532886505127,4.535681247711182,-0.32576262950897217
0.7822238802909851,4.5151047706604,-0.32325416803359985
0.8105381727218628,4.494378566741943,-0.32065412402153015
0.7036232352256775,3.753429889678955,-0.26686903834342957
0.7296521663665771,3.748546838760376,-0.2656049132347107
0.75770103931427,3.751020669937134,-0.26485541462898254
0.9231771230697632,4.413339138031006,-0.3103941082954407
0.9542866349220276,4.410826206207275,-0.3089284896850586
0.9896188378334045,4.427117824554443,-0.30878835916519165
1.0151482820510864,4.397461414337158,-0.3054392635822296
1.0462852716445923,4.3902812004089355,-0.3036499619483948
1.0754889249801636,4.379340648651123,-0.3014303743839264
1.1035603284835815,4.364448070526123,-0.29891708493232727
1.129587173461914,4.341813087463379,-0.2958917021751404
1.1557847261428833,4.318911552429199,-0.2928513288497925
1.1863231658935547,4.310762882232666,-0.2907935082912445
1.2136746644973755,4.295191764831543,-0.28805992007255554
1.2386969327926636,4.271958351135254,-0.2848348021507263
1.2702990770339966,4.270951271057129,-0.283098042011261
1.2954343557357788,4.247243404388428,-0.2798554003238678
1.322957992553711,4.230737686157227,-0.27700451016426086
1.3541488647460938,4.229206085205078,-0.2750394940376282
1.3768471479415894,4.201519966125488,-0.271393358707428
1.4071685075759888,4.19573450088501,-0.26914888620376587
1.4325799942016602,4.174921035766602,-0.2659459114074707
1.455975890159607,4.1504597663879395,-0.26240548491477966
1.4820570945739746,4.133103847503662,-0.2592504918575287
1.507551670074463,4.115734577178955,-0.25614413619041443
1.5361523628234863,4.105311870574951,-0.2534469664096832
1.567327618598938,4.102030277252197,-0.25116056203842163
1.5922144651412964,4.084238052368164,-0.24786697328090668
1.6174236536026,4.066102981567383,-0.24453258514404297
1.63961660861969,4.040546417236328,-0.2407681941986084
1.6707566976547241,4.0363874435424805,-0.23827247321605682
1.695103406906128,4.017935752868652,-0.23482753336429596
1.9732918739318848,4.590715408325195,-0.26557937264442444
2.03180193901062,4.637820720672607,-0.2654651403427124
2.0640621185302734,4.623761177062988,-0.2618224322795868
2.0955939292907715,4.609765529632568,-0.25810858607292175
2.1248955726623535,4.5922441482543945,-0.2541424632072449
2.152618646621704,4.570899486541748,-0.249961256980896
2.190032482147217,4.566292762756348,-0.24656368792057037
2.2127015590667725,4.533864974975586,-0.24168148636817932
2.2395615577697754,4.512158393859863,-0.23732778429985046
2.276930570602417,4.511117458343506,-0.23405055701732635
2.308295965194702,4.495362758636475,-0.2299003005027771
2.347989082336426,4.496994495391846,-0.2265840470790863
1.7618380784988403,3.3195395469665527,-0.16464979946613312
1.745263695716858,3.2356152534484863,-0.15794718265533447
1.764009952545166,3.2166900634765625,-0.15440160036087036
1.7419555187225342,3.1264662742614746,-0.14746835827827454
1.7702921628952026,3.128608465194702,-0.1449277102947235
1.8211182355880737,3.16717267036438,-0.14389844238758087
1.3409631252288818,2.295168876647949,-0.10222003608942032
0.957777738571167,1.614926815032959,-0.0704386979341507
0.9683822989463806,1.6086665391921997,-0.06867630034685135
0.9755061864852905,1.5952908992767334,-0.06652999669313431
0.9802278280258179,1.5787030458450317,-0.06422851979732513
0.9946862459182739,1.578944206237793,-0.06263735890388489
1.0075507164001465,1.5754791498184204,-0.06081928685307503
1.0267480611801147,1.581763744354248,-0.05932329595088959
1.0262272357940674,1.5588550567626953,-0.056726086884737015
1.03908371925354,1.5550886392593384,-0.05473421886563301
1.047446608543396,1.544826865196228,-0.05248649790883064
1.0639784336090088,1.5477954149246216,-0.05067440867424011
2.5621769428253174,3.6737618446350098,-0.11543811112642288
2.5956592559814453,3.6695027351379395,-0.11028226464986801
2.658010959625244,3.7067651748657227,-0.10618790984153748
2.658505916595459,3.6535861492156982,-0.09907392412424088
2.64905047416687,3.592898368835449,-0.09188470244407654
2.630047082901001,3.7153589725494385,0.15537165105342865
2.5830931663513184,3.7098965644836426,0.16057129204273224
1.0706943273544312,1.5614126920700073,0.0696597695350647
1.058933138847351,1.5693053007125854,0.07204233855009079
1.0425125360488892,1.5707920789718628,0.0740751400589943
1.0315309762954712,1.5779249668121338,0.07618734985589981
1.0198402404785156,1.5854032039642334,0.07829555124044418
1.0077588558197021,1.5930049419403076,0.08040166646242142
0.992214024066925,1.5934456586837769,0.0820419117808342
0.9765360951423645,1.5938565731048584,0.08360780775547028
0.9644624590873718,1.6010912656784058,0.08550284057855606
0.9568714499473572,1.614620327949524,0.08767528086900711
1.3426276445388794,2.3020167350769043,0.12699301540851593
1.8527597188949585,3.232783794403076,0.18107254803180695
1.7768357992172241,3.1545729637145996,0.17929892241954803
1.7547160387039185,3.1667516231536865,0.182429701089859
1.774959921836853,3.2578256130218506,0.19013942778110504
1.7580219507217407,3.28452205657959,0.1940890997648239
2.3885507583618164,4.543892860412598,0.27183082699775696
2.3496603965759277,4.546324729919434,0.2750557065010071
2.3172671794891357,4.562676906585693,0.27906492352485657
2.2870852947235107,4.5863566398620605,0.2834315598011017
2.249854564666748,4.595808029174805,0.2869311571121216
2.217176914215088,4.611423492431641,0.29072389006614685
2.1847023963928223,4.626662731170654,0.29442813992500305
2.153994083404541,4.649408340454102,0.29845553636550903
2.119842290878296,4.664848327636719,0.3020339608192444
2.0867748260498047,4.67950963973999,0.3054875135421753
2.0541300773620605,4.693708419799805,0.3088863492012024
1.9874874353408813,4.633130073547363,0.307233601808548
1.7300763130187988,4.115328311920166,0.2748812437057495
1.6972362995147705,4.120361328125,0.27719753980636597
1.6743090152740479,4.146372318267822,0.2808670401573181
1.6452845335006714,4.157791614532471,0.2835635244846344
1.6145159006118774,4.169659614562988,0.28614696860313416
1.5869677066802979,4.188385486602783,0.28918811678886414
1.5542504787445068,4.1921491622924805,0.29118606448173523
1.5223616361618042,4.195373058319092,0.2931084632873535
1.4954899549484253,4.213131904602051,0.2960229814052582
1.4696396589279175,4.238562107086182,0.2993466556072235
1.4389934539794922,4.248905181884766,0.301601380109787
1.4111815690994263,4.266275882720947,0.3043502867221832
1.3838114738464355,4.283267974853516,0.30706173181533813
1.3538408279418945,4.292680263519287,0.30921486020088196
1.3258479833602905,4.313495635986328,0.31204113364219666
1.2915160655975342,4.311553001403809,0.31321218609809875
1.2640293836593628,4.331727981567383,0.315997451543808
1.2379907369613647,4.3553056716918945,0.3190288841724396
1.2096459865570068,4.371207237243652,0.32151857018470764
1.1803982257843018,4.3871378898620605,0.32382091879844666
1.148411512374878,4.39548921585083,0.3255854547023773
1.1207417249679565,4.418576717376709,0.32844284176826477
1.0917812585830688,4.433720588684082,0.33070144057273865
1.0608958005905151,4.441085338592529,0.33239617943763733
1.0313270092010498,4.455926418304443,0.3345254063606262
1.0024369955062866,4.478372573852539,0.33715394139289856
0.9730204939842224,4.4967041015625,0.3394790291786194
0.9374116659164429,4.484255790710449,0.3394840359687805
0.7667478322982788,3.799405574798584,0.2884403169155121
0.741784930229187,3.812204360961914,0.2902166545391083
0.7293440699577332,3.897778272628784,0.2973741292953491
0.8223782181739807,4.573670387268066,0.3496967554092407
0.7913182973861694,4.586960315704346,0.35148730874061584
0.761883020401001,4.607642650604248,0.3538535237312317
0.7322436571121216,4.628129005432129,0.35622596740722656
0.6992204785346985,4.63314962387085,0.3573189079761505
0.6670669317245483,4.641750812530518,0.35854679346084595
0.6364073157310486,4.66170597076416,0.36067187786102295
0.6055932641029358,4.681446075439453,0.3628005087375641
0.5748630166053772,4.7009429931640625,0.36492589116096497
0.5430460572242737,4.712492942810059,0.3664543926715851
0.5102171897888184,4.723937511444092,0.36779552698135376
0.47974076867103577,4.754479885101318,0.37056511640548706
0.4462657570838928,4.757687568664551,0.3712253272533417
0.41435709595680237,4.776157855987549,0.3730930984020233
0.38235795497894287,4.794402122497559,0.37496230006217957
0.34841078519821167,4.796936511993408,0.37563058733940125
0.3163934648036957,4.822540760040283,0.37784305214881897
0.28398072719573975,4.847934722900391,0.38005372881889343
0.25042569637298584,4.857552528381348,0.381047785282135
0.2174191027879715,4.878602504730225,0.38295745849609375
0.18406854569911957,4.911120414733887,0.3857930600643158
0.15033435821533203,4.927825450897217,0.38736146688461304
0.11610891669988632,4.936533451080322,0.3880757987499237
0.08181982487440109,4.945002555847168,0.3887903094291687
0.04744204878807068,4.961021423339844,0.39011770486831665
0.012325442396104336,4.972907543182373,0.3911409378051758
-0.02227640710771084,4.980652809143066,0.3918563723564148
-0.057246096432209015,5.011528491973877,0.39432457089424133
-0.09263072162866592,5.042174339294434,0.39657747745513916
-0.1274580955505371,5.033638000488281,0.39576709270477295
-0.16310235857963562,5.0521063804626465,0.39709851145744324
-0.19942723214626312,5.066408157348633,0.39811941981315613
-0.23503011465072632,5.072693347930908,0.39853107929229736
-0.2723166346549988,5.109853267669678,0.4012625217437744
-0.307167649269104,5.1001129150390625,0.4001564681529999
-0.2897428870201111,4.31301212310791,0.3381273150444031
-0.3175283968448639,4.275943756103516,0.3349621593952179
-0.3479306101799011,4.2814249992370605,0.33515113592147827
-0.37838101387023926,4.286693572998047,0.33533918857574463
-0.40291503071784973,4.229734897613525,0.3305346965789795
-0.4261339008808136,4.168791770935059,0.32533562183380127
-0.4520335793495178,4.134774208068848,0.32225462794303894
-0.4765295088291168,4.096787452697754,0.31889379024505615
-0.49925583600997925,4.047044277191162,0.3146386444568634
-0.5208106637001038,3.9933221340179443,0.310098260641098
-0.5429505705833435,3.9511239528656006,0.30631059408187866
-0.5655165910720825,3.912609100341797,0.30276599526405334
-0.5853183269500732,3.862494468688965,0.298359751701355
-0.6083108186721802,3.8353443145751953,0.29574713110923767
-0.6266882419586182,3.7811315059661865,0.2910679578781128
-0.6450051069259644,3.730687379837036,0.28670546412467957
-0.6691123247146606,3.7186026573181152,0.28509360551834106
-0.6842343211174011,3.6565027236938477,0.2796553373336792
-0.7062704563140869,3.6365163326263428,0.2774760127067566
-0.7229654788970947,3.5896122455596924,0.2732587456703186
-0.7431278824806213,3.5616965293884277,0.27050891518592834
-0.7521435022354126,3.484198808670044,0.2639647424221039
-0.7796682119369507,3.4942009449005127,0.2639228403568268
-0.796504557132721,3.4585158824920654,0.2604580521583557
-0.8128904700279236,3.4227631092071533,0.257013738155365
-0.8338820934295654,3.405766010284424,0.25498542189598083
-0.8518182635307312,3.3773088455200195,0.25211888551712036
-0.8654738068580627,3.3336949348449707,0.24800503253936768
-0.8800480365753174,3.297724485397339,0.24445253610610962
-0.9013848304748535,3.288013219833374,0.2428668588399887
-0.9176586270332336,3.2593250274658203,0.2398858368396759
-0.9359874725341797,3.237985134124756,0.23745767772197723
-0.9542941451072693,3.2164840698242188,0.23497633635997772
-0.9658597111701965,3.1764988899230957,0.2310546189546585
-0.9873284697532654,3.1699976921081543,0.2295909970998764
-0.9946596026420593,3.1187610626220703,0.22490650415420532
-1.0139442682266235,3.1044533252716064,0.22288860380649567
-1.0247917175292969,3.0640342235565186,0.21900320053100586
-1.0454751253128052,3.057152271270752,0.217409148812294
-1.0583571195602417,3.028068780899048,0.21424531936645508
-1.0787590742111206,3.020972967147827,0.2126549482345581
-1.0917092561721802,2.991548776626587,0.20947811007499695
-1.1043288707733154,2.9620795249938965,0.2063230574131012
-1.1149723529815674,2.9290316104888916,0.20281890034675598
-1.1148419380187988,2.8707306385040283,0.19759365916252136
-1.1254643201828003,2.8415563106536865,0.19441214203834534
-1.140775442123413,2.8229522705078125,0.19193629920482635
-1.1544685363769531,2.8006374835968018,0.1892237663269043
-1.1464648246765137,2.728078842163086,0.18303565680980682
-1.1508307456970215,2.6882307529449463,0.1790900081396103
-1.1500842571258545,2.637702226638794,0.1744733303785324
-1.1811422109603882,2.658233880996704,0.17451636493206024
-1.1835739612579346,2.614527940750122,0.17035555839538574
-1.1963979005813599,2.595935344696045,0.16772042214870453
-1.2417970895767212,2.6480605602264404,0.169658824801445
-1.2731199264526367,2.6678826808929443,0.16946379840373993
-1.2814353704452515,2.6380388736724854,0.16607601940631866
-1.2994029521942139,2.6293652057647705,0.16399958729743958
-1.2767728567123413,2.5405478477478027,0.1568882167339325
-1.3059489727020264,2.5564990043640137,0.15631639957427979
-1.3146296739578247,2.5302202701568604,0.15309059619903564
-1.3103418350219727,2.4797520637512207,0.14843404293060303
-1.3192402124404907,2.4574649333953857,0.14541669189929962
-1.3316367864608765,2.4420156478881836,0.14282439649105072
-1.3391120433807373,2.4157798290252686,0.13953015208244324
-1.3520991802215576,2.3997151851654053,0.13684050738811493
-1.3640071153640747,2.3841135501861572,0.1341138780117035
-1.391329288482666,2.3955163955688477,0.1328919231891632
-1.391763687133789,2.3592278957366943,0.12895771861076355
-1.4125051498413086,2.3561105728149414,0.1267751157283783
-1.4156289100646973,2.327008008956909,0.12317155301570892
-1.4307174682617188,2.317894220352173,0.12065070867538452
-1.4301496744155884,2.281618595123291,0.11661219596862793
-1.4455616474151611,2.272021532058716,0.11392652243375778
-1.458279013633728,2.259373188018799,0.11101102828979492
-1.4647284746170044,2.2366943359375,0.10758507251739502
-1.480297565460205,2.22655987739563,0.10466481000185013
-1.4595472812652588,2.1654303073883057,0.09935836493968964
-1.4955947399139404,2.1882739067077637,0.09788519889116287
-1.506606101989746,2.171353578567505,0.0943768173456192
-1.4911192655563354,2.1204006671905518,0.08946477621793747
-1.5002838373184204,2.1044769287109375,0.0860094279050827
-1.5010309219360352,2.0752389430999756,0.08182235807180405
-1.5092744827270508,2.0597102642059326,0.07817520946264267
-1.5183883905410767,2.0434165000915527,0.07427967339754105
-1.5152255296707153,2.1375601291656494,-0.07114096730947495
-1.4786423444747925,2.1201860904693604,-0.07416609674692154
-1.4925692081451416,2.172149419784546,-0.07930108904838562
-1.4976366758346558,2.2158029079437256,-0.08430025726556778
-1.47713041305542,2.2200138568878174,-0.08764393627643585
-1.461193561553955,2.2303972244262695,-0.09109433740377426
-1.4675885438919067,2.277308940887451,-0.09607450664043427
-1.4429197311401367,2.2744064331054688,-0.09882766008377075
-1.430351972579956,2.291393995285034,-0.10242386162281036
-1.417248249053955,2.308539867401123,-0.10598770529031754
-1.4169567823410034,2.3451333045959473,-0.11034754663705826
-1.4082770347595215,2.3683910369873047,-0.11406426876783371
-1.3907469511032104,2.3785769939422607,-0.11714620143175125
-1.3771610260009766,2.395324230194092,-0.12054598331451416
-1.3699477910995483,2.421750545501709,-0.12435021996498108
-1.3387281894683838,2.407789945602417,-0.12603594362735748
-1.3284423351287842,2.43112850189209,-0.12966032326221466
-1.3169835805892944,2.450503349304199,-0.13297748565673828
-1.3027832508087158,2.466757297515869,-0.13615690171718597
-1.2918914556503296,2.4899210929870605,-0.1396741420030594
-1.284656047821045,2.5198113918304443,-0.14356018602848053
-1.293242335319519,2.5808846950531006,-0.14923757314682007
-1.2883551120758057,2.6179990768432617,-0.15354382991790771
-1.2689203023910522,2.6273128986358643,-0.15627408027648926
-1.2369377613067627,2.6078715324401855,-0.15718014538288116
-1.212131381034851,2.6021389961242676,-0.15885883569717407
-1.1932896375656128,2.6106815338134766,-0.161330908536911
-1.1727724075317383,2.6155357360839844,-0.163574680685997
-1.154306173324585,2.623587131500244,-0.16597402095794678
-1.168137788772583,2.706732988357544,-0.1731964647769928
-1.1684117317199707,2.761589288711548,-0.17858292162418365
-1.1544896364212036,2.7841739654541016,-0.18192438781261444
-1.143571138381958,2.813789129257202,-0.18572752177715302
-1.1267513036727905,2.8288049697875977,-0.18857382237911224
-1.1273746490478516,2.8912594318389893,-0.19457274675369263
-1.1093095541000366,2.9064295291900635,-0.19737723469734192
-1.1036065816879272,2.9542624950408936,-0.2024179995059967
-1.0856651067733765,2.9690489768981934,-0.20519669353961945
-1.0725940465927124,2.99849271774292,-0.20894567668437958
-1.0584728717803955,3.02813720703125,-0.21269837021827698
-1.039344072341919,3.0428409576416016,-0.21539804339408875
-1.0267313718795776,3.0757429599761963,-0.21937619149684906
-1.0148886442184448,3.112327814102173,-0.2236480414867401
-0.9855737686157227,3.097060441970825,-0.2240610420703888
-0.9746348261833191,3.1411964893341064,-0.22881640493869781
-0.9615122675895691,3.1776745319366455,-0.23301368951797485
-0.9448731541633606,3.202831983566284,-0.2363981157541275
-0.9309266805648804,3.2392160892486572,-0.24054670333862305
-0.9100162982940674,3.253106117248535,-0.24296899139881134
-0.8950932621955872,3.289416790008545,-0.24709413945674896
-0.8767111897468567,3.314375162124634,-0.2504000663757324
-0.857485294342041,3.335352659225464,-0.25340571999549866
-0.8413887023925781,3.3714492321014404,-0.257419615983963
-0.8248204588890076,3.407482147216797,-0.26144829392433167
-0.8052284717559814,3.432042121887207,-0.26462212204933167
-0.7843531966209412,3.452718734741211,-0.2675287425518036
-0.7619415521621704,3.4655816555023193,-0.26977717876434326
-0.7528677582740784,3.543138265609741,-0.27692553400993347
-0.732562780380249,3.5711312294006348,-0.28024372458457947
-0.7105396389961243,3.5913407802581787,-0.28297024965286255
-0.6959819197654724,3.6535534858703613,-0.2890576422214508
-0.6745594143867493,3.6812124252319336,-0.29233092069625854
-0.6539632081985474,3.7164578437805176,-0.29611125588417053
-0.6322550773620605,3.7477521896362305,-0.2996067702770233
-0.6135315895080566,3.7980973720550537,-0.30464863777160645
-0.5932146310806274,3.8445591926574707,-0.30943048000335693
-0.5697542428970337,3.8716249465942383,-0.31250298023223877
-0.5479780435562134,3.913998603820801,-0.31673702597618103
-0.5302846431732178,3.9909863471984863,-0.32381027936935425
-0.5053613781929016,4.017673015594482,-0.32683444023132324
-0.48146840929985046,4.055802822113037,-0.3308178782463074
-0.4585895240306854,4.113224029541016,-0.33621716499328613
-0.43333956599235535,4.151120662689209,-0.3399563133716583
-0.40795695781707764,4.192737579345703,-0.3440283536911011
-0.3767021894454956,4.172133922576904,-0.3430076539516449
-0.35027751326560974,4.205616474151611,-0.34645146131515503
-0.31982865929603577,4.200178146362305,-0.34647485613822937
-0.29237091541290283,4.229446887969971,-0.34930554032325745
-0.2606947720050812,4.1963653564453125,-0.3470022678375244
-0.226530060172081,4.108628273010254,-0.3401828408241272
-0.19756796956062317,4.102280616760254,-0.340107798576355
-0.16878283023834229,4.111330986022949,-0.34107914566993713
-0.14033140242099762,4.120168685913086,-0.3419934809207916
-0.1343505084514618,4.961574077606201,-0.41207200288772583
-0.09963508695363998,4.950684547424316,-0.411423921585083
-0.06512876600027084,4.943445682525635,-0.41109800338745117
-0.030017774552106857,4.928210258483887,-0.40982526540756226
0.004229495767503977,4.904945373535156,-0.4078511595726013
0.038090940564870834,4.873658657073975,-0.4052300751209259
0.07209242135286331,4.881063461303711,-0.4058457612991333
0.10543772578239441,4.853203773498535,-0.40354883670806885
0.13847489655017853,4.829034805297852,-0.4012725353240967
0.17231647670269012,4.820187568664551,-0.4002346396446228
0.2047901749610901,4.795569896697998,-0.3979138731956482
0.2377442568540573,4.786285400390625,-0.3968859910964966
0.2699187099933624,4.765115261077881,-0.39489299058914185
0.3024512529373169,4.755416393280029,-0.39355936646461487
0.3354230225086212,4.745460510253906,-0.3921695053577423
0.36709243059158325,4.72755765914917,-0.39015424251556396
0.3993498980998993,4.717188835144043,-0.3887796103954315
0.42930757999420166,4.6833415031433105,-0.38549354672431946
0.4609530568122864,4.6725921630859375,-0.3838445246219635
0.492605596780777,4.657703876495361,-0.3818310797214508
0.5222423672676086,4.631051063537598,-0.3788900673389435
0.5544318556785583,4.627392768859863,-0.3778495788574219
0.5856154561042786,4.615786075592041,-0.3761794865131378
0.6164014935493469,4.604028224945068,-0.37420764565467834
0.6465418338775635,4.58427619934082,-0.3715723156929016
0.6759277582168579,4.564401149749756,-0.36896803975105286
0.7047058343887329,4.540455341339111,-0.36605262756347656
0.7362961173057556,4.535549640655518,-0.3646869361400604
0.7649125456809998,4.5151472091674805,-0.3617957532405853
0.793320894241333,4.494558334350586,-0.358913779258728
0.822126030921936,4.47367525100708,-0.3560086786746979
0.715887725353241,3.7488198280334473,-0.2973130941390991
0.7434451580047607,3.7515065670013428,-0.29648688435554504
0.7676751017570496,3.7388012409210205,-0.29424527287483215
0.9366794228553772,4.407885551452637,-0.34545597434043884
0.9701988697052002,4.41274881362915,-0.3443681299686432
1.0008747577667236,4.406044960021973,-0.3424081802368164
1.0313994884490967,4.399158477783203,-0.34036287665367126
1.0569676160812378,4.3732218742370605,-0.33668839931488037
1.0850516557693481,4.358479022979736,-0.33390170335769653
1.1118720769882202,4.335803031921387,-0.3304864466190338
1.1420464515686035,4.328122615814209,-0.32825589179992676
1.1719155311584473,4.320310115814209,-0.3258918225765228
1.199378490447998,4.304863452911377,-0.322864830493927
1.2288271188735962,4.29673433303833,-0.320404976606369
1.2569987773895264,4.28064489364624,-0.31730911135673523
1.2845542430877686,4.264503479003906,-0.3142598271369934
1.3137341737747192,4.255803108215332,-0.31156763434410095
1.340431571006775,4.239494800567627,-0.30830660462379456
1.3623003959655762,4.208146095275879,-0.3039710819721222
1.3884116411209106,4.187489986419678,-0.30037251114845276
1.419878363609314,4.185357570648193,-0.29809653759002686
1.4432315826416016,4.161073684692383,-0.29410645365715027
1.4689241647720337,4.144010543823242,-0.290652334690094
1.4948995113372803,4.126628875732422,-0.2871617078781128
1.5236343145370483,4.11631441116333,-0.28416287899017334
1.546717882156372,4.091248989105225,-0.2799859046936035
1.5856903791427612,4.109963893890381,-0.2788081467151642
1.6080372333526611,4.084733009338379,-0.27463701367378235
1.639324426651001,4.080899238586426,-0.27187833189964294
1.655583381652832,4.040861129760742,-0.26666751503944397
1.6833372116088867,4.029604434967041,-0.263227254152298
1.7166204452514648,4.032715797424316,-0.26077738404273987
2.0038559436798096,4.6183085441589355,-0.29551029205322266
2.0500826835632324,4.636633396148682,-0.2935141324996948
2.0780951976776123,4.615856647491455,-0.28888648748397827
2.108067274093628,4.598220348358154,-0.2844204604625702
2.1365041732788086,4.576733112335205,-0.27970969676971436
2.1683833599090576,4.561977863311768,-0.27539774775505066
2.1956286430358887,4.540529251098633,-0.27055221796035767
2.226064682006836,4.525947570800781,-0.2661255896091461
2.2647132873535156,4.524460315704346,-0.2623139023780823
2.292670249938965,4.501869201660156,-0.25730395317077637
2.326359510421753,4.493608474731445,-0.2530035972595215
2.3654062747955322,4.495495796203613,-0.24926412105560303
1.7337640523910522,3.240817070007324,-0.17682145535945892
1.7524572610855103,3.222059488296509,-0.1728896051645279
1.7345565557479858,3.138617515563965,-0.1654452234506607
1.7362757921218872,3.09317684173584,-0.16016072034835815
1.786799669265747,3.1320323944091797,-0.15908879041671753
1.3697645664215088,2.363619804382324,-0.11769554018974304
1.3022273778915405,2.2133805751800537,-0.10796612501144409
0.9590422511100769,1.6047948598861694,-0.07657168805599213
0.9702351689338684,1.5981498956680298,-0.07451662421226501
0.9786766171455383,1.5885064601898193,-0.07230935245752335
0.9891175031661987,1.5821189880371094,-0.07025054097175598
1.0022112131118774,1.5785789489746094,-0.06821426749229431
1.012876033782959,1.5718520879745483,-0.06599093228578568
1.020941972732544,1.562053918838501,-0.06367180496454239
1.0273908376693726,1.548551082611084,-0.06109805777668953
1.044194221496582,1.5514997243881226,-0.05915144458413124
1.0475441217422485,1.5351670980453491,-0.056467872112989426
2.559175968170166,3.6943840980529785,-0.13039948046207428
2.5877816677093506,3.6841609477996826,-0.12456317991018295
2.6116445064544678,3.667487144470215,-0.11840527504682541
2.646059036254883,3.6622326374053955,-0.11218622326850891
2.671346426010132,3.6488659381866455,-0.10568597167730331
2.6353447437286377,3.54945707321167,-0.09640190750360489
2.6336960792541504,3.692884683609009,0.17127107083797455
2.5957412719726562,3.700270414352417,0.17779628932476044
2.5919480323791504,3.7501611709594727,0.18575240671634674
1.0643643140792847,1.5652503967285156,0.07979996502399445
1.048229455947876,1.566585659980774,0.08204884082078934
1.0458354949951172,1.5867860317230225,0.0851471796631813
1.0292139053344727,1.5881925821304321,0.08724518120288849
1.0173649787902832,1.5956789255142212,0.08958591520786285
0.9978815317153931,1.5894135236740112,0.09102831035852432
0.9797681570053101,1.5867791175842285,0.09260423481464386
0.9819160103797913,1.6173588037490845,0.09612669795751572
0.9664084911346436,1.617469072341919,0.09775587171316147
1.000152587890625,1.7016395330429077,0.10448727756738663
1.3444809913635254,2.327012538909912,0.14508605003356934
1.811152696609497,3.1877458095550537,0.20166051387786865
1.7564268112182617,3.1422529220581055,0.20153486728668213
1.757181167602539,3.1995689868927,0.20793239772319794
1.7610135078430176,3.2638561725616455,0.21479719877243042
1.7449506521224976,3.2899153232574463,0.21909525990486145
2.3764841556549072,4.556809902191162,0.3069467842578888
2.33231520652771,4.553003311157227,0.30998367071151733
2.301522970199585,4.57706880569458,0.3149573802947998
2.2652628421783447,4.586131572723389,0.31875503063201904
2.236562490463257,4.6085734367370605,0.32342469692230225
2.2031166553497314,4.624368667602539,0.3274989426136017
2.1657767295837402,4.633083820343018,0.331016480922699
2.1353328227996826,4.655487060546875,0.33549508452415466
2.108546257019043,4.6845011711120605,0.3404236137866974
2.07220458984375,4.691895008087158,0.34368449449539185
2.025434970855713,4.678049564361572,0.3452301621437073
1.746067762374878,4.114882469177246,0.30592358112335205
1.710962176322937,4.1124958992004395,0.3079243302345276
1.6846678256988525,4.131523132324219,0.31155043840408325
1.6550642251968384,4.143251419067383,0.3144543468952179
1.624915361404419,4.154952526092529,0.31729358434677124
1.59750497341156,4.1736955642700195,0.3206884562969208
1.568300724029541,4.18454647064209,0.3234236240386963
1.5466704368591309,4.217281341552734,0.3279024064540863
1.513750672340393,4.220731258392334,0.3299214243888855
1.480678677558899,4.223991870880127,0.3318897783756256
1.4551727771759033,4.249119758605957,0.3355987071990967
1.4279842376708984,4.266355037689209,0.3386495113372803
1.3952455520629883,4.268779277801514,0.34057193994522095
1.3706053495407104,4.297016143798828,0.34435155987739563
1.3442742824554443,4.321464538574219,0.34779083728790283
1.3085811138153076,4.315948963165283,0.3488384485244751
1.2805813550949097,4.3322858810424805,0.351622998714447
1.2546935081481934,4.355890274047852,0.35501620173454285
1.225455403327942,4.372124195098877,0.3577238619327545
1.198273777961731,4.395639419555664,0.3609064221382141
1.166786789894104,4.403940677642822,0.36286434531211853
1.1356632709503174,4.411910057067871,0.36479610204696655
1.1086841821670532,4.434664726257324,0.36795541644096375
1.077065348625183,4.442291259765625,0.36986327171325684
1.0471620559692383,4.457297325134277,0.37214693427085876
1.018782615661621,4.479702949523926,0.3750740587711334
0.985206127166748,4.479095935821533,0.3760923147201538
0.9596338868141174,4.512372970581055,0.3799566924571991
0.7867269515991211,3.8325023651123047,0.3236469328403473
0.7521092891693115,3.7996647357940674,0.3216541111469269
0.7280533909797668,3.8201026916503906,0.3240990936756134
0.8356083631515503,4.560230255126953,0.3877636194229126
0.8062130212783813,4.581213474273682,0.3904321789741516
0.7789706587791443,4.617390155792236,0.394429087638855
0.7474182844161987,4.626428604125977,0.39611855149269104
0.7159330248832703,4.639190673828125,0.3978462815284729
0.6843047738075256,4.651737689971924,0.3995774984359741
0.6524877548217773,4.66407585144043,0.40131378173828125
0.6213654279708862,4.683935642242432,0.40372487902641296
0.5897359251976013,4.69577693939209,0.40545305609703064
0.5587899088859558,4.715151786804199,0.40777352452278137
0.5255587100982666,4.718904972076416,0.40854066610336304
0.49477195739746094,4.7456440925598145,0.4113197326660156
0.4617531895637512,4.752813339233398,0.412425696849823
0.42946165800094604,4.771402835845947,0.41454875469207764
0.3982093632221222,4.797476768493652,0.41733700037002563
0.3653252124786377,4.8078436851501465,0.4186443090438843
0.3327163755893707,4.825773239135742,0.42046383023262024
0.3003551959991455,4.851248741149902,0.42296361923217773
0.2664133310317993,4.864881992340088,0.42445918917655945
0.23370252549648285,4.889897346496582,0.4269634485244751
0.19965390861034393,4.891365051269531,0.42743420600891113
0.16663436591625214,4.923725605010986,0.4304391145706177
0.13286541402339935,4.948095798492432,0.43263089656829834
0.09773878008127213,4.9489006996154785,0.43278515338897705
0.06346870213747025,4.968904495239258,0.4346385896205902
0.02905607782304287,4.984777450561523,0.4361519515514374
-0.005625513382256031,5.000410556793213,0.43766650557518005
-0.04051940143108368,5.015821933746338,0.4389650225639343
-0.0762488842010498,5.030987739562988,0.4401538670063019
-0.11122633516788483,5.030351161956787,0.4399835467338562
-0.14671187102794647,5.04892110824585,0.44151419401168823
-0.1823727935552597,5.063350200653076,0.4427032768726349
-0.2181890308856964,5.07752799987793,0.44389161467552185
-0.25454312562942505,5.099250316619873,0.44550925493240356
-0.2933011054992676,5.147884845733643,0.4494066834449768
-0.2789968252182007,4.36517333984375,0.3808017075061798
-0.30348461866378784,4.281652927398682,0.37326306104660034
-0.33209410309791565,4.263952732086182,0.37148505449295044
-0.3637197017669678,4.2848429679870605,0.3730871081352234
-0.39241066575050354,4.266737461090088,0.3710629940032959
-0.416094034910202,4.205896377563477,0.36531272530555725
-0.44100603461265564,4.1642842292785645,0.36126038432121277
-0.46461647748947144,4.114780426025391,0.35654759407043457
-0.48625448346138,4.0535478591918945,0.3508448600769043
-0.510988175868988,4.019179344177246,0.34748631715774536
-0.5349786877632141,3.9886484146118164,0.34424787759780884
-0.5558913350105286,3.9387032985687256,0.33935800194740295
-0.5755323767662048,3.8848140239715576,0.3341592252254486
-0.5940552949905396,3.8269665241241455,0.3286464810371399
-0.6192415356636047,3.8112189769744873,0.3267628848552704
-0.6391085982322693,3.7685422897338867,0.3225603699684143
-0.6581074595451355,3.725844383239746,0.31817930936813354
-0.6786254048347473,3.694554567337036,0.31480106711387634
-0.6980536580085754,3.659327745437622,0.3111119270324707
-0.713647186756134,3.6048367023468018,0.30580395460128784
-0.736057460308075,3.584526300430298,0.3034094572067261
-0.7494550943374634,3.5261476039886475,0.2977347671985626
-0.769338846206665,3.5020432472229004,0.29485759139060974
-0.7846219539642334,3.4588472843170166,0.29040029644966125
-0.8083239793777466,3.453490972518921,0.289139062166214
-0.8235532641410828,3.4099583625793457,0.28468066453933716
-0.8406032919883728,3.377821207046509,0.28121715784072876
-0.8597100973129272,3.357050657272339,0.2785632908344269
-0.8764781951904297,3.32867693901062,0.27526089549064636
-0.894935667514801,3.307746648788452,0.2725972831249237
-0.9108315706253052,3.2752413749694824,0.2689707577228546
-0.9272306561470032,3.24646258354187,0.2656837999820709
-0.9408861398696899,3.2101998329162598,0.26176348328590393
-0.9558876156806946,3.1815032958984375,0.2583549916744232
-0.9774186611175537,3.1750829219818115,0.2567748427391052
-0.9865452647209167,3.1274948120117188,0.2518653869628906
-0.9986794590950012,3.091040849685669,0.2478872686624527
-1.020168662071228,3.0841426849365234,0.24629996716976166
-1.0347559452056885,3.058863639831543,0.2431022822856903
-1.0477042198181152,3.0298714637756348,0.2396174669265747
-1.0654728412628174,3.01554274559021,0.23731623589992523
-1.0788483619689941,2.986084461212158,0.23378697037696838
-1.0996382236480713,2.9786293506622314,0.23201920092105865
-1.107527256011963,2.9384067058563232,0.22761249542236328
-1.124449372291565,2.923771381378174,0.22516563534736633
-1.1184815168380737,2.850994825363159,0.21828223764896393
-1.138496994972229,2.8432083129882812,0.21635711193084717
-1.1479227542877197,2.81011700630188,0.2125432938337326
-1.1459745168685913,2.7520546913146973,0.20678964257240295
-1.1323610544204712,2.669151544570923,0.19918924570083618
-1.1377894878387451,2.6330552101135254,0.1951441764831543
-1.1626062393188477,2.6393847465515137,0.19418436288833618
-1.1777734756469727,2.624256134033203,0.19166818261146545
-1.192152976989746,2.60933780670166,0.18908345699310303
-1.216072916984558,2.6156318187713623,0.18801406025886536
-1.2402112483978271,2.6216845512390137,0.18691189587116241
-1.252007246017456,2.598933458328247,0.1836729347705841
-1.2871191501617432,2.6253702640533447,0.18391384184360504
-1.2748745679855347,2.557650327682495,0.17748001217842102
-1.3111547231674194,2.5875730514526367,0.17784158885478973
-1.2948914766311646,2.5128514766693115,0.1709805727005005
-1.3051872253417969,2.4900829792022705,0.16768001019954681
-1.3111265897750854,2.4606447219848633,0.16385529935359955
-1.3236172199249268,2.4452428817749023,0.16099698841571808
-1.3381321430206299,2.4330403804779053,0.1583307981491089
-1.3474656343460083,2.4101903438568115,0.15491996705532074
-1.3597966432571411,2.39445161819458,0.1519332230091095
-1.3678810596466064,2.372014284133911,0.1484665423631668
-1.395483136177063,2.3832058906555176,0.1470993608236313
-1.4041399955749512,2.360146999359131,0.14351676404476166
-1.4198731184005737,2.3508834838867188,0.14073725044727325
-1.4269800186157227,2.3284590244293213,0.13715839385986328
-1.4346630573272705,2.3055436611175537,0.13346213102340698
-1.4381537437438965,2.2758917808532715,0.12938256561756134
-1.4464207887649536,2.2569220066070557,0.12587785720825195
-1.4651137590408325,2.2543087005615234,0.12329299002885818
-1.4679393768310547,2.224644660949707,0.1190294474363327
-1.4959779977798462,2.2342963218688965,0.11678064614534378
-1.4970539808273315,2.2054975032806396,0.11254794895648956
-1.5032854080200195,2.1824982166290283,0.1084531843662262
-1.5133521556854248,2.1661860942840576,0.10463374108076096
-1.4931659698486328,2.108968734741211,0.09889069944620132
-1.503275752067566,2.0923428535461426,0.09482156485319138
-1.5029842853546143,2.0638136863708496,0.09022295475006104
-1.515995740890503,2.054438591003418,0.08641485869884491
-1.4936299324035645,2.090489625930786,-0.07368827611207962
-1.4865540266036987,2.1144886016845703,-0.07853375375270844
-1.5089446306228638,2.179637908935547,-0.08480729907751083
-1.48848295211792,2.184055805206299,-0.08867622911930084
-1.484904408454895,2.2145779132843018,-0.09359975159168243
-1.473708987236023,2.2312426567077637,-0.09768959134817123
-1.4567397832870483,2.242185354232788,-0.10158699750900269
-1.4444046020507812,2.2592501640319824,-0.10564116388559341
-1.4327455759048462,2.2757222652435303,-0.10952548682689667
-1.4300717115402222,2.3094234466552734,-0.11427579820156097
-1.4130908250808716,2.319674253463745,-0.11784210056066513
-1.404612421989441,2.3428590297698975,-0.12199018895626068
-1.3912960290908813,2.3596770763397217,-0.12574785947799683
-1.3856031894683838,2.389941692352295,-0.13024528324604034
-1.353310227394104,2.3723268508911133,-0.1319982260465622
-1.3437238931655884,2.395498514175415,-0.13598550856113434
-1.329410195350647,2.412196159362793,-0.13966681063175201
-1.3196622133255005,2.435124397277832,-0.14358580112457275
-1.3080686330795288,2.454457998275757,-0.1472678780555725
-1.2973309755325317,2.4775915145874023,-0.1511564552783966
-1.2899574041366577,2.507596969604492,-0.15549805760383606
-1.282649040222168,2.5374033451080322,-0.1598174124956131
-1.2905648946762085,2.598679542541504,-0.1661209762096405
-1.2527995109558105,2.5692636966705322,-0.16660523414611816
-1.242700219154358,2.595607280731201,-0.17066557705402374
-1.216251015663147,2.586390495300293,-0.17232713103294373
-1.2059301137924194,2.6125195026397705,-0.1762998402118683
-1.189854383468628,2.6282505989074707,-0.1796044260263443
-1.1631370782852173,2.618680953979492,-0.18111145496368408
-1.1651008129119873,2.6729979515075684,-0.18701694905757904
-1.1491081714630127,2.6882059574127197,-0.19017557799816132
-1.1523140668869019,2.750149726867676,-0.1966526061296463
-1.1411980390548706,2.77988338470459,-0.20091140270233154
-1.1362956762313843,2.8237552642822266,-0.2061653584241867
-1.1291108131408691,2.864180088043213,-0.21116507053375244
-1.1141104698181152,2.886573553085327,-0.21480518579483032
-1.1071741580963135,2.930741310119629,-0.22010546922683716
-1.0903606414794922,2.9493095874786377,-0.22351190447807312
-1.074930191040039,2.971356153488159,-0.22714093327522278
-1.064029574394226,3.0081722736358643,-0.23182234168052673
-1.0526556968688965,3.0449776649475098,-0.23655128479003906
-1.0337810516357422,3.059473991394043,-0.23954270780086517
-1.018178105354309,3.085026741027832,-0.24344830214977264
-0.9986423850059509,3.099410057067871,-0.2463247925043106
-0.9812151193618774,3.1211259365081787,-0.24978218972682953
-0.9705544114112854,3.1650359630584717,-0.2550435960292816
-0.9540473818778992,3.1901979446411133,-0.2588139474391937
-0.944692850112915,3.2415058612823486,-0.2646883726119995
-0.9191296696662903,3.2405757904052734,-0.2662283778190613
-0.8981655836105347,3.254354476928711,-0.26896318793296814
-0.8844628930091858,3.2942302227020264,-0.27386465668678284
-0.8713098168373108,3.3378138542175293,-0.27911698818206787
-0.8515841960906982,3.35880446434021,-0.2823522388935089
-0.8347901701927185,3.3949344158172607,-0.2868705987930298
-0.812609076499939,3.4081525802612305,-0.28945350646972656
-0.7932212948799133,3.4325337409973145,-0.2929912507534027
-0.7777764201164246,3.4758031368255615,-0.2981523871421814
-0.7548559308052063,3.488671064376831,-0.3005264401435852
-0.7385171055793762,3.5357656478881836,-0.30590522289276123
-0.7213972210884094,3.5788612365722656,-0.3109508156776428
-0.3459900915622711,1.7803641557693481,-0.15534469485282898
-0.3471187353134155,1.8553550243377686,-0.1625272035598755
-0.6632484793663025,3.688563823699951,-0.324230819940567
-0.644076943397522,3.735269784927368,-0.32949966192245483
-0.6230350732803345,3.7702596187591553,-0.3337450921535492
-0.6028468608856201,3.8128058910369873,-0.338692843914032
-0.577892005443573,3.8283510208129883,-0.34110188484191895
-0.5587455630302429,3.886122465133667,-0.34718772768974304
-0.5367682576179504,3.9323036670684814,-0.3522951304912567
-0.51337069272995,3.9666993618011475,-0.3563576936721802
-0.4918825328350067,4.020265579223633,-0.3621799945831299
-0.4690825045108795,4.069892883300781,-0.36744609475135803
-0.4460172653198242,4.123269557952881,-0.3730064034461975
-0.4194527566432953,4.149425983428955,-0.376136839389801
-0.3908379077911377,4.159939765930176,-0.3778802156448364
-0.3639422655105591,4.185716152191162,-0.38102102279663086
-0.33534935116767883,4.1958417892456055,-0.3824705481529236
