X,Y,Z
0.5918880105018616,4.6708984375,0.15908434987068176
0.5608351826667786,4.6904425621032715,0.16002409160137177
0.528018593788147,4.694235801696777,0.16043336689472198
0.4969501793384552,4.713315486907959,0.1613726168870926
0.4648730456829071,4.724418640136719,0.1620461493730545
0.43254777789115906,4.743159770965576,0.16285714507102966
0.40123680233955383,4.769408226013184,0.1639324277639389
0.36803242564201355,4.775991439819336,0.16434112191200256
0.33644619584083557,4.801792144775391,0.1654183715581894
0.3030441403388977,4.804006576538086,0.16569198668003082
0.26986008882522583,4.821617126464844,0.16645030677318573
0.2381114512681961,4.862371444702148,0.1679462045431137
0.20412202179431915,4.863911151885986,0.16809672117233276
0.1709005981683731,4.88471794128418,0.16892141103744507
0.1371670663356781,4.893587589263916,0.16934175789356232
0.10253024101257324,4.894430637359619,0.16949503123760223
0.06856414675712585,4.902831554412842,0.1698007881641388
0.03475057706236839,4.950035095214844,0.17143955826759338
0.0002807035925798118,4.9579644203186035,0.17172645032405853
-0.034432731568813324,4.985172271728516,0.1726895421743393
-0.07001200318336487,5.0082244873046875,0.17351782321929932
-0.10482347011566162,5.007617473602295,0.17350685596466064
-0.14024151861667633,5.030186653137207,0.1742144227027893
-0.1754343956708908,5.036898612976074,0.17438074946403503
-0.21067780256271362,5.043365955352783,0.17454689741134644
-0.24673809111118317,5.061276912689209,0.17511701583862305
-0.28610050678253174,5.121769428253174,0.17716753482818604
-0.31773072481155396,5.057326793670654,0.17481933534145355
-0.2992209196090698,4.2878031730651855,0.14807693660259247
-0.32712703943252563,4.262279987335205,0.14706139266490936
-0.3573412001132965,4.267695426940918,0.14712071418762207
-0.38893648982048035,4.280620098114014,0.1474429816007614
-0.413004070520401,4.219536781311035,0.14522647857666016
-0.43639957904815674,4.162241458892822,0.1430281698703766
-0.45945775508880615,4.108705997467041,0.14097116887569427
-0.48410147428512573,4.074437141418457,0.13958615064620972
-0.5074949264526367,4.028320789337158,0.1378009170293808
-0.5303141474723816,3.9860100746154785,0.1361600160598755
-0.5486825108528137,3.916529893875122,0.1335574835538864
-0.5732854604721069,3.8972349166870117,0.13261689245700836
-0.5940812230110168,3.8546361923217773,0.13089342415332794
-0.6154879331588745,3.815703868865967,0.1293002814054489
-0.6341801881790161,3.7651548385620117,0.127328023314476
-0.6549012064933777,3.7299132347106934,0.1258847862482071
-0.6741124987602234,3.6907925605773926,0.12423854321241379
-0.6905960440635681,3.6400856971740723,0.12220577895641327
-0.711695671081543,3.6161422729492188,0.12108305841684341
-0.7309016585350037,3.580453872680664,0.11956774443387985
-0.7461102604866028,3.5294599533081055,0.11755771189928055
-0.76124507188797,3.4822959899902344,0.11564948409795761
-0.781535804271698,3.461808443069458,0.11458908021450043
-0.799842894077301,3.4335949420928955,0.11328186839818954
-0.819248616695404,3.408961057662964,0.11209423840045929
-0.8391630053520203,3.388045072555542,0.11104000359773636
-0.8568525910377502,3.359462261199951,0.10973776131868362
-0.8717161417007446,3.3233752250671387,0.10813719034194946
-0.8902243971824646,3.3023130893707275,0.10703565925359726
-0.9036901593208313,3.262225389480591,0.10532102733850479
-0.9242105484008789,3.248373508453369,0.10446212440729141
-0.9445527791976929,3.2344024181365967,0.10360686480998993
-0.9542105197906494,3.1867809295654297,0.10161493718624115
-0.9665774703025818,3.1504149436950684,0.09998374432325363
-0.9835641980171204,3.128807544708252,0.09882374852895737
-1.0005180835723877,3.1070456504821777,0.09766329824924469
-1.014798879623413,3.0777738094329834,0.09627658128738403
-1.0320152044296265,3.0597076416015625,0.09519732743501663
-1.0526684522628784,3.0526866912841797,0.09444652497768402
-1.065487027168274,3.0234310626983643,0.09301593154668808
-1.0761808156967163,2.986482620239258,0.09133972972631454
-1.0793589353561401,2.9313247203826904,0.08913268893957138
-1.1074352264404297,2.945899248123169,0.08900941163301468
-1.1047816276550293,2.88010311126709,0.0864531621336937
-1.1183944940567017,2.858102321624756,0.08522912859916687
-1.1313201189041138,2.832021951675415,0.08386433869600296
-1.145082712173462,2.809649705886841,0.08262978494167328
-1.1609209775924683,2.794712781906128,0.08156784623861313
-1.1445547342300415,2.7042129039764404,0.07831922173500061
-1.1442283391952515,2.653420925140381,0.07624602317810059
-1.192835807800293,2.7132015228271484,0.07731838524341583
-1.1667711734771729,2.605173349380493,0.07361862063407898
-1.192197322845459,2.6151342391967773,0.07323712855577469
-1.207926869392395,2.6036264896392822,0.07225479185581207
-1.2374296188354492,2.620022773742676,0.07202418893575668
-1.2881067991256714,2.6780874729156494,0.07289589196443558
-1.283713698387146,2.6238207817077637,0.07068882137537003
-1.2715113162994385,2.555840015411377,0.06813623756170273
-1.2781094312667847,2.526340961456299,0.06662437319755554
-1.2920777797698975,2.5104706287384033,0.06545889377593994
-1.3054404258728027,2.4947621822357178,0.06427687406539917
-1.307458519935608,2.4584014415740967,0.0625363439321518
-1.32192862033844,2.4462382793426514,0.06143009290099144
-1.3351818323135376,2.4301483631134033,0.06019366905093193
-1.3440196514129639,2.4074227809906006,0.058789778500795364
-1.3559280633926392,2.39178729057312,0.057553164660930634
-1.3681952953338623,2.3758082389831543,0.056287962943315506
-1.3925232887268066,2.3797755241394043,0.05547429993748665
-1.404333472251892,2.3637709617614746,0.05417833477258682
-1.41155207157135,2.3412702083587646,0.052734680473804474
-1.4232181310653687,2.3250701427459717,0.05140604078769684
-1.4231008291244507,2.288456678390503,0.0495932400226593
-1.4357377290725708,2.2759597301483154,0.04829682782292366
-1.4610048532485962,2.2830681800842285,0.04740530624985695
-1.4577451944351196,2.2433717250823975,0.045472703874111176
-1.4768089056015015,2.2402567863464355,0.044282712042331696
-1.4827091693878174,2.217613458633423,0.0426860973238945
-1.4935189485549927,2.2009406089782715,0.041155748069286346
-1.4946391582489014,2.171816825866699,0.03938625007867813
-1.4837144613265991,2.1271424293518066,0.037359464913606644
-1.4938511848449707,2.1104986667633057,0.03573402762413025
-1.49394690990448,2.0816774368286133,0.03387422487139702
-1.511879324913025,2.078382968902588,0.032420217990875244
-1.5167125463485718,2.05549955368042,0.030545221641659737
-1.4937137365341187,2.091435194015503,-0.03498920425772667
-1.520854115486145,2.163125514984131,-0.03789530321955681
-1.5007282495498657,2.1676104068756104,-0.03956295922398567
-1.4972407817840576,2.198399782180786,-0.04171282798051834
-1.4905118942260742,2.221773386001587,-0.04360836744308472
-1.4695912599563599,2.2262797355651855,-0.045132797211408615
-1.4612258672714233,2.2503955364227295,-0.04705360531806946
-1.445540428161621,2.2604708671569824,-0.04857732355594635
-1.443180799484253,2.2943079471588135,-0.050616636872291565
-1.426282525062561,2.3048171997070312,-0.05213247239589691
-1.4142627716064453,2.3213305473327637,-0.05372323840856552
-1.404793620109558,2.3452677726745605,-0.05550280958414078
-1.3953334093093872,2.3690218925476074,-0.05726363882422447
-1.3866108655929565,2.3921780586242676,-0.05895780399441719
-1.3692986965179443,2.4020957946777344,-0.06031948700547218
-1.343859314918518,2.3984954357147217,-0.06132993474602699
-1.3377994298934937,2.4286327362060547,-0.06318391859531403
-1.3244856595993042,2.4447720050811768,-0.06464692950248718
-1.3083405494689941,2.457840919494629,-0.06601662933826447
-1.2939338684082031,2.474238395690918,-0.06748079508543015
-1.3124104738235474,2.552600860595703,-0.07061725854873657
-1.2992618083953857,2.5724148750305176,-0.07216686010360718
-1.2908978462219238,2.6027674674987793,-0.07398206740617752
-1.272102952003479,2.6119701862335205,-0.07519757747650146
-1.2437530755996704,2.599605083465576,-0.07575712352991104
-1.2218900918960571,2.6012933254241943,-0.07670333236455917
-1.2029317617416382,2.6100807189941406,-0.07784320414066315
-1.1966434717178345,2.647254467010498,-0.07984964549541473
-1.1687208414077759,2.6340560913085938,-0.08029709756374359
-1.1719180345535278,2.6923298835754395,-0.08291400223970413
-1.1463433504104614,2.686311960220337,-0.08353544026613235
-1.1586235761642456,2.7701046466827393,-0.08697068691253662
-1.150761365890503,2.8071351051330566,-0.08896287530660629
-1.1339201927185059,2.82236385345459,-0.09025518596172333
-1.1178227663040161,2.841336488723755,-0.09163098782300949
-1.1113102436065674,2.8857359886169434,-0.09384522587060928
-1.102031946182251,2.9226648807525635,-0.09581764787435532
-1.0894465446472168,2.952328681945801,-0.09757533669471741
-1.0803557634353638,2.9930202960968018,-0.09965301305055618
-1.061488389968872,3.0080127716064453,-0.10087746381759644
-1.0477240085601807,3.037592649459839,-0.10259762406349182
-1.0340372323989868,3.0669777393341064,-0.10431192815303802
-1.0133719444274902,3.0779452323913574,-0.10540498048067093
-0.9985493421554565,3.1073689460754395,-0.10707135498523712
-0.9786605834960938,3.121842622756958,-0.10823513567447662
-0.9658287167549133,3.158480167388916,-0.11016983538866043
-0.9538566470146179,3.19876766204834,-0.11224428564310074
-0.9378147721290588,3.227877378463745,-0.11389409005641937
-0.9207740426063538,3.25709867477417,-0.11553461104631424
-0.905846118927002,3.293654680252075,-0.11744034290313721
-0.8878954648971558,3.3187198638916016,-0.1189388632774353
-0.8687127828598022,3.339900493621826,-0.12030864506959915
-0.8508002758026123,3.3686444759368896,-0.12190119177103043
-0.8301861882209778,3.3898348808288574,-0.12322410941123962
-0.8124271631240845,3.4221994876861572,-0.12495701014995575
-0.7886295318603516,3.427734375,-0.1257091909646988
-0.773252546787262,3.4712131023406982,-0.12786586582660675
-0.7610876560211182,3.533797025680542,-0.13065150380134583
-0.7435925602912903,3.5773749351501465,-0.13275226950645447
-0.7214123010635376,3.5978152751922607,-0.13399890065193176
-0.7030013799667358,3.6372220516204834,-0.13595914840698242
-0.6833943724632263,3.672701358795166,-0.13778740167617798
-0.6643586158752441,3.715831756591797,-0.1398104876279831
-0.6422780156135559,3.7474162578582764,-0.1414116472005844
-0.6209467053413391,3.782637596130371,-0.1431553065776825
-0.6012726426124573,3.829263925552368,-0.1453409045934677
-0.5804352164268494,3.8719310760498047,-0.147391676902771
-0.5587315559387207,3.9145379066467285,-0.14935420453548431
-0.5364824533462524,3.9609649181365967,-0.15146838128566742
-0.5145977139472961,4.011078834533691,-0.1537327915430069
-0.48911046981811523,4.033908367156982,-0.15496021509170532
-0.4681667983531952,4.099240779876709,-0.1578354686498642
-0.44329050183296204,4.137322902679443,-0.15958601236343384
-0.41897881031036377,4.186918258666992,-0.16176557540893555
-0.3945790231227875,4.2480788230896,-0.16441145539283752
-0.3656124770641327,4.258490562438965,-0.16509991884231567
-0.3334905505180359,4.229788303375244,-0.16427801549434662
-0.3066895306110382,4.270938873291016,-0.1660887598991394
-0.32366663217544556,4.997471332550049,-0.19453036785125732
-0.291179895401001,5.054196357727051,-0.1969415843486786
-0.25356024503707886,5.009313106536865,-0.19539912045001984
-0.21807818114757538,4.995344638824463,-0.1950685977935791
-0.18386293947696686,5.012336254119873,-0.19589152932167053
-0.14797432720661163,4.982279300689697,-0.19479107856750488
-0.11263268440961838,4.983199119567871,-0.19491219520568848
-0.07773848623037338,4.972149848937988,-0.19457294046878815
-0.04306022450327873,4.9569525718688965,-0.19408002495765686
-0.008581907488405704,4.933709621429443,-0.19324900209903717
0.02562214992940426,4.9102325439453125,-0.19228243827819824
0.06003381684422493,4.886512756347656,-0.19131556153297424
0.09403008222579956,4.885978698730469,-0.19126655161380768
0.1273060292005539,4.8578948974609375,-0.19014844298362732
0.1607985943555832,4.849092483520508,-0.1897943764925003
0.19351477921009064,4.824466705322266,-0.18868188560009003
0.22662770748138428,4.815217018127441,-0.188174769282341
0.2589237689971924,4.78232479095459,-0.18675166368484497
0.2919151484966278,4.776521682739258,-0.18639859557151794
0.32302531599998474,4.743228435516357,-0.18498249351978302
0.3564482629299164,4.7486748695373535,-0.18497556447982788
0.3886871635913849,4.738325119018555,-0.18432272970676422
0.18607589602470398,2.0878121852874756,-0.08110868185758591
0.20056787133216858,2.0864756107330322,-0.0809541568160057
0.21266613900661469,2.0617403984069824,-0.07989662140607834
0.2286476194858551,2.075745105743408,-0.08030694723129272
0.24841605126857758,2.1206490993499756,-0.08187918365001678
0.25560882687568665,2.056882619857788,-0.0792577862739563
0.2688542604446411,2.047328233718872,-0.07873660326004028
0.28950801491737366,2.0918161869049072,-0.08029438555240631
0.3028711974620819,2.0820441246032715,-0.07974694669246674
0.3183914124965668,2.0876359939575195,-0.07975015044212341
0.3447094261646271,2.1586031913757324,-0.0822429209947586
0.7578065395355225,4.543375492095947,-0.17265665531158447
0.7880485653877258,4.530327796936035,-0.17172089219093323
0.812484860420227,4.486370086669922,-0.1695903241634369
0.7075356245040894,3.7595043182373047,-0.1416340172290802
0.7348596453666687,3.7622392177581787,-0.14126165211200714
0.7627834677696228,3.7646689414978027,-0.1408730447292328
0.9284504055976868,4.424052715301514,-0.16499459743499756
0.9607661962509155,4.425167560577393,-0.164470836520195
0.9910354018211365,4.418519973754883,-0.16357164084911346
1.0194599628448486,4.4040679931640625,-0.16239312291145325
1.0502676963806152,4.396856784820557,-0.16147509217262268
1.0799015760421753,4.385685443878174,-0.16042405366897583
1.1102948188781738,4.378124237060547,-0.15949176251888275
1.134256362915039,4.347812175750732,-0.15763679146766663
1.1638867855072021,4.340011119842529,-0.15661022067070007
1.19215989112854,4.324270248413086,-0.155286505818367
1.222251057624817,4.315898418426514,-0.15424001216888428
1.2455401420593262,4.284885406494141,-0.15236440300941467
1.2769032716751099,4.2838335037231445,-0.15147154033184052
1.2969385385513306,4.245204448699951,-0.14926044642925262
1.3313113451004028,4.250959396362305,-0.14859628677368164
1.360880732536316,4.241627216339111,-0.14741407334804535
1.3875885009765625,4.224789619445801,-0.14593291282653809
1.4100325107574463,4.196808338165283,-0.1440189629793167
1.4397716522216797,4.190870761871338,-0.14287149906158447
1.468709111213684,4.180861473083496,-0.14157424867153168
1.496932029724121,4.166736125946045,-0.14012300968170166
1.5225731134414673,4.149164199829102,-0.1385054588317871
1.54509699344635,4.124202251434326,-0.13662678003311157
1.5702389478683472,4.106382846832275,-0.13499288260936737
1.5959500074386597,4.088123321533203,-0.13332684338092804
1.6247358322143555,4.076817035675049,-0.13186298310756683
1.6551088094711304,4.07305908203125,-0.1305970698595047
1.6765391826629639,4.047433376312256,-0.1286379098892212
1.7134408950805664,4.057441234588623,-0.12779200077056885
1.9778677225112915,4.5941877365112305,-0.14336241781711578
2.0361812114715576,4.641279220581055,-0.14339593052864075
2.065674304962158,4.624009132385254,-0.14142973721027374
2.0969483852386475,4.6099677085876465,-0.13955570757389069
2.125619411468506,4.58827018737793,-0.13742274045944214
2.1602563858032227,4.580759048461914,-0.13568486273288727
2.193000078201294,4.569565773010254,-0.13376353681087494
2.218324899673462,4.544350624084473,-0.13146665692329407
2.253338575363159,4.535872459411621,-0.12959696352481842
2.2861812114715576,4.523843765258789,-0.1276054084300995
2.3143553733825684,4.505165100097656,-0.125375896692276
2.349642038345337,4.5001420974731445,-0.12352757900953293
2.399751901626587,4.517950057983398,-0.12218109518289566
1.7515214681625366,3.243818998336792,-0.08640849590301514
1.7654001712799072,3.2185254096984863,-0.08439270406961441
1.7468700408935547,3.1351046562194824,-0.08088204264640808
1.7647913694381714,3.116121768951416,-0.07901110500097275
1.8309282064437866,3.181837797164917,-0.0792158991098404
1.3376224040985107,2.2896642684936523,-0.05595399811863899
0.9545056223869324,1.6088581085205078,-0.038554370403289795
0.9656621813774109,1.602209210395813,-0.03760894387960434
0.9760901927947998,1.5958997011184692,-0.03665658086538315
0.9866660833358765,1.5894051790237427,-0.035684969276189804
0.9976999163627625,1.5825248956680298,-0.0346670038998127
1.0082064867019653,1.5758740901947021,-0.03364517167210579
1.0268871784210205,1.5824437141418457,-0.032891951501369476
1.0269602537155151,1.5590866804122925,-0.03146805986762047
1.0440808534622192,1.5618102550506592,-0.030539648607373238
1.0496859550476074,1.5486419200897217,-0.029312677681446075
1.0602319240570068,1.541463017463684,-0.028141118586063385
2.5675876140594482,3.680758476257324,-0.0646459236741066
2.5953657627105713,3.6708450317382812,-0.061894480139017105
2.6257574558258057,3.6588404178619385,-0.05880672484636307
2.6304495334625244,3.6169509887695312,-0.05529779940843582
2.6448726654052734,3.5870718955993652,-0.051855847239494324
2.610813617706299,3.6882662773132324,0.0806703120470047
2.5749239921569824,3.6943094730377197,0.08377335220575333
1.0628993511199951,1.5489404201507568,0.03629818931221962
1.0682250261306763,1.5830745697021484,0.038300592452287674
1.0355453491210938,1.557927131652832,0.03873803839087486
1.028195858001709,1.5720980167388916,0.04012571647763252
1.024771809577942,1.5929075479507446,0.04168394207954407
1.005278468132019,1.5867893695831299,0.04246402904391289
0.9933069348335266,1.5942801237106323,0.04360278695821762
0.9853245615959167,1.6083614826202393,0.044906098395586014
0.9700467586517334,1.6084790229797363,0.04575284197926521
0.9544504880905151,1.6086782217025757,0.0465867780148983
1.351659893989563,2.3173322677612305,0.06828029453754425
1.8397754430770874,3.2078359127044678,0.09610115736722946
1.771300196647644,3.138913869857788,0.09550423920154572
1.753672480583191,3.162142515182495,0.09763291478157043
1.769378423690796,3.247025728225708,0.10170556604862213
1.753968596458435,3.2730512619018555,0.10389552265405655
2.39467191696167,4.546448707580566,0.1462153047323227
2.3467886447906494,4.536131858825684,0.14765772223472595
2.3097991943359375,4.546245098114014,0.14975959062576294
2.2815678119659424,4.5691351890563965,0.1521947830915451
2.239034652709961,4.563974857330322,0.15368178486824036
2.215123414993286,4.601567268371582,0.1565818041563034
2.1713244915008545,4.596426486968994,0.1580098271369934
2.1456429958343506,4.625622272491455,0.16055257618427277
2.1165976524353027,4.647494792938232,0.16284775733947754
2.082655668258667,4.6627349853515625,0.1648084968328476
2.051734209060669,4.684879302978516,0.16702410578727722
1.9824271202087402,4.6169915199279785,0.16600188612937927
1.7259787321090698,4.098106861114502,0.14854170382022858
1.6908074617385864,4.095795631408691,0.14959262311458588
1.6669727563858032,4.122347354888916,0.15166223049163818
1.6399672031402588,4.141506671905518,0.15347367525100708
1.6105653047561646,4.152973175048828,0.15498711168766022
1.5815637111663818,4.164048194885254,0.15647588670253754
1.554222583770752,4.182608127593994,0.15815430879592896
1.5212913751602173,4.186338901519775,0.159278005361557
1.4913594722747803,4.197042465209961,0.16066184639930725
1.4641295671463013,4.214831829071045,0.16231977939605713
1.4396083354949951,4.239711761474609,0.1642254739999771
1.4066575765609741,4.242485523223877,0.16518834233283997
1.3785111904144287,4.259871959686279,0.16672979295253754
1.3529903888702393,4.284374713897705,0.1685500144958496
1.324931263923645,4.301255702972412,0.17008227109909058
1.2948451042175293,4.310361385345459,0.1712752729654312
1.2661933898925781,4.326955318450928,0.17268429696559906
1.2331316471099854,4.32833194732666,0.1734938770532608
1.204521656036377,4.344438076019287,0.17489686608314514
1.17731511592865,4.363976001739502,0.17643626034259796
1.1463347673416138,4.372171878814697,0.17752718925476074
1.1170852184295654,4.387753009796143,0.17879682779312134
1.0895438194274902,4.410717964172363,0.18037976324558258
1.0600367784500122,4.42588996887207,0.1816539168357849
1.0292216539382935,4.4331183433532715,0.1825992316007614
1.0029150247573853,4.463109493255615,0.18450675904750824
0.9679933190345764,4.454803943634033,0.18470856547355652
0.9379611611366272,4.4691667556762695,0.18583856523036957
0.7683187127113342,3.7947680950164795,0.15825651586055756
0.741839587688446,3.8000051975250244,0.15893445909023285
0.7271440029144287,3.870347023010254,0.16235892474651337
0.8234820365905762,4.558976650238037,0.19174928963184357
0.7911984324455261,4.564661502838135,0.19243690371513367
0.762755811214447,4.593210697174072,0.1940997689962387
0.7316775918006897,4.606138706207275,0.1951126754283905
0.7002331614494324,4.618888854980469,0.1961326152086258
0.6691638827323914,4.631350517272949,0.19713720679283142
0.6402583122253418,4.662990570068359,0.19880366325378418
0.606361985206604,4.659626007080078,0.1989893764257431
0.5754484534263611,4.679251194000244,0.20016683638095856
0.5446545481681824,4.698629379272461,0.20134201645851135
0.5122235417366028,4.710104465484619,0.20219607651233673
0.4800596833229065,4.72131872177124,0.20296727120876312
0.44986310601234436,4.755637168884277,0.20466502010822296
0.41716688871383667,4.766436576843262,0.2053624838590622
0.3840751349925995,4.773116588592529,0.20589283108711243
0.3514379858970642,4.791267395019531,0.20693162083625793
0.3196469843387604,4.816945552825928,0.20830342173576355
0.28595882654190063,4.819052696228027,0.2085264027118683
0.2526439130306244,4.828721046447754,0.20906977355480194
0.2209741175174713,4.877144813537598,0.21130284667015076
0.18611480295658112,4.870779514312744,0.21117553114891052
0.1525910496711731,4.8836493492126465,0.21188995242118835
0.11897258460521698,4.900191783905029,0.21273396909236908
0.08534105867147446,4.9321160316467285,0.21413002908229828
0.05123854801058769,4.956003189086914,0.2151876837015152
0.016140980646014214,4.971850395202637,0.2159075140953064
-0.018443789333105087,4.975743293762207,0.21611830592155457
-0.05325615033507347,4.99110221862793,0.2168378233909607
-0.08820777386426926,5.006221294403076,0.2174673229455948
-0.1231609433889389,5.013296127319336,0.2176901400089264
-0.1587083637714386,5.035728931427002,0.21858985722064972
-0.19457168877124786,5.0422868728637695,0.2188095897436142
-0.23034140467643738,5.056411266326904,0.2193690687417984
-0.266981303691864,5.081969738006592,0.22043479979038239
-0.30402854084968567,5.111176490783691,0.22151139378547668
-0.2892203629016876,4.35352087020874,0.18850693106651306
-0.31328773498535156,4.261868953704834,0.18437933921813965
-0.3428701162338257,4.25960111618042,0.18413330614566803
-0.37519943714141846,4.288227558135986,0.18523037433624268
-0.3997683525085449,4.231142044067383,0.18260088562965393
-0.4253951907157898,4.193356037139893,0.18070481717586517
-0.4489016532897949,4.13596773147583,0.1779738813638687
-0.4706982672214508,4.074635982513428,0.17509298026561737
-0.49617913365364075,4.048037528991699,0.1737157553434372
-0.5198076963424683,4.009671211242676,0.17184525728225708
-0.5411487221717834,3.9596035480499268,0.16940878331661224
-0.5627452731132507,3.913245916366577,0.16708949208259583
-0.5826520323753357,3.8629961013793945,0.16462545096874237
-0.6038312911987305,3.8242061138153076,0.16266295313835144
-0.6253211498260498,3.789130449295044,0.16086933016777039
-0.6463051438331604,3.7539501190185547,0.15908068418502808
-0.6658025979995728,3.714885711669922,0.1570206582546234
-0.6859304904937744,3.6794912815093994,0.15512365102767944
-0.703698992729187,3.63641357421875,0.15292403101921082
-0.7219855785369873,3.597031354904175,0.15088999271392822
-0.7389994263648987,3.553743362426758,0.14870645105838776
-0.7544221878051758,3.506624460220337,0.14631925523281097
-0.7719484567642212,3.4708564281463623,0.1443611979484558
-0.8008245229721069,3.488367795944214,0.1446351855993271
-0.8104157447814941,3.422034740447998,0.14144016802310944
-0.8295360207557678,3.3973922729492188,0.13998126983642578
-0.8492490649223328,3.3764498233795166,0.1386747807264328
-0.8667253255844116,3.3478524684906006,0.1369645595550537
-0.8794066905975342,3.3041999340057373,0.13466422259807587
-0.8988019824028015,3.286869525909424,0.13344915211200714
-0.9152828454971313,3.2580296993255615,0.13176819682121277
-0.9314064979553223,3.2291202545166016,0.13009782135486603
-0.9448667168617249,3.1926887035369873,0.12805548310279846
-0.9653232097625732,3.1825180053710938,0.12707054615020752
-0.975260853767395,3.1386678218841553,0.12475410848855972
-0.9898813366889954,3.109550714492798,0.12302660942077637
-1.0114871263504028,3.102623224258423,0.1221848726272583
-1.0243409872055054,3.0696463584899902,0.12025786191225052
-1.0425139665603638,3.0553104877471924,0.11904921382665634
-1.0528268814086914,3.0187530517578125,0.1169879361987114
-1.0736451148986816,3.0114476680755615,0.11605734378099442
-1.0838762521743774,2.974599599838257,0.113995261490345
-1.101402997970581,2.959862470626831,0.11274564266204834
-1.111908197402954,2.9267566204071045,0.11076415330171585
-1.1061549186706543,2.853736639022827,0.10731156170368195
-1.1229811906814575,2.838799476623535,0.1060461550951004
-1.142717719078064,2.8309500217437744,0.105047307908535
-1.1514376401901245,2.7979238033294678,0.10307969897985458
-1.1523430347442627,2.7468550205230713,0.10043924301862717
-1.1630444526672363,2.7211623191833496,0.09876061975955963
-1.1460784673690796,2.6307239532470703,0.09473652392625809
-1.1658923625946045,2.626312017440796,0.09383632242679596
-1.2154971361160278,2.6896910667419434,0.09526485204696655
-1.204302191734314,2.617598295211792,0.09188304096460342
-1.2319881916046143,2.630612373352051,0.0915035605430603
-1.2670739889144897,2.657255172729492,0.0915634036064148
-1.2851097583770752,2.64862060546875,0.09037233144044876
-1.2888259887695312,2.6120691299438477,0.08821804821491241
-1.2767103910446167,2.5439987182617188,0.08501505106687546
-1.2872306108474731,2.5212087631225586,0.08333297818899155
-1.2973010540008545,2.4984967708587646,0.08165634423494339
-1.3063957691192627,2.4761486053466797,0.0799635723233223
-1.3189420700073242,2.4606711864471436,0.07850421220064163
-1.3265652656555176,2.4343998432159424,0.07666414976119995
-1.34369957447052,2.4250264167785645,0.07533355057239532
-1.3481124639511108,2.395768880844116,0.07337696105241776
-1.3599482774734497,2.380119800567627,0.07185225933790207
-1.368516445159912,2.357200860977173,0.07006657123565674
-1.3964943885803223,2.3680171966552734,0.06926650553941727
-1.388028621673584,2.3185806274414062,0.06666337698698044
-1.4113333225250244,2.3228073120117188,0.06562592834234238
-1.4275249242782593,2.312934160232544,0.06411214172840118
-1.4346128702163696,2.2901742458343506,0.062229909002780914
-1.4431276321411133,2.2709903717041016,0.06044783443212509
-1.4545234441757202,2.2544612884521484,0.058665931224823
-1.4697805643081665,2.2445859909057617,0.057048581540584564
-1.475399374961853,2.22221040725708,0.055100101977586746
-1.4595228433609009,2.1670937538146973,0.05232562869787216
-1.5008327960968018,2.1957409381866455,0.05150257423520088
-1.4971266984939575,2.1604044437408447,0.049123331904411316
-1.4911824464797974,2.121729850769043,0.04666464030742645
-1.4964133501052856,2.0989272594451904,0.04449908435344696
-1.5003342628479004,2.076923131942749,0.04235506057739258
-1.5097911357879639,2.0604233741760254,0.040191780775785446
-1.518282413482666,2.044491767883301,0.03800182789564133
-1.4947837591171265,2.109694004058838,-0.04341842234134674
-1.5089976787567139,2.161724328994751,-0.04647335782647133
-1.5012720823287964,2.186026096343994,-0.04897870123386383
-1.484968662261963,2.197084665298462,-0.051132187247276306
-1.4778248071670532,2.220637798309326,-0.05346593260765076
-1.4695450067520142,2.2447707653045654,-0.055830832570791245
-1.4578168392181396,2.2616546154022217,-0.05792335420846939
-1.4434475898742676,2.2754294872283936,-0.059906017035245895
-1.4383972883224487,2.3062357902526855,-0.062371544539928436
-1.422151803970337,2.3162405490875244,-0.06415807455778122
-1.4095138311386108,2.3330328464508057,-0.06611718982458115
-1.4041038751602173,2.3635361194610596,-0.06847717612981796
-1.3912156820297241,2.380145788192749,-0.07038955390453339
-1.3780089616775513,2.396777868270874,-0.07230371981859207
-1.3699160814285278,2.423814296722412,-0.07450105994939804
-1.3390010595321655,2.409754991531372,-0.07541555166244507
-1.333385944366455,2.4395499229431152,-0.07765167951583862
-1.3175241947174072,2.452535390853882,-0.07934205234050751
-1.3027927875518799,2.4691731929779053,-0.08117087185382843
-1.296063780784607,2.49908185005188,-0.0833856612443924
-1.2892438173294067,2.5288801193237305,-0.08559916168451309
-1.2742512226104736,2.545152425765991,-0.08733981847763062
-1.2780357599258423,2.599882125854492,-0.09042930603027344
-1.2730798721313477,2.6369874477386475,-0.09291445463895798
-1.2378442287445068,2.610513687133789,-0.09312422573566437
-1.2106506824493408,2.601670265197754,-0.09389516711235046
-1.2031075954437256,2.635188341140747,-0.09620288014411926
-1.1878151893615723,2.650625228881836,-0.0978313609957695
-1.1519149541854858,2.6195268630981445,-0.09772518277168274
-1.1681010723114014,2.710360050201416,-0.10216069966554642
-1.165136694908142,2.7582616806030273,-0.10501210391521454
-1.1547224521636963,2.787956476211548,-0.10716499388217926
-1.141201138496399,2.8103277683258057,-0.10904492437839508
-1.126811146736145,2.832890272140503,-0.11088398844003677
-1.110323190689087,2.8519129753112793,-0.11260873079299927
-1.112361192703247,2.918009042739868,-0.11618997901678085
-1.10016930103302,2.94758939743042,-0.11833567917346954
-1.0832875967025757,2.9662554264068604,-0.12001662701368332
-1.0698535442352295,2.9959585666656494,-0.1221252977848053
-1.055686116218567,3.025744915008545,-0.12427239120006561
-1.0421655178070068,3.0551345348358154,-0.12637987732887268
-1.0245808362960815,3.0733728408813477,-0.12803690135478973
-1.0074679851531982,3.095400810241699,-0.1297859251499176
-0.9877042770385742,3.109907388687134,-0.13123314082622528
-0.9838225245475769,3.1765244007110596,-0.13490913808345795
-0.9650519490242004,3.194463014602661,-0.13651792705059052
-0.9491527676582336,3.223595380783081,-0.13857658207416534
-0.9283296465873718,3.237729549407959,-0.13994251191616058
-0.9115217328071594,3.2667744159698486,-0.14196795225143433
-0.8886523246765137,3.273024559020996,-0.14300064742565155
-0.8783568739891052,3.328256607055664,-0.14620307087898254
-0.8587307333946228,3.349449872970581,-0.14784279465675354
-0.8424461483955383,3.3857228755950928,-0.1501321792602539
-0.823887288570404,3.414336681365967,-0.15209949016571045
-0.8028265237808228,3.431333303451538,-0.15354852378368378
-0.7819895148277283,3.452105760574341,-0.15519236028194427
-0.7660626769065857,3.495598554611206,-0.15775732696056366
-0.751899242401123,3.5505075454711914,-0.1608426719903946
-0.7315589189529419,3.578617572784424,-0.16273364424705505
-0.7126198410987854,3.6142234802246094,-0.1649765968322754
-0.6935036778450012,3.6536543369293213,-0.16742463409900665
-0.6733000874519348,3.689136505126953,-0.16956467926502228
-0.6526030898094177,3.724517822265625,-0.17170555889606476
-0.6308591365814209,3.755929708480835,-0.1736786812543869
-0.6122022271156311,3.80641770362854,-0.17654472589492798
-0.5906562209129333,3.8453209400177,-0.17890234291553497
-0.5693246722221375,3.8879497051239014,-0.18131917715072632
-0.5490157604217529,3.942063570022583,-0.18428020179271698
-0.5264769196510315,3.984471082687378,-0.18671244382858276
-0.502652108669281,4.018978595733643,-0.18878743052482605
-0.48065969347953796,4.072721004486084,-0.19178445637226105
-0.45508554577827454,4.10704231262207,-0.1937543898820877
-0.43154144287109375,4.160561561584473,-0.19661396741867065
-0.40764501690864563,4.217832565307617,-0.19966907799243927
-0.3806823194026947,4.2477521896362305,-0.2014441043138504
-0.3488255739212036,4.223058223724365,-0.20063886046409607
-0.3190401494503021,4.229308128356934,-0.20119382441043854
-0.2942020297050476,4.301493167877197,-0.2048502415418625
-0.3101886212825775,5.055073261260986,-0.24101100862026215
-0.27224814891815186,5.006442546844482,-0.23897244036197662
-0.23670732975006104,4.992606163024902,-0.2386021614074707
-0.20098692178726196,4.986349105834961,-0.23849010467529297
-0.1656881719827652,4.972022533416748,-0.2379199117422104
-0.13096517324447632,4.973050117492676,-0.23809581995010376
-0.09614390879869461,4.96212911605835,-0.2377103865146637
-0.06167110428214073,4.962669372558594,-0.23788495361804962
-0.026481550186872482,4.939566612243652,-0.2368497997522354
0.007808340713381767,4.916222095489502,-0.2356945425271988
0.04190575331449509,4.908247947692871,-0.23528775572776794
0.0758160650730133,4.892233848571777,-0.2345069944858551
0.10963726043701172,4.879885196685791,-0.233913391828537
0.14292855560779572,4.855607032775879,-0.23271100223064423
0.17672762274742126,4.838888645172119,-0.2317260205745697
0.2093493789434433,4.814165115356445,-0.23037371039390564
0.24163591861724854,4.7892231941223145,-0.22902368009090424
0.2748848795890808,4.787441253662109,-0.22879312932491302
0.30690068006515503,4.765957355499268,-0.22761952877044678
0.33933258056640625,4.748132228851318,-0.22644883394241333
0.370324045419693,4.722352504730225,-0.22491800785064697
0.17826688289642334,2.087707042694092,-0.09930530935525894
0.19349059462547302,2.0941970348358154,-0.0994889885187149
0.20649723708629608,2.077279567718506,-0.09856586903333664
0.22521467506885529,2.1145901679992676,-0.10014330595731735
0.23980672657489777,2.1129977703094482,-0.09987514466047287
0.25436869263648987,2.11130690574646,-0.09960731863975525
0.2621574103832245,2.055307626724243,-0.09678495675325394
0.27540823817253113,2.0457122325897217,-0.09615811705589294
0.29745450615882874,2.0978283882141113,-0.09836328774690628
0.30960965156555176,2.0803065299987793,-0.09728873521089554
0.33776459097862244,2.1668169498443604,-0.10107529908418655
0.34654805064201355,2.1259195804595947,-0.09891518205404282
0.7723975777626038,4.539312362670898,-0.21067607402801514
0.8023282289505005,4.526232719421387,-0.20943479239940643
0.8269211053848267,4.482173442840576,-0.20670995116233826
0.7211132049560547,3.763572931289673,-0.17301084101200104
0.7472512722015381,3.7585065364837646,-0.1722206175327301
0.8096144795417786,3.9290664196014404,-0.17945972084999084
0.9441123604774475,4.427221298217773,-0.20146320760250092
0.9766619801521301,4.428198337554932,-0.200691357254982
1.0087757110595703,4.429049015045166,-0.19993360340595245
1.0341079235076904,4.399202346801758,-0.19779451191425323
1.0619081258773804,4.380578994750977,-0.19617371261119843
1.0901252031326294,4.365652084350586,-0.1946265995502472
1.1165499687194824,4.342909336090088,-0.1926802694797516
1.1481853723526,4.342782020568848,-0.1917639821767807
1.1803851127624512,4.342286586761475,-0.19082163274288177
1.202170491218567,4.303952693939209,-0.18822933733463287
1.2294933795928955,4.288167476654053,-0.18653202056884766
1.2570191621780396,4.2721052169799805,-0.1847878396511078
1.2883968353271484,4.270961284637451,-0.18371517956256866
1.3134636878967285,4.24704122543335,-0.18165352940559387
1.343011736869812,4.237851142883301,-0.18023310601711273
1.3693686723709106,4.2212677001953125,-0.17837612330913544
1.3948321342468262,4.200652122497559,-0.1763397455215454
1.4235718250274658,4.191064834594727,-0.17478863894939423
1.4475605487823486,4.166380405426025,-0.17260274291038513
1.4736626148223877,4.149002552032471,-0.17069928348064423
1.5070329904556274,4.153680324554443,-0.1696241796016693
1.5324294567108154,4.13612174987793,-0.16764506697654724
1.558661699295044,4.1180315017700195,-0.16561150550842285
1.584457516670227,4.0998759269714355,-0.1635996252298355
1.612323522567749,4.089068412780762,-0.16181088984012604
1.6369560956954956,4.07092809677124,-0.15970970690250397
1.6674954891204834,4.067025184631348,-0.1581665724515915
1.6932400465011597,4.0479865074157715,-0.15598152577877045
1.7410173416137695,4.082971096038818,-0.15586942434310913
2.007937431335449,4.622682094573975,-0.1747332215309143
2.0484328269958496,4.630590438842773,-0.1732870191335678
2.0852010250091553,4.627086162567139,-0.17135974764823914
2.1097681522369385,4.594552993774414,-0.16832464933395386
2.143794536590576,4.5874834060668945,-0.1661723256111145
2.176133394241333,4.5766425132751465,-0.16388101875782013
2.2074007987976074,4.561731815338135,-0.16140775382518768
2.2390809059143066,4.546354293823242,-0.15889351069927216
2.2648441791534424,4.52056884765625,-0.1559194177389145
2.2984025478363037,4.512452602386475,-0.15358313918113708
2.3308892250061035,4.500244617462158,-0.1510593593120575
2.3693838119506836,4.497847557067871,-0.14882175624370575
1.7396308183670044,3.2496347427368164,-0.10590258985757828
1.7611160278320312,3.2381062507629395,-0.10389305651187897
1.7325526475906372,3.1335973739624023,-0.09887432307004929
1.746644377708435,3.107924222946167,-0.09640073776245117
1.7960999011993408,3.1472930908203125,-0.09589844197034836
1.337135672569275,2.307673692703247,-0.0690450519323349
1.317453384399414,2.2378170490264893,-0.06565005332231522
0.9600836038589478,1.60533607006073,-0.046123020350933075
0.9685491919517517,1.595709204673767,-0.04487577825784683
0.9813090562820435,1.5925160646438599,-0.043784916400909424
0.996488094329834,1.59231698513031,-0.042739417403936386
0.9963211417198181,1.5693732500076294,-0.04107894375920296
1.0215638875961304,1.5857118368148804,-0.040413208305835724
1.0283156633377075,1.572049856185913,-0.038923319429159164
1.0321120023727417,1.5555505752563477,-0.03736524656414986
1.0487056970596313,1.5585856437683105,-0.036269813776016235
1.0550949573516846,1.54485023021698,-0.034699320793151855
2.5552008152008057,3.689072370529175,-0.07977735251188278
2.5790886878967285,3.672485113143921,-0.07630946487188339
2.6179420948028564,3.6737797260284424,-0.07297361642122269
2.6364054679870605,3.650994062423706,-0.06914450973272324
2.637723207473755,3.6018147468566895,-0.06463246047496796
2.6750190258026123,3.6035027503967285,-0.06089618429541588
2.6304244995117188,3.6883294582366943,0.09653817862272263
2.599616289138794,3.70045804977417,0.10046021640300751
2.576241970062256,3.7261576652526855,0.10465198755264282
1.0653787851333618,1.5659360885620117,0.04539554566144943
1.0456856489181519,1.560341238975525,0.046531230211257935
1.0337098836898804,1.5682551860809326,0.048039574176073074
1.0304369926452637,1.5890109539031982,0.04992656037211418
1.0150314569473267,1.5895934104919434,0.051100656390190125
0.9988080859184265,1.590578556060791,0.05225866660475731
0.9829550385475159,1.5912079811096191,0.053368229418992996
0.9799466729164124,1.6113280057907104,0.05508032068610191
0.9597281217575073,1.6052379608154297,0.0559016652405262
1.0050435066223145,1.7099581956863403,0.060618527233600616
1.3391039371490479,2.315091371536255,0.0834120661020279
1.8070696592330933,3.176342487335205,0.11624108999967575
1.7548004388809204,3.138504981994629,0.11658094078302383
1.7597869634628296,3.20261549949646,0.1206999197602272
1.7653295993804932,3.266207456588745,0.12475817650556564
2.3990964889526367,4.516571521759033,0.17472346127033234
2.3693931102752686,4.540922164916992,0.17783628404140472
2.329622983932495,4.5438032150268555,0.18005980551242828
2.300828456878662,4.567087173461914,0.1830746829509735
2.2607264518737793,4.5695481300354,0.18515051901340485
2.2304883003234863,4.592958450317383,0.18805505335330963
2.2007575035095215,4.615823745727539,0.19091108441352844
2.165238857269287,4.623868942260742,0.19310355186462402
2.132098913192749,4.63914155960083,0.1955355554819107
2.097543478012085,4.6547651290893555,0.1979621946811676
2.0636842250823975,4.669774055480957,0.20033210515975952
2.0249106884002686,4.669607162475586,0.20198450982570648
1.7522996664047241,4.119681358337402,0.1796458512544632
1.7073335647583008,4.096182823181152,0.1799694448709488
1.6829140186309814,4.123057842254639,0.1825334131717682
1.656589150428772,4.142031669616699,0.1847056895494461
1.6276764869689941,4.153396129608154,0.1865299791097641
1.6009196043014526,4.1720662117004395,0.18861696124076843
1.567949652671814,4.176154613494873,0.18999257683753967
1.539884090423584,4.194820880889893,0.19206129014492035
1.510537028312683,4.205402374267578,0.1937107890844345
1.478674054145813,4.2083635330200195,0.1950109750032425
1.4536689519882202,4.23350191116333,0.1972442865371704
1.4207265377044678,4.2363691329956055,0.19841542840003967
1.397004246711731,4.2688212394714355,0.20100435614585876
1.3696120977401733,4.285813331604004,0.2028323858976364
1.3420507907867432,4.302629470825195,0.20466552674770355
1.3091317415237427,4.304536819458008,0.20568905770778656
1.280466079711914,4.321226596832275,0.20740143954753876
1.252710223197937,4.3414740562438965,0.2092992216348648
1.2218412160873413,4.3501973152160645,0.21064624190330505
1.1915054321289062,4.358540058135986,0.2119673788547516
1.166614294052124,4.389437675476074,0.21429303288459778
1.1352410316467285,4.3975982666015625,0.21547146141529083
1.1038106679916382,4.405534744262695,0.2166498601436615
1.076092004776001,4.42839241027832,0.21857374906539917
1.0470596551895142,4.443306922912598,0.22010159492492676
1.0158660411834717,4.450488090515137,0.22119228541851044
0.9825592041015625,4.449919700622559,0.22181403636932373
0.9525684714317322,4.464365005493164,0.2231954038143158
0.786008358001709,3.81756854057312,0.1914377063512802
0.7548683285713196,3.7999420166015625,0.191120907664299
0.7283631563186646,3.805069923400879,0.1919507384300232
0.8356218934059143,4.5391154289245605,0.22950273752212524
0.8061915040016174,4.56024169921875,0.231105774641037
0.7772308588027954,4.588967800140381,0.233119934797287
0.7490141987800598,4.617331504821777,0.23511405289173126
0.7168974280357361,4.622385025024414,0.23593458533287048
0.6856095194816589,4.634979724884033,0.2370547205209732
0.6545703411102295,4.651251792907715,0.23829254508018494
0.6232572197914124,4.671260356903076,0.23974375426769257
0.5905166864395142,4.675479412078857,0.2403879463672638
0.5588547587394714,4.687193870544434,0.24142760038375854
0.527974009513855,4.706442356109619,0.242868572473526
0.49735069274902344,4.733288764953613,0.2445346564054489
0.46484386920928955,4.744407653808594,0.24539600312709808
0.432298868894577,4.763128757476807,0.2466696947813034
0.39943206310272217,4.769887924194336,0.24732933938503265
0.36803174018859863,4.795865058898926,0.24899880588054657
0.3357252776622772,4.81385612487793,0.25020724534988403
0.3020187020301819,4.816073894500732,0.250483900308609
0.2690204381942749,4.841457366943359,0.251981645822525
0.23630592226982117,4.866583347320557,0.25347694754600525
0.20328593254089355,4.887581825256348,0.2547701597213745
0.16953162848949432,4.896661281585693,0.2554558217525482
0.13500216603279114,4.88211727142334,0.25479286909103394
0.1008186861872673,4.906349182128906,0.25609341263771057
0.06699452549219131,4.93813419342041,0.2578006386756897
0.03283081576228142,4.9696831703186035,0.2595086097717285
-0.001759155304171145,4.973688125610352,0.2597913146018982
-0.03643905371427536,4.989155292510986,0.2606854736804962
-0.0718054547905922,4.996579647064209,0.2609928250312805
-0.10701052099466324,5.0193657875061035,0.2621009051799774
-0.14236538112163544,5.034103870391846,0.2628006339073181
-0.17705589532852173,5.025202751159668,0.2622789144515991
-0.2129954844713211,5.047240257263184,0.26338452100753784
-0.24859730899333954,5.057336807250977,0.2638397216796875
-0.28861063718795776,5.133373260498047,0.26757293939590454
-0.27596038579940796,4.368195533752441,0.2275042086839676
-0.29993924498558044,4.276690483093262,0.2225683480501175
-0.32908836007118225,4.266735553741455,0.2218904048204422
-0.36138391494750977,4.295454978942871,0.2232336699962616
-0.3888207972049713,4.261739730834961,0.22125595808029175
-0.41251063346862793,4.200741767883301,0.21779529750347137
-0.43827447295188904,4.166775226593018,0.21575231850147247
-0.4635885953903198,4.132653713226318,0.21371576189994812
-0.4844572842121124,4.06350040435791,0.20988252758979797
-0.5078346729278564,4.017416954040527,0.2072533518075943
-0.5303372740745544,3.9751830101013184,0.20470726490020752
-0.5495153665542603,3.9135236740112305,0.20115038752555847
-0.5729921460151672,3.886525869369507,0.1993924379348755
-0.5951206684112549,3.8516504764556885,0.1972423642873764
-0.6142004132270813,3.797316789627075,0.19410596787929535
-0.6352792382240295,3.762228488922119,0.1919485479593277
-0.6549131870269775,3.723249912261963,0.1894913613796234
-0.6733417510986328,3.6803417205810547,0.18685217201709747
-0.6955844163894653,3.660353660583496,0.18539199233055115
-0.7164949178695679,3.6324961185455322,0.1835392862558365
-0.7335570454597473,3.585329532623291,0.18072059750556946
-0.7484567165374756,3.5344440937042236,0.17765796184539795
-0.7633954882621765,3.4873669147491455,0.1747576743364334
-0.7871573567390442,3.4821197986602783,0.17396891117095947
-0.8022478818893433,3.4386613368988037,0.1712798774242401
-0.8201581835746765,3.4063875675201416,0.16915202140808105
-0.8399434685707092,3.3855249881744385,0.16759568452835083
-0.8590795397758484,3.364659070968628,0.1659487932920456
-0.8719944953918457,3.3210537433624268,0.16319847106933594
-0.8905171751976013,3.300015449523926,0.16157254576683044
-0.9086280465126038,3.2748775482177734,0.15973669290542603
-0.9228600263595581,3.238492488861084,0.1573784500360489
-0.938325047492981,3.2097079753875732,0.1553160548210144
-0.9578073620796204,3.195849657058716,0.15396666526794434
-0.9691263437271118,3.1557631492614746,0.15136940777301788
-0.9819580316543579,3.1191298961639404,0.14893221855163574
-1.0036262273788452,3.1122729778289795,0.14793920516967773
-1.0175374746322632,3.083155632019043,0.1458393782377243
-1.0320746898651123,3.0577845573425293,0.14388814568519592
-1.0501612424850464,3.0434155464172363,0.14246657490730286
-1.0632773637771606,3.0140910148620605,0.14034542441368103
-1.0845578908920288,3.0065512657165527,0.13923008739948273
-1.0915825366973877,2.9625039100646973,0.13640359044075012
-1.108698844909668,2.947856903076172,0.13489702343940735
-1.118675947189331,2.9148952960968018,0.13256768882274628
-1.1159117221832275,2.8490471839904785,0.128753200173378
-1.1331212520599365,2.833895444869995,0.12723185122013092
-1.1450204849243164,2.8080997467041016,0.12521076202392578
-1.1607683897018433,2.7932305335998535,0.12365394830703735
-1.1642162799835205,2.7495131492614746,0.12083833664655685
-1.144545078277588,2.651857852935791,0.1156691163778305
-1.1570489406585693,2.629431962966919,0.11379896849393845
-1.1699053049087524,2.6109659671783447,0.11206360161304474
-1.1986234188079834,2.628023386001587,0.11183816194534302
-1.2080607414245605,2.6022520065307617,0.10978364944458008
-1.2378236055374146,2.618539333343506,0.10947264730930328
-1.2493362426757812,2.59580659866333,0.10749600827693939
-1.2802455425262451,2.615574598312378,0.10724876821041107
-1.3010348081588745,2.614077091217041,0.10611999034881592
-1.2819398641586304,2.531994581222534,0.10171352326869965
-1.2959409952163696,2.5161359310150146,0.09999364614486694
