X,Y,Z
-1.096472144126892,4.264232158660889,0.3130829930305481
-1.1281001567840576,4.26415491104126,0.31201815605163574
-1.1577749252319336,4.256311893463135,0.3103969097137451
-1.18276047706604,4.233381748199463,0.3075679838657379
-1.2039378881454468,4.199169635772705,0.30385154485702515
-1.232870101928711,4.19089937210083,0.30201390385627747
-1.2595720291137695,4.174943923950195,0.2996356785297394
-1.2861896753311157,4.15879487991333,0.29725903272628784
-1.312549352645874,4.142509460449219,0.2948577404022217
-1.3476067781448364,4.155971527099609,0.2944112718105316
-1.3686645030975342,4.124598503112793,0.29077786207199097
-1.3968356847763062,4.115288257598877,0.2887228727340698
-1.4177552461624146,4.083526611328125,0.2850900888442993
-1.440872073173523,4.059031009674072,0.2819928228855133
-1.4788440465927124,4.0786919593811035,0.2817947268486023
-1.4980850219726562,4.046888828277588,0.27802786231040955
-1.5204590559005737,4.02202844619751,0.2747223675251007
-1.5484557151794434,4.011491775512695,0.2723981440067291
-1.573520541191101,3.993504762649536,0.2695840895175934
-1.6004321575164795,3.9829599857330322,0.2671436071395874
-1.6270824670791626,3.972313165664673,0.2646675407886505
-1.657431960105896,3.9683678150177,0.26259616017341614
-1.6849812269210815,3.956918954849243,0.2600221633911133
-1.7062737941741943,3.9309558868408203,0.2565113604068756
-1.732513666152954,3.9196360111236572,0.2538306415081024
-1.7537763118743896,3.8975179195404053,0.2504463791847229
-1.774191975593567,3.871293544769287,0.24674716591835022
-1.7879164218902588,3.8307504653930664,0.24215537309646606
-1.8277056217193604,3.846675395965576,0.2411164790391922
-1.8463921546936035,3.820604085922241,0.23731999099254608
-1.8682245016098022,3.801466464996338,0.23397906124591827
-1.8879832029342651,3.774444580078125,0.2300395518541336
-1.9071954488754272,3.747459888458252,0.22615262866020203
-1.9430596828460693,3.7555482387542725,0.2242920994758606
-1.9641728401184082,3.735924243927002,0.22073692083358765
-1.9931371212005615,3.729591131210327,0.217911496758461
-2.019078493118286,3.7158045768737793,0.21458828449249268
-1.7126959562301636,3.1009204387664795,0.1768825352191925
-1.7215148210525513,3.069383144378662,0.172878235578537
-0.8420581817626953,1.4781146049499512,0.08216086775064468
-0.8523497581481934,1.4722846746444702,0.0807005912065506
-0.8662707209587097,1.4732776880264282,0.07959407567977905
-0.8680115342140198,1.454185128211975,0.07736880332231522
-0.8697009682655334,1.4350342750549316,0.07514549046754837
-0.8919612765312195,1.4489558935165405,0.07460938394069672
-0.8932645916938782,1.4298605918884277,0.07234134525060654
-0.9108325839042664,1.437330722808838,0.07140735536813736
-0.887111246585846,1.378470540046692,0.06710575520992279
-0.8901486992835999,1.3626261949539185,0.06496541202068329
-0.9031586050987244,1.3634909391403198,0.0636032223701477
-0.9536234736442566,1.4190590381622314,0.06465822458267212
-2.4020774364471436,3.521519899368286,0.15645888447761536
-1.2922687530517578,1.868696928024292,0.08081696182489395
-1.3381963968276978,1.9081850051879883,0.08018692582845688
-1.3268791437149048,1.8978060483932495,-0.05883663892745972
-1.3213415145874023,1.920557975769043,-0.06231684982776642
-1.2151881456375122,1.794358491897583,-0.060695257037878036
-1.1936713457107544,1.7899107933044434,-0.06286028027534485
-1.2378932237625122,1.8869608640670776,-0.06867761164903641
-1.2372772693634033,1.9152202606201172,-0.07196081429719925
-1.4916404485702515,2.3456575870513916,-0.09083453565835953
-1.351603627204895,2.161532402038574,-0.08619784563779831
-0.8306670188903809,1.4404546022415161,-0.06470396369695663
-2.123250722885132,3.7451725006103516,-0.17166945338249207
-1.7103221416473389,3.0682008266448975,-0.1433933675289154
-2.0491604804992676,3.7369587421417236,-0.17786702513694763
-2.0463666915893555,3.796041488647461,-0.18388250470161438
-2.001530885696411,3.779982805252075,-0.1862953007221222
-1.9874179363250732,3.818061113357544,-0.1912047117948532
-1.9447534084320068,3.8003737926483154,-0.19328875839710236
-1.8733582496643066,3.7270190715789795,-0.19237127900123596
-1.796054720878601,3.6389260292053223,-0.1905525177717209
-1.831459403038025,3.777801990509033,-0.20057272911071777
-1.5098235607147217,3.1703243255615234,-0.17057491838932037
-1.5033318996429443,3.2163779735565186,-0.17523854970932007
-1.5076349973678589,3.287320375442505,-0.18133220076560974
-1.4846521615982056,3.2976133823394775,-0.18404866755008698
-1.4347944259643555,3.247083902359009,-0.18333998322486877
-1.421741008758545,3.2824506759643555,-0.18739254772663116
-1.3979519605636597,3.292504072189331,-0.18999029695987701
-1.3689286708831787,3.2876367568969727,-0.19165749847888947
-1.3386155366897583,3.2788946628570557,-0.19308477640151978
-1.3122644424438477,3.280988931655884,-0.19503189623355865
-1.2711931467056274,3.2467663288116455,-0.19480594992637634
-1.2217798233032227,3.1863081455230713,-0.19288814067840576
-1.202310562133789,3.201904773712158,-0.19553211331367493
-1.1635147333145142,3.1662635803222656,-0.19497543573379517
-1.1289478540420532,3.1413567066192627,-0.19498299062252045
-1.0984781980514526,3.127225637435913,-0.1956559419631958
-1.0665477514266968,3.105170965194702,-0.19576208293437958
-1.036223292350769,3.0865209102630615,-0.19605854153633118
-1.0045095682144165,3.0640642642974854,-0.1959567666053772
-0.9731680750846863,3.0413153171539307,-0.19582055509090424
-0.9432902932167053,3.022022247314453,-0.19589708745479584
-0.9130865931510925,2.9985854625701904,-0.1956608146429062
-0.8897002935409546,2.997368574142456,-0.19679777324199677
-0.8520437479019165,2.947364330291748,-0.1946413815021515
-0.8331945538520813,2.9607481956481934,-0.19665715098381042
-0.8023046255111694,2.928769826889038,-0.19563336670398712
-0.7755547165870667,2.9116694927215576,-0.19560980796813965
-0.7501328587532043,2.8981049060821533,-0.19567212462425232
-0.7220244407653809,2.8730058670043945,-0.1949201226234436
-0.6981217861175537,2.8627755641937256,-0.19516608119010925
-0.6727482080459595,2.8447327613830566,-0.19486984610557556
-0.6481826901435852,2.830355167388916,-0.19482795894145966
-0.6264542937278748,2.8271851539611816,-0.19539418816566467
-0.6015384197235107,2.808605909347534,-0.19489674270153046
-0.5802887678146362,2.805039882659912,-0.19543366134166718
-0.5546837449073792,2.7783565521240234,-0.19435296952724457
-0.5327546000480652,2.7706685066223145,-0.19457735121250153
-0.5139635801315308,2.7781167030334473,-0.1957266628742218
-0.48963844776153564,2.754744052886963,-0.194708913564682
-0.26664450764656067,1.563398003578186,-0.1108618751168251
-0.44491663575172424,2.7227213382720947,-0.19370098412036896
-0.4201469421386719,2.6911065578460693,-0.19204597175121307
-0.4029471278190613,2.705505847930908,-0.19355572760105133
-0.3811669945716858,2.6889357566833496,-0.19285856187343597
-0.35826632380485535,2.6605849266052246,-0.19131192564964294
-0.33878397941589355,2.6552324295043945,-0.19141995906829834
-0.3174838125705719,2.6342742443084717,-0.1903529167175293
-0.29649409651756287,2.6170783042907715,-0.1894545555114746
-0.2756965160369873,2.595808267593384,-0.18825870752334595
-0.2553017735481262,2.5743682384490967,-0.1870516985654831
-0.2373640090227127,2.576049327850342,-0.18753060698509216
-0.22433948516845703,2.635840654373169,-0.19220426678657532
-0.20403259992599487,2.6179282665252686,-0.1911153495311737
-0.1857142299413681,2.6192679405212402,-0.19143573939800262
-0.1679765284061432,2.628249406814575,-0.1923235058784485
-0.14837442338466644,2.6059930324554443,-0.1909329742193222
-0.1306515783071518,2.6147232055664062,-0.19177459180355072
-0.11108733713626862,2.5922200679779053,-0.19021496176719666
-0.09302841126918793,2.5929200649261475,-0.1903647780418396
-0.07496513426303864,2.593494176864624,-0.19051454961299896
-0.0569213330745697,2.5939419269561768,-0.190664142370224
-0.03898805379867554,2.602057456970215,-0.1913515329360962
-0.02036089263856411,2.5788960456848145,-0.18961286544799805
-0.0024100071750581264,2.58676815032959,-0.19016604125499725
0.01569651998579502,2.602306604385376,-0.19129182398319244
0.03369259089231491,2.5943450927734375,-0.19069941341876984
0.05142054334282875,2.5784711837768555,-0.1895115077495575
0.06953983753919601,2.5858547687530518,-0.18989206850528717
0.08782092481851578,2.585312604904175,-0.18969668447971344
0.10484446585178375,2.561298131942749,-0.1877920776605606
0.12337952107191086,2.576087474822998,-0.1887422651052475
0.14084140956401825,2.5674030780792236,-0.187972292304039
0.15813566744327545,2.558614492416382,-0.1870567351579666
0.17723621428012848,2.5730092525482178,-0.18783961236476898
0.19568419456481934,2.579511880874634,-0.18805710971355438
0.21361036598682404,2.5781147480010986,-0.18770667910575867
0.2301318347454071,2.5610711574554443,-0.18622758984565735
0.2500854432582855,2.5827243328094482,-0.1874057799577713
0.2682514488697052,2.5809388160705566,-0.18688015639781952
0.2869924306869507,2.5867998600006104,-0.18692201375961304
0.30589577555656433,2.592517137527466,-0.18695877492427826
0.32489246129989624,2.5980958938598633,-0.18699242174625397
0.3438536822795868,2.6035640239715576,-0.18687161803245544
0.3631940186023712,2.6088547706604004,-0.18672695755958557
0.38126981258392334,2.6063239574432373,-0.18603649735450745
0.40055492520332336,2.6113638877868652,-0.18589264154434204
0.415010541677475,2.5854780673980713,-0.18355855345726013
0.4315311312675476,2.5749287605285645,-0.18219047784805298
0.4545973837375641,2.602668046951294,-0.18352623283863068
0.48198384046554565,2.6493046283721924,-0.18616902828216553
0.501873791217804,2.653602361679077,-0.18583884835243225
0.5286046862602234,2.6921682357788086,-0.18790583312511444
0.5455637574195862,2.6809003353118896,-0.1863468885421753
0.5688143968582153,2.7000367641448975,-0.1869019865989685
0.5894497632980347,2.7036590576171875,-0.1863662302494049
0.6116698384284973,2.7147746086120605,-0.18635807931423187
0.6358197331428528,2.7333085536956787,-0.186847522854805
0.6590816974639893,2.7479209899902344,-0.1869300752878189
0.6797452569007874,2.7509958744049072,-0.18622881174087524
0.7068058848381042,2.776442289352417,-0.18701158463954926
0.7340468764305115,2.8016982078552246,-0.1877804547548294
0.7575137615203857,2.811683416366577,-0.18748770654201508
0.7767488956451416,2.8065242767333984,-0.18607547879219055
0.8097772002220154,2.849989414215088,-0.18787860870361328
0.8386431336402893,2.874230146408081,-0.18835708498954773
0.8664869666099548,2.894554853439331,-0.18858210742473602
0.8910227417945862,2.9035143852233887,-0.18799535930156708
0.9131621718406677,2.904907703399658,-0.186846524477005
0.9377979636192322,2.9135420322418213,-0.18615968525409698
0.9657434821128845,2.9291512966156006,-0.1858675628900528
0.9861437082290649,2.9224534034729004,-0.18417984247207642
1.0124361515045166,2.9341938495635986,-0.1835557073354721
1.0181126594543457,2.8868961334228516,-0.17923225462436676
1.0405828952789307,2.8872768878936768,-0.177878737449646
1.0782041549682617,2.927640199661255,-0.17895159125328064
1.1564768552780151,3.0733983516693115,-0.18632423877716064
1.1996338367462158,3.123875141143799,-0.1877622753381729
1.2207612991333008,3.1158056259155273,-0.18565961718559265
1.2554374933242798,3.1399614810943604,-0.18542464077472687
1.3141032457351685,3.2215616703033447,-0.18852344155311584
1.3513004779815674,3.248563289642334,-0.1882433146238327
1.3853729963302612,3.2682387828826904,-0.18751542270183563
1.1339831352233887,2.6249263286590576,-0.14907534420490265
1.1522364616394043,2.6170780658721924,-0.14708246290683746
1.1637481451034546,2.5949995517730713,-0.14426861703395844
1.174991250038147,2.57289719581604,-0.14140738546848297
1.1908289194107056,2.5614161491394043,-0.13915634155273438
1.2203396558761597,2.577852725982666,-0.13837552070617676
1.241452932357788,2.576531410217285,-0.13660520315170288
1.7635442018508911,3.598378896713257,-0.18832767009735107
1.8143566846847534,3.638715982437134,-0.18788474798202515
1.9067401885986328,3.758399486541748,-0.19138336181640625
1.9611648321151733,3.800858974456787,-0.19080094993114471
1.381067156791687,2.6335551738739014,-0.13025370240211487
1.3730878829956055,2.576090097427368,-0.12547262012958527
1.3389256000518799,2.4705092906951904,-0.11840088665485382
1.3221300840377808,2.399745464324951,-0.11307522654533386
1.3055782318115234,2.333151340484619,-0.1080583930015564
1.3098481893539429,2.3039627075195312,-0.10478926450014114
1.3161031007766724,2.2779903411865234,-0.1016569510102272
1.3312678337097168,2.269266366958618,-0.09928376227617264
1.3344416618347168,2.2402873039245605,-0.0960007980465889
1.3459312915802002,2.224388360977173,-0.09323062747716904
1.3570201396942139,2.208585739135742,-0.09047174453735352
1.3672691583633423,2.193160057067871,-0.08772941678762436
1.3862911462783813,2.1905343532562256,-0.08541832864284515
1.3743565082550049,2.138049840927124,-0.08110092580318451
1.3839390277862549,2.12264084815979,-0.07827248424291611
1.4024068117141724,2.119951009750366,-0.07584848254919052
1.421486735343933,2.1167163848876953,-0.07329695671796799
1.4350690841674805,2.107625961303711,-0.07052703946828842
1.4404534101486206,2.0850894451141357,-0.0671798512339592
1.4592194557189941,2.081639289855957,-0.06439509242773056
1.4633057117462158,2.059727191925049,-0.061049703508615494
1.4498696327209473,2.0118091106414795,-0.05680553615093231
1.4538499116897583,1.9897069931030273,-0.05329989641904831
1.4596461057662964,1.9709827899932861,-0.049830373376607895
2.261056661605835,3.1642000675201416,0.11146055161952972
2.2475521564483643,3.1927530765533447,0.11672375351190567
2.5293099880218506,3.652979612350464,0.13832531869411469
2.485741138458252,3.6448299884796143,0.14231470227241516
2.4264559745788574,3.6140458583831787,0.14523161947727203
3.1322877407073975,4.743211269378662,0.1958974301815033
3.0899791717529297,4.7520246505737305,0.2011413276195526
3.0973172187805176,4.839955806732178,0.2096511572599411
1.6404106616973877,2.6066536903381348,0.11544012278318405
1.6138250827789307,2.6047205924987793,0.1176752895116806
3.033949136734009,4.9754638671875,0.22912323474884033
2.9876623153686523,4.984953880310059,0.23385494947433472
2.9734320640563965,5.043120384216309,0.2406453788280487
2.9382033348083496,5.0634918212890625,0.24553810060024261
2.839076042175293,4.976211071014404,0.2450065165758133
2.723632574081421,4.85745096206665,0.2427148073911667
2.6794416904449463,4.859477996826172,0.2462085485458374
2.610142946243286,4.812653064727783,0.24710245430469513
2.5597240924835205,4.804103851318359,0.2497672587633133
2.5168654918670654,4.808873653411865,0.25310438871383667
2.4493205547332764,4.760200500488281,0.25341784954071045
2.3978078365325928,4.742469787597656,0.25538384914398193
2.3402211666107178,4.714395046234131,0.2565186321735382
1.2372901439666748,2.5392754077911377,0.13958559930324554
1.224521279335022,2.5583391189575195,0.14198970794677734
1.2066843509674072,2.566699504852295,0.1438034027814865
1.188159704208374,2.575227975845337,0.1455644816160202
1.1641526222229004,2.573230028152466,0.14672604203224182
1.1568305492401123,2.6063361167907715,0.1498527079820633
1.135479211807251,2.6071054935455322,0.15110959112644196
2.0640318393707275,4.831748008728027,0.2822530269622803
2.037797689437866,4.868081092834473,0.286428838968277
2.011962413787842,4.90816068649292,0.2908984124660492
1.9921245574951172,4.958136558532715,0.2958732545375824
1.9961012601852417,5.069713592529297,0.30458563566207886
2.0133469104766846,5.221879959106445,0.31572169065475464
2.0016233921051025,5.305489540100098,0.32269760966300964
1.9707740545272827,5.341801166534424,0.3268701136112213
1.9520176649093628,5.406599521636963,0.33273258805274963
1.9090752601623535,5.405203342437744,0.33455026149749756
1.899838924407959,5.503267765045166,0.3424087166786194
1.8663256168365479,5.535144329071045,0.3461107611656189
1.8380426168441772,5.585502624511719,0.3510257601737976
1.9088321924209595,5.9395432472229,0.375078022480011
1.8849029541015625,6.008338928222656,0.38125598430633545
1.8605479001998901,6.0810346603393555,0.3875756859779358
1.8268805742263794,6.127704620361328,0.3921515941619873
1.795899748802185,6.185433387756348,0.3974759876728058
1.765708565711975,6.246648788452148,0.4030524790287018
1.7408469915390015,6.326281547546387,0.40983298420906067
1.7054791450500488,6.3720855712890625,0.4143756330013275
1.6736621856689453,6.436785697937012,0.41997358202934265
0.8243510127067566,3.265786647796631,0.2137918919324875
1.5602346658706665,6.372660160064697,0.41859158873558044
0.800670862197876,3.3717782497406006,0.22221308946609497
1.4608252048492432,6.347914218902588,0.4197513461112976
1.4064197540283203,6.3161492347717285,0.4187602698802948
1.349998950958252,6.272521495819092,0.41695934534072876
1.2896394729614258,6.209469795227051,0.4138829708099365
1.246372103691101,6.218186855316162,0.4155586063861847
1.191954493522644,6.169196605682373,0.41338756680488586
1.1401208639144897,6.131314277648926,0.4118424355983734
1.0904854536056519,6.104613304138184,0.4108748435974121
1.046482801437378,6.112217903137207,0.41224655508995056
1.0011167526245117,6.10392427444458,0.4125407040119171
0.9549516439437866,6.087556838989258,0.41229909658432007
0.9050829410552979,6.043854236602783,0.4102141559123993
0.8515877723693848,5.972824573516846,0.406031996011734
0.8097318410873413,5.986441135406494,0.4075545370578766
0.7645457983016968,5.968738079071045,0.4069529175758362
0.6227371692657471,5.145872116088867,0.35137996077537537
0.5714725852012634,5.01449728012085,0.3429412543773651
0.5493946671485901,5.138428688049316,0.351963609457016
0.4072178304195404,4.079573154449463,0.2796759307384491
0.3790861964225769,4.093994140625,0.28092387318611145
0.35434088110923767,4.143118381500244,0.2845657169818878
0.3295272886753082,4.195955753326416,0.28848013281822205
0.2997823655605316,4.190340518951416,0.2883930802345276
0.2693326771259308,4.172855377197266,0.2874425947666168
0.2403387874364853,4.1863203048706055,0.288480669260025
0.39287400245666504,7.795845031738281,0.5374433994293213
0.3368019461631775,7.759432792663574,0.5351862907409668
0.2817613184452057,7.734300136566162,0.5337306261062622
0.2268214076757431,7.697090148925781,0.5314644575119019
0.17160426080226898,7.667319297790527,0.5295503735542297
0.11764030158519745,7.6332597732543945,0.5271327495574951
0.06425800919532776,7.610513210296631,0.5255224704742432
0.011299079284071922,7.6029815673828125,0.5249885320663452
-0.04138924181461334,7.579494953155518,0.5233781933784485
-0.09462813287973404,7.551736354827881,0.5214987993240356
-0.14651596546173096,7.519740581512451,0.5191217660903931
-0.19786128401756287,7.4874043464660645,0.5165959596633911
-0.24941480159759521,7.474193572998047,0.5154162049293518
-0.30032357573509216,7.44894552230835,0.5134324431419373
-0.35328611731529236,7.473957061767578,0.5149375796318054
-0.2945961356163025,5.420585632324219,0.37332209944725037
-0.3321057856082916,5.418449401855469,0.3728408217430115
-0.36896204948425293,5.408290863037109,0.37175101041793823
-0.4033573269844055,5.36679220199585,0.36852794885635376
-0.4406585097312927,5.363896369934082,0.3679733872413635
-0.4761660099029541,5.3335113525390625,0.3655467629432678
-0.15839478373527527,1.6448067426681519,0.1126328557729721
-0.1721394658088684,1.6669515371322632,0.11397644877433777
-0.18364128470420837,1.6657414436340332,0.1137169674038887
-0.20056301355361938,1.7109036445617676,0.1166241317987442
-0.20783208310604095,1.6707873344421387,0.11371879279613495
-0.22045980393886566,1.6770480871200562,0.1139814704656601
-0.23101377487182617,1.667776346206665,0.11318561434745789
-0.23907329142093658,1.6430357694625854,0.11127254366874695
-0.251522034406662,1.6490849256515503,0.11145179718732834
-0.25936195254325867,1.6242159605026245,0.10954466462135315
-0.2757818400859833,1.653152346611023,0.11127208173274994
-0.29396942257881165,1.6896156072616577,0.11350191384553909
-0.8037029504776001,4.437539100646973,0.2974429130554199
-0.8340439796447754,4.432013034820557,0.2962951958179474
-0.8531838059425354,4.368886947631836,0.2913194000720978
-0.7421584129333496,3.663747787475586,0.24366240203380585
-0.7692022919654846,3.666195869445801,0.24320228397846222
-0.9426791667938232,4.34270715713501,0.2873534560203552
-0.9774748682975769,4.359066486358643,0.2875666320323944
-1.0053706169128418,4.344804763793945,0.28570669889450073
-1.0318048000335693,4.3226637840271,0.2833315134048462
-1.0617473125457764,4.315497398376465,0.281953364610672
-1.076440691947937,4.247627258300781,0.2766316831111908
-1.1117335557937622,4.262795448303223,0.2767086923122406
-1.140628695487976,4.255256652832031,0.27515238523483276
-1.1678780317306519,4.239872932434082,0.2730861306190491
-1.1926499605178833,4.216867923736572,0.27055469155311584
-1.2240759134292603,4.216075420379639,0.2694488763809204
-1.247756838798523,4.1888909339904785,0.26667216420173645
-1.2716341018676758,4.165508270263672,0.2640268802642822
-1.2978899478912354,4.149344444274902,0.26178568601608276
-1.3234950304031372,4.133170127868652,0.2595811188220978
-1.352193832397461,4.1239824295043945,0.25779473781585693
-1.383347511291504,4.121975898742676,0.25646597146987915
-1.4039639234542847,4.090385437011719,0.2532351016998291
-1.4288609027862549,4.073610782623291,0.2508407235145569
-1.456691026687622,4.0638628005981445,0.2488700896501541
-1.474044919013977,4.02451229095459,0.2450924813747406
-1.5047667026519775,4.02157735824585,0.24354316294193268
-1.5351972579956055,4.018533706665039,0.2419416308403015
-1.5493818521499634,3.97556471824646,0.23784364759922028
-1.5894639492034912,3.9976391792297363,0.23762108385562897
-1.6169973611831665,3.9867124557495117,0.23542016744613647
-1.63869309425354,3.961094856262207,0.23235724866390228
-1.6612088680267334,3.939140558242798,0.2294745296239853
-1.6874065399169922,3.9281246662139893,0.22714844346046448
-1.7186675071716309,3.927461862564087,0.22539786994457245
-1.7443112134933472,3.912008285522461,0.2227628082036972
-1.771499752998352,3.8999104499816895,0.22032712399959564
-1.7946029901504517,3.8808798789978027,0.21742300689220428
-1.817054271697998,3.8619396686553955,0.21448469161987305
-1.8434476852416992,3.8495559692382812,0.211869016289711
-1.8599152565002441,3.815747022628784,0.20806436240673065
-1.8793768882751465,3.7889297008514404,0.20466065406799316
-1.9008138179779053,3.769629716873169,0.20157063007354736
-1.9256365299224854,3.7571544647216797,0.1988581120967865
-1.9443459510803223,3.7300634384155273,0.19529083371162415
-1.9781330823898315,3.7300853729248047,0.19309109449386597
-1.99190354347229,3.6963250637054443,0.18910817801952362
-2.0461957454681396,3.73803973197937,0.18894176185131073
-1.7149782180786133,3.0830023288726807,0.15386192500591278
-1.7402671575546265,3.0778980255126953,0.15158797800540924
-0.8513971567153931,1.4823118448257446,0.07198591530323029
-0.8610417246818542,1.476792335510254,0.07070180028676987
-0.8631437420845032,1.4575129747390747,0.068724125623703
-0.877319872379303,1.4582061767578125,0.06767208874225616
-0.8868991732597351,1.4524632692337036,0.06629525125026703
-0.9005871415138245,1.4532722234725952,0.06518983095884323
-0.9023232460021973,1.4338451623916626,0.06312884390354156
-0.8994908928871155,1.4079720973968506,0.06080132722854614
-0.872409462928772,1.3465454578399658,0.05698093771934509
-0.922153890132904,1.4027149677276611,0.058078326284885406
-0.9689682126045227,1.4513790607452393,0.05867601931095123
-2.4095816612243652,3.5596234798431396,0.14041319489479065
-1.2633646726608276,1.8131661415100098,0.06770113110542297
-1.3808081150054932,1.9603707790374756,-0.05308619141578674
-1.3193408250808716,1.9031970500946045,-0.05402445048093796
-1.301622748374939,1.9058337211608887,-0.05639507248997688
-1.3045449256896973,1.9415098428726196,-0.05975542590022087
-1.340059757232666,2.0256967544555664,-0.0646064355969429
-1.3168394565582275,2.0221729278564453,-0.06669405102729797
-1.2488930225372314,1.9497692584991455,-0.06635919213294983
-1.2642043828964233,2.004730701446533,-0.07019731402397156
-0.8382655382156372,1.3956578969955444,-0.05278000608086586
-0.8446961641311646,1.47769033908844,-0.059620872139930725
-2.118424892425537,3.7665815353393555,-0.15493763983249664
-1.7035083770751953,3.0815556049346924,-0.129174143075943
-2.059037923812866,3.7901926040649414,-0.1617550253868103
-2.0323803424835205,3.804409980773926,-0.16510075330734253
-2.005779981613159,3.8183562755584717,-0.16842003166675568
-1.9813965559005737,3.839707136154175,-0.17200101912021637
-1.9389017820358276,3.826218605041504,-0.17404064536094666
-1.900034785270691,3.8150289058685303,-0.1760103553533554
-1.880041480064392,3.8421666622161865,-0.17972463369369507
-1.8605282306671143,3.8731706142425537,-0.18357603251934052
-1.8293156623840332,3.879239320755005,-0.1862359344959259
-1.595594048500061,3.445573329925537,-0.16745567321777344
-1.5546963214874268,3.4212749004364014,-0.16830219328403473
-1.5886698961257935,3.5641934871673584,-0.17731712758541107
-1.425466537475586,3.260759115219116,-0.1640208512544632
-1.4042545557022095,3.274083137512207,-0.16643978655338287
-1.393422245979309,3.3124847412109375,-0.1701459139585495
-1.36611807346344,3.31528639793396,-0.17197786271572113
-1.3670005798339844,3.386445999145508,-0.17736399173736572
-1.3577743768692017,3.4320363998413086,-0.18140722811222076
-1.3507992029190063,3.4849326610565186,-0.18588390946388245
-1.3203920125961304,3.4797699451446533,-0.18717704713344574
-1.3153624534606934,3.5440478324890137,-0.19223880767822266
-1.2597395181655884,3.4687771797180176,-0.1896752268075943
-1.2159579992294312,3.4222207069396973,-0.18861337006092072
-1.1841307878494263,3.4084908962249756,-0.18927982449531555
-1.1384053230285645,3.3539786338806152,-0.18757382035255432
-1.1165416240692139,3.369438886642456,-0.1897854506969452
-1.0762475728988647,3.3250763416290283,-0.18856757879257202
-1.0507298707962036,3.324950933456421,-0.1898447424173355
-1.0052732229232788,3.261415481567383,-0.18736176192760468
-0.979783833026886,3.2609310150146484,-0.18846483528614044
-0.9469751715660095,3.233962297439575,-0.18801811337471008
-0.9251578450202942,3.244239330291748,-0.18974241614341736
-0.8952048420906067,3.2242228984832764,-0.18964824080467224
-0.8662648797035217,3.207808256149292,-0.1896466314792633
-0.8375756144523621,3.191154718399048,-0.18962791562080383
-0.813340425491333,3.1892917156219482,-0.19047461450099945
-0.7841664552688599,3.1683974266052246,-0.19019758701324463
-0.7564737796783447,3.1509931087493896,-0.19003835320472717
-0.7305972576141357,3.1410133838653564,-0.19023911654949188
-0.7049267888069153,3.1308202743530273,-0.1904277503490448
-0.6739734411239624,3.0936782360076904,-0.1889593005180359
-0.6472218036651611,3.0754144191741943,-0.18865017592906952
-0.6240556836128235,3.072181463241577,-0.18915802240371704
-0.6008453369140625,3.068802833557129,-0.18959961831569672
-0.5741294026374817,3.0460872650146484,-0.1888478398323059
-0.5473564863204956,3.0192618370056152,-0.1878293752670288
-0.5299788117408752,3.0460522174835205,-0.1901654303073883
-0.5098927021026611,3.057335376739502,-0.19142651557922363
-0.25124800205230713,1.5746768712997437,-0.09885714948177338
-0.2313804030418396,1.5185647010803223,-0.09559176117181778
-0.4332121014595032,2.982357978820801,-0.18824471533298492
-0.4083804488182068,2.958268165588379,-0.18724548816680908
-0.3901883661746979,2.9803454875946045,-0.1890585869550705
-0.3659254014492035,2.9558913707733154,-0.18787817656993866
-0.3443100154399872,2.950603485107422,-0.18792031705379486
-0.3203931450843811,2.9218900203704834,-0.18647180497646332
-0.30007603764533997,2.9240128993988037,-0.186996191740036
-0.2759643495082855,2.8911170959472656,-0.1851881444454193
-0.2529863119125366,2.861888885498047,-0.1835537850856781
-0.2323273867368698,2.855794906616211,-0.1834089308977127
-0.21013319492340088,2.8262200355529785,-0.1817602515220642
-0.19200439751148224,2.8509297370910645,-0.18361128866672516
-0.17175638675689697,2.8522040843963623,-0.18387863039970398
-0.15181997418403625,2.8533222675323486,-0.18407221138477325
-0.13149107992649078,2.8465142250061035,-0.18376320600509644
-0.11353085935115814,2.8940887451171875,-0.18697501718997955
-0.09267809242010117,2.8714182376861572,-0.18565846979618073
-0.07233702391386032,2.871994972229004,-0.18577928841114044
-0.05219058319926262,2.8646321296691895,-0.18530504405498505
-0.03226354345679283,2.8649237155914307,-0.18533490598201752
-0.01226783823221922,2.849484920501709,-0.1843559890985489
0.0076303426176309586,2.8884801864624023,-0.18690799176692963
0.02745136059820652,2.825989007949829,-0.1828492432832718
0.04734131693840027,2.8413286209106445,-0.18373225629329681
0.06762973964214325,2.864321231842041,-0.18511761724948883
0.08683625608682632,2.840412139892578,-0.18348047137260437
0.10715009272098541,2.855329990386963,-0.18436071276664734
0.12766435742378235,2.8701045513153076,-0.18520814180374146
0.14629530906677246,2.838007926940918,-0.18290770053863525
0.16597621142864227,2.8369431495666504,-0.18262246251106262
0.18618406355381012,2.843520164489746,-0.1828370839357376
0.20403118431568146,2.814954996109009,-0.18080148100852966
0.22176554799079895,2.7901697158813477,-0.17900870740413666
0.24379386007785797,2.815751075744629,-0.18030624091625214
0.26220932602882385,2.8023784160614014,-0.17912212014198303
0.28281646966934204,2.8121559619903564,-0.17942601442337036
0.3073502480983734,2.8566646575927734,-0.18194757401943207
0.3254377841949463,2.838993787765503,-0.1805136799812317
0.3472427427768707,2.8521573543548584,-0.18089161813259125
0.36690154671669006,2.8497331142425537,-0.18029288947582245
0.3887169361114502,2.8626158237457275,-0.18066713213920593
0.41082948446273804,2.8753185272216797,-0.1810317486524582
0.4348723888397217,2.8994181156158447,-0.1821163147687912
0.45521289110183716,2.8963427543640137,-0.1813485473394394
0.47200295329093933,2.873948097229004,-0.1793811023235321
0.500433087348938,2.9206197261810303,-0.18172498047351837
0.5234681367874146,2.932471752166748,-0.18189549446105957
0.5452683568000793,2.936476945877075,-0.18158367276191711
0.5639721155166626,2.9250574111938477,-0.18019290268421173
0.5928134322166443,2.963160753250122,-0.18182498216629028
0.6148341298103333,2.966693162918091,-0.1813412755727768
0.6371365189552307,2.9700188636779785,-0.18084309995174408
0.6594894528388977,2.9731831550598145,-0.18034115433692932
0.6885970234870911,3.0066606998443604,-0.18154922127723694
0.7077944278717041,2.9942541122436523,-0.17996172606945038
0.7349081635475159,3.015885591506958,-0.18043367564678192
0.7615846395492554,3.0334579944610596,-0.18065081536769867
0.7806974649429321,3.0206081867218018,-0.17905768752098083
0.815365195274353,3.068040132522583,-0.18089504539966583
0.8408026695251465,3.0774190425872803,-0.1804591566324234
0.8620398640632629,3.0716147422790527,-0.17914384603500366
0.8931355476379395,3.099341630935669,-0.17977382242679596
0.9168228507041931,3.1006321907043457,-0.17883868515491486
0.9447455406188965,3.1167848110198975,-0.17865672707557678
0.9767612814903259,3.1437649726867676,-0.17906507849693298
1.0009397268295288,3.1444249153137207,-0.17796668410301208
0.9926076531410217,3.044743537902832,-0.1712246537208557
0.985166609287262,2.9528121948242188,-0.1649356335401535
1.0077558755874634,2.953510284423828,-0.16379955410957336
1.0330170392990112,2.9613871574401855,-0.16305765509605408
1.207345962524414,3.383969306945801,-0.18492908775806427
1.2135367393493652,3.3279218673706055,-0.18051673471927643
1.233407974243164,3.3123860359191895,-0.1782301664352417
1.271060585975647,3.34417462348938,-0.17846804857254028
1.3025099039077759,3.357276678085327,-0.17766597867012024
1.350684642791748,3.4097390174865723,-0.17887331545352936
1.3858094215393066,3.429412603378296,-0.17831677198410034
1.4520126581192017,3.524719476699829,-0.18157073855400085
1.4728158712387085,3.5077288150787354,-0.1789952665567398
1.0963983535766602,2.561255693435669,-0.12942089140415192
1.141013503074646,2.614323616027832,-0.1307765394449234
1.1553597450256348,2.599564790725708,-0.1286589652299881
1.1727705001831055,2.591843366622925,-0.12689846754074097
1.1792398691177368,2.5589470863342285,-0.12388161569833755
1.2020368576049805,2.5613441467285156,-0.1225753054022789
1.2364634275436401,2.588313579559326,-0.12235373258590698
1.2213716506958008,2.513362407684326,-0.11734700202941895
1.9582463502883911,3.9604203701019287,-0.182538241147995
1.2051409482955933,2.3952958583831787,-0.10894334316253662
1.2248497009277344,2.3941338062286377,-0.10739398747682571
1.2587822675704956,2.4206337928771973,-0.10704541951417923
1.2811130285263062,2.4222328662872314,-0.10549924522638321
1.2775931358337402,2.3755335807800293,-0.10187755525112152
1.2859703302383423,2.3533148765563965,-0.0993189737200737
1.2806609869003296,2.307299852371216,-0.095787912607193
1.3023251295089722,2.308681011199951,-0.09417569637298584
1.3302748203277588,2.3198156356811523,-0.0928969532251358
1.3199820518493652,2.267230987548828,-0.089083731174469
1.3271077871322632,2.245026111602783,-0.08649131655693054
1.3346346616744995,2.222444772720337,-0.08383505046367645
1.3536183834075928,2.2201645374298096,-0.08194193989038467
1.3518778085708618,2.1846563816070557,-0.07879677414894104
1.3626964092254639,2.1687872409820557,-0.07632622122764587
1.377586841583252,2.1594386100769043,-0.0740637481212616
1.3851855993270874,2.140709161758423,-0.07148134708404541
1.4145976305007935,2.1542420387268066,-0.0698864683508873
1.42106294631958,2.1313135623931885,-0.0669989213347435
1.4303443431854248,2.1157498359680176,-0.06439246982336044
1.4378920793533325,2.0965118408203125,-0.0615963451564312
1.4588655233383179,2.0963363647460938,-0.05928359553217888
1.4518550634384155,2.0584042072296143,-0.055916283279657364
1.4479382038116455,2.022935152053833,-0.052458036690950394
1.4566001892089844,2.007133722305298,-0.0495518259704113
1.4649053812026978,1.9914593696594238,-0.046587828546762466
2.2554314136505127,3.178243637084961,0.09803551435470581
2.599421262741089,3.723888397216797,0.11928445845842361
2.6105730533599854,3.7967684268951416,0.12568536400794983
3.162144422531128,4.672911643981934,0.1596004068851471
3.113560199737549,4.677114486694336,0.16443966329097748
3.1172046661376953,4.754080295562744,0.17149977385997772
3.0863113403320312,4.783304214477539,0.176828995347023
1.637987732887268,2.5811727046966553,0.09767153114080429
1.63201105594635,2.6125195026397705,0.10098404437303543
1.6048741340637207,2.6108665466308594,0.10296837240457535
2.952214002609253,4.884737968444824,0.19639992713928223
2.7797884941101074,4.673872947692871,0.19128282368183136
2.796308994293213,4.777271270751953,0.19887332618236542
2.7598464488983154,4.798253536224365,0.20303809642791748
2.499711036682129,4.420678615570068,0.189972385764122
2.45751953125,4.417339324951172,0.1925695538520813
2.4054198265075684,4.396893501281738,0.19435687363147736
2.450443744659424,4.558814525604248,0.20419932901859283
2.466093063354492,4.6697282791137695,0.21188919246196747
2.464087963104248,4.745523929595947,0.21794116497039795
2.4195549488067627,4.741954326629639,0.22031176090240479
2.3688297271728516,4.728090763092041,0.22208978235721588
2.3001599311828613,4.674890995025635,0.22193396091461182
1.231125831604004,2.547508716583252,0.12218977510929108
1.2164825201034546,2.5630974769592285,0.12415073066949844
1.189465880393982,2.5541622638702393,0.12485477328300476
1.178901195526123,2.580446243286133,0.1272846907377243
1.1576606035232544,2.5814199447631836,0.12842795252799988
1.1458951234817505,2.603652000427246,0.13063813745975494
2.075594902038574,4.811878681182861,0.2433655858039856
2.0464863777160645,4.841146945953369,0.24672222137451172
2.023958921432495,4.884283542633057,0.2507660686969757
2.003080368041992,4.930676460266113,0.2549761235713959
1.9828076362609863,4.980752944946289,0.25937867164611816
2.0267434120178223,5.202336311340332,0.2727038860321045
2.0057098865509033,5.2604851722717285,0.2775290012359619
1.9837607145309448,5.3145036697387695,0.2821234166622162
1.9600424766540527,5.364720344543457,0.2865442931652069
1.924680233001709,5.385666370391846,0.28934043645858765
1.8927816152572632,5.421633720397949,0.2928585410118103
1.8825430870056152,5.519958972930908,0.2997646629810333
1.8501766920089722,5.551332950592041,0.30302464962005615
1.9045157432556152,5.8495588302612305,0.3209471106529236
1.8999137878417969,5.977943420410156,0.32958120107650757
1.8713116645812988,6.039944171905518,0.3344934284687042
1.8415038585662842,6.097889423370361,0.3391968905925751
1.8064677715301514,6.136707305908203,0.34283629059791565
1.7829762697219849,6.216526508331299,0.34879979491233826
1.7508946657180786,6.270076274871826,0.3532664477825165
1.7202688455581665,6.335038661956787,0.3582111597061157
1.6870251893997192,6.396310806274414,0.3630088269710541
1.6497164964675903,6.43813943862915,0.36669299006462097
0.8147016763687134,3.273873805999756,0.18713293969631195
1.5389807224273682,6.373034954071045,0.3655870854854584
0.7845909595489502,3.3532533645629883,0.1929185539484024
1.4241998195648193,6.291547775268555,0.3630276918411255
1.3679530620574951,6.248040199279785,0.3615662753582001
1.3292604684829712,6.280214786529541,0.36447998881340027
1.2605676651000977,6.166944980621338,0.3589518964290619
1.2126821279525757,6.152608394622803,0.35904383659362793
1.1639302968978882,6.138125896453857,0.35901227593421936
1.1162294149398804,6.123121738433838,0.3589478135108948
1.0632846355438232,6.073086261749268,0.35682669281959534
1.0171425342559814,6.057186603546143,0.3567131459712982
0.8635079264640808,5.371016502380371,0.31704631447792053
0.9237529039382935,6.02071475982666,0.3560042083263397
0.8744848966598511,5.980721950531006,0.3542310297489166
0.8322706818580627,5.986685276031494,0.3551928400993347
0.7895310521125793,5.984549045562744,0.355682909488678
0.7444460391998291,5.962760925292969,0.35501861572265625
0.601068913936615,5.10416316986084,0.304379403591156
0.5670768022537231,5.131556034088135,0.3063373863697052
0.5353489518165588,5.178053379058838,0.3094498813152313
0.3988994061946869,4.141430854797363,0.2477790117263794
0.36351871490478516,4.070282459259033,0.24380652606487274
0.34545987844467163,4.197041034698486,0.2517041265964508
0.3156614303588867,4.199366569519043,0.25205108523368835
0.2849451005458832,4.182005882263184,0.25114256143569946
0.25472506880760193,4.168313980102539,0.250465452671051
0.22715437412261963,4.1972270011901855,0.25236043334007263
0.3678057789802551,7.801461219787598,0.46938204765319824
0.31023892760276794,7.745398998260498,0.4663502275943756
0.2557591497898102,7.731772422790527,0.4656030237674713
0.20076169073581696,7.694383144378662,0.46338364481925964
0.1463731825351715,7.660502910614014,0.46139776706695557
0.09284151345491409,7.63793420791626,0.46011480689048767
0.038744423538446426,7.622795581817627,0.4593031406402588
-0.014165003784000874,7.583881378173828,0.45707347989082336
-0.06654112786054611,7.5563225746154785,0.4551909565925598
-0.11891891062259674,7.547894477844238,0.45448365807533264
-0.17029766738414764,7.5001220703125,0.45143046975135803
-0.22201889753341675,7.483179569244385,0.45025596022605896
-0.2739903926849365,7.454158782958984,0.4483751952648163
-0.3261505663394928,7.4598822593688965,0.4485437870025635
-0.272427499294281,5.377953052520752,0.3230683505535126
-0.3123844563961029,5.422673225402832,0.32547304034233093
-0.3504619896411896,5.428184509277344,0.32553720474243164
-0.3860534429550171,5.386702060699463,0.32279524207115173
-0.4234863817691803,5.383912086486816,0.32239383459091187
-0.45912298560142517,5.361453056335449,0.3207279443740845
-0.4835195541381836,5.2223005294799805,0.3119581639766693
-0.16530850529670715,1.660730242729187,0.0990680605173111
-0.1753574162721634,1.644026279449463,0.09793752431869507
-0.1902855783700943,1.6737775802612305,0.09958012402057648
-0.20004329085350037,1.656941533088684,0.09845442324876785
-0.2114732563495636,1.6555365324020386,0.09820512682199478
-0.2186659425497055,1.6231452226638794,0.09609956294298172
-0.2387724071741104,1.6833678483963013,0.09947499632835388
-0.24239575862884521,1.6276894807815552,0.0960068628191948
-0.24348652362823486,1.5604792833328247,0.0918755829334259
-0.2687739133834839,1.6472867727279663,0.09681452810764313
-0.2728637158870697,1.603136658668518,0.09398854523897171
-0.7888851761817932,4.450478553771973,0.26027482748031616
-0.8156189918518066,4.421921730041504,0.25796136260032654
-0.844886839389801,4.408537864685059,0.2565508484840393
-0.7325236201286316,3.683505058288574,0.21384106576442719
-0.7564183473587036,3.6707582473754883,0.21255077421665192
-0.7797980904579163,3.657942771911621,0.2111583650112152
-0.9454243183135986,4.2885332107543945,0.24679194390773773
-0.9835419654846191,4.32002592086792,0.2478487640619278
-1.013465404510498,4.313169956207275,0.2467043101787567
-1.043382167816162,4.306096076965332,0.24555827677249908
-1.0670582056045532,4.276246070861816,0.24300692975521088
-1.0819839239120483,4.2121901512146,0.23847857117652893
-1.119515299797058,4.2387614250183105,0.2391117513179779
-1.1550291776657104,4.253552436828613,0.23906080424785614
-1.1782623529434204,4.222957611083984,0.23646937310695648
-1.2137917280197144,4.237309455871582,0.2363540530204773
-1.236366868019104,4.206474304199219,0.2335842102766037
-1.2614175081253052,4.186892032623291,0.23147787153720856
-1.2855647802352905,4.163296222686768,0.22915035486221313
-1.31916344165802,4.169225215911865,0.2284480631351471
-1.3433232307434082,4.1451873779296875,0.22611339390277863
-1.3692851066589355,4.128556251525879,0.22402316331863403
-1.397072196006775,4.119326591491699,0.2223670929670334
-1.4174549579620361,4.087680816650391,0.21950383484363556
-1.438009262084961,4.055758953094482,0.2166263461112976
-1.474103569984436,4.067777156829834,0.21610774099826813
-1.5015355348587036,4.057826995849609,0.2143043726682663
-1.523680329322815,4.03298282623291,0.21168464422225952
-1.5481923818588257,4.015370845794678,0.20946958661079407
-1.5760760307312012,4.004606246948242,0.2075914740562439
-1.59810209274292,3.9791507720947266,0.2049650102853775
-1.6248469352722168,3.9684062004089355,0.20298998057842255
-1.654792308807373,3.964574098587036,0.2013317048549652
-1.6710453033447266,3.928187847137451,0.1980343908071518
-1.6859664916992188,3.8879079818725586,0.19453537464141846
-1.7098002433776855,3.8690571784973145,0.1921244114637375
-1.7483736276626587,3.886143922805786,0.19138887524604797
-1.7747082710266113,3.874296188354492,0.1891973316669464
-1.8012958765029907,3.862114429473877,0.18697784841060638
-1.8281019926071167,3.849607229232788,0.18473295867443085
-1.8576383590698242,3.844221830368042,0.18277721107006073
-1.883039116859436,3.8319544792175293,0.1804339736700058
-1.9020628929138184,3.8052148818969727,0.17737630009651184
-1.9143821001052856,3.7641499042510986,0.173633873462677
-1.933285117149353,3.7370195388793945,0.17055490612983704
-1.957883358001709,3.724304437637329,0.16805383563041687
-1.982397198677063,3.7114264965057373,0.16555269062519073
-2.0154786109924316,3.7114593982696533,0.16353276371955872
-1.7133100032806396,3.1026878356933594,0.13497868180274963
-1.729825735092163,3.084660053253174,0.13243034482002258
-1.7421869039535522,3.0598366260528564,0.12960349023342133
-0.8601495623588562,1.486738920211792,0.06206173449754715
-0.8546625375747681,1.4538341760635376,0.05978616327047348
-0.8722880482673645,1.4615914821624756,0.05914784595370293
-0.8656461834907532,1.4291900396347046,0.05690642073750496
-0.8878560066223145,1.4431246519088745,0.056455109268426895
-0.893532395362854,1.4304673671722412,0.054946742951869965
-0.906926155090332,1.4313141107559204,0.05393853411078453
-0.891339123249054,1.3857288360595703,0.05114741250872612
-0.8904184103012085,1.3444620370864868,0.04746487736701965
-2.3970236778259277,3.568734645843506,0.12300454080104828
-2.402043581008911,3.5230329036712646,0.11825160682201385
-1.3392198085784912,1.9366801977157593,0.06319407373666763
-1.535534381866455,2.1902341842651367,0.06938347220420837
-1.3582195043563843,1.942960262298584,-0.047235481441020966
-1.3504244089126587,1.962565541267395,-0.049860890954732895
-1.2480220794677734,1.8432689905166626,-0.04879152029752731
-1.2936427593231201,1.93959379196167,-0.053235724568367004
-1.253235936164856,1.9100773334503174,-0.05425512045621872
-1.2246029376983643,1.8960423469543457,-0.05557447299361229
-1.5051593780517578,2.406994581222534,-0.07474033534526825
-0.8356382846832275,1.3792595863342285,-0.04503171145915985
-0.8761528730392456,1.5454078912734985,-0.05496901646256447
-1.1859387159347534,2.128145456314087,-0.07714886218309402
-1.6852179765701294,3.074397563934326,-0.11343494057655334
-2.022948741912842,3.7527849674224854,-0.1408548653125763
-2.014967918395996,3.8056271076202393,-0.14521785080432892
-1.9802604913711548,3.806098461151123,-0.14752478897571564
-1.9537537097930908,3.8196661472320557,-0.15025588870048523
-1.9073436260223389,3.794945001602173,-0.1514337658882141
-1.8986531496047974,3.8471384048461914,-0.15564583241939545
-1.8554208278656006,3.8290634155273438,-0.1570148766040802
-1.8388094902038574,3.8629188537597656,-0.16043205559253693
-1.822903037071228,3.900527238845825,-0.16398528218269348
-1.7701998949050903,3.8603014945983887,-0.16421012580394745
-1.5488661527633667,3.4420063495635986,-0.1480923295021057
-1.4790984392166138,3.3490891456604004,-0.14568868279457092
-1.5386700630187988,3.5529861450195312,-0.1562330722808838
-1.6715803146362305,3.937554121017456,-0.1748933494091034
-1.3989808559417725,3.3619515895843506,-0.15080417692661285
-1.3696516752243042,3.357067823410034,-0.15202030539512634
-1.3591678142547607,3.399099826812744,-0.15536050498485565
-1.3300050497055054,3.397962808609009,-0.15669000148773193
-1.3376591205596924,3.4911696910858154,-0.16238375008106232
-1.5176465511322021,4.044703960418701,-0.1896936148405075
-1.4276479482650757,3.8865389823913574,-0.18377745151519775
-1.3947392702102661,3.88179874420166,-0.1849522441625595
-1.3768383264541626,3.921196460723877,-0.18823669850826263
-1.354196310043335,3.9454917907714844,-0.19078104197978973
-1.2881625890731812,3.8400723934173584,-0.18701235949993134
-1.1894906759262085,3.6301612854003906,-0.17801587283611298
-1.1539950370788574,3.6087660789489746,-0.17808759212493896
-1.1451363563537598,3.6728627681732178,-0.18241533637046814
-1.1308339834213257,3.718018054962158,-0.18579323589801788
-1.0860353708267212,3.6621408462524414,-0.1841220259666443
-1.0580214262008667,3.6621391773223877,-0.18515785038471222
-1.0171388387680054,3.616926431655884,-0.18384377658367157
-0.9956368803977966,3.6390187740325928,-0.18594416975975037
-0.958828866481781,3.60443115234375,-0.18515051901340485
-0.9239863753318787,3.5731699466705322,-0.18449823558330536
-0.893004298210144,3.5568487644195557,-0.18448910117149353
-0.861335039138794,3.5364904403686523,-0.18424509465694427
-0.8310758471488953,3.519618034362793,-0.18417467176914215
-0.7957289814949036,3.479713201522827,-0.18289721012115479
-0.7622435092926025,3.443206548690796,-0.18177327513694763
-0.7313888669013977,3.4179341793060303,-0.18109427392482758
-0.7088185548782349,3.4306042194366455,-0.18242864310741425
-0.6763720512390137,3.3933558464050293,-0.18110594153404236
