X,Y,Z
-0.8266833424568176,1.4337847232818604,-0.1730896681547165
-0.8640591502189636,1.5236260890960693,-0.18872764706611633
-0.9704380035400391,1.7392985820770264,-0.22074958682060242
-0.9427219033241272,1.7183676958084106,-0.22329482436180115
-0.9023308157920837,1.6733030080795288,-0.2224660962820053
-0.875601589679718,1.6516461372375488,-0.22443106770515442
-0.8422591686248779,1.6158610582351685,-0.2241850644350052
-0.8038689494132996,1.569516658782959,-0.22217898070812225
-0.7749781012535095,1.5400046110153198,-0.2222975641489029
-0.7587949633598328,1.534380555152893,-0.2256646603345871
-0.7407177090644836,1.5252635478973389,-0.2285068780183792
-0.7161880135536194,1.501990795135498,-0.22901606559753418
-0.6872760653495789,1.467881202697754,-0.22765038907527924
-0.6606231927871704,1.436926245689392,-0.22655105590820312
-0.6502158641815186,1.4409847259521484,-0.23084142804145813
-0.6240618228912354,1.4096649885177612,-0.22936071455478668
-0.6060860753059387,1.395778775215149,-0.23059606552124023
0.5962687730789185,1.3583194017410278,-0.22233259677886963
0.6215798258781433,1.3900076150894165,-0.22412271797657013
0.6364378929138184,1.396685004234314,-0.22167666256427765
0.6625725030899048,1.4278807640075684,-0.22306294739246368
0.685722827911377,1.4518777132034302,-0.22311468422412872
0.7076278924942017,1.472117304801941,-0.22244007885456085
0.7351340651512146,1.5024868249893188,-0.22308622300624847
0.7683628797531128,1.5429338216781616,-0.22493433952331543
0.7825837135314941,1.5451593399047852,-0.22110867500305176
0.811180055141449,1.5747710466384888,-0.2210562825202942
0.8403849601745605,1.603999376296997,-0.2207103669643402
0.8716638684272766,1.6364392042160034,-0.2205856740474701
0.9106590747833252,1.682273507118225,-0.22201235592365265
0.9526731967926025,1.7308400869369507,-0.22331294417381287
0.9744526743888855,1.7417032718658447,-0.21959571540355682
1.013286828994751,1.7829681634902954,-0.21949999034404755
1.0663139820098877,1.8473635911941528,-0.22189190983772278
1.112886905670166,1.897485375404358,-0.2219831645488739
1.1582452058792114,1.9437249898910522,-0.22117729485034943
1.209722876548767,1.9997807741165161,-0.2212187945842743
1.278674602508545,2.0815579891204834,-0.22344979643821716
1.3284763097763062,2.129354476928711,-0.2214454710483551
1.3512378931045532,2.134258270263672,-0.21474502980709076
1.3766275644302368,2.141975164413452,-0.20800529420375824
1.3896976709365845,2.1296873092651367,-0.19914047420024872
1.3913073539733887,2.1014413833618164,-0.18887710571289062
1.383690595626831,2.060434579849243,-0.17763252556324005
1.7560994625091553,2.576195478439331,-0.21203243732452393
1.9313633441925049,2.792484998703003,-0.218645840883255
1.934295654296875,2.7581026554107666,-0.20492695271968842
1.9311655759811401,2.7134809494018555,-0.19000054895877838
1.4288429021835327,1.9801592826843262,-0.1301153004169464
1.458215594291687,1.993172526359558,-0.12206239998340607
1.4722974300384521,1.9833890199661255,-0.1119680181145668
1.5514962673187256,2.1794323921203613,0.3587697744369507
2.2351813316345215,3.1920104026794434,0.5368374586105347
3.3430607318878174,4.8502421379089355,0.8320478200912476
1.5376307964324951,2.264481544494629,0.39559587836265564
1.5068628787994385,2.255718469619751,0.40086278319358826
1.4973739385604858,2.2790136337280273,0.4117012023925781
1.4889260530471802,2.301513671875,0.4220069944858551
1.5443283319473267,2.4250104427337646,0.4509822428226471
1.5988056659698486,2.5533318519592285,0.481229692697525
3.037313461303711,4.9308085441589355,0.941139280796051
3.025667428970337,4.989284515380859,0.9635913968086243
2.991717576980591,5.015780448913574,0.9798874855041504
2.970079183578491,5.065989971160889,1.0002985000610352
2.947033166885376,5.112194061279297,1.0197926759719849
2.9311370849609375,5.167332172393799,1.0407172441482544
2.901029586791992,5.199191093444824,1.0569473505020142
2.886122941970825,5.266209602355957,1.0799998044967651
2.8565239906311035,5.305800914764404,1.0974384546279907
2.834494113922119,5.354173183441162,1.1162426471710205
2.813814163208008,5.405793190002441,1.1358559131622314
2.780496120452881,5.437691688537598,1.1509242057800293
2.7709288597106934,5.52167272567749,1.1770249605178833
2.7379937171936035,5.556920051574707,1.1926380395889282
1.228013515472412,2.536710023880005,0.5479639768600464
1.1934535503387451,2.5096561908721924,0.5456143617630005
1.19100821018219,2.5520994663238525,0.5580919981002808
1.1622158288955688,2.539020538330078,0.5583685636520386
1.1586495637893677,2.5816051959991455,0.5709560513496399
2.587594747543335,5.874608039855957,1.306165099143982
2.5655150413513184,5.936173915863037,1.326872706413269
2.5370497703552246,5.987687587738037,1.3449474573135376
2.498213052749634,6.018338203430176,1.3580137491226196
2.4769797325134277,6.095038414001465,1.3817332983016968
2.449005603790283,6.149432182312012,1.4001920223236084
2.4192957878112793,6.200030326843262,1.4178882837295532
2.3887789249420166,6.250566005706787,1.4356426000595093
2.359955310821533,6.31249475479126,1.4551926851272583
2.3282368183135986,6.370964527130127,1.4741930961608887
2.295820474624634,6.425259590148926,1.4922255277633667
2.265538454055786,6.4825119972229,1.5109106302261353
2.238325834274292,6.550424575805664,1.5322288274765015
2.2072038650512695,6.611279487609863,1.5516972541809082
2.1698074340820312,6.66187047958374,1.5682260990142822
2.1037940979003906,6.621196269989014,1.5632617473602295
2.0379981994628906,6.5761260986328125,1.557201623916626
1.9817993640899658,6.555704593658447,1.556883692741394
1.9249094724655151,6.5311760902404785,1.5556195974349976
1.8669250011444092,6.502742767333984,1.5530765056610107
1.8025094270706177,6.456128120422363,1.5455471277236938
1.746714472770691,6.434447288513184,1.543952465057373
1.6926534175872803,6.415904521942139,1.5431283712387085
0.8323231935501099,3.2462379932403564,0.7825944423675537
1.5850366353988647,6.365973472595215,1.5383347272872925
0.8013650178909302,3.3190739154815674,0.8039348721504211
1.4795736074447632,6.326193809509277,1.5349879264831543
1.42476487159729,6.2946882247924805,1.5300798416137695
1.3672363758087158,6.247886657714844,1.5214903354644775
1.31722891330719,6.226389408111572,1.5190212726593018
1.2668120861053467,6.204645156860352,1.5165908336639404
1.2168101072311401,6.17864990234375,1.5131160020828247
1.1644409894943237,6.141380786895752,1.5061217546463013
1.1144896745681763,6.11499547958374,1.5015901327133179
1.065627932548523,6.091958999633789,1.497936725616455
1.0156152248382568,6.061100006103516,1.492426872253418
0.9702237248420715,6.048428535461426,1.4913965463638306
0.9222539067268372,6.016658782958984,1.485706090927124
0.8790361285209656,6.014626502990723,1.4872050285339355
0.829635500907898,5.971210479736328,1.4776962995529175
0.7855722904205322,5.968870162963867,1.4784390926361084
0.6271398663520813,5.040148735046387,1.2495604753494263
0.5963994860649109,5.081541538238525,1.2610323429107666
0.5722421407699585,5.1868157386779785,1.2884504795074463
0.5330106019973755,5.159956455230713,1.283125400543213
0.3952353298664093,4.106342315673828,1.0218805074691772
0.3658082187175751,4.108797073364258,1.0229721069335938
0.34097835421562195,4.160118103027344,1.0362776517868042
0.30978238582611084,4.135677814483643,1.0307646989822388
0.282065212726593,4.152592182159424,1.0356019735336304
0.2538972496986389,4.165536403656006,1.039502739906311
0.4173113703727722,7.747280120849609,1.934688925743103
0.36147862672805786,7.711878776550293,1.9262940883636475
0.3059357702732086,7.672370433807373,1.9166423082351685
0.25208351016044617,7.666557312011719,1.9154999256134033
0.19744467735290527,7.626270771026611,1.9058350324630737
0.14301268756389618,7.604554176330566,1.9009078741073608
0.08980347216129303,7.582444190979004,1.895963430404663
0.03696221113204956,7.552385330200195,1.8891175985336304
-0.015594137832522392,7.533608913421631,1.8839913606643677
-0.06771820783615112,7.495543479919434,1.8740341663360596
-0.12032582610845566,7.464684963226318,1.8659679889678955
-0.17213647067546844,7.456208229064941,1.8635954856872559
-0.22272160649299622,7.413280963897705,1.852704644203186
-0.27482035756111145,7.426820755004883,1.856015920639038
-0.32676735520362854,7.4324445724487305,1.8573466539382935
-0.27479788661003113,5.397747039794922,1.3480342626571655
-0.3119103014469147,5.380850791931152,1.3430224657058716
-0.34816059470176697,5.363734722137451,1.3380383253097534
-0.38485971093177795,5.3539276123046875,1.3349422216415405
-0.4197143614292145,5.321187973022461,1.3261959552764893
-0.4492664337158203,5.231561183929443,1.3033477067947388
-0.4282698631286621,4.605708599090576,1.1468299627304077
-0.4591972231864929,4.595546245574951,1.143185019493103
-0.4900590181350708,4.585170269012451,1.139542818069458
-0.518654465675354,4.555744171142578,1.1312278509140015
-0.5484463572502136,4.537410736083984,1.1257237195968628
-0.5785945653915405,4.5188140869140625,1.1201982498168945
-0.6110241413116455,4.522635459899902,1.1203018426895142
-0.6389984488487244,4.496291160583496,1.1126426458358765
-0.669800877571106,4.492413520812988,1.1101868152618408
-0.6982387900352478,4.473325252532959,1.1040290594100952
-0.7251812219619751,4.4427337646484375,1.095071792602539
-0.7548153400421143,4.430702209472656,1.0907578468322754
-0.7830411195755005,4.41098690032959,1.0846096277236938
-0.8109773993492126,4.391097068786621,1.0784817934036255
-0.8304150700569153,4.3302001953125,1.0618009567260742
-0.7251605987548828,3.647162437438965,0.8927473425865173
-0.7474481463432312,3.627795457839966,0.886458158493042
-0.9245803356170654,4.336680889129639,1.057885766029358
-0.9515126347541809,4.3160600662231445,1.0511025190353394
-0.979889988899231,4.302679061889648,1.046142578125
-1.0114904642105103,4.303961277008057,1.044687032699585
-1.0376940965652466,4.2830071449279785,1.0372463464736938
-1.070496678352356,4.29152250289917,1.0370328426361084
-1.0940539836883545,4.262936115264893,1.0279020071029663
-1.1198736429214478,4.241420745849609,1.020493745803833
-1.1475337743759155,4.227065563201904,1.0148626565933228
-1.1796554327011108,4.227060794830322,1.0126898288726807
-1.2065210342407227,4.21258544921875,1.0066213607788086
-1.2308200597763062,4.190743446350098,0.9986740946769714
-1.2560197114944458,4.172389984130859,0.991616427898407
-1.2825976610183716,4.1573967933654785,0.9853733777999878
-1.3099684715270996,4.141964435577393,0.9789970517158508
-1.3389956951141357,4.133751392364502,0.9744299650192261
-1.365122675895691,4.1183085441589355,0.9678730964660645
-1.3930301666259766,4.1101603507995605,0.9627292156219482
-1.4183905124664307,4.09460973739624,0.9559010863304138
-1.4413962364196777,4.07159423828125,0.9473527073860168
-1.4679343700408936,4.055241584777832,0.9402837157249451
-1.499099612236023,4.053194999694824,0.9366362690925598
-1.5243576765060425,4.036879539489746,0.9294531941413879
-1.551621675491333,4.027819633483887,0.9236280918121338
-1.5704463720321655,3.997230291366577,0.9129279851913452
-1.6041432619094849,4.001675128936768,0.9101426005363464
-1.6294947862625122,3.9845407009124756,0.9024603366851807
-1.654680609703064,3.967235565185547,0.8947978019714355
-1.6818572282791138,3.957227945327759,0.8884202837944031
-1.7069926261901855,3.9437508583068848,0.8810827136039734
-1.7340152263641357,3.9334311485290527,0.8744217157363892
-1.7584747076034546,3.9156782627105713,0.8660549521446228
-1.7862516641616821,3.904606580734253,0.8591689467430115
-1.8105542659759521,3.886469841003418,0.850709080696106
-1.8334414958953857,3.868847370147705,0.8418642282485962
-1.8532578945159912,3.843991994857788,0.8314305543899536
-1.8830510377883911,3.8396406173706055,0.8254601359367371
-1.8965712785720825,3.8003580570220947,0.8118888735771179
-1.933983325958252,3.808938503265381,0.808586597442627
-1.9631614685058594,3.8043296337127686,0.8019856810569763
-1.9814453125,3.779205560684204,0.791027307510376
-1.989565134048462,3.7332022190093994,0.7755979895591736
-2.012479543685913,3.713927984237671,0.7656661868095398
-1.6975293159484863,3.081566095352173,0.6303845643997192
-1.7181721925735474,3.071606397628784,0.6230233907699585
-0.8360581994056702,1.4722319841384888,0.29604241251945496
-0.8464017510414124,1.46706223487854,0.2922908067703247
-0.8569204807281494,1.4617042541503906,0.2884606719017029
-0.8671845197677612,1.4563987255096436,0.2845965623855591
-0.8768665194511414,1.4513589143753052,0.28064876794815063
-0.8784767985343933,1.4330880641937256,0.2741752564907074
-0.884891927242279,1.4208770990371704,0.26862433552742004
-0.895115077495575,1.4152541160583496,0.2644032835960388
-0.8877964019775391,1.3841056823730469,0.25529009103775024
-0.9053647518157959,1.391923189163208,0.25340622663497925
-0.8919222354888916,1.3507651090621948,0.2423974722623825
-0.9426734447479248,1.4060243368148804,0.24853383004665375
-2.388408899307251,3.5144283771514893,0.6114546060562134
-1.1960346698760986,1.735937237739563,0.2970935106277466
-1.3837941884994507,1.9788755178451538,0.33252331614494324
-1.309383511543274,2.076979875564575,-0.2170814424753189
-1.250984787940979,2.0162484645843506,-0.21811708807945251
-1.2600829601287842,2.0645294189453125,-0.2308480590581894
-1.1649285554885864,1.9394434690475464,-0.2236478328704834
-0.8472336530685425,1.457598328590393,-0.17800679802894592
-0.8443453907966614,1.47652006149292,-0.18513907492160797
-0.938468337059021,1.667906641960144,-0.21447084844112396
-0.9408997297286987,1.7012912034988403,-0.22424712777137756
-0.8968492150306702,1.6494206190109253,-0.22256745398044586
-0.8667361736297607,1.6208178997039795,-0.2236107438802719
-0.820696234703064,1.5610851049423218,-0.22004950046539307
-0.8055976629257202,1.559447169303894,-0.22444936633110046
-0.7712987065315247,1.5196635723114014,-0.22320988774299622
-0.7569698691368103,1.5174579620361328,-0.2272118628025055
-0.7254508137702942,1.4804797172546387,-0.22584237158298492
-0.7028390765190125,1.4606112241744995,-0.22689266502857208
-0.6857460141181946,1.4508973360061646,-0.22933484613895416
-0.6623329520225525,1.4269839525222778,-0.22942283749580383
-0.6389206051826477,1.402995228767395,-0.22934523224830627
-0.6144987344741821,1.3751640319824219,-0.22842340171337128
-0.5953706502914429,1.3576046228408813,-0.22900503873825073
0.6039208769798279,1.362691879272461,-0.22770360112190247
0.6262422204017639,1.3872402906417847,-0.2282504290342331
0.6294841766357422,1.3694645166397095,-0.22176234424114227
0.657179594039917,1.4041754007339478,-0.2236843854188919
0.6773495674133301,1.421017050743103,-0.22251087427139282
0.7008563280105591,1.4447550773620605,-0.22232463955879211
0.7297560572624207,1.4787155389785767,-0.22351892292499542
0.7610683441162109,1.5157510042190552,-0.22490231692790985
0.7877320051193237,1.5420554876327515,-0.224469393491745
0.816362202167511,1.5716313123703003,-0.22429946064949036
0.8346908688545227,1.5802842378616333,-0.22092083096504211
0.8697729706764221,1.619464635848999,-0.22161516547203064
0.9073565006256104,1.6616307497024536,-0.2224331647157669
0.9508273005485535,1.7137714624404907,-0.22424879670143127
0.9836698174476624,1.7451047897338867,-0.22304105758666992
1.019501805305481,1.7791498899459839,-0.22169405221939087
1.0652114152908325,1.8298059701919556,-0.22220782935619354
1.1093788146972656,1.876777172088623,-0.22191736102104187
1.170553207397461,1.9497458934783936,-0.22413215041160583
1.2289777994155884,2.015223979949951,-0.22488084435462952
1.2859680652618408,2.076935291290283,-0.22460699081420898
1.3188194036483765,2.0985660552978516,-0.21972636878490448
1.3588865995407104,2.129342794418335,-0.21527445316314697
1.3820428848266602,2.1338186264038086,-0.2079886794090271
1.4028165340423584,2.135037660598755,-0.20031584799289703
1.3857489824295044,2.0771098136901855,-0.18670998513698578
1.756166934967041,2.594158411026001,-0.22303813695907593
1.7778434753417969,2.589747190475464,-0.21246357262134552
1.9497557878494263,2.7988357543945312,-0.21790441870689392
1.9352023601531982,2.738569974899292,-0.2015625387430191
1.9580210447311401,2.7328197956085205,-0.18921630084514618
1.4520243406295776,1.9972530603408813,-0.12897267937660217
1.470039963722229,1.9943557977676392,-0.11938290297985077
2.198005437850952,3.115812301635742,0.5431548953056335
2.1972315311431885,3.1612114906311035,0.5620312094688416
1.5308723449707031,2.238663911819458,0.4054681062698364
1.5127373933792114,2.249267816543579,0.41474294662475586
1.5091462135314941,2.2779579162597656,0.42669329047203064
1.4918692111968994,2.287738561630249,0.4350399374961853
1.4736113548278809,2.2979655265808105,0.44328978657722473
1.4768472909927368,2.3400702476501465,0.45745497941970825
1.481943964958191,2.3853538036346436,0.47230932116508484
1.4496194124221802,2.3721046447753906,0.4752742052078247
1.5260803699493408,2.540273904800415,0.5148046016693115
1.4876213073730469,2.5168840885162354,0.5155124068260193
1.4462398290634155,2.486180543899536,0.5144408941268921
1.4176793098449707,2.47900128364563,0.5180126428604126
1.3796051740646362,2.4549992084503174,0.5177338123321533
1.3685039281845093,2.477391004562378,0.5270975828170776
1.3543250560760498,2.492579936981201,0.5347838997840881
2.8479435443878174,5.330200672149658,1.1530423164367676
2.8205463886260986,5.376605987548828,1.1719465255737305
2.795062780380249,5.425937652587891,1.191501498222351
2.7693850994110107,5.470780372619629,1.2097792625427246
2.755723476409912,5.539243221282959,1.233339786529541
1.2256813049316406,2.5081570148468018,0.5621393918991089
1.2195559740066528,2.543951988220215,0.5736664533615112
1.193743348121643,2.5380749702453613,0.5757889747619629
1.172221064567566,2.53853178024292,0.5791848301887512
1.1604382991790771,2.5596201419830322,0.5872877240180969
1.1451189517974854,2.573760509490967,0.5937676429748535
2.573953628540039,5.901378631591797,1.3680745363235474
2.5454599857330322,5.95695161819458,1.3877991437911987
2.5198163986206055,6.015148162841797,1.407990574836731
2.4901235103607178,6.062280178070068,1.4255918264389038
2.461306571960449,6.112792491912842,1.444132685661316
2.4317286014556885,6.167475700378418,1.4629795551300049
2.40156888961792,6.226063251495361,1.4827816486358643
2.3674628734588623,6.273523807525635,1.4999818801879883
2.3415355682373047,6.337967395782471,1.5211246013641357
2.3108582496643066,6.391582012176514,1.5398340225219727
2.2857766151428223,6.4630537033081055,1.562894344329834
2.253573417663574,6.5246686935424805,1.5828077793121338
2.220202922821045,6.582263469696045,1.6018153429031372
2.1899588108062744,6.650442600250244,1.6235295534133911
2.131443500518799,6.627464294433594,1.62290620803833
2.06986927986145,6.5931396484375,1.6195296049118042
2.013404607772827,6.576803684234619,1.6204785108566284
1.9492182731628418,6.534882545471191,1.614093542098999
1.8909746408462524,6.5106658935546875,1.612117886543274
1.830299973487854,6.474940299987793,1.6073070764541626
1.778791904449463,6.463979244232178,1.6085517406463623
1.7147585153579712,6.404930114746094,1.5978522300720215
0.8440382480621338,3.244410514831543,0.8114862442016602
0.8224929571151733,3.2570555210113525,0.8161855936050415
0.8125043511390686,3.317481279373169,0.8329306840896606
1.4860363006591797,6.261103630065918,1.5750882625579834
1.446993112564087,6.292251110076904,1.5860340595245361
1.3921810388565063,6.256617069244385,1.5802550315856934
1.3451099395751953,6.2500505447387695,1.5818098783493042
1.2890993356704712,6.2025885581970215,1.572365641593933
1.2371826171875,6.173420429229736,1.5671782493591309
1.1864677667617798,6.1475605964660645,1.5628854036331177
1.1392878293991089,6.139987468719482,1.5633231401443481
1.0877145528793335,6.098269462585449,1.5550442934036255
1.0386972427368164,6.067347526550293,1.5495611429214478
0.9925628900527954,6.051027297973633,1.5477811098098755
0.9454340934753418,6.0309600830078125,1.544119954109192
0.8973008990287781,6.006893157958984,1.539527416229248
0.8535385131835938,6.004846096038818,1.5406192541122437
0.809474766254425,5.994904518127441,1.5397310256958008
0.759488046169281,5.935819625854492,1.5262677669525146
0.6041415333747864,4.997143268585205,1.2864065170288086
0.589672327041626,5.181177616119385,1.3350484371185303
0.5532937049865723,5.192357063293457,1.3387054204940796
0.40246835350990295,4.047370910644531,1.0441491603851318
0.37639710307121277,4.076135635375977,1.0522713661193848
0.35312899947166443,4.13862943649292,1.06916081905365
0.3237411379814148,4.133100509643555,1.0685374736785889
0.29444295167922974,4.134942531585693,1.0698864459991455
0.2691860795021057,4.193275451660156,1.085458517074585
0.4439025819301605,7.766777038574219,2.010932207107544
0.38721492886543274,7.724056720733643,2.000413417816162
0.3317992091178894,7.696040630340576,1.99379563331604
0.2761981785297394,7.663865089416504,1.9861996173858643
0.2223149687051773,7.642611026763916,1.9815114736557007
0.16848915815353394,7.609640121459961,1.9738751649856567
0.11510509997606277,7.580314636230469,1.9662904739379883
0.06229255720973015,7.573389053344727,1.9642549753189087
0.008627761155366898,7.528285503387451,1.9524123668670654
-0.04364833980798721,7.50927734375,1.947435736656189
-0.09561118483543396,7.4861249923706055,1.9414794445037842
-0.14701500535011292,7.4550557136535645,1.9335622787475586
-0.19868634641170502,7.4463114738464355,1.9315285682678223
-0.248968705534935,7.403467178344727,1.9196478128433228
-0.30312380194664,7.450993061065674,1.931050181388855
-0.2551334500312805,5.3563666343688965,1.3876079320907593
-0.29414689540863037,5.388699054718018,1.3954626321792603
-0.3313625454902649,5.382996559143066,1.393531322479248
-0.36676710844039917,5.350618839263916,1.3847638368606567
-0.40288224816322327,5.325511455535889,1.3779438734054565
-0.4383632242679596,5.307987213134766,1.3722660541534424
-0.4129423201084137,4.611996650695801,1.1913509368896484
-0.44255852699279785,4.586852550506592,1.1839364767074585
-0.474292516708374,4.58408784866333,1.182356357574463
-0.5058868527412415,4.573511123657227,1.1788018941879272
-0.5345466136932373,4.5439863204956055,1.1704418659210205
-0.5651806592941284,4.533071994781494,1.1668684482574463
-0.5972381830215454,4.5371880531311035,1.1664953231811523
-0.6242341995239258,4.503573417663574,1.1564810276031494
-0.6545981168746948,4.492208003997803,1.1522239446640015
-0.68222975730896,4.465704441070557,1.1441614627838135
-0.7127245664596558,4.457695960998535,1.1408919095993042
-0.7412164807319641,4.438277721405029,1.1347641944885254
-0.7719110250473022,4.433682441711426,1.1322598457336426
-0.7995389699935913,4.414149761199951,1.1254521608352661
-0.826041042804718,4.386909484863281,1.116718053817749
-0.7128552794456482,3.649118661880493,0.9274880290031433
-0.7382491827011108,3.644707679748535,0.924963116645813
-0.7636579871177673,3.640110731124878,0.922433614730835
-0.9386917352676392,4.324594020843506,1.094314694404602
-0.9672471284866333,4.311401844024658,1.0889700651168823
-0.9949573278427124,4.2982306480407715,1.0834375619888306
-1.0224835872650146,4.284886360168457,1.077923059463501
-1.0501149892807007,4.271308898925781,1.072390079498291
-1.0762251615524292,4.250081539154053,1.0649645328521729
-1.1064954996109009,4.243253231048584,1.0611670017242432
-1.1361109018325806,4.2363691329956055,1.0573711395263672
-1.164932131767273,4.2296247482299805,1.053001046180725
-1.1874656677246094,4.200755596160889,1.043189287185669
-1.2139384746551514,4.186349391937256,1.0370314121246338
-1.2457998991012573,4.186031818389893,1.034306287765503
-1.269579291343689,4.1601152420043945,1.0253466367721558
-1.3021372556686401,4.163094520568848,1.0235638618469238
-1.3271105289459229,4.144428253173828,1.0159813165664673
-1.3480864763259888,4.114874839782715,1.005619764328003
-1.3788756132125854,4.113940715789795,1.0022568702697754
-1.4049071073532104,4.098330497741699,0.9953519701957703
-1.4236619472503662,4.06085205078125,0.9831645488739014
-1.4599491357803345,4.073492050170898,0.9831657409667969
-1.485334873199463,4.057529449462891,0.9758915901184082
-1.510116696357727,4.041622161865234,0.9684094190597534
-1.535202145576477,4.025403022766113,0.9608501195907593
-1.565871238708496,4.02316427230835,0.9566466212272644
-1.591441035270691,4.006338119506836,0.9489566087722778
-1.6111143827438354,3.9751923084259033,0.9379479885101318
-1.641282081604004,3.972585678100586,0.9332778453826904
-1.6685562133789062,3.9627580642700195,0.9266712665557861
-1.6922918558120728,3.9458863735198975,0.9185411930084229
-1.7122831344604492,3.917975425720215,0.9077540636062622
-1.746261715888977,3.921262264251709,0.9041963219642639
-1.764492154121399,3.889481544494629,0.89259272813797
-1.800720453262329,3.8998231887817383,0.8899917006492615
-1.8204610347747803,3.875401735305786,0.8795701265335083
-1.8469096422195435,3.8645341396331787,0.8722156882286072
-1.864388108253479,3.8323285579681396,0.8599019050598145
-1.8984910249710083,3.834367513656616,0.8553249835968018
-1.932151436805725,3.8364930152893066,0.8502539992332458
-1.9509552717208862,3.8115458488464355,0.8391144871711731
-1.973109245300293,3.7932679653167725,0.8294967412948608
-1.9786540269851685,3.740247964859009,0.8120672702789307
-2.0126233100891113,3.7413647174835205,0.8064759373664856
-2.030911684036255,3.7158586978912354,0.7948405146598816
-1.7169005870819092,3.0927109718322754,0.6561426520347595
-1.7340065240859985,3.0759193897247314,0.6472403407096863
-0.8331152200698853,1.4541529417037964,0.3033040463924408
-0.85128253698349,1.4622058868408203,0.30228087306022644
-0.857204258441925,1.4506182670593262,0.2970091700553894
-0.8670333623886108,1.4455795288085938,0.29301902651786804
-0.8770820498466492,1.440332293510437,0.28892359137535095
-0.887445867061615,1.4348180294036865,0.2846822142601013
-0.8728184700012207,1.3902950286865234,0.272711843252182
-0.8944460153579712,1.4048099517822266,0.2722712457180023
-0.887445867061615,1.373509168624878,0.26282382011413574
-0.8973574042320251,1.3679280281066895,0.2582375109195709
-0.8962000608444214,1.3464261293411255,0.2506197690963745
-0.9244939684867859,1.37015962600708,0.2512756884098053
-2.406766891479492,3.5168802738189697,0.6348285675048828
-1.224119782447815,1.7618041038513184,0.3125156760215759
-1.3808132410049438,1.9601622819900513,0.341464102268219
-1.3459962606430054,2.1182312965393066,-0.22232413291931152
-1.2391579151153564,1.9822741746902466,-0.21579261124134064
-1.1436176300048828,1.8885996341705322,-0.21950261294841766
-1.0958489179611206,1.8393323421478271,-0.2203531712293625
-0.8416259288787842,1.4599618911743164,-0.18509815633296967
-0.8636148571968079,1.5226829051971436,-0.19813907146453857
-0.9070912003517151,1.6265612840652466,-0.21704572439193726
-0.8951980471611023,1.632320523262024,-0.22310255467891693
-0.8613938689231873,1.596925139427185,-0.22331880033016205
-0.8222348093986511,1.551112413406372,-0.22185735404491425
-0.7964199781417847,1.528860092163086,-0.22343681752681732
-0.7766073942184448,1.5165153741836548,-0.2261938452720642
-0.7587533593177795,1.5074256658554077,-0.2293381541967392
-0.7202247977256775,1.456672191619873,-0.22590388357639313
-0.6975531578063965,1.436845064163208,-0.22709466516971588
-0.6805987358093262,1.4270833730697632,-0.2296162098646164
-0.6489824056625366,1.3857027292251587,-0.22687409818172455
-0.6323846578598022,1.3756276369094849,-0.22905218601226807
-0.6223999857902527,1.3794314861297607,-0.23348158597946167
0.6407054662704468,1.380717158317566,-0.2276623398065567
0.6471030712127686,1.3699111938476562,-0.2220982164144516
0.6784734129905701,1.4113540649414062,-0.22489170730113983
0.7055193781852722,1.4419625997543335,-0.22567954659461975
0.7280757427215576,1.4617919921875,-0.22453592717647552
0.7557652592658997,1.491951823234558,-0.22484418749809265
0.7803382873535156,1.5149400234222412,-0.2238980084657669
0.8109332919120789,1.5478405952453613,-0.2241196483373642
0.8292176723480225,1.5564855337142944,-0.22068466246128082
0.8676869869232178,1.6026079654693604,-0.22233641147613525
0.9052557349205017,1.644761323928833,-0.22301386296749115
0.9530074000358582,1.7033835649490356,-0.22554796934127808
0.9860660433769226,1.734574556350708,-0.2241332083940506
1.0135393142700195,1.7554473876953125,-0.22117453813552856
1.0632433891296387,1.812737226486206,-0.22238314151763916
1.1122124195098877,1.8658946752548218,-0.2224908471107483
1.1753132343292236,1.9421955347061157,-0.22498178482055664
1.231400966644287,2.004493474960327,-0.22528982162475586
1.284774899482727,2.059262275695801,-0.22404974699020386
1.3427821397781372,2.1201975345611572,-0.22301597893238068
1.3657690286636353,2.1248977184295654,-0.21564361453056335
1.3892899751663208,2.1291158199310303,-0.20790620148181915
1.395659327507019,2.107161045074463,-0.19754716753959656
1.3967788219451904,2.0791492462158203,-0.1867586225271225
1.7558315992355347,2.5756421089172363,-0.22078955173492432
1.8097243309020996,2.6152827739715576,-0.21295712888240814
1.9591394662857056,2.79245924949646,-0.21553198993206024
1.9535999298095703,2.744858741760254,-0.19956016540527344
1.9635056257247925,2.7195167541503906,-0.1851368397474289
1.467504858970642,2.0054421424865723,-0.1271817833185196
1.4722284078598022,1.9832223653793335,-0.11576291173696518
1.5906481742858887,2.2361202239990234,0.40194642543792725
1.7721307277679443,2.531702995300293,0.46438947319984436
1.5721746683120728,2.2830522060394287,0.4268622398376465
1.5100009441375732,2.2256741523742676,0.4232352674007416
1.5036935806274414,2.2514808177948,0.4351220726966858
1.4898103475570679,2.2682156562805176,0.44515499472618103
1.489195466041565,2.303752899169922,0.45866233110427856
1.4682133197784424,2.3064441680908203,0.465425580739975
1.4623709917068481,2.335840940475464,0.47731253504753113
1.4599192142486572,2.3719584941864014,0.49065250158309937
1.480387806892395,2.443528175354004,0.5110979080200195
1.4505372047424316,2.4329617023468018,0.5145295858383179
1.4122684001922607,2.4094202518463135,0.5146888494491577
1.3972265720367432,2.425518274307251,0.5232263803482056
1.3831086158752441,2.4409708976745605,0.5313886404037476
1.369212031364441,2.456143379211426,0.5394423007965088
2.9130373001098633,5.316722393035889,1.1776885986328125
2.850147008895874,5.295500755310059,1.1822959184646606
2.8313236236572266,5.354660511016846,1.2047805786132812
2.806957960128784,5.399161338806152,1.2236347198486328
2.7768592834472656,5.4333086013793945,1.2402775287628174
2.762650489807129,5.506269454956055,1.2653318643569946
2.7273905277252197,5.538058280944824,1.2807555198669434
1.2265149354934692,2.5367863178253174,0.5903196930885315
1.2017899751663208,2.5304553508758545,0.5923483967781067
1.1869267225265503,2.5446691513061523,0.5992027521133423
1.161586880683899,2.5383706092834473,0.6009092926979065
1.1545727252960205,2.5738933086395264,0.6125199198722839
2.5855870246887207,5.878602027893066,1.406107783317566
2.5512681007385254,5.911809921264648,1.4209402799606323
2.5329508781433105,5.983421325683594,1.4451611042022705
2.50260066986084,6.030824184417725,1.4632364511489868
2.47114634513855,6.082462310791016,1.4819912910461426
2.446901798248291,6.151340007781982,1.5050102472305298
2.4136135578155518,6.1947855949401855,1.5217628479003906
2.3900232315063477,6.262698173522949,1.5445873737335205
2.3589251041412354,6.312708854675293,1.5631614923477173
2.323498249053955,6.360011100769043,1.5803693532943726
2.2944231033325195,6.424898147583008,1.6017935276031494
2.2632598876953125,6.486064910888672,1.622457504272461
2.234424352645874,6.550118446350098,1.6437957286834717
2.201396942138672,6.603168964385986,1.662503957748413
2.1633498668670654,6.645442962646484,1.6787378787994385
2.101078987121582,6.6156158447265625,1.6755955219268799
2.0381388664245605,6.581670761108398,1.6713721752166748
1.9768285751342773,6.550833702087402,1.6679730415344238
1.9165853261947632,6.515432357788086,1.6632887125015259
1.860288381576538,6.490415096282959,1.6612614393234253
1.8046002388000488,6.468799114227295,1.6602240800857544
1.7460039854049683,6.436087608337402,1.6553484201431274
0.8395092487335205,3.1850082874298096,0.8208471536636353
0.8295947313308716,3.2416093349456787,0.8371692895889282
1.579331874847412,6.35722017288208,1.6452094316482544
0.7985134124755859,3.3141016960144043,0.8594909310340881
1.4738222360610962,6.30946159362793,1.6398078203201294
1.4199098348617554,6.277732849121094,1.6345711946487427
1.3651329278945923,6.242142200469971,1.6277631521224976
1.3132857084274292,6.217213153839111,1.6237883567810059
1.2590968608856201,6.1808390617370605,1.6169052124023438
1.2114485502243042,6.166031360626221,1.6156243085861206
1.1647720336914062,6.154582977294922,1.6152852773666382
1.1122181415557861,6.109301567077637,1.6061147451400757
1.0628457069396973,6.082605838775635,1.6008447408676147
1.0162527561187744,6.074306011199951,1.60043203830719
0.9681634902954102,6.050623416900635,1.5960062742233276
0.9193198680877686,6.015288829803467,1.58854079246521
0.8719189763069153,5.983273506164551,1.5819896459579468
0.8259764313697815,5.958395481109619,1.5773836374282837
0.7835837006568909,5.963298320770264,1.580480694770813
0.621745228767395,5.004637718200684,1.3272647857666016
0.5951022505760193,5.083432674407959,1.3491053581237793
0.5620718002319336,5.113270282745361,1.3580381870269775
0.5248292088508606,5.101526737213135,1.3559836149215698
0.39055922627449036,4.074615001678467,1.0839314460754395
0.36630311608314514,4.129519939422607,1.0995205640792847
0.3374186158180237,4.13164758682251,1.1007698774337769
0.3078185021877289,4.126155853271484,1.0996325016021729
0.2800930440425873,4.146817207336426,1.1055206060409546
0.2518644332885742,4.163521766662598,1.110411524772644
0.41321590542793274,7.73816442489624,2.064690351486206
0.35835760831832886,7.717799186706543,2.0602595806121826
0.3027604818344116,7.670650482177734,2.0487682819366455
0.2481929361820221,7.63461971282959,2.0395522117614746
0.19415931403636932,7.605906963348389,2.0317723751068115
0.1398293524980545,7.588150501251221,2.0270190238952637
0.08680760860443115,7.5813188552856445,2.0252835750579834
0.03400354087352753,7.559021472930908,2.0195136070251465
-0.018521791324019432,7.513713836669922,2.007692337036133
-0.07057281583547592,7.494462013244629,2.00292706489563
-0.12290170788764954,7.456183433532715,1.9923151731491089
-0.1741214245557785,7.432777404785156,1.9852790832519531
-0.22525130212306976,7.416563987731934,1.9802634716033936
-0.27658677101135254,7.411312580108643,1.9782720804214478
-0.32702550292015076,7.386852741241455,1.9712504148483276
-0.276336133480072,5.394312381744385,1.4392317533493042
-0.3136160373687744,5.377343654632568,1.4344805479049683
-0.3500366806983948,5.3641037940979,1.4301313161849976
-0.3853994309902191,5.3393988609313965,1.4224978685379028
-0.41984254121780396,5.306931018829346,1.4128737449645996
-0.4490629732608795,5.217804431915283,1.3882516622543335
-0.4281238615512848,4.594552040100098,1.221683144569397
-0.4607909321784973,4.5993523597717285,1.2222847938537598
-0.4891170561313629,4.5626139640808105,1.2119097709655762
-0.520967960357666,4.563408374786377,1.2109484672546387
-0.5500421524047852,4.541536808013916,1.2038401365280151
-0.5770291090011597,4.500674247741699,1.1917474269866943
-0.6100814342498779,4.512126445770264,1.1935901641845703
-0.6403941512107849,4.500857830047607,1.1894677877426147
-0.6683991551399231,4.474423408508301,1.1814006567001343
-0.6995202302932739,4.470226764678955,1.1792694330215454
-0.7264597415924072,4.439861297607422,1.1695551872253418
-0.7568447589874268,4.4355292320251465,1.1667205095291138
-0.7832865118980408,4.408638954162598,1.1580122709274292
-0.810974657535553,4.388991832733154,1.1512640714645386
-0.8337428569793701,4.343108654022217,1.1376935243606567
-0.7251269221305847,3.6402881145477295,0.9523417949676514
-0.7516240477561951,3.6394331455230713,0.9507914185523987
-0.9180490970611572,4.2975687980651855,1.1205933094024658
-0.9473869800567627,4.292110443115234,1.117089033126831
-0.9783750176429749,4.293833255767822,1.1155023574829102
-1.0099717378616333,4.29522180557251,1.1138380765914917
-1.040587067604065,4.288860321044922,1.110166072845459
-1.068734884262085,4.275053977966309,1.1046645641326904
-1.094411849975586,4.253925800323486,1.0969140529632568
-1.1214804649353027,4.2401251792907715,1.0907717943191528
-1.1463745832443237,4.218838691711426,1.082772135734558
-1.1758592128753662,4.211829662322998,1.078431487083435
-1.2053008079528809,4.204610824584961,1.074089765548706
-1.2368863821029663,4.204450607299805,1.071595549583435
-1.2574667930603027,4.16776180267334,1.0597825050354004
-1.284555196762085,4.156774044036865,1.0539262294769287
-1.3143808841705322,4.1526970863342285,1.049813151359558
-1.339033603668213,4.134086608886719,1.0421329736709595
-1.3679707050323486,4.125885486602783,1.0370399951934814
-1.3945484161376953,4.1102375984191895,1.0301177501678467
-1.4134924411773682,4.072861194610596,1.0178266763687134
-1.4437488317489624,4.071692943572998,1.014058232307434
-1.4770355224609375,4.077359676361084,1.0118435621261597
-1.5020352602005005,4.061512470245361,1.0043962001800537
-1.527687907218933,4.045238971710205,0.9968015551567078
-1.5534359216690063,4.028709888458252,0.9891732931137085
-1.5762341022491455,4.004917621612549,0.9798297882080078
-1.5982857942581177,3.98132061958313,0.9699593782424927
-1.6309030055999756,3.9861011505126953,0.9670071005821228
-1.651916742324829,3.9624712467193604,0.9572066068649292
-1.6798317432403564,3.952326536178589,0.9505433440208435
-1.7109119892120361,3.9489030838012695,0.9455070495605469
-1.7254269123077393,3.906705141067505,0.9311375021934509
-1.7596426010131836,3.9140613079071045,0.9280988574028015
-1.778140664100647,3.886406421661377,0.9168004989624023
-1.8079230785369873,3.882782220840454,0.9111729264259338
-1.835494041442871,3.871595621109009,0.9036206007003784
-1.8635063171386719,3.859985113143921,0.8959236741065979
-1.88327956199646,3.8351492881774902,0.8849360942840576
-1.9090311527252197,3.8242321014404297,0.8769688010215759
-1.9416418075561523,3.8267831802368164,0.8721103072166443
-1.9617997407913208,3.801182985305786,0.8605653047561646
-1.9890105724334717,3.7889373302459717,0.8520647287368774
-2.0158801078796387,3.77668833732605,0.8432533740997314
-2.0193164348602295,3.724576950073242,0.8253780603408813
-1.7038947343826294,3.0946176052093506,0.680597722530365
-1.7221893072128296,3.077392816543579,0.6713384389877319
-0.8085503578186035,1.4215327501296997,0.3075629770755768
-0.8377495408058167,1.4498755931854248,0.3109196126461029
-0.8590973019599915,1.4649473428726196,0.3112863302230835
-0.8690106868743896,1.4599287509918213,0.3073219954967499
-0.8755298852920532,1.4479312896728516,0.3017353117465973
-0.8778669834136963,1.429355263710022,0.2948356866836548
-0.8915842175483704,1.4308114051818848,0.2918282449245453
-0.8969589471817017,1.4192155599594116,0.2862285077571869
-0.8987483382225037,1.4007264375686646,0.2790575921535492
-0.8962554931640625,1.3757143020629883,0.270629346370697
-0.896984338760376,1.3576924800872803,0.26350802183151245
-0.9640949964523315,1.4390525817871094,0.2753826975822449
-2.3936703205108643,3.52053165435791,0.6634603142738342
-1.330742597579956,1.90269136428833,0.34695783257484436
-1.2607523202896118,2.001410722732544,-0.21326956152915955
-1.2401421070098877,1.9996271133422852,-0.22053919732570648
-1.1324331760406494,1.8549885749816895,-0.21140992641448975
-1.12223219871521,1.8693472146987915,-0.2199924737215042
-0.8276497721672058,1.4236111640930176,-0.1774587631225586
-0.844008207321167,1.476216435432434,-0.18905620276927948
-0.941470742225647,1.6745085716247559,-0.22008755803108215
-0.9086107015609741,1.6431324481964111,-0.22137148678302765
-0.8670002818107605,1.5943609476089478,-0.2199198603630066
-0.8350871205329895,1.5623078346252441,-0.22046907246112823
-0.8165370225906372,1.5537992715835571,-0.22408920526504517
-0.7822673916816711,1.5140790939331055,-0.22298796474933624
-0.7674376964569092,1.5121705532073975,-0.22734667360782623
-0.7389965653419495,1.4823555946350098,-0.22731399536132812
-0.7130573391914368,1.45556640625,-0.22742827236652374
-0.6858273148536682,1.4250339269638062,-0.22677013278007507
-0.6621637344360352,1.4013030529022217,-0.22697536647319794
-0.6405620574951172,1.3808029890060425,-0.2275451421737671
-0.6304998993873596,1.3846756219863892,-0.23207072913646698
-0.6047691702842712,1.3531908988952637,-0.23049625754356384
0.6357514262199402,1.3827396631240845,-0.2292700707912445
0.660192608833313,1.4104596376419067,-0.23003032803535461
0.6703461408615112,1.406407117843628,-0.22543250024318695
0.707374632358551,1.4579883813858032,-0.22965072095394135
0.7176053524017334,1.4537245035171509,-0.22489069402217865
0.757235050201416,1.5082322359085083,-0.22905302047729492
0.7820199131965637,1.5311671495437622,-0.22809773683547974
0.8126129508018494,1.564109206199646,-0.22841563820838928
0.8345756530761719,1.579639196395874,-0.2259126454591751
0.8657205700874329,1.612135648727417,-0.22574502229690552
0.8994978070259094,1.6475601196289062,-0.22563768923282623
0.943183422088623,1.6995935440063477,-0.22750400006771088
0.9739404916763306,1.7276619672775269,-0.2258625328540802
1.018971562385559,1.7788094282150269,-0.22680452466011047
1.0609833002090454,1.8226593732833862,-0.22642043232917786
1.1152409315109253,1.886258602142334,-0.22809156775474548
1.1641615629196167,1.9393882751464844,-0.22807584702968597
1.2122596502304077,1.9884095191955566,-0.22698841989040375
1.2777950763702393,2.0631492137908936,-0.22817078232765198
1.3269766569137573,2.111297130584717,-0.22606122493743896
1.3583163022994995,2.129194974899292,-0.22027884423732758
1.381954312324524,2.133411407470703,-0.21270383894443512
1.383642554283142,2.105282783508301,-0.2019503265619278
1.3938709497451782,2.0900180339813232,-0.19231808185577393
1.718856692314148,2.538989782333374,-0.22334516048431396
1.800061821937561,2.621368885040283,-0.21990764141082764
1.953524112701416,2.8052945137023926,-0.22370271384716034
1.9397109746932983,2.7445859909057617,-0.20668740570545197
1.9629563093185425,2.738588809967041,-0.19380462169647217
1.4516551494598389,1.9973162412643433,-0.13211576640605927
1.4588464498519897,1.9782087802886963,-0.1211208775639534
2.2259511947631836,3.1533734798431396,0.5469843745231628
1.7642362117767334,2.5398547649383545,0.44970405101776123
1.5361509323120117,2.2447352409362793,0.4048503339290619
1.5139811038970947,2.248779535293579,0.4128476679325104
1.5085749626159668,2.2785794734954834,0.42539268732070923
1.4961433410644531,2.2944490909576416,0.4347567558288574
1.4750667810440063,2.297354221343994,0.4416147768497467
1.4650366306304932,2.320481777191162,0.452087938785553
1.4731268882751465,2.3729500770568848,0.46840953826904297
1.449906349182129,2.372215986251831,0.4738415777683258
1.5077091455459595,2.506743907928467,0.5064834356307983
1.476309895515442,2.497062921524048,0.50995272397995
1.4396638870239258,2.4769198894500732,0.5111210942268372
1.413865327835083,2.4726150035858154,0.5152393579483032
1.3809045553207397,2.454561948776245,0.5163416266441345
1.3545067310333252,2.4503374099731445,0.5199072360992432
1.3428844213485718,2.472853899002075,0.5291826128959656
2.8466951847076416,5.331509113311768,1.1500742435455322
2.8219289779663086,5.3765130043029785,1.1690399646759033
2.7925922870635986,5.414956092834473,1.1861337423324585
2.777141571044922,5.484706401824951,1.2097684144973755
2.7524502277374268,5.53721809387207,1.2297614812850952
1.2353981733322144,2.5292980670928955,0.5653511881828308
1.2037380933761597,2.5093820095062256,0.5645609498023987
1.19171941280365,2.5308942794799805,0.5727840065956116
1.1758012771606445,2.545628309249878,0.5793502330780029
1.1565934419631958,2.5532758235931396,0.5843411087989807
1.1415419578552246,2.567331552505493,0.5906522274017334
2.5766310691833496,5.905113697052002,1.365714192390442
2.5511181354522705,5.963583946228027,1.3862390518188477
2.5154147148132324,6.0012288093566895,1.401287317276001
2.489433765411377,6.06335973739624,1.4222017526626587
2.462709426879883,6.121328353881836,1.442101001739502
2.4318180084228516,6.168277263641357,1.4594485759735107
2.4064977169036865,6.233094215393066,1.4812901020050049
2.37007212638855,6.273394584655762,1.4963979721069336
2.3420982360839844,6.338637828826904,1.517463207244873
2.31457781791687,6.407344818115234,1.5395312309265137
2.2845234870910645,6.464502334594727,1.558732271194458
2.2492244243621826,6.510959148406982,1.5755946636199951
2.222487449645996,6.58231258392334,1.598440170288086
2.189743757247925,6.643441677093506,1.6179050207138062
2.134087562561035,6.635585784912109,1.6206735372543335
2.066281318664551,6.587314605712891,1.613584041595459
2.0123772621154785,6.578212261199951,1.6160298585891724
1.9519532918930054,6.542961120605469,1.611998438835144
1.8909591436386108,6.503602504730225,1.6068848371505737
1.8282216787338257,6.46068811416626,1.5998332500457764
1.7732619047164917,6.442869186401367,1.5990333557128906
1.7157107591629028,6.413596153259277,1.5954355001449585
0.8301362991333008,3.1936867237091064,0.7962918281555176
1.603359341621399,6.3494720458984375,1.5867815017700195
0.8096386194229126,3.3030169010162354,0.8273845314979553
1.5008872747421265,6.3170294761657715,1.585213541984558
1.452874779701233,6.31529426574707,1.587490439414978
1.3918156623840332,6.257808685302734,1.5758501291275024
1.3418644666671753,6.240316390991211,1.5742319822311401
1.2857868671417236,6.188934803009033,1.5640723705291748
1.2327303886413574,6.148247718811035,1.5566432476043701
1.1893056631088257,6.155684471130371,1.5610296726226807
1.1361925601959229,6.1184797286987305,1.5535356998443604
1.0891215801239014,6.106833457946777,1.5525568723678589
1.0379458665847778,6.068668365478516,1.5448874235153198
0.9906638860702515,6.044931411743164,1.5409018993377686
0.942074179649353,6.009603023529053,1.5340086221694946
0.8960581421852112,5.992729663848877,1.5319182872772217
0.8537750244140625,5.998187065124512,1.534704566001892
0.8072092533111572,5.973400592803955,1.529624104499817
0.7625494003295898,5.959519863128662,1.5274004936218262
0.601187527179718,4.975703239440918,1.2764191627502441
0.5729464888572693,5.035635471343994,1.293023943901062
0.5541300773620605,5.197062969207764,1.3358303308486938
0.4042758643627167,4.0592803955078125,1.0444130897521973
0.37984874844551086,4.106969356536865,1.0571117401123047
0.35514119267463684,4.158273220062256,1.0708025693893433
0.32441237568855286,4.141529560089111,1.0670267343521118
0.29390937089920044,4.128354549407959,1.0642248392105103
0.26788613200187683,4.171550273895264,1.0759974718093872
0.44298917055130005,7.738051414489746,1.9972083568572998
0.38753682374954224,7.710299015045166,1.9910677671432495
0.33220604062080383,7.678623199462891,1.9830018281936646
0.2770085632801056,7.665485382080078,1.9798239469528198
0.22280625998973846,7.644365310668945,1.9746767282485962
0.16884416341781616,7.611517906188965,1.9665921926498413
0.11561398208141327,7.589635848999023,1.9614317417144775
0.06269600987434387,7.567383766174316,1.95626699924469
0.009075088426470757,7.537325859069824,1.9486651420593262
-0.043164532631635666,7.510874271392822,1.9412764310836792
-0.09498797357082367,7.480279445648193,1.9329140186309814
-0.14632906019687653,7.441763877868652,1.9226014614105225
-0.19775381684303284,7.42936372756958,1.9191317558288574
-0.2486324906349182,7.40526819229126,1.9127345085144043
