X,Y,Z
-0.31915485858917236,5.0808563232421875,0.17125876247882843
-0.2996786832809448,4.2957258224487305,0.14460362493991852
-0.3306196630001068,4.309126377105713,0.1448696255683899
-0.36106735467910767,4.314526081085205,0.14487284421920776
-0.38729405403137207,4.2652201652526855,0.143044114112854
-0.4112095236778259,4.204153060913086,0.14083489775657654
-0.43538787961006165,4.154625415802002,0.1389683485031128
-0.4600786864757538,4.116621971130371,0.1374453455209732
-0.48380663990974426,4.074599742889404,0.13579918444156647
-0.5060994029045105,4.020753860473633,0.13376575708389282
-0.5268766283988953,3.962963104248047,0.13161601126194
-0.5511676669120789,3.9360175132751465,0.13050174713134766
-0.5731366872787476,3.897381067276001,0.12892083823680878
-0.5939863920211792,3.854774236679077,0.1272147297859192
-0.6140921115875244,3.8081419467926025,0.12538325786590576
-0.6353045701980591,3.7730050086975098,0.12394427508115768
-0.6547449231147766,3.7300610542297363,0.12225953489542007
-0.6741513013839722,3.690903902053833,0.12067054957151413
-0.6921003460884094,3.647865056991577,0.11891498416662216
-0.7117544412612915,3.6162474155426025,0.11754346638917923
-0.7292388081550598,3.572939872741699,0.11579587310552597
-0.7459865212440491,3.5296006202697754,0.11406237632036209
-0.7613332271575928,3.482388734817505,0.11221665889024734
-0.7850618362426758,3.4771347045898438,0.11164762079715729
-0.7998934388160706,3.4336941242218018,0.10986153036355972
-0.8236973285675049,3.428079843521118,0.10928840190172195
-0.8390466570854187,3.388184070587158,0.10763097554445267
-0.856776237487793,3.359591007232666,0.10634426027536392
-0.8698810338973999,3.3158910274505615,0.10454297810792923
-0.8903524875640869,3.3023858070373535,0.1036793515086174
-0.9079681634902954,3.277352809906006,0.10245411098003387
-0.9241240620613098,3.2485036849975586,0.1011216938495636
-0.9400706887245178,3.219546318054199,0.09979389607906342
-0.9621407985687256,3.2130401134490967,0.09913861006498337
-0.9689357876777649,3.157961845397949,0.0969526395201683
-0.9953188300132751,3.1661431789398193,0.09670963883399963
-1.0026603937149048,3.1146597862243652,0.09465459734201431
-1.0145277976989746,3.0779623985290527,0.09305820614099503
-1.031956672668457,3.0598244667053223,0.09201785922050476
-1.044955849647522,3.030660629272461,0.0906171128153801
-1.0653947591781616,3.0235581398010254,0.0898839607834816
-1.0784872770309448,2.9940452575683594,0.08847633749246597
-1.091195821762085,2.964505910873413,0.08708066493272781
-1.111527681350708,2.956965208053589,0.08631889522075653
-1.104797601699829,2.880183696746826,0.08351188153028488
-1.1326369047164917,2.8945462703704834,0.0833614394068718
-1.1325421333312988,2.835822105407715,0.0810931846499443
-1.1448992490768433,2.8098065853118896,0.07977960258722305
-1.1610469818115234,2.794740915298462,0.07875953614711761
-1.1508197784423828,2.718599319458008,0.07601553201675415
-1.186015009880066,2.750295400619507,0.07629662752151489
-1.1566075086593628,2.631092071533203,0.07238205522298813
-1.1908128261566162,2.658658266067505,0.0725337564945221
-1.1907227039337158,2.611584186553955,0.07061855494976044
-1.1982017755508423,2.5823769569396973,0.06920049339532852
-1.2439689636230469,2.6342759132385254,0.0699392631649971
-1.2794978618621826,2.660627603530884,0.06994834542274475
-1.2838363647460938,2.62382435798645,0.06828918308019638
-1.2942365407943726,2.6012980937957764,0.0669894590973854
-1.2814615964889526,2.533456563949585,0.06454658508300781
-1.2919294834136963,2.510603666305542,0.06323681771755219
-1.3019673824310303,2.487819194793701,0.06193413957953453
-1.3113012313842773,2.465256452560425,0.06061038747429848
-1.3219809532165527,2.446260690689087,0.059396859258413315
-1.3350600004196167,2.4302635192871094,0.05823095142841339
-1.3479256629943848,2.4142332077026367,0.057062193751335144
-1.3521174192428589,2.385011911392212,0.05556781589984894
-1.3718315362930298,2.3827686309814453,0.054695501923561096
-1.3804312944412231,2.3597400188446045,0.05331534892320633
-1.4084099531173706,2.370471477508545,0.052688680589199066
-1.4116907119750977,2.341221570968628,0.0511624701321125
-1.4230700731277466,2.325193166732788,0.04992204159498215
-1.431228518486023,2.3018290996551514,0.04847286641597748
-1.4421361684799194,2.285804510116577,0.04718908667564392
-1.4463118314743042,2.2600371837615967,0.04571107029914856
-1.468195915222168,2.259891986846924,0.04469264671206474
-1.472622275352478,2.233680248260498,0.04314318299293518
-1.4784653186798096,2.211071252822876,0.041651733219623566
-1.4933634996414185,2.2010605335235596,0.04036741703748703
-1.503711223602295,2.1845510005950928,0.038934335112571716
-1.479483723640442,2.1205790042877197,0.036685798317193985
-1.4938077926635742,2.1105363368988037,0.03532005846500397
-1.5079069137573242,2.1005094051361084,0.03389545902609825
-1.5118721723556519,2.07839035987854,0.032296571880578995
-1.517008662223816,2.0552806854248047,0.030565375462174416
-1.5273354053497314,2.1395487785339355,-0.026933642104268074
-1.5072710514068604,2.144169569015503,-0.028339345008134842
-1.4781444072723389,2.135892391204834,-0.029497772455215454
-1.4707388877868652,2.159907579421997,-0.031076248735189438
-1.4773781299591064,2.2025442123413086,-0.03285343199968338
-1.4735733270645142,2.233203649520874,-0.03446979820728302
-1.4568740129470825,2.2441132068634033,-0.03577150031924248
-1.4600062370300293,2.283891439437866,-0.03747089207172394
-1.4345206022262573,2.2815301418304443,-0.03847420960664749
-1.4220305681228638,2.298506498336792,-0.039769336581230164
-1.4221839904785156,2.3350560665130615,-0.041377633810043335
-1.4044705629348755,2.3457324504852295,-0.042528435587882996
-1.4031224250793457,2.3828513622283936,-0.044139835983514786
-1.3864915370941162,2.3925466537475586,-0.04521098732948303
-1.3767454624176025,2.4161453247070312,-0.046534936875104904
-1.3473995923995972,2.4057881832122803,-0.0471985749900341
-1.3414995670318604,2.435850143432617,-0.04862789809703827
-1.3243526220321655,2.445195198059082,-0.049623772501945496
-1.3119306564331055,2.4651429653167725,-0.050823140889406204
-1.3012468814849854,2.4884214401245117,-0.05209508538246155
-1.2909998893737793,2.5113115310668945,-0.05333952605724335
-1.2762209177017212,2.5275871753692627,-0.05444776639342308
-1.2871649265289307,2.5963308811187744,-0.05667925626039505
-1.2753005027770996,2.619544744491577,-0.05792723223567009
-1.2671135663986206,2.6494927406311035,-0.05931438133120537
-1.2248865365982056,2.608978509902954,-0.05909937620162964
-1.2254928350448608,2.6603612899780273,-0.06095302104949951
-1.193174958229065,2.640744209289551,-0.061189569532871246
-1.1684452295303345,2.6346797943115234,-0.061700012534856796
-1.1559447050094604,2.657212972640991,-0.06285472214221954
-1.1719350814819336,2.748106002807617,-0.06562316417694092
-1.1611744165420532,2.778064012527466,-0.06696004420518875
-1.1503419876098633,2.8078856468200684,-0.06829745322465897
-1.1335254907608032,2.823115348815918,-0.0692690908908844
-1.1374419927597046,2.892976999282837,-0.07157038152217865
-1.1109521389007568,2.8865013122558594,-0.07199638336896896
-1.1099936962127686,2.945350408554077,-0.07404588162899017
-1.0931873321533203,2.964099645614624,-0.0751090869307518
-1.085312008857727,3.008521795272827,-0.0767739862203598
-1.0611552000045776,3.0088281631469727,-0.0773107185959816
-1.0499225854873657,3.045811414718628,-0.07879406213760376
-1.0311859846115112,3.0604300498962402,-0.07969819754362106
-1.0227422714233398,3.108496904373169,-0.08148010075092316
-1.0028882026672363,3.123145341873169,-0.08234057575464249
-0.9805161356925964,3.130223512649536,-0.08300735056400299
-0.9653586149215698,3.15942120552063,-0.0842592790722847
-0.9511932730674744,3.192230224609375,-0.08561384677886963
-0.9374294281005859,3.2288246154785156,-0.08705142885446548
-0.9204024076461792,3.258056163787842,-0.08828181773424149
-0.905491054058075,3.294624090194702,-0.08971479535102844
-0.885517418384552,3.312159776687622,-0.09063098579645157
-0.866410493850708,3.3333334922790527,-0.0916530191898346
-0.8486095666885376,3.362063407897949,-0.09283760190010071
-0.8336344361305237,3.4060070514678955,-0.09443604946136475
-0.8121793866157532,3.4232125282287598,-0.09529699385166168
-0.790036141872406,3.436389446258545,-0.09604647755622864
-0.771172046661377,3.464663028717041,-0.09722550213336945
-0.7549194097518921,3.508178472518921,-0.09878797829151154
-0.7399053573608398,3.563222646713257,-0.10067813098430634
-0.7223151922225952,3.6066477298736572,-0.10224723815917969
-0.7023780941963196,3.638411283493042,-0.10349091142416
-0.6827795505523682,3.673903465270996,-0.10485067218542099
-0.6624249815940857,3.7093517780303955,-0.10615574568510056
-0.6403911709785461,3.740940570831299,-0.10734415799379349
-0.6216033697128296,3.791585922241211,-0.10908500850200653
-0.5999895334243774,3.826676368713379,-0.11038660258054733
-0.5774075984954834,3.857775926589966,-0.11158211529254913
-0.24516057968139648,1.7201837301254272,-0.04985962435603142
-0.23596656322479248,1.745108723640442,-0.0506771095097065
-0.2207164317369461,1.7234824895858765,-0.05014348775148392
-0.20495206117630005,1.6939634084701538,-0.049378834664821625
-0.19009724259376526,1.668184518814087,-0.048721954226493835
-0.17596237361431122,1.6461719274520874,-0.048156797885894775
-0.16211086511611938,1.6240484714508057,-0.047570593655109406
-0.15341466665267944,1.6562633514404297,-0.04857989400625229
-0.14253154397010803,1.6650702953338623,-0.04890512302517891
-0.1392126977443695,1.7711173295974731,-0.0520932711660862
-0.11879115551710129,1.6590977907180786,-0.048857416957616806
-0.10769687592983246,1.6676788330078125,-0.049140166491270065
-0.10142239928245544,1.765854835510254,-0.05206803232431412
-0.08752202987670898,1.735321283340454,-0.05120392516255379
-0.07510136067867279,1.7280850410461426,-0.05102882161736488
-0.1826590895652771,5.006203651428223,-0.14794324338436127
-0.14697077870368958,4.9839396476745605,-0.14728866517543793
-0.11140385270118713,4.977049827575684,-0.14709579944610596
-0.07647710293531418,4.965992450714111,-0.14678676426410675
-0.04194598272442818,4.966403484344482,-0.1468236893415451
-0.007423408329486847,4.943146228790283,-0.1461678445339203
0.02677174098789692,4.919653415679932,-0.14541395008563995
0.06136847287416458,4.903727054595947,-0.14485934376716614
0.0951111763715744,4.887569904327393,-0.1443070024251938
0.12903162837028503,4.882889270782471,-0.1441005915403366
0.16193464398384094,4.850657939910889,-0.14308862388134003
0.19565671682357788,4.849418640136719,-0.14294150471687317
0.22817184031009674,4.824550151824951,-0.1420447677373886
0.26054468750953674,4.7916340827941895,-0.14091689884662628
0.29333028197288513,4.78192138671875,-0.14048221707344055
0.3257274627685547,4.7680888175964355,-0.13993388414382935
0.3576613664627075,4.750144004821777,-0.1392498016357422
0.3891822397708893,4.732003688812256,-0.13848258554935455
0.42246225476264954,4.729158401489258,-0.1381661742925644
0.45295724272727966,4.702808380126953,-0.13717448711395264
0.4848412573337555,4.691786289215088,-0.1366371065378189
0.5144096612930298,4.661148548126221,-0.13553689420223236
0.5465618968009949,4.65749979019165,-0.13512857258319855
0.578259289264679,4.64581298828125,-0.13448365032672882
0.6102917194366455,4.641726016998291,-0.13407079875469208
0.6393736600875854,4.614170551300049,-0.13298533856868744
0.6703116297721863,4.601898670196533,-0.13234907388687134
0.7008614540100098,4.58945894241333,-0.13162794709205627
0.7305218577384949,4.56903076171875,-0.1306464970111847
0.7593594789505005,4.548507213592529,-0.12967829406261444
0.787604570388794,4.523900985717773,-0.12859882414340973
0.814848005771637,4.4952802658081055,-0.12741497159004211
0.7128493189811707,3.78351092338562,-0.1068897545337677
0.7358108162879944,3.763213634490967,-0.10593781620264053
0.7651659250259399,3.7733078002929688,-0.10584019869565964
0.9293206930160522,4.425217628479004,-0.12368647009134293
0.9617684483528137,4.426288604736328,-0.1232791468501091
0.9922968745231628,4.419563293457031,-0.12262222915887833
1.024263858795166,4.420300483703613,-0.1221308782696724
1.0514165163040161,4.397882461547852,-0.12099673599004745
1.0789742469787598,4.379158020019531,-0.11997763067483902
1.1075118780136108,4.363990783691406,-0.11906012147665024
1.1395877599716187,4.36381721496582,-0.11851849406957626
1.1612441539764404,4.325788497924805,-0.11690366268157959
1.193295955657959,4.325181007385254,-0.11629927158355713
1.2231554985046387,4.316853046417236,-0.1154940128326416
1.2487776279449463,4.293267726898193,-0.11428453028202057
1.2760781049728394,4.277105331420898,-0.11324143409729004
1.3051116466522217,4.268359184265137,-0.1123591810464859
1.3346179723739624,4.259248733520508,-0.11146067827939987
1.3640249967575073,4.249946117401123,-0.1105632558465004
1.3911055326461792,4.232962131500244,-0.10946853458881378
1.4125458002090454,4.201168060302734,-0.10795807838439941
1.44095778465271,4.191532611846924,-0.10700151324272156
1.4680432081222534,4.178008079528809,-0.10595037043094635
1.497515320777893,4.167561054229736,-0.10495339334011078
1.5237821340560913,4.1497344970703125,-0.10378792881965637
1.5490913391113281,4.1320390701293945,-0.10256420820951462
1.5769509077072144,4.121512413024902,-0.10151819884777069
1.607805848121643,4.117985725402832,-0.10064145177602768
1.6368632316589355,4.106549263000488,-0.09954467415809631
1.662136197090149,4.087981224060059,-0.09827768057584763
1.6865571737289429,4.069540023803711,-0.0969880074262619
1.7229607105255127,4.079736232757568,-0.09638223052024841
2.0027544498443604,4.652481555938721,-0.10891827940940857
2.0434913635253906,4.656096935272217,-0.10798022150993347
2.0747740268707275,4.642274379730225,-0.10660132020711899
2.10257625579834,4.621199607849121,-0.10505449771881104
2.1306612491607666,4.599743843078613,-0.10349074751138687
2.162588119506836,4.5848517417907715,-0.10205689817667007
2.1941988468170166,4.569840908050537,-0.10057158768177032
2.2245900630950928,4.555156230926514,-0.09909382462501526
2.253431797027588,4.536629676818848,-0.09752684831619263
2.2866945266723633,4.524363994598389,-0.09605885297060013
2.321010112762451,4.5156731605529785,-0.09465350955724716
2.3581104278564453,4.514076232910156,-0.09337708353996277
1.7329411506652832,3.263099193572998,-0.06657420843839645
1.7482073307037354,3.2372260093688965,-0.06510193645954132
1.7306269407272339,3.153435707092285,-0.062477800995111465
1.736172080039978,3.1146860122680664,-0.06076345592737198
1.7782171964645386,3.1403656005859375,-0.06028813123703003
1.3444057703018188,2.3356668949127197,-0.04407278075814247
1.308604121208191,2.239055871963501,-0.04151257127523422
0.9525435566902161,1.6056758165359497,-0.029235852882266045
0.9634863138198853,1.5991458892822266,-0.02855805680155754
0.9744181036949158,1.5925205945968628,-0.027868472039699554
0.9869966506958008,1.589367151260376,-0.027222895994782448
0.9975113868713379,1.582801103591919,-0.026517828926444054
1.0211241245269775,1.5955791473388672,-0.026101263239979744
1.0186936855316162,1.569276213645935,-0.025042321532964706
1.0224016904830933,1.5528640747070312,-0.024149080738425255
1.039878010749817,1.555343747138977,-0.02349233254790306
1.0499550104141235,1.5485707521438599,-0.02269642986357212
2.54693603515625,3.7047550678253174,-0.052603308111429214
2.5770251750946045,3.6934471130371094,-0.050614506006240845
2.604846715927124,3.6834781169891357,-0.048645492643117905
2.6293911933898926,3.6660261154174805,-0.04646236076951027
2.6126046180725098,3.591447353363037,-0.04350674897432327
2.681283473968506,3.638010025024414,-0.042022015899419785
2.6154651641845703,3.690373182296753,0.04444843530654907
2.580148458480835,3.700848340988159,0.046497803181409836
1.0566673278808594,1.539298415184021,0.020083218812942505
1.0605099201202393,1.5697509050369263,0.021209942176938057
1.0354796648025513,1.5583003759384155,0.021754151210188866
1.0245707035064697,1.5654841661453247,0.022489335387945175
1.0214532613754272,1.5861250162124634,0.023412911221385002
1.0052552223205566,1.5871901512145996,0.024046042934060097
0.9939865469932556,1.5942609310150146,0.024730253964662552
0.9823265671730042,1.6014611721038818,0.025397606194019318
0.9662534594535828,1.602083683013916,0.025954557582736015
0.9589145183563232,1.6155678033828735,0.02668873406946659
1.341322898864746,2.2969088554382324,0.038654983043670654
1.8487874269485474,3.2216460704803467,0.0551980696618557
1.7773581743240356,3.149925708770752,0.05488398298621178
1.7421026229858398,3.1383070945739746,0.05555148795247078
1.7715340852737427,3.2469189167022705,0.058346956968307495
1.7474757432937622,3.2599103450775146,0.05944623425602913
2.384732723236084,4.52677059173584,0.08371563255786896
2.345993757247925,4.529354095458984,0.08488640934228897
2.3162713050842285,4.553365230560303,0.08640310168266296
2.2723186016082764,4.549251556396484,0.08738823235034943
2.2470993995666504,4.579144477844238,0.08898667246103287
2.2044479846954346,4.573803424835205,0.08990847319364548
2.177692413330078,4.603866100311279,0.09144243597984314
2.1505682468414307,4.6338019371032715,0.09298501163721085
2.111262321472168,4.634655952453613,0.09391852468252182
2.0789897441864014,4.649198532104492,0.09511557221412659
2.0455219745635986,4.66399621963501,0.09625697880983353
1.9970999956130981,4.646677017211914,0.09672962129116058
1.719611406326294,4.081387996673584,0.08566860854625702
1.6822148561477661,4.071580410003662,0.08614756166934967
1.6666069030761719,4.1159210205078125,0.08775930851697922
1.6396887302398682,4.135103702545166,0.08880870789289474
1.6063839197158813,4.139758586883545,0.08956243097782135
1.582849383354187,4.165511131286621,0.09074769169092178
1.5455865859985352,4.154469013214111,0.09113101661205292
1.5211516618728638,4.180087089538574,0.09227420389652252
1.4909906387329102,4.190922260284424,0.09308242797851562
1.4654532670974731,4.2164435386657715,0.09423183649778366
1.4361066818237305,4.226511478424072,0.09501426666975021
1.4116486310958862,4.2511887550354,0.09613090008497238
1.3787600994110107,4.253742694854736,0.09667954593896866
1.3506174087524414,4.270938396453857,0.09756594151258469
1.3219995498657227,4.2880401611328125,0.09846185892820358
1.2966569662094116,4.312070369720459,0.09950479120016098
1.2665507793426514,4.320992946624756,0.10019981861114502
1.2378383874893188,4.337414264678955,0.10099766403436661
1.2068276405334473,4.346129894256592,0.10162247717380524
1.1779865026474,4.362112045288086,0.10242042690515518
1.148066520690918,4.374104976654053,0.10312988609075546
1.1214697360992432,4.3971076011657715,0.10409680753946304
1.0883017778396606,4.39737606048584,0.10444873571395874
1.0606135129928589,4.420189380645752,0.10534250736236572
1.0310089588165283,4.435194492340088,0.10605596750974655
1.0012857913970947,4.4499921798706055,0.10677055269479752
0.9669519662857056,4.4415812492370605,0.1069268211722374
0.9355629086494446,4.448287487030029,0.10739244520664215
0.7688922882080078,3.7888693809509277,0.09172545373439789
0.7405009865760803,3.786552906036377,0.09192638844251633
0.7273133993148804,3.864624500274658,0.09408837556838989
0.8256270289421082,4.56126070022583,0.11136142909526825
0.7922577857971191,4.559237957000732,0.11157621443271637
0.7613045573234558,4.572417736053467,0.11212301254272461
0.730204701423645,4.585387229919434,0.11267103999853134
0.7010445594787598,4.613628387451172,0.11360342055559158
0.6700713038444519,4.6261115074157715,0.11414925754070282
0.6399627923965454,4.646132469177246,0.1148732602596283
0.6072542071342468,4.650514125823975,0.11513860523700714
0.5769073367118835,4.67404317855835,0.11588440090417862
0.5440488457679749,4.677975177764893,0.11615049839019775
0.5126336216926575,4.697228908538818,0.11680451780557632
0.48151588439941406,4.71621561050415,0.11745595186948776
0.4492824375629425,4.727236270904541,0.11784644424915314
0.4161544740200043,4.7302632331848145,0.1180136576294899
0.38610970973968506,4.771985054016113,0.1191529855132103
0.3524957299232483,4.778497219085693,0.11942122131586075
0.31919583678245544,4.780832767486572,0.11958901584148407
0.28678053617477417,4.7985310554504395,0.12013010680675507
0.25522592663764954,4.839415550231934,0.12118227779865265
0.22168590128421783,4.848884105682373,0.12145399302244186
0.1880144625902176,4.873752593994141,0.12211841344833374
0.15453335642814636,4.886647701263428,0.12248805910348892
0.12097848206758499,4.903217315673828,0.12295596301555634
0.08734501153230667,4.927364349365234,0.12355982512235641
0.0532253123819828,4.943472862243652,0.1239330843091011
0.018286993727087975,4.967155933380127,0.12450166046619415
-0.016301672905683517,4.974973678588867,0.12467893213033676
-0.05095827952027321,4.978645324707031,0.1247582882642746
-0.08599893003702164,5.0015974044799805,0.12532101571559906
-0.12097465246915817,5.0086894035339355,0.12539666891098022
-0.15600445866584778,5.015537261962891,0.12547211349010468
-0.19266349077224731,5.045528888702393,0.12613028287887573
-0.2277536690235138,5.044069766998291,0.12600934505462646
-0.264305055141449,5.069662570953369,0.12656976282596588
-0.30132490396499634,5.098896503448486,0.12718015909194946
-0.11889781802892685,1.8002080917358398,0.044844772666692734
-0.129021555185318,1.764275312423706,0.04389464110136032
-0.14000321924686432,1.747769832611084,0.04343244060873985
-0.1480683833360672,1.7000738382339478,0.04219894856214523
-0.15657569468021393,1.6640156507492065,0.04125864431262016
-0.1723584681749344,1.7056376934051514,0.042215365916490555
-0.1843145191669464,1.7043895721435547,0.042107339948415756
-0.20721368491649628,1.800068974494934,0.04439310356974602
-0.49860987067222595,4.081712245941162,0.10048892349004745
-0.5219802260398865,4.03942346572876,0.09928005933761597
-0.5378063917160034,3.9467248916625977,0.09681098163127899
-0.5603892207145691,3.908087730407715,0.09562771767377853
-0.581473708152771,3.865527868270874,0.09436091780662537
-0.6026429533958435,3.826716661453247,0.09319404512643814
-0.6228860020637512,3.7839102745056152,0.09193671494722366
-0.6452077031135559,3.756403923034668,0.09105905145406723
-0.6619887948036194,3.7019307613372803,0.08948391675949097
-0.6835033297538757,3.6741974353790283,0.0885552316904068
-0.702739417552948,3.6387619972229004,0.08745332062244415
-0.7225587368011475,3.6070122718811035,0.08644536137580872
-0.7412453293800354,3.5713257789611816,0.08535043150186539
-0.7535364031791687,3.5088706016540527,0.0835908055305481
-0.7710975408554077,3.4730679988861084,0.08243965357542038
-0.8000018000602722,3.490577220916748,0.08256367594003677
-0.8114340305328369,3.431790351867676,0.08088672161102295
-0.828818142414093,3.39951229095459,0.07984208315610886
-0.8466453552246094,3.3709726333618164,0.07888235151767731
-0.8621789813041687,3.334784746170044,0.07770159840583801
-0.8828564882278442,3.3212997913360596,0.07706332206726074
-0.8983640074729919,3.2888193130493164,0.07598947733640671
-0.9148455858230591,3.259953498840332,0.07500293850898743
-0.9309698939323425,3.231017589569092,0.0740228220820427
-0.9487978219985962,3.2095532417297363,0.07316508144140244
-0.9659733772277832,3.1881179809570312,0.07232039421796799
-0.9725376963615417,3.1330130100250244,0.07072141021490097
-0.9942444562911987,3.1262035369873047,0.07021371275186539
-1.0062555074691772,3.0895278453826904,0.06904150545597076
-1.027512788772583,3.082535743713379,0.0684887245297432
-1.044502854347229,3.0644571781158447,0.06769531220197678
-1.0574668645858765,3.035216808319092,0.06666217744350433
-1.0706721544265747,3.005732774734497,0.06562133133411407
-1.0888631343841553,2.990891695022583,0.06490720808506012
-1.0980974435806274,2.954216718673706,0.06369476020336151
-1.103037714958191,2.9064836502075195,0.0622461698949337
-1.1085755825042725,2.86254620552063,0.06089730188250542
-1.1212821006774902,2.8366177082061768,0.059930868446826935
-1.135041356086731,2.814314842224121,0.05904439836740494
-1.153850793838501,2.806668519973755,0.058431196957826614
-1.1639060974121094,2.7771356105804443,0.05735998600721359
-1.1628737449645996,2.7224555015563965,0.05578327551484108
-1.1506177186965942,2.642688274383545,0.053705524653196335
-1.1638879776000977,2.624070882797241,0.05287528410553932
-1.1717437505722046,2.5948944091796875,0.05182718113064766
-1.2040270566940308,2.6188242435455322,0.05183229222893715
-1.2188541889190674,2.603346347808838,0.051045335829257965
-1.243639349937439,2.6089282035827637,0.050671063363552094
-1.2540937662124634,2.586580991744995,0.049722373485565186
-1.2919418811798096,2.6202585697174072,0.04984727129340172
-1.2697985172271729,2.5309572219848633,0.047619279474020004
-1.2874112129211426,2.522057056427002,0.04692038521170616
-1.2934881448745728,2.492586612701416,0.04583074897527695
-1.3062926530838013,2.4770848751068115,0.045000821352005005
-1.3192709684371948,2.461350917816162,0.044160936027765274
-1.3306989669799805,2.441868543624878,0.04324393719434738
-1.3396750688552856,2.4191253185272217,0.04224678501486778
-1.3478031158447266,2.3967111110687256,0.04126472398638725
-1.3813124895095825,2.418137550354004,0.04101843759417534
-1.3922247886657715,2.398345470428467,0.04004773497581482
-1.4001002311706543,2.37565279006958,0.03902841731905937
-1.40781569480896,2.3529136180877686,0.038004085421562195
-1.415716290473938,2.3299193382263184,0.03696693852543831
-1.4398273229599,2.333488702774048,0.0363398976624012
-1.4341226816177368,2.2910592555999756,0.034997668117284775
-1.4428447484970093,2.271719455718994,0.03401052951812744
-1.4589003324508667,2.261455535888672,0.033108800649642944
-1.4650564193725586,2.2388365268707275,0.03203519433736801
-1.4750628471374512,2.2228994369506836,0.031063564121723175
-1.4861685037612915,2.206090211868286,0.030020136386156082
-1.4918047189712524,2.183398485183716,0.028896020725369453
-1.5059329271316528,2.1736905574798584,0.02793041616678238
-1.4872663021087646,2.1152825355529785,0.026302246376872063
-1.516583800315857,2.1280410289764404,0.02556528151035309
-1.5096451044082642,2.08976411819458,0.024191346019506454
-1.5053150653839111,2.0542829036712646,0.02280467562377453
-1.513270378112793,2.0387208461761475,0.02165652997791767
-1.5199275016784668,2.1448962688446045,-0.01972503587603569
-1.5172638893127441,2.175407648086548,-0.020954512059688568
-1.496618628501892,2.180182933807373,-0.02191225066781044
-1.4896315336227417,2.2038373947143555,-0.023017194122076035
-1.477164387702942,2.221590280532837,-0.0240473635494709
-1.4761664867401123,2.254995822906494,-0.025211578235030174
-1.449292778968811,2.2491519451141357,-0.025911035016179085
-1.4510921239852905,2.2897112369537354,-0.027140449732542038
-1.4303926229476929,2.293487071990967,-0.027909882366657257
-1.4302713871002197,2.3302974700927734,-0.029055951163172722
-1.4088215827941895,2.334197521209717,-0.02978852391242981
-1.4040513038635254,2.3643579483032227,-0.03083399496972561
-1.3952908515930176,2.3876423835754395,-0.03177974745631218
-1.3811365365982056,2.404860019683838,-0.032646290957927704
-1.3520450592041016,2.3944473266601562,-0.033114973455667496
-1.342939853668213,2.4174444675445557,-0.03401777520775795
-1.3329342603683472,2.440782308578491,-0.03492089360952377
-1.3204833269119263,2.460836887359619,-0.035779234021902084
-1.3063491582870483,2.477193832397461,-0.036578353494405746
-1.3143011331558228,2.534733295440674,-0.03797838091850281
-1.3046189546585083,2.5616557598114014,-0.038915764540433884
-1.289385437965393,2.5780837535858154,-0.039700254797935486
-1.29193115234375,2.6291253566741943,-0.04100918024778366
-1.288468360900879,2.66990065574646,-0.042176514863967896
-1.2405898571014404,2.6191837787628174,-0.04186322167515755
-1.2149008512496948,2.6139698028564453,-0.04226613789796829
-1.2094751596450806,2.6508588790893555,-0.04333742707967758
-1.1941310167312622,2.6663575172424316,-0.0440630204975605
-1.1543395519256592,2.628451108932495,-0.043860454112291336
-1.1642588376998901,2.7050487995147705,-0.04558172449469566
-1.1648836135864258,2.759967565536499,-0.04693938419222832
-1.1546120643615723,2.7896502017974854,-0.04787476360797882
-1.1434229612350464,2.819549798965454,-0.0488005205988884
-1.1273795366287231,2.838604688644409,-0.049539513885974884
-1.112423300743103,2.8612582683563232,-0.05034980922937393
-1.1203449964523315,2.9418978691101074,-0.052177269011735916
-1.106492042541504,2.967977285385132,-0.0530378632247448
-1.085211157798767,2.9758150577545166,-0.05355212837457657
-1.0769927501678467,3.0202879905700684,-0.05473305284976959
-1.060554027557373,3.04263973236084,-0.055521074682474136
-1.0456331968307495,3.0684285163879395,-0.056369561702013016
-1.0261967182159424,3.0832080841064453,-0.05698918178677559
-1.0113269090652466,3.112757682800293,-0.05787882208824158
-0.9867225289344788,3.1124420166015625,-0.058216534554958344
-0.9785106778144836,3.1641159057617188,-0.05953090637922287
-0.9643051624298096,3.1970317363739014,-0.06049279868602753
-0.9459144473075867,3.218799591064453,-0.06120384857058525
-0.9272345900535583,3.2404747009277344,-0.06191939488053322
-0.9148039817810059,3.2845582962036133,-0.06306824833154678
-0.8949862122535706,3.3021461963653564,-0.06371153146028519
-0.8754400610923767,3.32353138923645,-0.06442741304636002
-0.8576036691665649,3.3523643016815186,-0.06525515019893646
-0.8412833213806152,3.3886914253234863,-0.06623632460832596
-0.8238443732261658,3.4210922718048096,-0.06714562326669693
-0.8053745627403259,3.449547529220581,-0.06798162311315536
-0.7825784683227539,3.4627914428710938,-0.06850827485322952
-0.768074095249176,3.514019012451172,-0.06974413245916367
-0.7504628300666809,3.55374813079834,-0.07076036185026169
-0.7333312630653381,3.5971832275390625,-0.0718565434217453
-0.7128072381019592,3.6251842975616455,-0.07265008985996246
-0.6921015381813049,3.657015323638916,-0.07351554930210114
-0.6746548414230347,3.707913398742676,-0.07472340762615204
-0.6518532633781433,3.731808662414551,-0.07539384067058563
-0.6307846903800964,3.7671046257019043,-0.07630014419555664
-0.612033486366272,3.817662239074707,-0.07752100378274918
-0.5891236662864685,3.8489179611206055,-0.07835321873426437
-0.5642855167388916,3.8684206008911133,-0.07889823615550995
-0.24466897547245026,1.763998031616211,-0.0360465906560421
-0.2317754477262497,1.761797308921814,-0.03607211261987686
-0.2209671437740326,1.7749906778335571,-0.0364142544567585
-0.20452044904232025,1.7415729761123657,-0.03580094501376152
-0.18780702352523804,1.7041677236557007,-0.035075295716524124
-0.17144432663917542,1.6627084016799927,-0.034262605011463165
-0.16386985778808594,1.7066328525543213,-0.03521116077899933
-0.14679773151874542,1.6493797302246094,-0.03407309949398041
-0.14265809953212738,1.7398842573165894,-0.03598998114466667
-0.12560954689979553,1.678541898727417,-0.03475157171487808
-0.11702501773834229,1.7261368036270142,-0.03576100990176201
-0.10847418010234833,1.785387396812439,-0.03701522573828697
-0.09247350692749023,1.7198022603988647,-0.03568276762962341
-0.08271776139736176,1.7672158479690552,-0.03669620677828789
-0.19948002696037292,5.022301197052002,-0.1043442040681839
-0.1641796976327896,5.015762805938721,-0.10421603173017502
-0.12842343747615814,4.985551357269287,-0.10360093414783478
-0.09353634715080261,4.978515148162842,-0.10347234457731247
-0.05875355750322342,4.967329502105713,-0.10326243191957474
-0.023512795567512512,4.951999187469482,-0.10296422243118286
0.010923851281404495,4.936422348022461,-0.1025824174284935
0.04499919340014458,4.9049859046936035,-0.10187654197216034
0.07901549339294434,4.896745204925537,-0.10165776312351227
0.11260335147380829,4.876556873321533,-0.10119619965553284
0.1465008407831192,4.875657558441162,-0.10113996267318726
0.1800522357225418,4.851088047027588,-0.10053133964538574
0.21270690858364105,4.826313495635986,-0.09990361332893372
0.24577775597572327,4.816924095153809,-0.09960003942251205
0.27786877751350403,4.79171085357666,-0.09897462278604507
0.3098747134208679,4.7701826095581055,-0.09843099862337112
0.3424195647239685,4.752298355102539,-0.09793512523174286
0.3740616738796234,4.734246730804443,-0.09740210324525833
0.4061395227909088,4.723767280578613,-0.09703033417463303
0.43813377618789673,4.713067054748535,-0.09665896743535995
0.47090646624565125,4.7099103927612305,-0.09644661098718643
0.5016500353813171,4.683173179626465,-0.09574607014656067
0.5330778360366821,4.671844482421875,-0.09530957788228989
0.564842700958252,4.664182186126709,-0.09495294094085693
0.5940458178520203,4.636935234069824,-0.09420327097177505
0.6252459287643433,4.624955177307129,-0.09376804530620575
0.655755877494812,4.604954719543457,-0.09317254275083542
0.6862884759902954,4.592612266540527,-0.09266982227563858
0.7154667973518372,4.572353839874268,-0.09200064837932587
0.7437272667884827,4.548063278198242,-0.0912570208311081
0.7740277647972107,4.535088062286377,-0.0907432958483696
0.8042246699333191,4.521904468536377,-0.09023032337427139
0.7143996357917786,3.859468936920166,-0.07675697654485703
0.7253760099411011,3.7739436626434326,-0.07478954643011093
0.7528067231178284,3.7765400409698486,-0.07457678020000458
0.9195479154586792,4.452059268951416,-0.08760596066713333
0.9488685727119446,4.437923431396484,-0.08701995760202408
0.9766236543655396,4.415909290313721,-0.08625750243663788
1.0102591514587402,4.424370765686035,-0.08607479929924011
1.038683295249939,4.409768581390381,-0.0854468122124672
1.0672639608383179,4.394911289215088,-0.08481554687023163
1.1015692949295044,4.402553081512451,-0.08461982011795044
1.1236695051193237,4.360685348510742,-0.08344806730747223
1.155346393585205,4.360490798950195,-0.08304829150438309
1.1829688549041748,4.344994068145752,-0.0823609009385109
1.2086652517318726,4.321706771850586,-0.08152731508016586
1.2365496158599854,4.305695056915283,-0.08083301037549973
1.2667598724365234,4.296915054321289,-0.08024625480175018
1.2981998920440674,4.295693874359131,-0.07977201044559479
1.3204395771026611,4.264395713806152,-0.07874447852373123
1.352189302444458,4.262641429901123,-0.07826113700866699
1.3769515752792358,4.238295078277588,-0.0773642510175705
1.4040428400039673,4.2211785316467285,-0.07657328993082047
1.4300920963287354,4.20418643951416,-0.07577462494373322
1.4610724449157715,4.201803684234619,-0.07524333894252777
1.4848555326461792,4.17689323425293,-0.07430242747068405
1.5138696432113647,4.166477203369141,-0.07362174242734909
1.5408170223236084,4.1524338722229,-0.07284742593765259
1.5637506246566772,4.127162456512451,-0.07185995578765869
1.5916200876235962,4.116507530212402,-0.07114043086767197
1.6231003999710083,4.112608909606934,-0.07052436470985413
1.6545078754425049,4.108509540557861,-0.06990309059619904
1.6791280508041382,4.090078830718994,-0.06901153177022934
1.704043984413147,4.07130765914917,-0.06810953468084335
1.9663714170455933,4.609214782714844,-0.07644477486610413
2.027970314025879,4.663498878479004,-0.07666291296482086
2.0595574378967285,4.649650573730469,-0.0757252648472786
2.0873985290527344,4.628665924072266,-0.07465618848800659
2.119025468826294,4.614287853240967,-0.07368133962154388
2.1460647583007812,4.588858127593994,-0.07252402603626251
2.179212808609009,4.577551364898682,-0.07157952338457108
2.213048219680786,4.569986820220947,-0.07065993547439575
2.2399768829345703,4.548157691955566,-0.069522924721241
2.2754416465759277,4.539275646209717,-0.06854111701250076
2.3031728267669678,4.516517162322998,-0.06736089289188385
2.343796968460083,4.521998882293701,-0.06658171117305756
2.384594202041626,4.527139186859131,-0.0657925009727478
1.7408356666564941,3.2503809928894043,-0.04658755660057068
1.76321542263031,3.238307237625122,-0.045756228268146515
1.7413908243179321,3.147819757461548,-0.0438070110976696
1.7659143209457397,3.1431028842926025,-0.04308025538921356
1.8322652578353882,3.2087795734405518,-0.04326491057872772
1.3464128971099854,2.3211851119995117,-0.030774682760238647
0.9532912373542786,1.6189748048782349,-0.0210957620292902
0.9642630815505981,1.6124701499938965,-0.02062738500535488
0.9713945388793945,1.5990564823150635,-0.020064063370227814
0.9859835505485535,1.5992931127548218,-0.019664341583848
0.9922081232070923,1.5862376689910889,-0.019100291654467583
1.0072897672653198,1.5859720706939697,-0.018666908144950867
1.0223016738891602,1.585646629333496,-0.018217483535408974
1.0175126791000366,1.5561617612838745,-0.01744483970105648
1.0388352870941162,1.5655089616775513,-0.017086300998926163
1.0450029373168945,1.5519953966140747,-0.01646488718688488
1.0592745542526245,1.551763653755188,-0.015986936166882515
2.560297727584839,3.6957244873046875,-0.03684084862470627
2.5937328338623047,3.691462278366089,-0.0355372428894043
2.6215004920959473,3.681403398513794,-0.034167416393756866
2.619389533996582,3.625246286392212,-0.032263606786727905
2.651345729827881,3.6213371753692627,-0.030835801735520363
2.695969820022583,3.6321299076080322,-0.029436655342578888
2.633023738861084,3.6876344680786133,0.027612406760454178
2.5989391803741455,3.6974096298217773,0.028989216312766075
2.581777334213257,3.733173131942749,0.030545802786946297
1.066689372062683,1.565645456314087,0.013295256532728672
1.0503164529800415,1.5672757625579834,0.013777201995253563
1.0345419645309448,1.5683778524398804,0.014229753986001015
1.0231738090515137,1.5758131742477417,0.014725897461175919
1.0154411792755127,1.590079665184021,0.015282406471669674
0.9997970461845398,1.5907384157180786,0.015689551830291748
0.9885272979736328,1.5977615118026733,0.016140714287757874
0.972457230091095,1.5984512567520142,0.016511350870132446
0.9646261930465698,1.6122949123382568,0.017013566568493843
0.9890864491462708,1.6795341968536377,0.018072480335831642
1.344630479812622,2.322282552719116,0.02545814961194992
1.8007688522338867,3.163879871368408,0.03531843051314354
1.7576072216033936,3.138897657394409,0.035630449652671814
1.7403351068496704,3.1618809700012207,0.03648331016302109
1.7633196115493774,3.260571241378784,0.03820209950208664
1.7616275548934937,3.314653158187866,0.03941052407026291
2.3663222789764404,4.528051853179932,0.0545867495238781
2.3265910148620605,4.531026363372803,0.05533870682120323
2.2857441902160645,4.534267425537109,0.05608820915222168
2.263639450073242,4.571498870849609,0.0572342686355114
2.2283363342285156,4.580113410949707,0.0580085851252079
2.1919798851013184,4.588957786560059,0.05876978486776352
2.161768913269043,4.611884117126465,0.05970556661486626
2.1318602561950684,4.634375095367432,0.06063089892268181
2.095764636993408,4.6422295570373535,0.06135924160480499
2.062673807144165,4.657016754150391,0.062132496386766434
2.025688409805298,4.664698123931885,0.06277447193861008
1.7455310821533203,4.100627899169922,0.05565674975514412
1.707931399345398,4.091037750244141,0.05597979575395584
1.681795597076416,4.110284805297852,0.05670264735817909
1.649150013923645,4.115068435668945,0.05720086023211479
1.6194099187850952,4.126853942871094,0.05779813975095749
1.5901907682418823,4.138192653656006,0.05838332325220108
1.5612961053848267,4.149172306060791,0.0589604452252388
1.5393366813659668,4.182342529296875,0.05983962118625641
1.5065221786499023,4.185965061187744,0.060273975133895874
1.4762924909591675,4.196714401245117,0.060813844203948975
1.4495867490768433,4.214267253875732,0.06144255772233009
1.420253872871399,4.224236011505127,0.06196385622024536
1.394428014755249,4.249270439147949,0.06266660243272781
1.3687299489974976,4.274018287658691,0.06335576623678207
1.3405308723449707,4.29112434387207,0.06393539160490036
1.3083475828170776,4.292873382568359,0.06428147107362747
1.2829184532165527,4.316835880279541,0.0649634525179863
1.252076268196106,4.325875759124756,0.06538592278957367
1.2206096649169922,4.334853172302246,0.06581465899944305
1.1917974948883057,4.350956439971924,0.06634937971830368
1.1645209789276123,4.370457172393799,0.06693390756845474
1.138010025024414,4.393569469451904,0.06757872551679611
1.1086642742156982,4.409116268157959,0.0680510401725769
1.074867606163025,4.409430980682373,0.06829356402158737
1.0471528768539429,4.432144641876221,0.06888210773468018
1.0162895917892456,4.43931770324707,0.06922878324985504
0.9820369482040405,4.431013584136963,0.06933633238077164
0.9539780616760254,4.453113555908203,0.06987690180540085
0.7914041876792908,3.828756093978882,0.06024409830570221
0.7528294324874878,3.776801824569702,0.05958843231201172
0.7294079065322876,3.7973010540008545,0.06007470190525055
0.8364596962928772,4.524330139160156,0.07177302241325378
0.8066843748092651,4.541630744934082,0.0722140371799469
0.7779194116592407,4.57041597366333,0.07282114773988724
0.7468732595443726,4.583502292633057,0.07318010926246643
0.7171851992607117,4.604050159454346,0.07366115599870682
0.6885679364204407,4.632106781005859,0.07426638156175613
0.6551595330238342,4.629056453704834,0.07436429709196091
0.6250846982002258,4.656856060028076,0.07492823898792267
0.591328501701355,4.653385639190674,0.07499101758003235
0.5595568418502808,4.665177822113037,0.07530328631401062
0.5310710668563843,4.7038798332214355,0.07605341076850891
0.49832871556282043,4.707458019256592,0.0762404277920723
0.46690359711647034,4.726376056671143,0.07661516964435577
0.43318116664886475,4.729584217071533,0.07672929763793945
0.4019540250301361,4.755856990814209,0.07722073793411255
0.37000471353530884,4.774117469787598,0.07758593559265137
0.3370878994464874,4.780467987060547,0.0777614414691925
0.30522072315216064,4.806088447570801,0.07823100686073303
0.27141550183296204,4.815939426422119,0.07841140776872635
0.2385208010673523,4.833321571350098,0.07871803641319275
0.20605731010437012,4.866087436676025,0.07927931100130081
0.1725073605775833,4.875208377838135,0.07945925742387772
0.13934829831123352,4.903618812561035,0.0799577534198761
0.10475290566682816,4.912293434143066,0.08008294552564621
0.07049144804477692,4.912904262542725,0.08007418364286423
0.036504652351140976,4.944520950317383,0.08057458698749542
0.002074331045150757,4.960278511047363,0.08082032948732376
-0.03255123645067215,4.979701519012451,0.08112966269254684
-0.06794828921556473,4.987156867980957,0.08121924102306366
-0.10307738929986954,5.009995460510254,0.08151755481958389
-0.13793052732944489,5.009158611297607,0.08143414556980133
-0.17380578815937042,5.039308071136475,0.08185811340808868
-0.20881260931491852,5.037980556488037,0.08177429437637329
-0.24513138830661774,5.063717842102051,0.08213342726230621
-0.10211576521396637,1.8406785726547241,0.029819104820489883
-0.11241674423217773,1.8009470701217651,0.029138656333088875
-0.12541641294956207,1.8079196214675903,0.029215896502137184
-0.13113614916801453,1.717434048652649,0.02772102691233158
-0.1456616371870041,1.7476201057434082,0.028176385909318924
-0.1565815806388855,1.7309902906417847,0.02786973863840103
-0.17230458557605743,1.768743634223938,0.02842472866177559
-0.18370650708675385,1.759743094444275,0.028228700160980225
-0.19672174751758575,1.7661969661712646,0.028281930834054947
-0.2053259015083313,1.7337579727172852,0.027714041993021965
-0.2185671180486679,1.7400128841400146,0.02776583656668663
-0.2341485619544983,1.7655695676803589,0.02810796909034252
-0.5492968559265137,3.9340014457702637,0.06247863918542862
-0.5695541501045227,3.883758544921875,0.06153435632586479
-0.5905501246452332,3.8411128520965576,0.060715384781360626
-0.6133458018302917,3.809851884841919,0.06007910147309303
-0.6344679594039917,3.7747139930725098,0.0593704991042614
-0.6536116003990173,3.731804132461548,0.05851899832487106
-0.6714620590209961,3.6849746704101562,0.057612814009189606
-0.6895636916160583,3.6418895721435547,0.05677071213722229
-0.7095645070075989,3.61018967628479,0.05611046031117439
-0.7303549647331238,3.5821311473846436,0.05550757795572281
-0.746726930141449,3.5388498306274414,0.05464259907603264
-0.7550815939903259,3.4611620903015137,0.05325469374656677
-0.7872765064239502,3.4940340518951416,0.05357253551483154
-0.7991344928741455,3.4352269172668457,0.05248482525348663
-0.8206453323364258,3.4181065559387207,0.05203694477677345
-0.8383834958076477,3.389667272567749,0.05139617249369621
-0.8498685359954834,3.3384668827056885,0.05040720850229263
-0.8725678324699402,3.332610845565796,0.05010812729597092
-0.889491617679596,3.3038744926452637,0.049465518444776535
-0.9076301455497742,3.2786829471588135,0.04887617379426956
-0.925821840763092,3.2573578357696533,0.048332229256629944
-0.9413314461708069,3.228511095046997,0.04766440391540527
-0.9531363844871521,3.188378095626831,0.04683629795908928
-0.9705206751823425,3.166797161102295,0.04628258943557739
-0.9812049269676208,3.1225900650024414,0.04539814218878746
-1.0002117156982422,3.108353614807129,0.04494798183441162
-1.0126748085021973,3.0755486488342285,0.04422048479318619
-1.0334665775299072,3.068629503250122,0.043869342654943466
-1.049461007118225,3.0466816425323486,0.0433025136590004
-1.06540846824646,3.0245871543884277,0.04273563623428345
-1.0758310556411743,2.9877102375030518,0.04194759204983711
-1.0932155847549438,2.9730770587921143,0.04146815463900566
-1.098074197769165,2.925442695617676,0.040535006672143936
-1.1210354566574097,2.92509388923645,0.040254708379507065
-1.118619441986084,2.859017848968506,0.03907402604818344
-1.131103754043579,2.8330891132354736,0.03842499107122421
-1.1471476554870605,2.818203926086426,0.03792575001716614
-1.1600711345672607,2.796006202697754,0.03733174130320549
-1.1505372524261475,2.7195427417755127,0.036014147102832794
-1.1446325778961182,2.6541125774383545,0.034857284277677536
-1.1547818183898926,2.6284003257751465,0.03421410545706749
-1.1866461038589478,2.6527321338653564,0.03422781825065613
-1.2111376523971558,2.6588237285614014,0.033996500074863434
-1.2131195068359375,2.6149284839630127,0.033123936504125595
-1.2407958507537842,2.6278562545776367,0.03296320512890816
-1.2517374753952026,2.605344533920288,0.03234386071562767
-1.2827852964401245,2.625028610229492,0.032252419739961624
-1.2871496677398682,2.588043451309204,0.031450532376766205
-1.2784637212753296,2.526857852935791,0.030363742262125015
-1.2880465984344482,2.5044350624084473,0.029743323102593422
-1.30462646484375,2.4958438873291016,0.02929042838513851
-1.3148316144943237,2.472806453704834,0.028649747371673584
-1.3188120126724243,2.4396541118621826,0.027900980785489082
-1.3385727405548096,2.4377894401550293,0.027502037584781647
-1.3431460857391357,2.4084787368774414,0.026796763762831688
-1.3520712852478027,2.385542154312134,0.0261492058634758
-1.3841807842254639,2.403190851211548,0.025937499478459358
-1.3880081176757812,2.373878002166748,0.02522626891732216
-1.411609172821045,2.378113269805908,0.02486962266266346
-1.4119724035263062,2.341486692428589,0.024067485705018044
-1.4275120496749878,2.3320508003234863,0.023540040478110313
-1.430489182472229,2.3026859760284424,0.02280149795114994
-1.437766194343567,2.2797036170959473,0.022120125591754913
-1.4533826112747192,2.269784688949585,0.021557537838816643
-1.4616156816482544,2.250537395477295,0.020910484716296196
-1.476464033126831,2.2408292293548584,0.020343484356999397
-1.4834978580474854,2.217409610748291,0.019624046981334686
-1.4887434244155884,2.195042610168457,0.01891755685210228
-1.4698280096054077,2.1370129585266113,0.017903823405504227
-1.4868277311325073,2.129991054534912,0.017293492332100868
-1.5137858390808105,2.1396968364715576,0.01681620441377163
-1.4940159320831299,2.081843614578247,0.015779240056872368
-1.5123618841171265,2.0782296657562256,0.015148538164794445
