X,Y,Z
-0.2522350251674652,3.188223123550415,-0.5995977520942688
-0.23110602796077728,3.20491361618042,-0.6041132807731628
-0.20927666127681732,3.2138452529907227,-0.6069466471672058
-0.18732509016990662,3.2226924896240234,-0.6094367504119873
-0.16562733054161072,3.239055871963501,-0.6133847832679749
-0.14273132383823395,3.2399442195892334,-0.614448070526123
-0.11966453492641449,3.225318431854248,-0.6125789880752563
-0.0970057025551796,3.2183151245117188,-0.6115713119506836
-0.07444975525140762,3.2111570835113525,-0.6105425357818604
-0.051898304373025894,3.196167469024658,-0.6080513000488281
-0.02944471687078476,3.2117207050323486,-0.6114072799682617
-0.007096007000654936,3.2041516304016113,-0.6100590229034424
0.01507633738219738,3.1811347007751465,-0.6054924130439758
0.036993369460105896,3.165639638900757,-0.6023890376091003
0.05914948880672455,3.173013925552368,-0.6036669015884399
0.08072197437286377,3.1533844470977783,-0.5998092889785767
0.10302936285734177,3.1528842449188232,-0.5990200042724609
0.12600600719451904,3.1790833473205566,-0.6033391356468201
0.14812588691711426,3.1782779693603516,-0.6025561690330505
0.1706513911485672,3.184983968734741,-0.6032249927520752
0.1928040236234665,3.183936357498169,-0.6020809412002563
0.21689438819885254,3.2057385444641113,-0.6050053834915161
0.2391875684261322,3.204416036605835,-0.6036075353622437
0.2639468014240265,3.233552932739258,-0.6079670786857605
0.28674665093421936,3.2357468605041504,-0.6071884036064148
0.31213071942329407,3.264634847640991,-0.610912024974823
0.3406934142112732,3.316218137741089,-0.6188388466835022
0.3637675940990448,3.314150094985962,-0.616782546043396
0.39262276887893677,3.3615221977233887,-0.6239327788352966
0.41790005564689636,3.3744242191314697,-0.6242486238479614
0.44782453775405884,3.421466827392578,-0.6306868195533752
0.4751999080181122,3.4415640830993652,-0.632098376750946
0.5036107301712036,3.4691030979156494,-0.6349079012870789
0.534176766872406,3.5078468322753906,-0.6395863890647888
0.5646341443061829,3.5426340103149414,-0.6430725455284119
0.5975234508514404,3.5885512828826904,-0.6485370993614197
0.6304212808609009,3.630404472351074,-0.6532230973243713
0.6637289524078369,3.6681230068206787,-0.657073974609375
0.6991960406303406,3.7170827388763428,-0.662436842918396
0.7346227169036865,3.761981725692749,-0.6669214367866516
0.7784041166305542,3.844297170639038,-0.6779369711875916
0.8345527648925781,3.9789397716522217,-0.69798743724823
0.8734569549560547,4.022680759429932,-0.7016127109527588
0.9174706935882568,4.088811874389648,-0.7087774276733398
0.9676941633224487,4.177058696746826,-0.719629168510437
1.0211126804351807,4.272302150726318,-0.7314944863319397
1.0601959228515625,4.303433895111084,-0.7322498559951782
1.1209709644317627,4.41646146774292,-0.7461318969726562
1.1682270765304565,4.4730544090271,-0.7503883242607117
1.2094917297363281,4.503108978271484,-0.7500807046890259
1.2430881261825562,4.503048419952393,-0.744728684425354
1.276587963104248,4.502839088439941,-0.7389696836471558
1.306254267692566,4.4874749183654785,-0.7304837703704834
1.3375661373138428,4.479405879974365,-0.7233079075813293
1.3577237129211426,4.434133052825928,-0.710170567035675
1.3864326477050781,4.418316841125488,-0.701663613319397
1.4041627645492554,4.369305610656738,-0.6876721382141113
1.1729482412338257,3.563974142074585,-0.555779755115509
1.1819441318511963,3.5089898109436035,-0.5421851277351379
1.212860107421875,3.519829273223877,-0.538794219493866
1.2372618913650513,3.5123212337493896,-0.5322690606117249
1.2616140842437744,3.5046331882476807,-0.5257422924041748
1.2915420532226562,3.5111961364746094,-0.5212936997413635
1.309860110282898,3.4847400188446045,-0.5118663311004639
1.3284491300582886,3.4621176719665527,-0.5029224157333374
1.3495566844940186,3.446619987487793,-0.49503839015960693
1.3736823797225952,3.438065767288208,-0.48811638355255127
1.3949743509292603,3.4221012592315674,-0.4801429212093353
1.4162092208862305,3.4059898853302,-0.4718949794769287
1.4306609630584717,3.3756918907165527,-0.4617878794670105
1.4634413719177246,3.3879446983337402,-0.4574626386165619
1.4872772693634033,3.3785316944122314,-0.45014744997024536
1.4916449785232544,3.3266446590423584,-0.4371463358402252
1.527779221534729,3.3453381061553955,-0.43328848481178284
1.883221983909607,4.049834251403809,-0.516895055770874
1.9184962511062622,4.051610469818115,-0.5093435645103455
1.938185691833496,4.021871566772461,-0.49773040413856506
1.962373971939087,4.002639293670654,-0.48742836713790894
1.9942339658737183,3.996725082397461,-0.4785057008266449
2.0153849124908447,3.9698362350463867,-0.46715688705444336
2.0426676273345947,3.9570086002349854,-0.45738905668258667
2.069661855697632,3.944080352783203,-0.4475964307785034
2.067952871322632,3.875741481781006,-0.43144840002059937
2.0860185623168945,3.845045566558838,-0.419589638710022
2.1520004272460938,3.9031484127044678,-0.41706135869026184
2.1233749389648438,3.7910726070404053,-0.39657238125801086
2.1655337810516357,3.8040823936462402,-0.3890058398246765
2.1724514961242676,3.7562975883483887,-0.375223308801651
2.1978118419647217,3.7425382137298584,-0.3648833930492401
2.2280495166778564,3.7347230911254883,-0.35477131605148315
2.2503111362457275,3.713263511657715,-0.34334060549736023
2.271186590194702,3.692373514175415,-0.3319726884365082
2.3042306900024414,3.6911849975585938,-0.32233062386512756
2.3178107738494873,3.656003952026367,-0.30924370884895325
2.3347585201263428,3.6276397705078125,-0.2966490685939789
2.371683359146118,3.632478713989258,-0.28693103790283203
2.39276123046875,3.610203504562378,-0.27453339099884033
2.4086434841156006,3.581735610961914,-0.26167306303977966
2.4496986865997314,3.592458486557007,-0.2516437768936157
2.4618678092956543,3.5565884113311768,-0.23744486272335052
2.4769537448883057,3.5278775691986084,-0.22392769157886505
2.5270705223083496,3.550565719604492,-0.21359503269195557
2.5383360385894775,3.5144848823547363,-0.19871573150157928
2.5797743797302246,3.523703098297119,-0.18638907372951508
2.1867735385894775,2.9461464881896973,-0.14460116624832153
2.799600839614868,3.9338605403900146,0.47395843267440796
2.7689528465270996,3.953700542449951,0.4886813461780548
2.7228939533233643,3.9461681842803955,0.49901828169822693
2.7157299518585205,4.001129627227783,0.5169854164123535
2.678328275680542,4.010557651519775,0.5288140177726746
2.6560089588165283,4.037711143493652,0.5422275066375732
2.6056182384490967,4.027227401733398,0.5504391193389893
2.5864903926849365,4.065519332885742,0.5650473237037659
2.5758047103881836,4.1120171546936035,0.5801434516906738
2.546064853668213,4.128955841064453,0.5910127758979797
2.506086826324463,4.133685111999512,0.599775493144989
2.4899234771728516,4.17801570892334,0.614361047744751
2.4405410289764404,4.16074275970459,0.6192625164985657
2.4256412982940674,4.203804969787598,0.6330296993255615
2.4010589122772217,4.234257698059082,0.6446828246116638
2.368967056274414,4.250840663909912,0.6542055606842041
2.2637996673583984,4.130669116973877,0.642189621925354
2.2470052242279053,4.169280052185059,0.654538631439209
2.2262067794799805,4.205383777618408,0.6661624908447266
2.201414108276367,4.234521389007568,0.6767695546150208
2.160468339920044,4.228244781494141,0.6814185380935669
2.1438634395599365,4.270031452178955,0.6938839554786682
2.1124536991119385,4.284409523010254,0.7015436887741089
2.0870707035064697,4.31277322769165,0.7113627195358276
2.0582895278930664,4.333899021148682,0.7200160622596741
2.0276010036468506,4.347152233123779,0.7271580696105957
1.9968234300613403,4.3601789474487305,0.7342984080314636
1.9639712572097778,4.373908996582031,0.7412124276161194
1.9842380285263062,4.5073652267456055,0.768409252166748
1.9770541191101074,4.5808892250061035,0.7855566143989563
1.9372590780258179,4.575785160064697,0.7891073226928711
1.9124211072921753,4.6059722900390625,0.7987833023071289
1.8869340419769287,4.640353679656982,0.808883547782898
1.8584259748458862,4.667368412017822,0.8175784349441528
1.8100212812423706,4.643917560577393,0.8174590468406677
1.7938141822814941,4.698702335357666,0.8309804201126099
1.7634303569793701,4.717366695404053,0.8381965756416321
1.3426886796951294,3.6725409030914307,0.6554513573646545
1.3106032609939575,3.6670029163360596,0.6570668816566467
1.2799394130706787,3.664830207824707,0.6593024730682373
1.6280614137649536,4.769999027252197,0.8614925742149353
1.5994027853012085,4.794977188110352,0.8693584203720093
1.5782362222671509,4.84556770324707,0.8820081949234009
1.5524318218231201,4.885338306427002,0.8921515345573425
1.5408077239990234,4.972804069519043,0.9110469818115234
1.4957419633865356,4.953518867492676,0.9104607105255127
2.667545795440674,9.062667846679688,1.6710110902786255
1.4197419881820679,4.950127124786377,0.9156281352043152
2.5071640014648438,8.981521606445312,1.6666170358657837
2.4404168128967285,8.990574836730957,1.6724810600280762
1.300075650215149,4.928891658782959,0.919235110282898
1.262655258178711,4.929936408996582,0.9218028783798218
1.2317980527877808,4.952858924865723,0.9284476041793823
1.2037543058395386,4.99064302444458,0.9379822611808777
1.1704754829406738,5.005728721618652,0.9431984424591064
1.1388145685195923,5.032105922698975,0.9500049948692322
1.1060690879821777,5.054515361785889,0.9561207890510559
1.076182246208191,5.091749668121338,0.9651098251342773
1.0429719686508179,5.113710880279541,0.9712585210800171
1.0028201341629028,5.097642421722412,0.9701895713806152
1.6678146123886108,8.800741195678711,1.6784639358520508
1.6079761981964111,8.82662582397461,1.685827612876892
0.9375995993614197,5.361930847167969,1.02558171749115
1.4749451875686646,8.8092041015625,1.6875171661376953
1.416691780090332,8.84124755859375,1.696240782737732
1.3450974225997925,8.78559398651123,1.6881935596466064
1.27601158618927,8.740777015686035,1.682274580001831
1.224008560180664,8.817262649536133,1.6990000009536743
1.1494622230529785,8.741538047790527,1.6860992908477783
1.089550495147705,8.764063835144043,1.6921898126602173
1.0246647596359253,8.744242668151855,1.690179705619812
0.9637409448623657,8.750567436218262,1.6932799816131592
0.9040578007698059,8.767904281616211,1.6985923051834106
0.8435661792755127,8.781089782714844,1.7028990983963013
0.38563886284828186,4.3397722244262695,0.8420611619949341
0.3538569211959839,4.326900959014893,0.8400541543960571
0.3239894211292267,4.336745262145996,0.8424980640411377
0.29585251212120056,4.369319915771484,0.8493986129760742
0.34520140290260315,5.683941841125488,1.1057580709457397
0.3041432797908783,5.670680999755859,1.1040410995483398
0.26555630564689636,5.695517063140869,1.109198808670044
0.22604124248027802,5.704799175262451,1.1111946105957031
0.18903487920761108,5.79428243637085,1.1288704872131348
0.1487920731306076,5.8030266761779785,1.1308752298355103
0.10861954092979431,5.853668212890625,1.1411089897155762
0.0679032951593399,5.854182243347168,1.1416232585906982
0.027057912200689316,5.827606201171875,1.1367428302764893
-0.020258065313100815,8.753061294555664,1.7069493532180786
-0.08136981725692749,8.77579116821289,1.7110258340835571
-0.14265406131744385,8.721405982971191,1.7001464366912842
-0.20333042740821838,8.720281600952148,1.6997393369674683
-0.2609809637069702,8.619091987609863,1.6799113750457764
-0.31980207562446594,8.586494445800781,1.6735345125198364
-0.36127156019210815,8.174415588378906,1.5925685167312622
-0.1840440034866333,3.599663734436035,0.7008652687072754
-0.20876997709274292,3.586918830871582,0.6979768872261047
-0.23162971436977386,3.5548980236053467,0.6913830637931824
-0.5658531785011292,7.844860076904297,1.5249978303909302
-0.524731457233429,6.632940769195557,1.2888524532318115
-0.5743628144264221,6.671411991119385,1.2957749366760254
-0.6150479316711426,6.6027116775512695,1.2810790538787842
-0.6398509740829468,6.392627716064453,1.2390894889831543
-0.6846545934677124,6.396083354949951,1.238587737083435
-0.7324338555335999,6.422062873840332,1.2424923181533813
-0.7742955088615417,6.394353866577148,1.2360644340515137
-0.8127671480178833,6.335825443267822,1.2237319946289062
-0.8497866988182068,6.281108379364014,1.2117611169815063
-0.8906946182250977,6.260471343994141,1.206056833267212
-0.9370946884155273,6.277508735656738,1.2076627016067505
-0.98614102602005,6.309372901916504,1.212161898612976
-1.0388742685317993,6.352023124694824,1.2187203168869019
-1.0882452726364136,6.375453472137451,1.2216591835021973
-1.1438902616500854,6.432563304901123,1.2310041189193726
-1.1955360174179077,6.466826438903809,1.2352193593978882
-1.249874234199524,6.512001991271973,1.2415428161621094
-1.3041363954544067,6.552977085113525,1.247088074684143
-1.3627203702926636,6.604543685913086,1.2546024322509766
-1.4191040992736816,6.644464492797852,1.2599576711654663
-1.4587860107421875,6.605145454406738,1.2503379583358765
-1.492943286895752,6.547150135040283,1.2366238832473755
-1.5225322246551514,6.4741339683532715,1.2199699878692627
-0.6800278425216675,2.8045589923858643,0.5272421836853027
-0.6955971717834473,2.7852773666381836,0.5224145650863647
-0.716943621635437,2.7881810665130615,0.5217597484588623
-0.7285619378089905,2.753753185272217,0.5141518712043762
-0.753541111946106,2.771348476409912,0.516085684299469
-0.7747555375099182,2.773930788040161,0.5150311589241028
-1.7609719038009644,6.14439058303833,1.1375160217285156
-1.794365644454956,6.103646278381348,1.1267077922821045
-1.8259479999542236,6.055107593536377,1.1144812107086182
-1.8603469133377075,6.017437934875488,1.1043435335159302
-1.8908799886703491,5.968628406524658,1.0918024778366089
-1.9217870235443115,5.927490234375,1.0804349184036255
-1.951009750366211,5.882538318634033,1.0684620141983032
-1.9813603162765503,5.840963363647461,1.0571526288986206
-2.013373851776123,5.802590847015381,1.0464260578155518
-2.0435991287231445,5.760431289672852,1.0351084470748901
-2.0730655193328857,5.7183003425598145,1.02336585521698
-2.1021568775177,5.6801066398620605,1.012224793434143
-2.129518985748291,5.638140678405762,1.0004920959472656
-2.1655995845794678,5.617313385009766,0.9924865365028381
-1.5570688247680664,3.9566524028778076,0.6960025429725647
-1.5724053382873535,3.9140751361846924,0.6854376196861267
-1.57389497756958,3.8436334133148193,0.6696634888648987
-1.5789082050323486,3.7840189933776855,0.6559021472930908
-1.5907704830169678,3.7422232627868652,0.6453275084495544
-1.601778507232666,3.6964118480682373,0.6339958310127258
-1.6126600503921509,3.6504287719726562,0.6226741075515747
-1.6376193761825562,3.6402108669281006,0.6173284649848938
-1.662015438079834,3.630067825317383,0.6118329167366028
-1.686313271522522,3.6197681427001953,0.6063435673713684
-1.6899564266204834,3.5635204315185547,0.5930904746055603
-1.7019811868667603,3.5244598388671875,0.5826996564865112
-1.7295821905136108,3.5205628871917725,0.5780734419822693
-1.7495019435882568,3.503041982650757,0.5709969997406006
-1.7727609872817993,3.492295026779175,0.5650582909584045
-1.7970318794250488,3.4808719158172607,0.5588406920433044
-1.828825831413269,3.4827723503112793,0.5546984672546387
-2.8005497455596924,5.245724678039551,0.828360378742218
-1.169562816619873,2.156740427017212,0.33757174015045166
-1.1764227151870728,2.1359903812408447,0.3313419222831726
-2.5192153453826904,4.499792575836182,0.6913262009620667
-5.624967098236084,9.885324478149414,1.5039740800857544
-2.540611743927002,4.396919250488281,0.661810040473938
-5.825173854827881,9.93264389038086,1.479030728340149
-1.2373720407485962,2.0776801109313965,0.305880069732666
-2.90750789642334,4.805724143981934,0.6991267204284668
-2.954134225845337,4.810727119445801,0.6911240816116333
-2.975929021835327,4.776111125946045,0.6771113872528076
-3.018691301345825,4.773838996887207,0.6675485968589783
-3.0461978912353516,4.744233131408691,0.6537771224975586
-3.0440051555633545,4.673410892486572,0.6341856122016907
-3.05928373336792,4.632569313049316,0.6186937093734741
-3.065753698348999,4.574070930480957,0.6002005338668823
-3.093930959701538,4.547431468963623,0.5858193039894104
-3.1320278644561768,4.5419158935546875,0.5737765431404114
-3.199641704559326,4.577146053314209,0.5665275454521179
-2.879065752029419,4.058316707611084,0.490968257188797
-2.9062163829803467,4.040588855743408,0.47702276706695557
-2.931975841522217,4.023548126220703,0.46322789788246155
-2.9514389038085938,3.991710901260376,0.4463685154914856
-2.9574692249298096,4.144109725952148,-0.25656571984291077
-2.427722454071045,3.452331066131592,-0.22672335803508759
-2.892075300216675,4.178314208984375,-0.28999751806259155
-2.3713250160217285,3.479966163635254,-0.25397858023643494
-2.2725226879119873,3.3858044147491455,-0.2585607171058655
-2.233834981918335,3.382479429244995,-0.26966533064842224
-2.2172110080718994,3.4110093116760254,-0.28300923109054565
-2.7847611904144287,4.3513264656066895,-0.3744683265686035
-1.2513903379440308,1.9876807928085327,-0.1771465688943863
-1.267726182937622,2.04575514793396,-0.18828949332237244
-1.2531036138534546,2.0541317462921143,-0.19486510753631592
-2.098496675491333,3.4983203411102295,-0.34184083342552185
-2.1263444423675537,3.6029369831085205,-0.3618601858615875
-2.6146204471588135,4.50171422958374,-0.4639878571033478
-2.6140358448028564,4.576943874359131,-0.48365169763565063
-2.5915353298187256,4.615037441253662,-0.49955132603645325
-2.5600697994232178,4.635542392730713,-0.5133340358734131
-2.537666082382202,4.6729302406311035,-0.5288106203079224
-2.5141448974609375,4.710566520690918,-0.5443745851516724
-1.7707715034484863,3.374981641769409,-0.3979061543941498
-1.739674687385559,3.3725638389587402,-0.4053395092487335
-1.714558482170105,3.384293794631958,-0.4144885241985321
-1.7000868320465088,3.4165151119232178,-0.4260624349117279
-1.68776535987854,3.4517881870269775,-0.4378862977027893
-1.7505269050598145,3.644460916519165,-0.47010791301727295
-1.7305752038955688,3.6699557304382324,-0.48106029629707336
-2.309906244277954,4.990389823913574,-0.6644955277442932
-2.280287027359009,5.019385814666748,-0.6786810159683228
-2.2617502212524414,5.072845935821533,-0.6960396766662598
-1.0169352293014526,2.3254075050354004,-0.32361042499542236
-1.0261058807373047,2.392442226409912,-0.337568461894989
-0.962621808052063,2.288198232650757,-0.32719287276268005
-0.9519163966178894,2.3086798191070557,-0.33450061082839966
-0.9323535561561584,2.307563066482544,-0.3385273814201355
-0.9214812517166138,2.3278379440307617,-0.34570181369781494
-0.913397490978241,2.3551878929138184,-0.35394948720932007
-0.9021302461624146,2.3753292560577393,-0.3611283004283905
-0.8914600610733032,2.3992271423339844,-0.3688909709453583
-0.8769147992134094,2.4120514392852783,-0.37492236495018005
-0.862477719783783,2.424699068069458,-0.38091108202934265
-0.8504090905189514,2.444566488265991,-0.38803157210350037
-0.8304394483566284,2.442523717880249,-0.3915175497531891
-0.8297144174575806,2.4990291595458984,-0.4045424461364746
-0.8120904564857483,2.5040526390075684,-0.4092172086238861
-0.7979406714439392,2.5199785232543945,-0.4156970977783203
-0.7868115305900574,2.546978712081909,-0.4238038957118988
-0.7753552794456482,2.5739214420318604,-0.4319823980331421
-0.7615368962287903,2.5933706760406494,-0.43894633650779724
-0.7471857070922852,2.6128087043762207,-0.44603240489959717
-0.7442007660865784,2.6729869842529297,-0.4598501920700073
-0.7272539138793945,2.6848950386047363,-0.465405136346817
-0.7121970057487488,2.704122304916382,-0.4722699224948883
-0.6998705863952637,2.734424591064453,-0.4811268448829651
-0.7377495765686035,2.9702858924865723,-0.5263682007789612
-0.7230561971664429,3.000859022140503,-0.5353029370307922
-0.6974872946739197,2.9863834381103516,-0.5362333059310913
-0.6858980655670166,3.031704902648926,-0.5479270219802856
-0.662994384765625,3.028160333633423,-0.5507645010948181
-0.7805587649345398,3.6904540061950684,-0.6750854849815369
-0.7399813532829285,3.623431921005249,-0.6665762662887573
-0.5704746842384338,2.8961167335510254,-0.5357847213745117
-0.5473321080207825,2.8842639923095703,-0.5366028547286987
-0.5298271775245667,2.9025542736053467,-0.5426422357559204
-0.5130494832992554,2.9283649921417236,-0.5501201152801514
-0.4944504201412201,2.9426488876342773,-0.5554364323616028
-0.4775281548500061,2.9681766033172607,-0.5629300475120544
-0.46258288621902466,3.008826494216919,-0.5731086134910583
-0.4437263607978821,3.0266635417938232,-0.5787357687950134
-0.42217278480529785,3.029212474822998,-0.581516683101654
-0.402030348777771,3.039168119430542,-0.5857091546058655
-0.38083693385124207,3.041381597518921,-0.5883756875991821
-0.3600396513938904,3.0473551750183105,-0.5912888050079346
-0.3387538194656372,3.0493719577789307,-0.593465268611908
-0.31629014015197754,3.039794445037842,-0.5934053659439087
-0.2910155653953552,3.003369092941284,-0.5881356596946716
-0.2679991126060486,2.9820783138275146,-0.585363507270813
-0.24718819558620453,2.983569622039795,-0.5869218707084656
-0.22380618751049042,2.950514554977417,-0.5816952586174011
-0.20065541565418243,2.913461923599243,-0.5756754279136658
-0.1800365000963211,2.914541482925415,-0.5770260095596313
-0.1589246541261673,2.9002323150634766,-0.5749320983886719
-0.13765445351600647,2.8781180381774902,-0.5713088512420654
-0.11792878061532974,2.8864784240722656,-0.5737593770027161
-0.09746670722961426,2.875556707382202,-0.572402834892273
-0.07668497413396835,2.8607752323150635,-0.5697601437568665
-0.05679323151707649,2.8611695766448975,-0.5701103806495667
-0.036778997629880905,2.853764533996582,-0.5689336657524109
-0.016916006803512573,2.853881359100342,-0.5692834258079529
0.002929861191660166,2.8385965824127197,-0.566278338432312
0.0230109840631485,2.8385510444641113,-0.5660475492477417
0.04264914244413376,2.8307063579559326,-0.564293384552002
0.06297896802425385,2.861027240753174,-0.5701737999916077
0.08264423906803131,2.8529202938079834,-0.5683532953262329
0.1016460657119751,2.82946515083313,-0.562975287437439
0.12194553762674332,2.8441617488861084,-0.5652183890342712
0.1420624703168869,2.843390941619873,-0.5643991231918335
0.16269639134407043,2.857797145843506,-0.5666281580924988
0.1825573742389679,2.8568365573883057,-0.5654196739196777
0.20539261400699615,2.897822618484497,-0.5723544955253601
0.2255556881427765,2.8965976238250732,-0.5709614753723145
0.24734364449977875,2.9104864597320557,-0.5725507736206055
0.2689964771270752,2.9242749214172363,-0.5739716291427612
0.29008516669273376,2.930352210998535,-0.5734871625900269
0.31286555528640747,2.951533317565918,-0.5759709477424622
0.336453378200531,2.976346969604492,-0.5791584253311157
0.3603130877017975,2.997134208679199,-0.5815344452857971
0.3850633203983307,3.0254886150360107,-0.5848771333694458
0.40869149565696716,3.042250871658325,-0.585923433303833
0.4341600835323334,3.0702357292175293,-0.589126706123352
0.46006137132644653,3.0980172157287598,-0.5922739505767822
0.4843701124191284,3.110428810119629,-0.5921394228935242
0.5152380466461182,3.16444993019104,-0.5996639132499695
0.54371178150177,3.1992709636688232,-0.6034905314445496
0.5720747113227844,3.2300686836242676,-0.6065194010734558
0.6016061902046204,3.2644236087799072,-0.6101097464561462
0.6380907893180847,3.332598924636841,-0.6194642186164856
0.6714738011360168,3.3777596950531006,-0.6243889331817627
0.7043602466583252,3.4189329147338867,-0.6285675168037415
0.7387081980705261,3.463575601577759,-0.633313000202179
0.7802383899688721,3.5380632877349854,-0.6429898142814636
0.8245266675949097,3.6196999549865723,-0.6536776423454285
0.8590701818466187,3.6521215438842773,-0.655281662940979
0.9173118472099304,3.7815775871276855,-0.6741950511932373
0.98011314868927,3.921717405319214,-0.6944965720176697
1.009351134300232,3.923311710357666,-0.6897805333137512
1.0574101209640503,3.9954259395599365,-0.6973820924758911
1.120357871055603,4.11525821685791,-0.7129629850387573
1.1855385303497314,4.238306522369385,-0.7288488745689392
1.2352962493896484,4.301553726196289,-0.7337048053741455
1.288136601448059,4.371744155883789,-0.7395801544189453
1.3299721479415894,4.400763511657715,-0.7383204102516174
1.367164969444275,4.410832405090332,-0.7337213158607483
1.4002457857131958,4.409859657287598,-0.7269803881645203
1.4249954223632812,4.382959842681885,-0.7159125208854675
1.4580974578857422,4.381512641906738,-0.7090252637863159
1.4814811944961548,4.35050106048584,-0.697368860244751
1.4991708993911743,4.304878234863281,-0.6832595467567444
1.2444322109222412,3.494655132293701,-0.5488840341567993
1.2635531425476074,3.4724183082580566,-0.5397229790687561
1.2934013605117798,3.478989601135254,-0.5350183248519897
1.3177746534347534,3.470912456512451,-0.5279538631439209
1.3418447971343994,3.4627766609191895,-0.520702600479126
1.3634902238845825,3.447096824645996,-0.5122357606887817
1.3877975940704346,3.438471555709839,-0.5048743486404419
1.4030792713165283,3.4082374572753906,-0.49435481429100037
1.429658055305481,3.4066643714904785,-0.4878361225128174
1.444089651107788,3.3763835430145264,-0.47725623846054077
1.4776331186294556,3.388315200805664,-0.4724276661872864
1.498303771018982,3.3718175888061523,-0.46371564269065857
1.5087603330612183,3.3342137336730957,-0.4520159065723419
1.5415019989013672,3.3458926677703857,-0.4470263719558716
1.543704867362976,3.290327310562134,-0.43297234177589417
1.910139799118042,3.997899293899536,-0.5178146362304688
1.951195478439331,4.013841152191162,-0.5115322470664978
1.9753979444503784,3.9945828914642334,-0.5007280707359314
1.9896458387374878,3.954026460647583,-0.48713916540145874
2.024385929107666,3.9550540447235107,-0.4786819815635681
2.0442557334899902,3.9285407066345215,-0.46680551767349243
2.086345672607422,3.94279146194458,-0.4595387578010559
2.05710768699646,3.823054075241089,-0.4367925226688385
2.1022064685821533,3.8439877033233643,-0.4302526116371155
2.1566832065582275,3.881720781326294,-0.425353080034256
2.1320409774780273,3.776338815689087,-0.4046884775161743
2.1669368743896484,3.7755424976348877,-0.39512479305267334
2.188659906387329,3.755108594894409,-0.3836026191711426
2.202185869216919,3.7211754322052,-0.37077221274375916
2.2284862995147705,3.7065939903259277,-0.35952028632164
2.2622714042663574,3.705410957336426,-0.3495229184627533
2.2834975719451904,3.6842751502990723,-0.3374476134777069
2.3048810958862305,3.662783145904541,-0.3252484202384949
2.343142509460449,3.667232036590576,-0.3151426613330841
2.3505613803863525,3.626383066177368,-0.30116716027259827
2.3709540367126465,3.6047375202178955,-0.2886398136615753
2.4054858684539795,3.6015493869781494,-0.2769862115383148
2.4161694049835205,3.567105770111084,-0.26314517855644226
2.4490506649017334,3.564467668533325,-0.25142452120780945
2.4919493198394775,3.5736334323883057,-0.2399105429649353
2.492647886276245,3.5263447761535645,-0.2246519774198532
2.5169410705566406,3.5099101066589355,-0.21073301136493683
2.5778048038482666,3.543795108795166,-0.19935265183448792
2.2485833168029785,3.0503928661346436,-0.15996095538139343
2.7814202308654785,3.9422945976257324,0.5095829367637634
2.7573299407958984,3.966797113418579,0.5245731472969055
2.7141449451446533,3.9664151668548584,0.5359679460525513
2.690666913986206,3.999177932739258,0.5518578290939331
2.6615915298461914,4.016822814941406,0.5645564794540405
2.6361677646636963,4.041049957275391,0.5779792666435242
2.6148180961608887,4.076166152954102,0.5927227139472961
2.584094762802124,4.093974590301514,0.6046096086502075
2.56652569770813,4.13070011138916,0.6190605759620667
2.514930009841919,4.115307331085205,0.625201940536499
2.502894401550293,4.166195392608643,0.6413324475288391
2.4763779640197754,4.189392566680908,0.6528205275535583
2.4542112350463867,4.218735218048096,0.6651639938354492
2.406266927719116,4.2090349197387695,0.6710749864578247
2.400420904159546,4.273005485534668,0.688602089881897
2.3430275917053223,4.241460800170898,0.6904134154319763
2.2556567192077637,4.1511712074279785,0.6822704672813416
2.2321832180023193,4.179934024810791,0.6932737231254578
2.214265823364258,4.222926139831543,0.7066347002983093
2.18276309967041,4.237863540649414,0.7151727080345154
2.1596930027008057,4.265615463256836,0.7256320118904114
2.1292736530303955,4.279497146606445,0.7337518334388733
2.107250213623047,4.314835548400879,0.7451295256614685
2.074228525161743,4.329429626464844,0.7530872225761414
2.0444326400756836,4.346527099609375,0.7612490653991699
2.012028932571411,4.356080532073975,0.7680022120475769
1.9807695150375366,4.369102478027344,0.7752547264099121
2.013960361480713,4.53046178817749,0.8085829019546509
1.9770997762680054,4.536983489990234,0.8144665956497192
1.966491937637329,4.603247165679932,0.8310959935188293
1.9429607391357422,4.637065410614014,0.8417994976043701
1.8880583047866821,4.596054553985596,0.8388507962226868
1.8843262195587158,4.6837158203125,0.8589062690734863
1.8469477891921997,4.689132213592529,0.8639847040176392
1.817804217338562,4.715829849243164,0.8730484843254089
1.784542202949524,4.727382183074951,0.8791747689247131
1.7299104928970337,4.68093204498291,0.8745031952857971
1.3376195430755615,3.7010271549224854,0.6942164301872253
1.3130242824554443,3.71716570854187,0.6999379992485046
1.2664921283721924,3.6714794635772705,0.6940657496452332
1.6384334564208984,4.859933853149414,0.9221982955932617
2.9115889072418213,8.838772773742676,1.6835057735443115
2.8515307903289795,8.864550590515137,1.6946361064910889
2.7847542762756348,8.876012802124023,1.7020500898361206
2.709074020385742,8.861536979675293,1.7046403884887695
2.6503117084503174,8.897645950317383,1.716943621635437
1.4465084075927734,4.982752323150635,0.9644436240196228
1.4136353731155396,4.999239921569824,0.9706228375434875
1.3956323862075806,5.071133613586426,0.9874401092529297
1.313368558883667,4.90968132019043,0.9583247900009155
1.2889018058776855,4.962957382202148,0.9711530208587646
1.251346468925476,4.963850498199463,0.9737498164176941
1.2229604721069336,4.997800350189209,0.9828269481658936
1.186240553855896,4.997978687286377,0.9853160977363586
1.1545270681381226,5.020395278930664,0.9920669794082642
1.1245710849761963,5.057958126068115,1.0013755559921265
1.0948022603988647,5.095207214355469,1.0106619596481323
1.059884786605835,5.1097517013549805,1.0155106782913208
1.0264142751693726,5.127657413482666,1.0210394859313965
0.9869349598884583,5.115227699279785,1.0205745697021484
1.59689199924469,8.603583335876465,1.7200138568878174
1.5355710983276367,8.613868713378906,1.7243748903274536
1.4670811891555786,8.582161903381348,1.7204060554504395
1.3973602056503296,8.538566589355469,1.7141104936599731
1.3385730981826782,8.554882049560547,1.7198833227157593
1.2671736478805542,8.491297721862793,1.7096831798553467
1.2150332927703857,8.54837417602539,1.7238093614578247
1.155932068824768,8.563604354858398,1.728772759437561
1.087184190750122,8.506343841552734,1.718804121017456
1.0280184745788574,8.520794868469238,1.7234007120132446
0.9654415249824524,8.50437068939209,1.7218292951583862
0.90671306848526,8.525614738464355,1.7279835939407349
0.4290820062160492,4.320809364318848,0.8767135739326477
0.39679452776908875,4.300540924072266,0.8734665513038635
0.3665355443954468,4.303036689758301,0.8743941783905029
0.33804962038993835,4.328220844268799,0.879977822303772
0.3054279386997223,4.307425022125244,0.8762662410736084
0.2778155505657196,4.347466468811035,0.8849626779556274
0.32270827889442444,5.667590141296387,1.1544545888900757
0.28330013155937195,5.6694512367248535,1.1556600332260132
0.24670924246311188,5.739981651306152,1.1703888177871704
0.2071736454963684,5.775924205780029,1.1778545379638672
0.16659584641456604,5.76948881149292,1.1767348051071167
0.12794412672519684,5.843125343322754,1.1920061111450195
0.08766654133796692,5.866744518280029,1.1971352100372314
0.046944405883550644,5.8747758865356445,1.1991429328918457
0.005414292681962252,5.8595709800720215,1.1964147090911865
-0.05116671323776245,8.488873481750488,1.7327392101287842
-0.10977891832590103,8.457806587219238,1.725953221321106
-0.16933467984199524,8.495214462280273,1.7332240343093872
-0.228798508644104,8.509246826171875,1.7358072996139526
-0.28830498456954956,8.515207290649414,1.7368271350860596
-0.33557918667793274,8.195643424987793,1.671537160873413
-0.17286735773086548,3.609191656112671,0.7358730435371399
-0.19679193198680878,3.588944673538208,0.731261670589447
-0.22233277559280396,3.599104404449463,0.732882022857666
-0.4310295283794403,6.271015167236328,1.2762362957000732
-0.4721739590167999,6.22607946395874,1.2664200067520142
-0.5232988595962524,6.318288803100586,1.2845686674118042
-0.5692924857139587,6.337632656097412,1.28795325756073
-0.6155433058738708,6.360636234283447,1.2913955450057983
-0.6632555723190308,6.3947672843933105,1.2969939708709717
-0.7152978181838989,6.455100059509277,1.3079222440719604
-0.7567242980003357,6.423821926116943,1.30036461353302
-0.7956718802452087,6.373240947723389,1.288967490196228
-0.8325223326683044,6.311024188995361,1.275295615196228
-0.8720046281814575,6.275230407714844,1.266809105873108
-0.9125293493270874,6.2468485832214355,1.2591972351074219
-0.9651938676834106,6.305421352386475,1.2691973447799683
-1.0157469511032104,6.3446455001831055,1.2753288745880127
-1.064858317375183,6.368284225463867,1.2783474922180176
-1.1204150915145874,6.425503253936768,1.2881381511688232
-1.172028660774231,6.455868244171143,1.2925816774368286
-1.2249563932418823,6.489719867706299,1.2970079183578491
-1.2803758382797241,6.538417816162109,1.3042629957199097
-1.3327056169509888,6.567882537841797,1.30770742893219
-1.3928836584091187,6.630660057067871,1.3177903890609741
-1.440733790397644,6.629108428955078,1.31509268283844
-1.4767464399337769,6.570929527282715,1.3012034893035889
-1.511712670326233,6.51662015914917,1.287844181060791
-0.6682947278022766,2.7946395874023438,0.5509695410728455
-0.6872947216033936,2.7904458045959473,0.548848569393158
-0.7025262713432312,2.771235227584839,0.5438041687011719
-0.7163901925086975,2.7443222999572754,0.537238359451294
-0.7434892058372498,2.769333839416504,0.540884256362915
-0.766822338104248,2.7793333530426025,0.5415374636650085
-1.7460107803344727,6.166100025177002,1.1978899240493774
-1.7824358940124512,6.136765956878662,1.1887104511260986
-1.8116339445114136,6.081233024597168,1.1744836568832397
-1.8472613096237183,6.047509670257568,1.1645318269729614
-1.8746583461761475,5.987851619720459,1.1496667861938477
-1.9093319177627563,5.953774452209473,1.1397387981414795
-1.9364449977874756,5.901740550994873,1.1257425546646118
-1.969708800315857,5.86761474609375,1.115191102027893
-1.9994453191757202,5.826226234436035,1.103411316871643
-2.0312154293060303,5.787921905517578,1.0921822786331177
-2.061363697052002,5.74578332901001,1.0803089141845703
-2.08803391456604,5.696413993835449,1.0670084953308105
-2.1169497966766357,5.658289432525635,1.055309772491455
-2.1474742889404297,5.623382091522217,1.0442190170288086
-1.5469441413879395,3.970747947692871,0.7341591119766235
-1.572042465209961,3.953540563583374,0.7277094125747681
-1.5752549171447754,3.882638692855835,0.7114683389663696
-1.5739352703094482,3.8050525188446045,0.6938667893409729
-1.580542802810669,3.7490057945251465,0.680048406124115
-1.596614956855774,3.717994213104248,0.6709355711936951
-1.606881022453308,3.672506093978882,0.6591940522193909
-1.626450777053833,3.6479790210723877,0.6512331366539001
-1.6471246480941772,3.6269643306732178,0.6438921689987183
-1.6766234636306763,3.6272122859954834,0.6398928761482239
-1.6827951669692993,3.578526020050049,0.6273887753486633
-1.703847050666809,3.561016082763672,0.6203511357307434
-1.7188231945037842,3.5291152000427246,0.6107291579246521
-1.7437173128128052,3.517915725708008,0.6047440767288208
-1.7675939798355103,3.507077693939209,0.5983442068099976
-1.7944693565368652,3.5031557083129883,0.5932229161262512
-1.8075600862503052,3.4713878631591797,0.5833415985107422
-2.7943127155303955,5.276488304138184,0.8795430064201355
-1.1545231342315674,2.144207239151001,0.35449206829071045
-1.1724436283111572,2.143989086151123,0.3513016104698181
-2.5146608352661133,4.527039051055908,0.7349840402603149
-2.5250258445739746,4.4740071296691895,0.7194861769676208
-5.510018825531006,9.606518745422363,1.5296776294708252
-5.616433620452881,9.64225959777832,1.5194768905639648
-1.2490787506103516,2.1129772663116455,0.32937878370285034
-1.2435479164123535,2.0719616413116455,0.3193272650241852
-2.9259135723114014,4.799053192138672,0.7307469248771667
-2.9735071659088135,4.803441524505615,0.7223531603813171
-3.0049755573272705,4.785633563995361,0.7102226614952087
-2.9970409870147705,4.70530366897583,0.6888811588287354
-3.0437777042388916,4.704876899719238,0.6784414052963257
-3.050703763961792,4.64668607711792,0.6597490906715393
-3.0615968704223633,4.599483013153076,0.6424835324287415
-3.057706594467163,4.529204368591309,0.6218830943107605
-3.0986335277557373,4.522075653076172,0.6094418168067932
-3.1466622352600098,4.528623580932617,0.598253607749939
-2.820068836212158,4.005212783813477,0.5184650421142578
-6.7382588386535645,9.431328773498535,1.192914366722107
-2.9096503257751465,4.016485214233398,0.49575743079185486
-2.930579662322998,3.9933784008026123,0.48042476177215576
-2.937758684158325,3.9464573860168457,0.46102312207221985
-2.443727970123291,3.4506289958953857,-0.2264612466096878
-2.4414780139923096,3.4989118576049805,-0.24304348230361938
-2.8631021976470947,4.16867208480835,-0.30543053150177
-2.296550750732422,3.397702693939209,-0.26159656047821045
-2.209663152694702,3.318866491317749,-0.2669786810874939
-2.224997043609619,3.396423101425171,-0.28485527634620667
-2.812364101409912,4.361039638519287,-0.38006582856178284
-2.8166489601135254,4.435539722442627,-0.4005444347858429
-1.2788965702056885,2.047744035720825,-0.19143164157867432
-1.2638832330703735,2.056379556655884,-0.19844631850719452
-2.111619472503662,3.4899110794067383,-0.3469480872154236
-2.1352150440216064,3.5880355834960938,-0.3670748770236969
-2.6471662521362305,4.522402763366699,-0.47546812891960144
-2.614471197128296,4.539858818054199,-0.48979732394218445
-1.199588656425476,2.117948055267334,-0.23417164385318756
-2.5738987922668457,4.6222662925720215,-0.5233303904533386
-2.550088405609131,4.656040191650391,-0.5390393733978271
-2.5203311443328857,4.679443836212158,-0.5535355806350708
-2.499633312225342,4.72405481338501,-0.5707594156265259
-1.76107919216156,3.3865549564361572,-0.41742846369743347
-1.7334939241409302,3.3908705711364746,-0.4259795844554901
-1.7054678201675415,3.39518666267395,-0.43443915247917175
-1.6960346698760986,3.4376895427703857,-0.44780972599983215
-1.6945866346359253,3.4976139068603516,-0.46363571286201477
-1.7430832386016846,3.662362813949585,-0.4936041533946991
-2.3170759677886963,4.959035396575928,-0.679150402545929
-2.290598154067993,4.995146751403809,-0.6948961019515991
-2.231149911880493,4.956566333770752,-0.6999735236167908
-1.0158281326293945,2.299245834350586,-0.3295131027698517
-0.9865596294403076,2.277418375015259,-0.33107882738113403
-0.9609714150428772,2.262314796447754,-0.33345380425453186
-0.9567849636077881,2.296863317489624,-0.34309256076812744
-0.9463088512420654,2.3171069622039795,-0.3506871461868286
-0.9324125647544861,2.330258846282959,-0.35709574818611145
-0.9237232804298401,2.3578131198883057,-0.36586081981658936
-0.898697555065155,2.3418238162994385,-0.3677239716053009
-0.8943626880645752,2.379845380783081,-0.378097802400589
-0.8852797746658325,2.4071362018585205,-0.38667047023773193
-0.8706160187721252,2.419861078262329,-0.3929719626903534
-0.8608282804489136,2.4470832347869873,-0.4017256498336792
-0.8460320234298706,2.459559440612793,-0.4080420136451721
-0.8284403085708618,2.4647228717803955,-0.4129514992237091
-0.8156198859214783,2.484417676925659,-0.42030400037765503
-0.8039016127586365,2.5076611042022705,-0.4282938838005066
-0.7882144451141357,2.5198655128479004,-0.4345128834247589
-0.8029385209083557,2.6314616203308105,-0.45778757333755493
-0.7929979562759399,2.6658051013946533,-0.46776139736175537
-0.7655528783798218,2.640906810760498,-0.4673426151275635
-0.7511295676231384,2.660208225250244,-0.4747299551963806
-0.7384474277496338,2.686887502670288,-0.4833444654941559
-0.711118757724762,2.6615822315216064,-0.4824923872947693
-0.706767201423645,2.7215938568115234,-0.4971003830432892
-0.7327886819839478,2.9046497344970703,-0.534500002861023
-0.7306222319602966,2.983553171157837,-0.5530158877372742
-0.7122030854225159,2.9990298748016357,-0.559553861618042
-0.6880679726600647,2.991983652114868,-0.5619809031486511
-0.6762088537216187,3.0371575355529785,-0.5742021799087524
-0.6645788550376892,3.086030960083008,-0.5872536301612854
-0.6827309131622314,3.2815589904785156,-0.6280253529548645
-0.6037082076072693,3.0069658756256104,-0.5787213444709778
-0.5596498847007751,2.893627882003784,-0.5600980520248413
-0.5457345843315125,2.9306869506835938,-0.5704574584960938
-0.5238410234451294,2.9262046813964844,-0.5724738240242004
-0.49749431014060974,2.8951404094696045,-0.5690763592720032
-0.48409005999565125,2.9395241737365723,-0.5805414915084839
-0.4643833637237549,2.949800729751587,-0.5853903293609619
-0.44262710213661194,2.944768190383911,-0.5870218873023987
-0.4138806462287903,2.890346050262451,-0.5783833861351013
-0.39366599917411804,2.8926286697387695,-0.5810767412185669
-0.3641493618488312,2.8225865364074707,-0.569210946559906
-0.33980199694633484,2.7865145206451416,-0.5641370415687561
-0.3169240355491638,2.76180100440979,-0.5608516931533813
-0.29599782824516296,2.7483081817626953,-0.5597766637802124
-0.2752752900123596,2.734661340713501,-0.5586790442466736
-0.2526167631149292,2.6979987621307373,-0.552873432636261
-0.23312360048294067,2.6917314529418945,-0.5529603958129883
-0.21309919655323029,2.681576728820801,-0.5520553588867188
-0.1932992935180664,2.667440176010132,-0.5503243207931519
-0.17374709248542786,2.6531596183776855,-0.5485739707946777
-0.15261487662792206,2.6082167625427246,-0.54034423828125
-0.13487103581428528,2.616682529449463,-0.542759895324707
-0.11601825058460236,2.609753131866455,-0.5420206189155579
-0.09742357581853867,2.5988588333129883,-0.5404679775238037
-0.07935591042041779,2.599301338195801,-0.5412951111793518
-0.060913097113370895,2.5844273567199707,-0.5384464263916016
-0.042955443263053894,2.584731101989746,-0.5387216806411743
-0.024443939328193665,2.5619685649871826,-0.5342180132865906
-0.00662454916164279,2.5620198249816895,-0.5344911217689514
0.011261639185249805,2.5773043632507324,-0.5376599431037903
0.029101023450493813,2.569573163986206,-0.5357905626296997
0.04697320982813835,2.569365978240967,-0.5355165600776672
0.06480490416288376,2.5690348148345947,-0.5352431535720825
0.08294665813446045,2.5685925483703613,-0.5348619818687439
0.10107528418302536,2.5757694244384766,-0.5356276035308838
0.11895454674959183,2.5751774311065674,-0.5348013043403625
0.13686954975128174,2.5744593143463135,-0.5339731574058533
0.15569891035556793,2.5888900756835938,-0.5363089442253113
0.17299899458885193,2.5727226734161377,-0.531855583190918
0.19316616654396057,2.6022634506225586,-0.5367876887321472
0.21158428490161896,2.604954481124878,-0.5361918210983276
0.23107804358005524,2.618950128555298,-0.5379393696784973
0.2514801621437073,2.6404757499694824,-0.5409844517707825
0.274093896150589,2.6771113872528076,-0.5467885136604309
0.2927248775959015,2.675539255142212,-0.5448223352432251
0.3135819733142853,2.6928517818450928,-0.546714723110199
0.3351624011993408,2.713820457458496,-0.5492845773696899
0.3580319881439209,2.7423155307769775,-0.552885115146637
0.3806057274341583,2.763002872467041,-0.5548591017723083
0.40589821338653564,2.8025145530700684,-0.5606279969215393
0.4254268705844879,2.8001389503479004,-0.5580125451087952
0.4521718919277191,2.843134641647339,-0.5640020370483398
0.475110799074173,2.8594582080841064,-0.5645490884780884
0.5015942454338074,2.8944945335388184,-0.5687621235847473
0.5283078551292419,2.9254775047302246,-0.57208651304245
0.5572123527526855,2.9676551818847656,-0.5773717761039734
0.5837946534156799,2.9945766925811768,-0.5793368816375732
0.6130377650260925,3.03257155418396,-0.583398163318634
0.6452919840812683,3.081575632095337,-0.5894898176193237
0.677820086479187,3.12648606300354,-0.5946012735366821
0.7139056324958801,3.186276435852051,-0.602042555809021
0.746550977230072,3.2270185947418213,-0.6057758927345276
0.7968267202377319,3.3384931087493896,-0.6226063966751099
0.8285437822341919,3.3673315048217773,-0.6238643527030945
0.8704497218132019,3.433190107345581,-0.6313912868499756
0.9148275256156921,3.506215810775757,-0.6400330662727356
0.9623415470123291,3.5862371921539307,-0.6497442126274109
1.0212805271148682,3.702899217605591,-0.6658368706703186
1.081842303276062,3.8190295696258545,-0.6812687516212463
1.1336731910705566,3.897536039352417,-0.6893680691719055
1.1983975172042847,4.016241550445557,-0.7043765187263489
1.273978590965271,4.163738250732422,-0.724024772644043
1.329743504524231,4.240598678588867,-0.7309404611587524
1.3758282661437988,4.28400993347168,-0.7315272092819214
1.4315605163574219,4.352492809295654,-0.736098051071167
1.4646812677383423,4.351037979125977,-0.7287993431091309
1.497841477394104,4.349324703216553,-0.721462607383728
1.525594711303711,4.332968711853027,-0.7112737894058228
1.553154706954956,4.316426753997803,-0.7011219263076782
1.578202486038208,4.292337894439697,-0.6897379755973816
1.598142147064209,4.253421306610107,-0.6759348511695862
1.3094191551208496,3.4136743545532227,-0.5362696051597595
1.3528779745101929,3.4560532569885254,-0.5365802049636841
1.3742594718933105,3.4404690265655518,-0.5277788639068604
1.3956316709518433,3.4246826171875,-0.5189598798751831
1.4199166297912598,3.415894031524658,-0.5109421610832214
1.440577507019043,3.4000089168548584,-0.5019410252571106
1.4643900394439697,3.390998125076294,-0.49392515420913696
1.4821161031723022,3.3675405979156494,-0.4837966561317444
1.5055761337280273,3.3582851886749268,-0.4756241738796234
1.5259692668914795,3.341728448867798,-0.4662655293941498
1.5526175498962402,3.339136838912964,-0.4589131772518158
58.386131286621094,123.32115936279297,-16.687171936035156
1.592573642730713,3.305349826812744,-0.4401194751262665
1.6050692796707153,3.274521827697754,-0.42886441946029663
1.9887182712554932,3.986401081085205,-0.5130564570426941
2.0134072303771973,3.9666430950164795,-0.5015438795089722
2.033628225326538,3.940186023712158,-0.4891354739665985
2.064239978790283,3.9343249797821045,-0.47929680347442627
2.0809226036071777,3.9004526138305664,-0.46586599946022034
2.0695548057556152,3.8152096271514893,-0.44647830724716187
2.1241707801818848,3.8530688285827637,-0.44129276275634766
2.1182358264923096,3.7820072174072266,-0.423799991607666
2.1642003059387207,3.801954746246338,-0.41627058386802673
2.1750102043151855,3.7611043453216553,-0.4020555019378662
2.196526527404785,3.7407491207122803,-0.3900948166847229
2.230895519256592,3.7397022247314453,-0.379726380109787
2.253328800201416,3.718313217163086,-0.36725783348083496
2.262117862701416,3.677600383758545,-0.3529498875141144
2.3076345920562744,3.6963164806365967,-0.344278484582901
2.3129329681396484,3.6481025218963623,-0.32891249656677246
2.3383002281188965,3.6330032348632812,-0.3164401054382324
2.375330686569214,3.637906551361084,-0.30585435032844543
2.3836493492126465,3.5961809158325195,-0.29080358147621155
2.4082894325256348,3.5807507038116455,-0.2779081165790558
2.4451069831848145,3.5850446224212646,-0.26649725437164307
2.45282244682312,3.542900323867798,-0.2507622539997101
