X,Y,Z
-1.3821595907211304,4.111433506011963,0.3947865664958954
-1.4107463359832764,4.101961612701416,0.3921908438205719
-1.4333384037017822,4.077896595001221,0.3880055844783783
-1.4638375043869019,4.07559061050415,0.3858209550380707
-1.4912865161895752,4.0658955574035645,0.3829795718193054
-1.519623875617981,4.055665969848633,0.3800389766693115
-1.547853946685791,4.04525089263916,0.3771020472049713
-1.5669761896133423,4.013110160827637,0.37202325463294983
-1.5914311408996582,3.995394229888916,0.368149995803833
-1.6181617975234985,3.9849324226379395,0.365005761384964
-1.636921763420105,3.95229434967041,0.35977473855018616
-1.6765769720077515,3.9697604179382324,0.35911256074905396
-1.6944433450698853,3.9370548725128174,0.3538075387477875
-1.721130609512329,3.9257781505584717,0.35027745366096497
-1.7393187284469604,3.8967525959014893,0.34523698687553406
-1.7599642276763916,3.870687246322632,0.3403852880001068
-1.7902125120162964,3.8656909465789795,0.3374015986919403
-1.806364893913269,3.832676887512207,0.33186525106430054
-1.8254568576812744,3.806680202484131,0.32683876156806946
-1.8577598333358765,3.8086860179901123,0.32425105571746826
-1.8739049434661865,3.775029420852661,0.3185339570045471
-1.9142563343048096,3.790005922317505,0.316930890083313
-1.9392673969268799,3.777611017227173,0.31283196806907654
-1.9497405290603638,3.7374355792999268,0.30646276473999023
-1.975839376449585,3.7240567207336426,0.3021447956562042
-2.001816749572754,3.7105062007904053,0.29783111810684204
-1.7046163082122803,3.109530210494995,0.24679350852966309
-1.7174310684204102,3.0849368572235107,0.24198885262012482
-0.8211492896080017,1.4519715309143066,0.1125107929110527
-0.8470168113708496,1.4732624292373657,0.11267230659723282
-0.853066086769104,1.4608938694000244,0.11023609340190887
-0.8665632009506226,1.4621446132659912,0.10879334807395935
-0.8683481812477112,1.4430639743804932,0.10580222308635712
-0.8865731954574585,1.450400948524475,0.1046881228685379
-0.8799762725830078,1.417983055114746,0.1006581038236618
-0.8974447846412659,1.4256051778793335,0.09949398785829544
-0.9113844633102417,1.426153540611267,0.09771732985973358
-0.9170844554901123,1.4133607149124146,0.09499258548021317
-0.8939528465270996,1.3587409257888794,0.0894811600446701
-0.9571475386619568,1.433997631072998,0.09239623695611954
-2.4135141372680664,3.562117099761963,0.22417040169239044
-1.3608657121658325,1.9807307720184326,0.12160971760749817
-1.2152239084243774,1.7448716163635254,0.10438434034585953
-1.4018062353134155,2.020644426345825,-0.0902705043554306
-1.3092786073684692,1.9182640314102173,-0.08969447761774063
-1.282751202583313,1.9077554941177368,-0.09280674904584885
-1.1782019138336182,1.7802585363388062,-0.08992869406938553
-1.3372124433517456,2.0538065433502197,-0.10753443092107773
-1.170060157775879,1.8546347618103027,-0.10337155312299728
-1.0740962028503418,1.7303870916366577,-0.09926804155111313
-2.0264463424682617,3.428523540496826,-0.2124311476945877
-0.8698903322219849,1.5465370416641235,-0.10229719430208206
-1.7137401103973389,3.098339080810547,-0.20907238125801086
-1.6491689682006836,3.0311481952667236,-0.2084396481513977
-1.6012147665023804,2.994676113128662,-0.20969001948833466
-1.5522798299789429,2.9541125297546387,-0.21050401031970978
-1.504699468612671,2.9126622676849365,-0.2110215723514557
-1.4623595476150513,2.8814821243286133,-0.21220269799232483
-1.4047682285308838,2.818528175354004,-0.21080438792705536
-1.362351655960083,2.7826812267303467,-0.21123448014259338
-1.3225793838500977,2.7497172355651855,-0.21173803508281708
-1.282895565032959,2.716550588607788,-0.2120882123708725
-1.2287333011627197,2.651278018951416,-0.20978382229804993
-1.198330044746399,2.6349542140960693,-0.2112353891134262
-1.160857081413269,2.600299835205078,-0.211076021194458
-1.1219756603240967,2.5618650913238525,-0.2104528844356537
-1.0881000757217407,2.533846139907837,-0.2105797976255417
-1.044434666633606,2.4802186489105225,-0.20845358073711395
-1.0178219079971313,2.4657506942749023,-0.2095659077167511
-0.9841810464859009,2.4329864978790283,-0.20896585285663605
-0.9522868394851685,2.4035801887512207,-0.2085467129945755
-0.9239331483840942,2.3810129165649414,-0.20864419639110565
-0.8975955247879028,2.3617103099823,-0.2089589685201645
-0.8697847127914429,2.3386716842651367,-0.20889075100421906
-0.8330603241920471,2.28975772857666,-0.20633409917354584
-0.8167374730110168,2.2954206466674805,-0.20865298807621002
-0.7853102087974548,2.2567648887634277,-0.20688822865486145
-0.7607205510139465,2.236213445663452,-0.20673508942127228
-0.7370839715003967,2.2193329334259033,-0.20678174495697021
-0.7140092253684998,2.202143907546997,-0.2067508101463318
-0.691525936126709,2.184648036956787,-0.20663893222808838
-0.6682422161102295,2.1632113456726074,-0.20612379908561707
-0.6484913229942322,2.152791976928711,-0.20655030012130737
-0.6288105845451355,2.1422407627105713,-0.20689591765403748
-0.6027467846870422,2.1091253757476807,-0.20505309104919434
-0.5922012329101562,2.1280951499938965,-0.20823198556900024
-0.5641388297080994,2.083207607269287,-0.20513774454593658
-0.5474115014076233,2.0794734954833984,-0.20592695474624634
-0.5346180200576782,2.090674877166748,-0.20820556581020355
-0.5084809064865112,2.0489931106567383,-0.2052147537469864
-0.4878409802913666,2.025876045227051,-0.20402660965919495
-0.4683247208595276,2.00639271736145,-0.20310989022254944
-0.4541470408439636,2.009519338607788,-0.20439273118972778
-0.4366445243358612,1.9973524808883667,-0.20412172377109528
-0.41604185104370117,1.9698457717895508,-0.20227669179439545
-0.40539437532424927,1.9878054857254028,-0.20508718490600586
-0.38841572403907776,1.9752377271652222,-0.20461802184581757
-0.3708828389644623,1.9587218761444092,-0.20370233058929443
-0.3592195510864258,1.9726347923278809,-0.20595531165599823
-0.3391861021518707,1.9405747652053833,-0.2034185826778412
-0.3256339430809021,1.9427872896194458,-0.2044413685798645
-0.3119540214538574,1.9449392557144165,-0.2053108960390091
-0.2970832586288452,1.9393140077590942,-0.2053670585155487
-0.2779446840286255,1.9028059244155884,-0.2021411657333374
-0.2655537724494934,1.9123282432556152,-0.20381422340869904
-0.24919547140598297,1.8909387588500977,-0.20212994515895844
-0.23691587150096893,1.900275468826294,-0.2036106139421463
-0.2222657948732376,1.8902419805526733,-0.20302413403987885
-0.2095220535993576,1.895534873008728,-0.2040899395942688
-0.19350093603134155,1.8698362112045288,-0.20182323455810547
-0.17947600781917572,1.8633700609207153,-0.20155246555805206
-0.16641341149806976,1.8645317554473877,-0.2020161896944046
-0.15399549901485443,1.873341679573059,-0.2033194750547409
-0.1403929442167282,1.866571307182312,-0.20293906331062317
-0.1258188784122467,1.8442063331604004,-0.2008674144744873
-0.11321559548377991,1.8527668714523315,-0.20205597579479218
-0.10071972757577896,1.8612362146377563,-0.20317572355270386
-0.08701446652412415,1.8463475704193115,-0.2017546147108078
-0.07384881377220154,1.8391188383102417,-0.2011774480342865
-0.0608036108314991,1.8317961692810059,-0.20059767365455627
-0.04761612415313721,1.8244038820266724,-0.19987352192401886
-0.034748658537864685,1.8169180154800415,-0.19910480082035065
-0.02205049619078636,1.8132243156433105,-0.19876091182231903
-0.009598256088793278,1.8405052423477173,-0.20182275772094727
0.003159997519105673,1.817220687866211,-0.19934965670108795
0.01597743108868599,1.8132790327072144,-0.19884231686592102
0.028630517423152924,1.8170175552368164,-0.1991700828075409
0.04117545485496521,1.8129031658172607,-0.19864657521247864
0.05389488488435745,1.816465139389038,-0.19897380471229553
0.06709182262420654,1.831579566001892,-0.20057210326194763
0.07827971875667572,1.7961856126785278,-0.19647149741649628
0.09174290299415588,1.8111318349838257,-0.19788558781147003
0.10544271022081375,1.8298652172088623,-0.19972239434719086
0.11640328913927078,1.8019922971725464,-0.19648273289203644
0.13031813502311707,1.8205395936965942,-0.19828923046588898
0.1429244577884674,1.8196431398391724,-0.1978338360786438
0.15641836822032928,1.8263790607452393,-0.1982099413871765
0.16839496791362762,1.8175629377365112,-0.1969129592180252
0.18333788216114044,1.8395859003067017,-0.19896380603313446
0.19528038799762726,1.8306000232696533,-0.1976175308227539
0.21056996285915375,1.8524295091629028,-0.19947549700737
0.22359682619571686,1.8509726524353027,-0.19882099330425262
0.23647333681583405,1.8494411706924438,-0.19817352294921875
0.25039389729499817,1.8555171489715576,-0.1983482539653778
0.2632621228694916,1.8538129329681396,-0.19761887192726135
0.2783752381801605,1.867404818534851,-0.19842252135276794
0.2891107499599457,1.8501359224319458,-0.19594590365886688
0.30575990676879883,1.8711702823638916,-0.19753912091255188
0.3187808692455292,1.8690851926803589,-0.19669416546821594
0.33512750267982483,1.8860588073730469,-0.1977502405643463
0.34036752581596375,1.8417754173278809,-0.19234374165534973
0.35603100061416626,1.8547461032867432,-0.1929350346326828
0.3706960678100586,1.8599039316177368,-0.1926945000886917
0.3852044343948364,1.864996075630188,-0.19246485829353333
0.3980671763420105,1.8624119758605957,-0.19131045043468475
0.41173282265663147,1.8635399341583252,-0.19052448868751526
0.4237794876098633,1.8569711446762085,-0.1889553964138031
0.43782663345336914,1.8578263521194458,-0.18813085556030273
0.4691088795661926,1.930410623550415,-0.19453085958957672
0.48236799240112305,1.9272801876068115,-0.1931384652853012
0.5043506622314453,1.9579414129257202,-0.19512146711349487
0.5219422578811646,1.9695632457733154,-0.1951775848865509
0.5338559150695801,1.9584530591964722,-0.19296473264694214
0.5557979941368103,1.9848166704177856,-0.19438359141349792
0.5758545994758606,2.0035400390625,-0.19495642185211182
0.578640878200531,1.9623769521713257,-0.1897161304950714
0.6013253927230835,1.988235354423523,-0.19095328450202942
0.6350111961364746,2.0472424030303955,-0.19530227780342102
0.6537508964538574,2.057842969894409,-0.19488564133644104
0.6702333688735962,2.0608928203582764,-0.19373419880867004
0.679591953754425,2.0416042804718018,-0.19047918915748596
0.7226856350898743,2.1217055320739746,-0.19644691050052643
0.7399211525917053,2.1241848468780518,-0.1951223760843277
0.7572876214981079,2.126514196395874,-0.19367198646068573
0.7891479730606079,2.169013261795044,-0.19587065279483795
0.8124191164970398,2.1855356693267822,-0.1956472545862198
0.8400867581367493,2.212764263153076,-0.1963507980108261
0.8635848760604858,2.2289774417877197,-0.1959136426448822
0.8875950574874878,2.2448782920837402,-0.19538284838199615
0.9177432656288147,2.2749788761138916,-0.19604122638702393
0.9410103559494019,2.286738157272339,-0.19507335126399994
0.9627017378807068,2.294813871383667,-0.19369733333587646
0.9935687184333801,2.3242597579956055,-0.19404767453670502
1.0331705808639526,2.371033191680908,-0.195701465010643
1.059211015701294,2.3853440284729004,-0.194618821144104
1.1061331033706665,2.445662260055542,-0.1971641629934311
1.1324232816696167,2.4596025943756104,-0.19583187997341156
1.159142017364502,2.4732120037078857,-0.194411501288414
1.2018694877624512,2.517913579940796,-0.19526956975460052
1.2378952503204346,2.548395872116089,-0.19495470821857452
1.251556634902954,2.533278465270996,-0.1910664439201355
1.31254243850708,2.6120126247406006,-0.19414173066616058
1.368031620979309,2.67592453956604,-0.1958724707365036
1.4043880701065063,2.701310634613037,-0.19463129341602325
1.4337139129638672,2.712625741958618,-0.19221752882003784
1.417177438735962,2.637772560119629,-0.18375110626220703
1.3776353597640991,2.521991014480591,-0.17258216440677643
1.3663225173950195,2.461702346801758,-0.16537022590637207
1.3999149799346924,2.483374834060669,-0.16367560625076294
1.4212422370910645,2.480484962463379,-0.16013959050178528
1.43460214138031,2.464012861251831,-0.15575699508190155
1.4429738521575928,2.4412598609924316,-0.15096193552017212
1.4593322277069092,2.4317610263824463,-0.1469700187444687
1.4701588153839111,2.4117825031280518,-0.1422348916530609
1.5010236501693726,2.4251198768615723,-0.13936828076839447
1.5293434858322144,2.435288429260254,-0.13631011545658112
1.4895811080932617,2.336015462875366,-0.12702599167823792
1.420708179473877,2.194959878921509,-0.11579820513725281
1.3943177461624146,2.1238603591918945,-0.10856176167726517
1.4134209156036377,2.1207950115203857,-0.10466133803129196
1.4234811067581177,2.1048436164855957,-0.10012490302324295
1.4414186477661133,2.1022698879241943,-0.09622006118297577
1.4424612522125244,2.0732858180999756,-0.09087812900543213
1.4518545866012573,2.057363510131836,-0.08609241247177124
1.4652982950210571,2.0479986667633057,-0.08148394525051117
1.4612027406692505,2.0126378536224365,-0.07562249153852463
1.4740431308746338,2.0034289360046387,-0.07080022990703583
2.2648942470550537,3.195272207260132,0.2039405256509781
2.2909433841705322,3.286125659942627,0.21643725037574768
2.342392921447754,3.411303997039795,0.23095132410526276
2.3496949672698975,3.4766080379486084,0.24163536727428436
2.4025535583496094,3.614354372024536,0.2574770152568817
2.347116708755493,3.585038423538208,0.2610027492046356
3.066586494445801,4.758266448974609,0.35370954871177673
1.638168454170227,2.584731340408325,0.1959998607635498
1.6151390075683594,2.589653253555298,0.20003961026668549
1.5928090810775757,2.593966245651245,0.20387482643127441
3.003154993057251,4.974399566650391,0.397409588098526
2.962171792984009,4.989207744598389,0.4048802852630615
2.948772430419922,5.046225547790527,0.4154804050922394
2.8708584308624268,4.996177673339844,0.4172346293926239
2.8159971237182617,4.986461639404297,0.42199715971946716
2.772167205810547,4.992546558380127,0.4278820753097534
2.772578239440918,5.07621955871582,0.4403073787689209
2.6288979053497314,4.8965535163879395,0.42961955070495605
2.5825607776641846,4.898576259613037,0.4346129894256592
2.577451467514038,4.975384712219238,0.4460833966732025
2.5019068717956543,4.912965774536133,0.4449210464954376
2.449337959289551,4.8953537940979,0.44763341546058655
2.4404654502868652,4.968747615814209,0.45851072669029236
1.2286975383758545,2.5492467880249023,0.23739323019981384
1.210823893547058,2.5575239658355713,0.24018658697605133
1.1813870668411255,2.5409786701202393,0.24064336717128754
1.1708133220672607,2.5670175552368164,0.24498626589775085
1.1582309007644653,2.589524745941162,0.24901673197746277
1.145993709564209,2.6117184162139893,0.2529902756214142
2.5470097064971924,5.918111324310303,0.577433705329895
2.518702507019043,5.967679023742676,0.5862970948219299
2.495781421661377,6.035737991333008,0.5967361330986023
2.464749574661255,6.085717678070068,0.6054664850234985
2.4333555698394775,6.131296634674072,0.6136860847473145
2.406641960144043,6.191387176513672,0.6234695911407471
2.3780465126037598,6.247693061828613,0.6327350735664368
2.3489596843719482,6.3079962730407715,0.6421921849250793
1.9651988744735718,5.396340847015381,0.5522597432136536
2.2898237705230713,6.427830696105957,0.6611732244491577
2.2567672729492188,6.480175971984863,0.6699879169464111
2.2260665893554688,6.539580821990967,0.6794373989105225
2.1922030448913574,6.595612049102783,0.6882198452949524
2.1611783504486084,6.662596225738525,0.6982266902923584
2.109200954437256,6.6624531745910645,0.7011880278587341
2.048096179962158,6.632219314575195,0.7009950876235962
1.9872806072235107,6.5974836349487305,0.7002633213996887
1.9268275499343872,6.56638765335083,0.6994565725326538
1.8721961975097656,6.553474426269531,0.7005459666252136
1.8107556104660034,6.513860702514648,0.6987773180007935
0.5255177021026611,1.942779302597046,0.2091384381055832
0.5136954188346863,1.9538521766662598,0.21108049154281616
0.4816538095474243,1.885791301727295,0.20438212156295776
0.47374632954597473,1.9117141962051392,0.207772895693779
0.4546221196651459,1.8922878503799438,0.20624463260173798
0.4395293891429901,1.88777494430542,0.20633384585380554
0.42444729804992676,1.8831602334976196,0.2064208835363388
0.42869386076927185,1.9656628370285034,0.2160806655883789
1.3148107528686523,6.240091323852539,0.6875589489936829
1.266563057899475,6.229972839355469,0.6879556179046631
1.2035928964614868,6.143267631530762,0.6799015402793884
1.1555284261703491,6.128509044647217,0.6798173785209656
1.1155377626419067,6.151433944702148,0.6839138269424438
1.054630160331726,6.055511474609375,0.6748073101043701
1.016798734664917,6.093262195587158,0.6801177859306335
0.9686815142631531,6.069432735443115,0.6785800457000732
0.9213688373565674,6.053019046783447,0.6779159903526306
0.8730595707893372,6.016818046569824,0.6750164031982422
0.8215842247009277,5.953322410583496,0.6690655946731567
0.7800584435462952,5.958707332611084,0.6708297729492188
0.7347466349601746,5.936933517456055,0.6691230535507202
0.5899022817611694,5.058834075927734,0.5708193778991699
0.5603836178779602,5.1245436668396,0.5789442658424377
0.5307031869888306,5.1861090660095215,0.5866241455078125
0.39149338006973267,4.107585430145264,0.4652239680290222
0.35849103331565857,4.059844970703125,0.4603911340236664
0.3406903147697449,4.193734169006348,0.4758734703063965
0.30905622243881226,4.172765731811523,0.47382020950317383
0.28034311532974243,4.18250846862793,0.47527074813842773
0.2526613473892212,4.207537651062012,0.4784814119338989
0.4132893681526184,7.786498069763184,0.8862014412879944
0.3580751419067383,7.765803813934326,0.884574294090271
0.30164289474487305,7.737080097198486,0.8814568519592285
0.24624936282634735,7.696280002593994,0.8770027160644531
0.19173140823841095,7.666726112365723,0.8738707304000854
0.1378820240497589,7.636783599853516,0.8707336187362671
0.08458743244409561,7.61810827255249,0.8689212203025818
0.03068508394062519,7.602944850921631,0.8675563931465149
-0.022098524495959282,7.579712867736816,0.8646782636642456
-0.07440478354692459,7.540594577789307,0.8600146770477295
-0.1261029839515686,7.4972357749938965,0.8549109697341919
-0.17766323685646057,7.472924709320068,0.8520218133926392
-0.22944791615009308,7.463775157928467,0.850902795791626
-0.2816140353679657,7.4464802742004395,0.8488964438438416
-0.3346620798110962,7.475454330444336,0.8516525030136108
-0.2799907624721527,5.414864540100098,0.6164690256118774
-0.3184446096420288,5.428362846374512,0.6176056861877441
-0.3545573949813843,5.402857303619385,0.6143348813056946
-0.3915790319442749,5.384806156158447,0.611937940120697
-0.4265039265155792,5.351074695587158,0.6077972054481506
-0.4627722203731537,5.3403754234313965,0.6059658527374268
-0.43156301975250244,4.610611438751221,0.5225650072097778
-0.46411025524139404,4.615354061126709,0.5225308537483215
-0.49456334114074707,4.592775344848633,0.5194173455238342
-0.5264039039611816,4.5893378257751465,0.5185052752494812
-0.5563923716545105,4.570260047912598,0.5158520936965942
-0.5848914980888367,4.54334831237793,0.512080729007721
-0.6150254607200623,4.531675338745117,0.5099443197250366
-0.6433482766151428,4.504356861114502,0.5060638785362244
-0.6745402216911316,4.499934673309326,0.5047903656959534
-0.7039884924888611,4.4837751388549805,0.5022240281105042
-0.7326624393463135,4.463583946228027,0.4992339015007019
-0.7620573043823242,4.4509501457214355,0.4968687891960144
-0.7884379029273987,4.4228692054748535,0.49270179867744446
-0.8149648904800415,4.394545555114746,0.4885251224040985
-0.8402222394943237,4.36228609085083,0.48395177721977234
-0.7297928333282471,3.652003526687622,0.40433913469314575
-0.7583550810813904,3.6621944904327393,0.40466874837875366
-0.9274268746376038,4.329261779785156,0.47717514634132385
-0.963336169719696,4.34948205947876,0.4781120717525482
-0.9903872609138489,4.3316650390625,0.47490808367729187
-1.0203919410705566,4.3249125480651855,0.4729228913784027
-1.03207266330719,4.242443084716797,0.462698757648468
-1.0549765825271606,4.208991050720215,0.4578702449798584
-1.0908085107803345,4.228186130523682,0.45843902230262756
-1.1274741888046265,4.250967025756836,0.45941251516342163
-1.154284119606018,4.235959529876709,0.45631536841392517
-1.1816028356552124,4.220602512359619,0.45317354798316956
-1.2065757513046265,4.1976118087768555,0.4492437541484833
-1.2359635829925537,4.189315319061279,0.4467889070510864
-1.2642213106155396,4.181154251098633,0.4441675543785095
-1.2947243452072144,4.180225372314453,0.4423316717147827
-1.3174033164978027,4.153030872344971,0.4377196729183197
-1.3414815664291382,4.129255771636963,0.43347153067588806
-1.36825430393219,4.112555980682373,0.42996612191200256
-1.3986035585403442,4.1108479499816895,0.4278571307659149
-1.4237060546875,4.094296455383301,0.4241526126861572
-1.45125150680542,4.084918022155762,0.42121389508247375
-1.4797093868255615,4.075009822845459,0.41817066073417664
-1.502651572227478,4.050331115722656,0.41364192962646484
-1.5309110879898071,4.040059566497803,0.4104529917240143
-1.5551823377609253,4.0227742195129395,0.40643399953842163
-1.5764365196228027,3.998105764389038,0.4016995131969452
-1.601141095161438,3.9802303314208984,0.3976105749607086
-1.609743595123291,3.9224905967712402,0.38956356048583984
-1.6433335542678833,3.9257566928863525,0.3875027298927307
-1.677209734916687,3.9329142570495605,0.38566070795059204
-1.7127704620361328,3.9433767795562744,0.38413771986961365
-1.730453610420227,3.9104955196380615,0.37833309173583984
-1.756089448928833,3.895145893096924,0.374227374792099
-1.773532748222351,3.8619272708892822,0.36831584572792053
-1.8024091720581055,3.8575029373168945,0.36504703760147095
-1.8146252632141113,3.817695379257202,0.3584579825401306
-1.8444411754608154,3.812413454055786,0.3550192713737488
-1.8710139989852905,3.7998263835906982,0.3508913815021515
-1.8971288204193115,3.7872517108917236,0.3465930223464966
-1.932707667350769,3.7958459854125977,0.34418293833732605
-1.95811927318573,3.7831966876983643,0.3397962152957916
-1.9772837162017822,3.756030321121216,0.3339936137199402
-1.996055245399475,3.7288334369659424,0.3282063603401184
-2.0279932022094727,3.72971510887146,0.32470792531967163
-1.7063950300216675,3.0890889167785645,0.26590922474861145
-1.735465407371521,3.0910890102386475,0.2629294693470001
-0.8418301939964294,1.4753260612487793,0.12397439777851105
-0.855449378490448,1.4766546487808228,0.12249293923377991
-0.8611295819282532,1.4644855260849,0.11988679319620132
-0.871414065361023,1.4585689306259155,0.11768216639757156
-0.8856810927391052,1.4592523574829102,0.11601129174232483
-0.8747628927230835,1.4204214811325073,0.1111680418252945
-0.8798461556434631,1.4082653522491455,0.10845870524644852
-0.9064024686813354,1.42857825756073,0.10808955878019333
-0.9037009477615356,1.4027255773544312,0.1041722372174263
-0.8956587314605713,1.3709381818771362,0.09986907988786697
-0.9134306907653809,1.3780914545059204,0.09834899753332138
-2.396872043609619,3.562286376953125,0.24867559969425201
-2.39117693901062,3.505369186401367,0.23907814919948578
-1.2959059476852417,1.8732872009277344,0.12459766119718552
-1.3807640075683594,1.9665553569793701,0.12723982334136963
-1.541047215461731,2.204174518585205,-0.10225304961204529
-1.187900185585022,1.7268427610397339,-0.08407751470804214
-1.5214221477508545,2.2455804347991943,-0.11410527676343918
-1.2968343496322632,1.9448683261871338,-0.10284116864204407
-1.2375224828720093,1.8856172561645508,-0.10345250368118286
-1.4276272058486938,2.208592176437378,-0.1253126710653305
-1.2728886604309082,2.0016555786132812,-0.11728405207395554
-1.9190704822540283,3.2194132804870605,-0.2106100469827652
-0.8500991463661194,1.4991047382354736,-0.10504584014415741
-1.6620686054229736,2.979037046432495,-0.21301841735839844
-1.590223789215088,2.8981335163116455,-0.21134597063064575
-1.544850468635559,2.8647711277008057,-0.21291287243366241
-1.4819642305374146,2.79638409614563,-0.21168525516986847
-1.4280980825424194,2.7407023906707764,-0.21109169721603394
-1.3905060291290283,2.715925931930542,-0.21268479526042938
-1.3338714838027954,2.652573347091675,-0.2111046314239502
-1.28236722946167,2.595217227935791,-0.2097172886133194
-1.2570286989212036,2.5899555683135986,-0.21249128878116608
-1.214735746383667,2.549471855163574,-0.2121579945087433
-1.1747702360153198,2.512037992477417,-0.21197137236595154
-1.144175410270691,2.491581439971924,-0.21303892135620117
-1.089896321296692,2.4175825119018555,-0.20940613746643066
-1.0676864385604858,2.4144234657287598,-0.2117205262184143
-1.0313795804977417,2.379028797149658,-0.21120008826255798
-1.0025192499160767,2.357252836227417,-0.2117067575454712
-0.9665250778198242,2.317230224609375,-0.2105012834072113
-0.9380403161048889,2.295041799545288,-0.21072973310947418
-0.9055845141410828,2.2617294788360596,-0.2098807394504547
-0.8752423524856567,2.231637477874756,-0.20924490690231323
-0.8540410995483398,2.2229206562042236,-0.21053458750247955
-0.8203427791595459,2.181378126144409,-0.20855584740638733
-0.804694414138794,2.1869614124298096,-0.21103350818157196
-0.7787489891052246,2.163052558898926,-0.21061529219150543
-0.7581669688224792,2.15362811088562,-0.21160192787647247
-0.7289862632751465,2.118260622024536,-0.20988428592681885
-0.7014543414115906,2.0863311290740967,-0.20839649438858032
-0.6818059682846069,2.0762553215026855,-0.2090480476617813
-0.6661054491996765,2.0770514011383057,-0.21076622605323792
-0.6326814293861389,2.022174835205078,-0.2067956179380417
-0.6137451529502869,2.0115561485290527,-0.2071615606546402
-0.5949758887290955,2.000777006149292,-0.20750153064727783
-0.5755919218063354,1.986023187637329,-0.2073865383863449
-0.5595946311950684,1.982324242591858,-0.20841901004314423
-0.5435382127761841,1.9785491228103638,-0.20932185649871826
-0.5252624750137329,1.9672186374664307,-0.20939788222312927
-0.4928525686264038,1.899239182472229,-0.20337094366550446
-0.4871855080127716,1.9326035976409912,-0.20816858112812042
-0.4699476361274719,1.9207065105438232,-0.20808134973049164
-0.45097681879997253,1.901151180267334,-0.20701462030410767
-0.4259760081768036,1.8549810647964478,-0.20303936302661896
-0.4223053753376007,1.89946448802948,-0.2089587152004242
-0.40418508648872375,1.879425287246704,-0.207798033952713
-0.3878462314605713,1.8668640851974487,-0.20735882222652435
-0.3708924949169159,1.8503787517547607,-0.20640327036380768
-0.3576585352420807,1.8528509140014648,-0.2075781673192978
-0.33906853199005127,1.8246309757232666,-0.20528748631477356
-0.3263361155986786,1.8268243074417114,-0.20641498267650604
-0.3121820092201233,1.8213096857070923,-0.20651580393314362
-0.29560932517051697,1.8003666400909424,-0.2048451006412506
-0.28277936577796936,1.8023186922073364,-0.2057906538248062
-0.27020546793937683,1.8041406869888306,-0.206716388463974
-0.25487783551216125,1.7866671085357666,-0.2054009735584259
-0.23919658362865448,1.765252709388733,-0.20348148047924042
-0.22779643535614014,1.7745014429092407,-0.20510123670101166
-0.2088904082775116,1.7220268249511719,-0.19957832992076874
-0.20286723971366882,1.777354121208191,-0.20656827092170715
-0.1880243718624115,1.755496859550476,-0.2045196294784546
-0.17421762645244598,1.7412610054016113,-0.20325148105621338
-0.16349352896213531,1.757826566696167,-0.20558863878250122
-0.15056712925434113,1.7511299848556519,-0.2052164375782013
-0.1347927451133728,1.7095450162887573,-0.20076054334640503
-0.12536023557186127,1.7452236413955688,-0.2052612006664276
-0.11214425414800644,1.7305316925048828,-0.2037823647260666
-0.09961657971143723,1.723486065864563,-0.20320987701416016
-0.08881139010190964,1.7473433017730713,-0.20629242062568665
-0.07611453533172607,1.7401354312896729,-0.20572446286678314
-0.06370854377746582,1.7328484058380127,-0.20499007403850555
-0.05140350013971329,1.7254778146743774,-0.20421986281871796
-0.03939579799771309,1.7257763147354126,-0.20436665415763855
-0.02753872238099575,1.733748197555542,-0.2054322510957718
-0.015201481059193611,1.7261239290237427,-0.20466236770153046
-0.0032148731406778097,1.726192593574524,-0.20462290942668915
0.008826015517115593,1.7339361906051636,-0.2055019587278366
0.020460570231080055,1.6989281177520752,-0.20132452249526978
0.03308238834142685,1.7414120435714722,-0.20633983612060547
0.044497050344944,1.714003086090088,-0.20305556058883667
0.05775566026568413,1.74856698513031,-0.20695611834526062
0.068829245865345,1.7210171222686768,-0.2035170942544937
0.0813276395201683,1.7321494817733765,-0.20466408133506775
0.09378976374864578,1.739316463470459,-0.20535039901733398
0.10469413548707962,1.7192953824996948,-0.20277835428714752
0.11762163043022156,1.7301744222640991,-0.2037278562784195
0.13135859370231628,1.752578616142273,-0.20604375004768372
0.14070312678813934,1.716869592666626,-0.20153827965259552
0.15265129506587982,1.7158969640731812,-0.20112638175487518
0.1656804084777832,1.7264411449432373,-0.2019766867160797
0.1778489053249359,1.7253015041351318,-0.20136500895023346
0.18980763852596283,1.7240970134735107,-0.20076344907283783
0.20270434021949768,1.7305127382278442,-0.20105525851249695
0.21569949388504028,1.736832857131958,-0.2013416290283203
0.22672152519226074,1.7276852130889893,-0.19972002506256104
0.24099810421466827,1.7415168285369873,-0.20069867372512817
0.25417330861091614,1.7475779056549072,-0.20079293847084045
0.257579505443573,1.688297986984253,-0.19340211153030396
0.27056393027305603,1.6942161321640015,-0.1935073435306549
0.28547316789627075,1.711553931236267,-0.19475965201854706
0.2999633252620697,1.7249454259872437,-0.19554556906223297
0.31075772643089294,1.7152535915374756,-0.1937052309513092
0.3212611675262451,1.7055246829986572,-0.19188709557056427
0.3435460925102234,1.756709098815918,-0.1968805491924286
0.35720258951187134,1.762036681175232,-0.196581169962883
0.37812837958335876,1.8014644384384155,-0.2000705450773239
0.3875618577003479,1.7836989164352417,-0.19718192517757416
0.40850433707237244,1.8189783096313477,-0.2001684010028839
0.4228482246398926,1.8238141536712646,-0.19970986247062683
0.4245551526546478,1.775673747062683,-0.1933966875076294
0.44423457980155945,1.8030236959457397,-0.19532130658626556
0.4665931761264801,1.8376308679580688,-0.1979706734418869
0.47548457980155945,1.819442868232727,-0.19494710862636566
0.4839822053909302,1.801274061203003,-0.19182728230953217
0.5222291350364685,1.8917101621627808,-0.20020605623722076
0.5353211164474487,1.8882182836532593,-0.19858434796333313
0.5574123859405518,1.9143967628479004,-0.2000410109758377
0.5662451982498169,1.8957581520080566,-0.19679871201515198
0.5849260687828064,1.910599708557129,-0.1969296932220459
0.6049998998641968,1.9289849996566772,-0.19740507006645203
0.6255970001220703,1.9471113681793213,-0.19780445098876953
0.6418598890304565,1.9501937627792358,-0.19663701951503754
0.668938934803009,1.9864627122879028,-0.1987081915140152
0.687614917755127,1.996741771697998,-0.198109433054924
0.7117527723312378,2.021491527557373,-0.19890514016151428
0.7284870147705078,2.0240018367767334,-0.19747725129127502
0.7478773593902588,2.0337185859680176,-0.19670352339744568
0.777034342288971,2.06876277923584,-0.1982167810201645
0.7995268702507019,2.0854201316833496,-0.19795028865337372
0.8254348039627075,2.108996629714966,-0.19826310873031616
0.853153645992279,2.135929584503174,-0.19884493947029114
0.8765054941177368,2.151930809020996,-0.1982470005750656
0.9033582806587219,2.1748008728027344,-0.19819968938827515
0.9351552128791809,2.2081453800201416,-0.19904416799545288
0.9629101157188416,2.2303993701934814,-0.19881919026374817
0.9922409653663635,2.2560977935791016,-0.1987692266702652
1.0234183073043823,2.2851202487945557,-0.19892467558383942
1.0572572946548462,2.3171029090881348,-0.19917388260364532
1.0931358337402344,2.352302312850952,-0.19963589310646057
1.1225395202636719,2.3732051849365234,-0.1987549066543579
1.1419479846954346,2.3728528022766113,-0.19602379202842712
1.1445599794387817,2.337216854095459,-0.1903621107339859
1.164622187614441,2.3362746238708496,-0.1874728798866272
1.2545170783996582,2.4745280742645264,-0.1955716460943222
1.2925416231155396,2.5078978538513184,-0.19512982666492462
1.344185471534729,2.564805507659912,-0.19631236791610718
1.3932301998138428,2.6141316890716553,-0.19672513008117676
1.3867188692092896,2.560413122177124,-0.18930985033512115
1.3815476894378662,2.510240316390991,-0.1822054088115692
1.3343008756637573,2.3851609230041504,-0.16980388760566711
1.364376187324524,2.399815559387207,-0.1674649864435196
1.4115345478057861,2.4449827671051025,-0.16709542274475098
1.4378942251205444,2.4524900913238525,-0.164005845785141
1.4473220109939575,2.429091691970825,-0.1586637794971466
1.4616938829421997,2.4161956310272217,-0.15408191084861755
1.4735397100448608,2.4001147747039795,-0.1493038833141327
1.5087772607803345,2.4198811054229736,-0.14652302861213684
1.533759355545044,2.4228949546813965,-0.1426272988319397
1.549932599067688,2.412858724594116,-0.13784393668174744
1.4640871286392212,2.245591402053833,-0.12427441030740738
1.4020404815673828,2.1185195446014404,-0.11334534734487534
1.4222650527954102,2.119342088699341,-0.10944858938455582
1.4366252422332764,2.1098697185516357,-0.10481663048267365
1.4491517543792725,2.0967788696289062,-0.09981133788824081
1.4491857290267944,2.0684425830841064,-0.09419606626033783
1.4452582597732544,2.033212661743164,-0.08808290958404541
1.458784580230713,2.0237419605255127,-0.0830644890666008
1.4533851146697998,1.9892706871032715,-0.07699782401323318
1.471897006034851,1.9855469465255737,-0.07177648693323135
2.274695873260498,3.187319278717041,0.21876759827136993
2.2622647285461426,3.2194533348083496,0.2279553860425949
2.3544766902923584,3.4017910957336426,0.247777059674263
2.341078758239746,3.438767194747925,0.2572792172431946
2.357567548751831,3.5164496898651123,0.2694627344608307
2.3084609508514404,3.497044086456299,0.2740945518016815
2.3212454319000244,3.5765891075134277,0.2865303158760071
1.6428805589675903,2.5713446140289307,0.21006041765213013
1.6371289491653442,2.602273464202881,0.21655914187431335
1.5782747268676758,2.551333427429199,0.21605956554412842
3.0153870582580566,4.955399990081787,0.42665621638298035
2.983886480331421,4.982774257659912,0.43577882647514343
2.96513032913208,5.033951282501221,0.44677701592445374
2.946479320526123,5.089199066162109,0.4581238329410553
2.931049108505249,5.146733283996582,0.46946337819099426
2.889160633087158,5.1562628746032715,0.4763374924659729
2.878546714782715,5.228237152099609,0.48889532685279846
2.7929201126098633,5.16337776184082,0.48846063017845154
2.668323516845703,5.017512798309326,0.4798417389392853
2.602436065673828,4.976803302764893,0.48098790645599365
2.5731825828552246,5.008857727050781,0.4889462888240814
2.528240442276001,5.013614654541016,0.494234174489975
2.5144288539886475,5.076435089111328,0.5050849914550781
1.229164719581604,2.52567458152771,0.25354352593421936
1.2228444814682007,2.558647394180298,0.25907689332962036
1.1972616910934448,2.553241014480591,0.26062270998954773
1.1816407442092896,2.568769931793213,0.2643069326877594
1.1585404872894287,2.566181182861328,0.26606258749961853
1.154781699180603,2.605910062789917,0.27219757437705994
2.5631935596466064,5.8982133865356445,0.6203488707542419
2.5336296558380127,5.94838809967041,0.6297914981842041
2.505589485168457,6.001766681671143,0.639594554901123
2.480484962463379,6.06198263168335,0.6501531004905701
2.4482123851776123,6.1037821769714355,0.6587390303611755
2.4209580421447754,6.164174556732178,0.6690173745155334
2.394064426422119,6.228219509124756,0.6797109842300415
2.3602075576782227,6.2737507820129395,0.6884090900421143
2.2966883182525635,6.23874568939209,0.6882593631744385
2.285987615585327,6.345422267913818,0.7037265300750732
2.2699553966522217,6.445418834686279,0.7181951403617859
2.240841865539551,6.512575149536133,0.7289971709251404
2.2074079513549805,6.568506717681885,0.7386103272438049
2.175241470336914,6.6277360916137695,0.7486225366592407
2.139542818069458,6.675498008728027,0.7573621869087219
2.079334259033203,6.649215221405029,0.7574571371078491
2.0120620727539062,6.600390434265137,0.7547016739845276
1.9555522203445435,6.5844502449035645,0.7557060718536377
1.8962725400924683,6.552785396575928,0.7548395991325378
1.8423542976379395,6.53942346572876,0.7561160326004028
1.7823132276535034,6.49921989440918,0.7542218565940857
1.7227123975753784,6.462635517120361,0.7522047162055969
1.6646360158920288,6.429311752319336,0.7505761981010437
0.8174415826797485,3.252289056777954,0.3808271288871765
1.5500943660736084,6.357222557067871,0.7466592788696289
1.4771544933319092,6.246615886688232,0.7358800172805786
1.454828143119812,6.351044654846191,0.7502412796020508
1.3851512670516968,6.251045227050781,0.7401649355888367
1.3454115390777588,6.283188343048096,0.7457488179206848
1.28382408618927,6.212536811828613,0.7391636967658997
1.2314034700393677,6.175339698791504,0.7365080714225769
1.1941438913345337,6.213929176330566,0.7429254651069641
1.1418612003326416,6.17611837387085,0.7399043440818787
1.0851253271102905,6.111224174499512,0.7334474921226501
1.0311528444290161,6.061275482177734,0.728818953037262
0.9943060874938965,6.102540016174316,0.7351459264755249
0.9452448487281799,6.066892147064209,0.7322332859039307
0.8962203860282898,6.0270161628723145,0.7288234233856201
0.8434962630271912,5.959990501403809,0.7217565178871155
0.7939417362213135,5.915729999542236,0.7173287272453308
0.7492938041687012,5.897902488708496,0.7161127924919128
0.6133925318717957,5.1134514808654785,0.6217078566551208
0.5717331171035767,5.063479423522949,0.6164903044700623
0.5483556985855103,5.179001808166504,0.6314622759819031
0.4045528769493103,4.094359874725342,0.49969521164894104
0.3724380433559418,4.066165447235107,0.49665841460227966
0.3526932895183563,4.172915935516357,0.510129451751709
0.3235606551170349,4.1751861572265625,0.5108612179756165
0.29313912987709045,4.157907962799072,0.5092222690582275
0.26592299342155457,4.186844825744629,0.5132690072059631
0.2379356324672699,4.2195353507995605,0.5175673961639404
0.38441935181617737,7.787652969360352,0.9555509090423584
0.327955424785614,7.74358606338501,0.9505067467689514
0.2734711170196533,7.730102062225342,0.9492582082748413
0.21850228309631348,7.689105987548828,0.9446729421615601
0.163794606924057,7.674872875213623,0.9434268474578857
0.10958962887525558,7.621518135070801,0.9370455741882324
0.0564015693962574,7.610469818115234,0.9355819225311279
0.003449073527008295,7.587419509887695,0.9326887130737305
-0.04912959784269333,7.556248188018799,0.9288424849510193
-0.10213480144739151,7.5285797119140625,0.9254725575447083
-0.1539454162120819,7.5044355392456055,0.9225800633430481
-0.20473848283290863,7.45671272277832,0.9165916442871094
-0.2561257779598236,7.447449207305908,0.9149568676948547
-0.3077148199081421,7.445579528808594,0.9142748713493347
-0.25722336769104004,5.32885217666626,0.6540602445602417
-0.30035096406936646,5.423739433288574,0.6654350757598877
-0.3375536799430847,5.413843154907227,0.6639871597290039
-0.37356817722320557,5.38823127746582,0.6605416536331177
-0.4090578258037567,5.36244010925293,0.6567271947860718
-0.4454953074455261,5.35187292098999,0.6548123359680176
-0.42632001638412476,4.719233989715576,0.5768779516220093
-0.44966191053390503,4.619780540466309,0.5642368793487549
-0.4817543923854828,4.616646766662598,0.5633964538574219
-0.5116472840309143,4.594027996063232,0.5601694583892822
-0.5413840413093567,4.575150489807129,0.5570439696311951
-0.5704478025436401,4.5483222007751465,0.5529703497886658
-0.6016939282417297,4.544444561004639,0.5517308712005615
-0.6311529278755188,4.524936199188232,0.5486133694648743
-0.6603695154190063,4.505237102508545,0.5455042719841003
-0.6893350481987,4.4853515625,0.5423974394798279
-0.7187831401824951,4.469139575958252,0.5393704175949097
-0.7494105696678162,4.46429967880249,0.5377632975578308
-0.7786686420440674,4.451606750488281,0.535237193107605
-0.8025971055030823,4.408125400543213,0.5290328860282898
-0.8274023532867432,4.372147083282471,0.5237696766853333
-0.7186287045478821,3.6584131717681885,0.4374884366989136
-0.7470608353614807,3.668752670288086,0.43762874603271484
-0.7672209143638611,3.640998601913452,0.43326690793037415
-0.9431240558624268,4.3296990394592285,0.5139905214309692
-0.9775477051734924,4.342185020446777,0.514231264591217
-0.9998462200164795,4.301492691040039,0.508205235004425
-1.0320478677749634,4.302108287811279,0.5070159435272217
-1.0501024723052979,4.250054836273193,0.4993608593940735
-1.0847569704055786,4.265647888183594,0.49968305230140686
-1.1158281564712524,4.265924453735352,0.4982192814350128
-1.1394380331039429,4.235843658447266,0.49321091175079346
-1.1714215278625488,4.235447406768799,0.49166515469551086
-1.1889007091522217,4.186487197875977,0.48441630601882935
-1.2247774600982666,4.204753875732422,0.48477184772491455
-1.2509963512420654,4.189231872558594,0.48124366998672485
-1.2774242162704468,4.17343807220459,0.47769054770469666
-1.303496241569519,4.153479099273682,0.47363314032554626
-1.3323547840118408,4.144622802734375,0.4709036946296692
-1.3507695198059082,4.106298446655273,0.46459805965423584
-1.3883147239685059,4.126896381378174,0.4648962914943695
-1.4110006093978882,4.103109359741211,0.4602110981941223
-1.4395761489868164,4.093522548675537,0.4570750892162323
-1.4686592817306519,4.083535194396973,0.45387572050094604
-1.4914509057998657,4.0590715408325195,0.449033260345459
-1.5105397701263428,4.027491569519043,0.44322288036346436
-1.5459749698638916,4.039371967315674,0.4422122836112976
-1.5708378553390503,4.0218048095703125,0.43794673681259155
-1.5877612829208374,3.982088327407837,0.4312383532524109
-1.6124567985534668,3.9641408920288086,0.4269521236419678
-1.6388415098190308,3.953706979751587,0.4232262969017029
-1.665191650390625,3.943079948425293,0.4194953441619873
-1.6950891017913818,3.9391913414001465,0.4164418578147888
-1.7262341976165771,3.9345579147338867,0.4131995141506195
-1.747349500656128,3.9086055755615234,0.4077901542186737
-1.7621232271194458,3.8725087642669678,0.40107813477516174
-1.7911685705184937,3.868159532546997,0.39768919348716736
-1.8043173551559448,3.82810378074646,0.3905876874923706
-1.8314977884292603,3.8156189918518066,0.38622161746025085
-1.861283540725708,3.8102774620056152,0.38259008526802063
-1.8691909313201904,3.7634599208831787,0.3746286630630493
-1.911604404449463,3.7861790657043457,0.37360966205596924
-1.9413646459579468,3.7802205085754395,0.36958667635917664
-1.9677629470825195,3.7670094966888428,0.3648352324962616
-1.9826147556304932,3.7332680225372314,0.35791435837745667
-1.999765157699585,3.7068939208984375,0.3517192304134369
-1.6953859329223633,3.0929503440856934,0.2903236746788025
-1.7169873714447021,3.0814168453216553,0.28598400950431824
-1.7342571020126343,3.0631885528564453,0.2809903621673584
-0.8384892344474792,1.4584705829620361,0.13211967051029205
-0.8520792126655579,1.4597935676574707,0.13056892156600952
-0.8702378869056702,1.4673893451690674,0.12946774065494537
-0.8642367720603943,1.4348737001419067,0.12483040988445282
-0.8898021578788757,1.4560158252716064,0.12480773776769638
-0.8873164653778076,1.4303005933761597,0.12068956345319748
-0.8973433971405029,1.4242408275604248,0.11819011718034744
-0.8901315927505493,1.392099380493164,0.11352986097335815
-0.8948614597320557,1.3799841403961182,0.11051341891288757
-0.9042761921882629,1.37404203414917,0.10788601636886597
-0.9530512690544128,1.4261060953140259,0.10961855947971344
-2.4382009506225586,3.5988969802856445,0.27060115337371826
-1.2409095764160156,1.8060853481292725,0.13265171647071838
-1.2981219291687012,1.8616217374801636,0.13327330350875854
-1.3150140047073364,1.866734504699707,-0.08933013677597046
-1.3830307722091675,1.9951215982437134,-0.10048357397317886
-1.2853509187698364,1.8820606470108032,-0.09910774976015091
-1.3234308958053589,1.969125747680664,-0.10816510021686554
-1.306822419166565,1.9752421379089355,-0.11278054118156433
-1.5996485948562622,2.4962449073791504,-0.15284769237041473
-1.7735403776168823,2.951369047164917,-0.20269383490085602
-1.7825149297714233,3.0136988162994385,-0.21214675903320312
-0.7470841407775879,1.306173324584961,-0.09630739688873291
-0.8583415150642395,1.525202989578247,-0.11486034095287323
-1.543311595916748,2.7896597385406494,-0.21449770033359528
-1.476205587387085,2.7149505615234375,-0.2129216343164444
-1.4349236488342285,2.6837079524993896,-0.21441183984279633
-1.3888660669326782,2.6416029930114746,-0.21487219631671906
-1.3319791555404663,2.578624963760376,-0.213387593626976
-1.2759017944335938,2.5150644779205322,-0.2116970270872116
-1.2512918710708618,2.5096545219421387,-0.214610293507576
-1.2008917331695557,2.4516761302948,-0.2129037231206894
-1.1661376953125,2.4249181747436523,-0.21372155845165253
-1.1271294355392456,2.387101173400879,-0.2134217768907547
-1.0972832441329956,2.366353750228882,-0.21449869871139526
-1.0640273094177246,2.338463306427002,-0.2148565649986267
-1.029632329940796,2.3066840171813965,-0.21467119455337524
-0.9835221767425537,2.2459096908569336,-0.21163026988506317
-0.9554919004440308,2.2238333225250244,-0.21209058165550232
-0.9245757460594177,2.1944053173065186,-0.2117377072572708
-0.8980865478515625,2.175649642944336,-0.2123359739780426
-0.8767404556274414,2.167275905609131,-0.21384772658348083
-0.8386092782020569,2.115224838256836,-0.2109455019235611
-0.8081684708595276,2.0809383392333984,-0.209676131606102
-0.7876965403556824,2.071876287460327,-0.21081501245498657
-0.7644981741905212,2.0554065704345703,-0.21120065450668335
-0.743461549282074,2.042175769805908,-0.21181346476078033
-0.7186823487281799,2.017787218093872,-0.21121999621391296
-0.6914553642272949,1.9859213829040527,-0.20967450737953186
-0.6659724712371826,1.957457184791565,-0.20843598246574402
-0.6495851874351501,1.95452880859375,-0.2098812460899353
-0.6359421014785767,1.9587749242782593,-0.21206653118133545
-0.6103196144104004,1.9259653091430664,-0.2101050466299057
-0.5920398831367493,1.9151841402053833,-0.21048149466514587
-0.5706842541694641,1.8930556774139404,-0.20957639813423157
-0.5421059131622314,1.8446125984191895,-0.20569369196891785
-0.5331547260284424,1.8631751537322998,-0.20923300087451935
-0.517818808555603,1.8592379093170166,-0.21013380587100983
-0.5025948286056519,1.8551698923110962,-0.21101659536361694
-0.48467782139778137,1.8396693468093872,-0.21057094633579254
-0.466053307056427,1.8202476501464844,-0.20965568721294403
-0.44922301173210144,1.8083001375198364,-0.20946168899536133
-0.43459978699684143,1.8037132024765015,-0.2100728303194046
-0.4148831069469452,1.7763088941574097,-0.20800265669822693
-0.40247899293899536,1.77899169921875,-0.20944157242774963
-0.38754183053970337,1.7702263593673706,-0.20948466658592224
-0.371634304523468,1.757621169090271,-0.20896650850772858
-0.35769179463386536,1.7524434328079224,-0.20931276679039001
-0.3424694836139679,1.7395209074020386,-0.20872174203395844
-0.32744476199150085,1.7264736890792847,-0.20810918509960175
-0.315344899892807,1.7285925149917603,-0.2092045396566391
-0.30296918749809265,1.7306761741638184,-0.21026253700256348
-0.29083526134490967,1.7326304912567139,-0.21129865944385529
-0.27322152256965637,1.700028419494629,-0.20811016857624054
-0.2590051293373108,1.6864374876022339,-0.20723535120487213
-0.24829590320587158,1.6957846879959106,-0.20900022983551025
-0.23403717577457428,1.6820507049560547,-0.20793956518173218
-0.22330772876739502,1.691230058670044,-0.20970427989959717
-0.2124755084514618,1.700338363647461,-0.21147537231445312
-0.1978912651538849,1.678584337234497,-0.20935367047786713
-0.18784843385219574,1.695261836051941,-0.21189995110034943
