X,Y,Z
1.144840955734253,2.494433879852295,-0.26957041025161743
1.158948540687561,2.4798130989074707,-0.2643209993839264
1.174142599105835,2.4688329696655273,-0.2593911588191986
1.1875433921813965,2.454251766204834,-0.25411102175712585
1.1943377256393433,2.4254415035247803,-0.24731965363025665
1.2115120887756348,2.4173898696899414,-0.2425716519355774
1.224365234375,2.4026448726654053,-0.23716165125370026
1.2334896326065063,2.380915880203247,-0.23110727965831757
1.2465120553970337,2.3657941818237305,-0.22561471164226532
1.2591354846954346,2.350729465484619,-0.2201220840215683
1.271253228187561,2.3357882499694824,-0.2146276831626892
1.277977466583252,2.31034255027771,-0.20811352133750916
1.2942098379135132,2.3017377853393555,-0.20308879017829895
1.3059641122817993,2.286562204360962,-0.197464257478714
1.3134773969650269,2.2646870613098145,-0.19129937887191772
1.32516610622406,2.2492575645446777,-0.18559585511684418
1.3370002508163452,2.2335972785949707,-0.1797531247138977
1.3518671989440918,2.2250447273254395,-0.1745532900094986
1.3627463579177856,2.209651470184326,-0.16878797113895416
1.374087929725647,2.193833589553833,-0.16283637285232544
1.3844892978668213,2.178448438644409,-0.1569259762763977
1.3906630277633667,2.156365394592285,-0.15050378441810608
1.4014774560928345,2.1404271125793457,-0.1443568468093872
1.4135640859603882,2.128159523010254,-0.1384751796722412
1.4274721145629883,2.119217872619629,-0.1328197866678238
1.4378770589828491,2.103098154067993,-0.12638163566589355
1.4475938081741333,2.0872931480407715,-0.1198733001947403
1.4567385911941528,2.0717267990112305,-0.11347994208335876
1.4667129516601562,2.05544114112854,-0.10668044537305832
1.461578130722046,2.0210061073303223,-0.0990375503897667
1.4888916015625,2.0304014682769775,-0.09332219511270523
1.479142427444458,1.9893800020217896,-0.0850326344370842
1.4418036937713623,2.028606414794922,0.19089911878108978
1.473615288734436,2.105638027191162,0.20365487039089203
1.4657313823699951,2.129432439804077,0.21139608323574066
1.4501440525054932,2.1394765377044678,0.21739546954631805
1.4385039806365967,2.1560885906219482,0.2238650768995285
1.4301660060882568,2.179659605026245,0.23104067146778107
1.4139057397842407,2.1896488666534424,0.23659704625606537
1.4021341800689697,2.2058558464050293,0.24257805943489075
1.3974709510803223,2.2357959747314453,0.25002321600914
1.3765337467193604,2.2390449047088623,0.2544277012348175
1.3646998405456543,2.2548179626464844,0.2600228488445282
1.365304708480835,2.2946865558624268,0.2683863639831543
1.3477672338485718,2.304466962814331,0.27318716049194336
1.338689923286438,2.32715106010437,0.2793908715248108
1.3260700702667236,2.3427581787109375,0.284677118062973
1.312142014503479,2.358947277069092,0.2898765206336975
1.2977083921432495,2.3752224445343018,0.29517245292663574
1.2841300964355469,2.390883684158325,0.30024197697639465
1.2744706869125366,2.4131019115448,0.30609527230262756
1.261844515800476,2.4323439598083496,0.3114166855812073
1.2435563802719116,2.4412312507629395,0.3154161274433136
1.235695481300354,2.470759630203247,0.322112113237381
1.2182786464691162,2.4788992404937744,0.3258935213088989
1.2037190198898315,2.494131088256836,0.33051449060440063
1.1984467506408691,2.5305588245391846,0.33787670731544495
1.1828725337982178,2.5459392070770264,0.34248533844947815
1.167960524559021,2.560865879058838,0.346953809261322
1.1543898582458496,2.5792765617370605,0.351940780878067
1.138612151145935,2.594292402267456,0.3562459945678711
1.1286574602127075,2.6235148906707764,0.36249634623527527
1.1123111248016357,2.6384382247924805,0.36681491136550903
1.099616289138794,2.660085439682007,0.37200668454170227
1.086406946182251,2.6817760467529297,0.37727734446525574
1.0710985660552979,2.700005054473877,0.38182342052459717
1.0540692806243896,2.7145819664001465,0.3858623802661896
1.0396580696105957,2.7362782955169678,0.39094746112823486
1.0230292081832886,2.750383138656616,0.39490988850593567
1.0113152265548706,2.7790136337280273,0.4010218381881714
0.9938238859176636,2.7931370735168457,0.4048271179199219
0.9633045196533203,2.7706637382507324,0.40325871109962463
0.9294053316116333,2.7369184494018555,0.4000307619571686
0.9050458073616028,2.728395462036133,0.4004361033439636
0.8879791498184204,2.7417564392089844,0.4040714204311371
0.8883644938468933,2.8103153705596924,0.4157654047012329
0.8771442174911499,2.845888137817383,0.42246299982070923
0.8843661546707153,2.94439697265625,0.43858739733695984
0.8685551285743713,2.96889066696167,0.44376206398010254
0.8520337343215942,2.989408016204834,0.4483349621295929
0.8369434475898743,3.017385244369507,0.45409613847732544
0.8234277367591858,3.0528197288513184,0.4607401490211487
0.8014445900917053,3.058347702026367,0.4628371596336365
0.7842202186584473,3.0824356079101562,0.467772901058197
0.7622824907302856,3.0876171588897705,0.4698583483695984
0.7475385665893555,3.1226961612701416,0.47652798891067505
0.7309649586677551,3.1501049995422363,0.4820423126220703
0.7118393778800964,3.1700518131256104,0.48611485958099365
0.693285346031189,3.193657159805298,0.4907841980457306
0.6736375093460083,3.2133736610412598,0.49489226937294006
0.6536074280738831,3.2329933643341064,0.4990275502204895
0.6369343400001526,3.267531633377075,0.5054748058319092
0.6169505715370178,3.2868127822875977,0.5095630884170532
0.5983555912971497,3.317495584487915,0.5151294469833374
0.5773799419403076,3.336660861968994,0.5189437866210938
0.558290421962738,3.37099027633667,0.5251691341400146
0.5370099544525146,3.3898556232452393,0.528998851776123
0.5174062252044678,3.4200103282928467,0.534620463848114
0.4968757629394531,3.4462311267852783,0.5396449565887451
0.47776561975479126,3.487725019454956,0.5467355847358704
0.45515286922454834,3.5100324153900146,0.5508674383163452
0.433134526014328,3.5359742641448975,0.5555946826934814
0.4091954827308655,3.546419382095337,0.5579150915145874
0.3886493146419525,3.5873758792877197,0.5650665163993835
0.3671635389328003,3.624372959136963,0.5716363191604614
0.34459301829338074,3.657475471496582,0.5772607922554016
0.3204343914985657,3.6827938556671143,0.5816530585289001
0.2979150116443634,3.7271487712860107,0.5890817046165466
0.27454856038093567,3.7675132751464844,0.5959174633026123
0.2501191198825836,3.7961630821228027,0.6009330153465271
0.22548934817314148,3.8285062313079834,0.6065707206726074
0.1998540163040161,3.860758066177368,0.6119557619094849
0.17505204677581787,3.9121127128601074,0.6202536225318909
0.14881308376789093,3.9440290927886963,0.6255034804344177
0.12253492325544357,3.9873344898223877,0.6325937509536743
0.09606649726629257,4.04202938079834,0.641526460647583
0.06783165782690048,4.065693378448486,0.6455754637718201
0.0399823933839798,4.108470439910889,0.6525105834007263
0.011496882885694504,4.158816337585449,0.6603862047195435
-0.017657965421676636,4.212820529937744,0.6688722968101501
-0.047395337373018265,4.247328758239746,0.6742937564849854
-0.07829741388559341,4.293189525604248,0.6815493702888489
-0.1089361235499382,4.323409080505371,0.6863554120063782
-0.13751277327537537,4.276294708251953,0.6788872480392456
-0.17001961171627045,4.348576068878174,0.6899442076683044
-0.23707322776317596,5.149028778076172,0.8164879679679871
-0.27296996116638184,5.151222229003906,0.8164186477661133
-0.31305864453315735,5.210896015167236,0.8254870176315308
-0.3536251485347748,5.274151802062988,0.8351606130599976
-0.39144012331962585,5.287067413330078,0.8368973731994629
-0.423583447933197,5.230573654174805,0.8272448778152466
-0.4596865177154541,5.227725505828857,0.8259713649749756
-0.49780017137527466,5.2399444580078125,0.8271030187606812
-0.5476704835891724,5.37095308303833,0.8470162749290466
-0.5929229259490967,5.440118789672852,0.8571831583976746
-0.6195918321609497,5.340237140655518,0.8407577276229858
-0.6465860605239868,5.255632400512695,0.8265325427055359
-0.685270369052887,5.266594409942627,0.8270502090454102
-0.7214163541793823,5.262057304382324,0.8251903057098389
-0.7542290091514587,5.234346866607666,0.8197399973869324
-0.7904940843582153,5.229285717010498,0.8178704977035522
-0.8244234323501587,5.208703517913818,0.8136125802993774
-0.8529581427574158,5.153558731079102,0.8038495779037476
-0.890878438949585,5.1631855964660645,0.8038226962089539
-0.9261853694915771,5.157342910766602,0.8014228343963623
-0.9437945485115051,5.0563459396362305,0.7842987179756165
-0.9816344380378723,5.065241813659668,0.784268856048584
-1.015290379524231,5.051095008850098,0.7806985974311829
-1.044635534286499,5.01393461227417,0.773537278175354
-1.0771676301956177,4.9995903968811035,0.7694782614707947
-1.107822060585022,4.977502822875977,0.7642741203308105
-1.153846025466919,5.0229902267456055,0.7694655060768127
-1.1901670694351196,5.022900581359863,0.7676732540130615
-1.220245361328125,4.992278099060059,0.7612040638923645
-1.207797646522522,4.796746730804443,0.7296899557113647
-1.2306594848632812,4.751524925231934,0.7206844091415405
-1.2579345703125,4.724881649017334,0.7145549058914185
-1.2951017618179321,4.735368251800537,0.714073657989502
-1.3209763765335083,4.700625896453857,0.7067421674728394
-1.355884313583374,4.6992316246032715,0.7044797539710999
-1.3796764612197876,4.660568714141846,0.6965807676315308
-1.118178129196167,3.685826301574707,0.5489304661750793
-1.136220097541809,3.6564598083496094,0.5426272749900818
-1.1590360403060913,3.6416261196136475,0.5384882092475891
-1.4946844577789307,4.586587429046631,0.6757876873016357
-1.5132346153259277,4.5362324714660645,0.6659646034240723
-1.5818846225738525,4.636172294616699,0.6779832243919373
-1.6207433938980103,4.647965908050537,0.676816463470459
-1.6520826816558838,4.637557029724121,0.6724296808242798
-1.6747902631759644,4.601230621337891,0.6642678380012512
-1.7244073152542114,4.63724946975708,0.6665366888046265
-1.7567803859710693,4.62573766708374,0.6619723439216614
-1.7669217586517334,4.560338973999023,0.6493379473686218
-1.7946665287017822,4.541860580444336,0.6434221267700195
-1.811195969581604,4.494264125823975,0.6333845853805542
-1.8540302515029907,4.510992050170898,0.6324078440666199
-1.8856122493743896,4.498595237731934,0.6273136734962463
-1.9330215454101562,4.5255537033081055,0.6274498105049133
-1.9401026964187622,4.459958076477051,0.6146152019500732
-1.9673391580581665,4.440292835235596,0.6081209182739258
-1.9945493936538696,4.4203901290893555,0.6016153693199158
-2.019068717956543,4.3929524421691895,0.5940400958061218
-2.0376169681549072,4.3552141189575195,0.584930956363678
-2.059926986694336,4.328326225280762,0.5771344304084778
-2.0960237979888916,4.32900857925415,0.572961688041687
-2.161687135696411,4.388408660888672,0.5764538645744324
-2.1611175537109375,4.311535835266113,0.5619685053825378
-2.1849911212921143,4.28726053237915,0.5541887283325195
-2.2062230110168457,4.259737491607666,0.5458952784538269
-2.2452268600463867,4.266478061676025,0.5420146584510803
-2.2534101009368896,4.210275173187256,0.5298576354980469
-2.2513794898986816,4.137221813201904,0.5157479643821716
-2.252326726913452,4.075560569763184,0.5028742551803589
-2.271533966064453,4.047928810119629,0.49430516362190247
-2.306568145751953,4.04682731628418,0.488859087228775
-2.335528612136841,4.031088352203369,0.4813331365585327
-2.358548164367676,4.009542942047119,0.4730179011821747
-2.384786605834961,3.9948816299438477,0.4654504358768463
-2.407334089279175,3.9731392860412598,0.45699068903923035
-2.4332408905029297,3.953691244125366,0.44849035143852234
-2.4559895992279053,3.9313762187957764,0.4393863081932068
-2.485675573348999,3.922805070877075,0.4318487048149109
-2.5077202320098877,3.9004366397857666,0.42260676622390747
-2.53096079826355,3.87707257270813,0.41293632984161377
-2.5797715187072754,3.8971681594848633,0.40761610865592957
-2.6226887702941895,3.906944751739502,0.4009591042995453
-2.0908830165863037,3.069244384765625,0.308571457862854
-2.0561301708221436,2.9758360385894775,0.29272696375846863
-2.075047731399536,2.9634346961975098,0.28494277596473694
-2.086071491241455,2.9373841285705566,0.27546390891075134
-2.1109681129455566,2.9299707412719727,0.2672155201435089
-1.0888605117797852,1.491708517074585,0.1321825534105301
-1.0943646430969238,1.478407382965088,0.12685082852840424
-2.06107759475708,2.8918232917785645,-0.15849842131137848
-2.0443501472473145,2.9126386642456055,-0.169039785861969
-2.468380928039551,3.5723280906677246,-0.218362495303154
-2.4784343242645264,3.6450817584991455,-0.23386165499687195
-2.4418399333953857,3.6455132961273193,-0.2440396547317505
-2.4248883724212646,3.6794140338897705,-0.2564674913883209
-2.3886871337890625,3.683647871017456,-0.2667676508426666
-2.3602640628814697,3.6965267658233643,-0.2770378887653351
-2.328281879425049,3.7067487239837646,-0.28708764910697937
-2.3010671138763428,3.72289776802063,-0.2973630130290985
-2.2786083221435547,3.745011568069458,-0.3077968657016754
-2.256124973297119,3.771383762359619,-0.3187529742717743
-2.2224676609039307,3.7769265174865723,-0.3276752829551697
-2.195784568786621,3.7916786670684814,-0.33706027269363403
-2.163890838623047,3.80016827583313,-0.3458293676376343
-2.149030923843384,3.838994264602661,-0.35740184783935547
-2.1119906902313232,3.8364343643188477,-0.3649281859397888
-2.084290027618408,3.850701093673706,-0.37382325530052185
-2.0650932788848877,3.8822128772735596,-0.38439810276031494
-2.040658473968506,3.903022050857544,-0.3938417434692383
-2.009565591812134,3.90950608253479,-0.40168917179107666
-1.9839764833450317,3.9303789138793945,-0.4110214114189148
-1.95866060256958,3.950845718383789,-0.42023345828056335
-1.9510443210601807,4.00568962097168,-0.43299588561058044
-1.5651854276657104,3.2716610431671143,-0.3592172861099243
-1.5281556844711304,3.25407338142395,-0.3626956343650818
-1.5044714212417603,3.2643561363220215,-0.36925289034843445
-1.4810295104980469,3.274322271347046,-0.37572184205055237
-1.4607816934585571,3.2911813259124756,-0.3828343152999878
-1.4400174617767334,3.308065176010132,-0.3898913264274597
-1.4161027669906616,3.3176372051239014,-0.39610299468040466
-1.3987537622451782,3.341104030609131,-0.40388041734695435
-1.3745278120040894,3.350404739379883,-0.40996354818344116
-1.3474758863449097,3.3522889614105225,-0.4149588346481323
-1.333330512046814,3.386417865753174,-0.42397814989089966
-1.3081128597259521,3.391355276107788,-0.42929306626319885
-1.284065842628479,3.3998141288757324,-0.4349517822265625
-1.263270616531372,3.419275999069214,-0.44199857115745544
-1.2440320253372192,3.4420971870422363,-0.4494529366493225
-1.2198206186294556,3.4500346183776855,-0.45492178201675415
-1.1979899406433105,3.4651665687561035,-0.46127593517303467
-1.1781678199768066,3.4876253604888916,-0.4684508442878723
-1.1528072357177734,3.4953746795654297,-0.47376230359077454
-1.130558729171753,3.5100739002227783,-0.4799160957336426
-1.3730323314666748,4.366982936859131,-0.6022184491157532
-1.3373600244522095,4.361012935638428,-0.6061473488807678
-1.3040913343429565,4.3621649742126465,-0.6110676527023315
-1.277600884437561,4.38529634475708,-0.6190698742866516
-1.250510573387146,4.408344268798828,-0.6271754503250122
-1.2213914394378662,4.423739433288574,-0.6337849497795105
-1.192004680633545,4.438976764678955,-0.6403200030326843
-1.1664724349975586,4.468957901000977,-0.649029016494751
-1.1237725019454956,4.43123197555542,-0.6478721499443054
-1.105895757675171,4.494714736938477,-0.66141277551651
-1.072293758392334,4.494172096252441,-0.6652354598045349
-1.037882924079895,4.489609718322754,-0.6684802770614624
-1.0081596374511719,4.503574371337891,-0.674470067024231
-0.9701441526412964,4.479559421539307,-0.6747767925262451
-0.9285869002342224,4.440340518951416,-0.6722556948661804
-0.8828065991401672,4.37416410446167,-0.6655424237251282
-0.832202136516571,4.277231693267822,-0.6540391445159912
-0.793022871017456,4.232974052429199,-0.6505001783370972
-0.7701537609100342,4.27587366104126,-0.660054624080658
-0.7276932597160339,4.2122392654418945,-0.6529704928398132
-0.6943061351776123,4.193862438201904,-0.6528241634368896
-0.6643969416618347,4.19426965713501,-0.6556016206741333
-0.6281865835189819,4.152484893798828,-0.6517317891120911
-0.5715463757514954,3.9653432369232178,-0.6244038939476013
-0.5485157370567322,4.007130146026611,-0.6331120729446411
-0.5224825143814087,4.025754928588867,-0.6381802558898926
-0.49352312088012695,4.021213531494141,-0.639601469039917
-0.45082589983940125,3.8977179527282715,-0.6217303276062012
-0.41736674308776855,3.842923164367676,-0.6145169138908386
-0.3905103802680969,3.8454315662384033,-0.6164757609367371
-0.36327317357063293,3.8477816581726074,-0.6184609532356262
-0.3394998610019684,3.8844873905181885,-0.6259613633155823
-0.19682975113391876,2.4487879276275635,-0.3952716290950775
-0.2810431122779846,3.830707311630249,-0.6194028854370117
-0.25434714555740356,3.8323519229888916,-0.6207656264305115
-0.2249341756105423,3.795339584350586,-0.6159034967422485
-0.20013773441314697,3.8274457454681396,-0.6219622492790222
-0.1712169200181961,3.778549909591675,-0.6145808696746826
-0.14594100415706635,3.8064968585968018,-0.6197245121002197
-0.12043566256761551,3.8381245136260986,-0.6255060434341431
-0.09366104751825333,3.854170322418213,-0.6287978291511536
-0.06571483612060547,3.7891664505004883,-0.6183025240898132
-0.03987807035446167,3.8396217823028564,-0.6266404390335083
-0.013117765076458454,3.8243589401245117,-0.6242840886116028
0.013509835116565228,3.8320419788360596,-0.6257033348083496
0.04073267802596092,3.8395707607269287,-0.6268964409828186
0.0682816430926323,3.8855221271514893,-0.6340035796165466
0.09533754736185074,3.8850252628326416,-0.6335575580596924
0.12317749857902527,3.911316394805908,-0.6375092267990112
0.1540536880493164,4.006755352020264,-0.6527523994445801
0.18361514806747437,4.0442633628845215,-0.6580526232719421
0.21398387849330902,4.07770299911499,-0.662564218044281
0.2379375696182251,4.003165245056152,-0.6495869755744934
0.2701619863510132,4.066998481750488,-0.6590936779975891
0.3006989359855652,4.095993518829346,-0.6628118753433228
0.331642210483551,4.124837875366211,-0.6660403609275818
0.36248674988746643,4.14188814163208,-0.6673552393913269
0.3887706696987152,4.112667560577393,-0.661272406578064
0.41346389055252075,4.071768760681152,-0.6533668637275696
0.43925678730010986,4.046131610870361,-0.6475209593772888
0.4624461233615875,4.001201629638672,-0.6384599208831787
0.4860045909881592,3.9599123001098633,-0.6300148963928223
0.5110825300216675,3.937664031982422,-0.6246837377548218
0.5332397222518921,3.8961527347564697,-0.6162634491920471
0.5558491349220276,3.862244129180908,-0.6086309552192688
0.577467679977417,3.824380874633789,-0.6004399061203003
0.5996982455253601,3.7901363372802734,-0.5928417444229126
0.6211171746253967,3.75581431388855,-0.5853255987167358
0.6360936760902405,3.6871886253356934,-0.5722159743309021
0.6575812697410583,3.6603729724884033,-0.5654959082603455
0.5744950771331787,3.0753114223480225,-0.47297510504722595
0.5929914712905884,3.0564727783203125,-0.467967689037323
0.6100658774375916,3.0298922061920166,-0.4617329239845276
0.6270858645439148,3.0071444511413574,-0.4558297097682953
0.646264374256134,2.995631694793701,-0.4516727328300476
0.6603587865829468,2.961338996887207,-0.44412243366241455
0.6793268322944641,2.9495627880096436,-0.4399876296520233
0.6930256485939026,2.9150805473327637,-0.432239830493927
0.7030926942825317,2.8693840503692627,-0.4228368401527405
0.7229904532432556,2.8649160861968994,-0.41956469416618347
0.7352339029312134,2.83031964302063,-0.41190770268440247
0.7509796023368835,2.8106513023376465,-0.40641576051712036
0.7636162638664246,2.7796876430511475,-0.3990449011325836
0.7828496098518372,2.774836540222168,-0.395522803068161
0.8064857125282288,2.7846860885620117,-0.39408132433891296
0.8171482682228088,2.7497870922088623,-0.3863290846347809
0.8316766619682312,2.729767322540283,-0.3805065155029297
0.8508694171905518,2.7243812084198,-0.376656711101532
0.8791782259941101,2.748452663421631,-0.37691155076026917
0.8960312008857727,2.7353830337524414,-0.37202969193458557
0.9101192355155945,2.71492600440979,-0.36606621742248535
0.8999351263046265,2.624809741973877,-0.3507154881954193
0.9154945015907288,2.6117374897003174,-0.3457843065261841
0.9118528962135315,2.5436410903930664,-0.3335723578929901
0.9242639541625977,2.5231621265411377,-0.3277299106121063
0.9674471020698547,2.5862765312194824,-0.3325231969356537
1.0170756578445435,2.6634297370910645,-0.3389364778995514
1.032824993133545,2.6495914459228516,-0.33364179730415344
1.0517230033874512,2.6427083015441895,-0.3291674554347992
1.0611170530319214,2.6144015789031982,-0.32194289565086365
1.0746020078659058,2.596843957901001,-0.31610628962516785
1.0956425666809082,2.597019672393799,-0.31240615248680115
1.107715368270874,2.5755465030670166,-0.30608895421028137
1.1163607835769653,2.5469541549682617,-0.2987867593765259
1.1242762804031372,2.5185134410858154,-0.29162994027137756
1.1384754180908203,2.5041353702545166,-0.28611552715301514
1.1479063034057617,2.4789717197418213,-0.2793589234352112
1.1649277210235596,2.471559524536133,-0.27453315258026123
1.1753535270690918,2.4499263763427734,-0.2680777907371521
1.1957159042358398,2.449240207672119,-0.26395106315612793
1.1990684270858765,2.4134418964385986,-0.25602877140045166
1.208500862121582,2.391838550567627,-0.24960245192050934
1.22829008102417,2.391000270843506,-0.24536196887493134
1.2340526580810547,2.3622400760650635,-0.2382040023803711
1.2545150518417358,2.360774278640747,-0.23369406163692474
1.2704598903656006,2.3527379035949707,-0.2285408228635788
1.2751140594482422,2.324108839035034,-0.2214357703924179
1.289467215538025,2.3122191429138184,-0.21582701802253723
1.29771888256073,2.290203094482422,-0.20927295088768005
1.30948805809021,2.274998664855957,-0.20327961444854736
1.3171182870864868,2.253033399581909,-0.19674892723560333
1.3368990421295166,2.25089430809021,-0.19183436036109924
1.3439313173294067,2.2289867401123047,-0.18521663546562195
1.3547179698944092,2.213764190673828,-0.17920640110969543
1.366314172744751,2.1979172229766846,-0.1728726029396057
1.381230115890503,2.1890182495117188,-0.16715441644191742
1.3873157501220703,2.1671030521392822,-0.16046440601348877
1.4064576625823975,2.164466381072998,-0.15503084659576416
1.4126942157745361,2.142164945602417,-0.14809036254882812
1.4205015897750854,2.1233458518981934,-0.1413498818874359
1.4262409210205078,2.101067543029785,-0.134320929646492
1.4405803680419922,2.0916593074798584,-0.12798509001731873
1.4497284889221191,2.0761959552764893,-0.12130507081747055
1.4594508409500122,2.0601937770843506,-0.11432553827762604
1.4346469640731812,1.9967591762542725,-0.10466311126947403
1.4681662321090698,2.0162014961242676,-0.09951670467853546
1.482214331626892,2.0062427520751953,-0.09227336198091507
1.4810478687286377,2.099374532699585,0.21413099765777588
1.4598660469055176,2.1039888858795166,0.22029338777065277
1.4482917785644531,2.1207172870635986,0.22745965421199799
1.4326095581054688,2.1306731700897217,0.2336442768573761
1.4287676811218262,2.160613536834717,0.24186791479587555
1.420916199684143,2.1837010383605957,0.2492329627275467
1.409620761871338,2.1996121406555176,0.25554025173187256
1.4008822441101074,2.2229442596435547,0.2625778615474701
1.3874560594558716,2.2398290634155273,0.2689853608608246
1.3755826950073242,2.2556333541870117,0.2748716175556183
1.360944390296936,2.268409252166748,0.2803238034248352
1.3514196872711182,2.29152774810791,0.2870013415813446
1.3380986452102661,2.3076934814453125,0.2927762567996979
1.333011269569397,2.3368852138519287,0.30010920763015747
1.3194735050201416,2.352864980697632,0.305601567029953
1.305360198020935,2.3689920902252197,0.31107714772224426
1.2950962781906128,2.3916866779327393,0.3174003064632416
1.2818361520767212,2.4070398807525635,0.32262280583381653
1.2657474279403687,2.419337749481201,0.3273969888687134
1.251120686531067,2.435091018676758,0.3325025737285614
1.2397981882095337,2.4576845169067383,0.33858931064605713
1.22930908203125,2.4797191619873047,0.34447163343429565
1.215117335319519,2.494779109954834,0.34939509630203247
1.1995173692703247,2.510366201400757,0.3542459309101105
1.1873838901519775,2.5327160358428955,0.3600447177886963
1.1753753423690796,2.554842710494995,0.36580562591552734
1.1589841842651367,2.566049098968506,0.36994731426239014
1.1499443054199219,2.59503173828125,0.37658873200416565
1.1307592391967773,2.602945566177368,0.3800490200519562
1.1172295808792114,2.6251020431518555,0.38566508889198303
1.1072421073913574,2.654010772705078,0.3922257721424103
1.0915160179138184,2.6683871746063232,0.39662548899650574
1.0795562267303467,2.6936182975769043,0.4025532007217407
1.062583327293396,2.7082018852233887,0.40677350759506226
1.0478675365447998,2.730027198791504,0.412156879901886
1.0309120416641235,2.744269847869873,0.4163573384284973
1.0196607112884521,2.7727434635162354,0.42270562052726746
1.0104796886444092,2.8085403442382812,0.4301477074623108
0.9617897272109985,2.7351601123809814,0.4206276535987854
0.9465240240097046,2.756403923034668,0.42567113041877747
0.9178850054740906,2.7371301651000977,0.42443832755088806
0.9022944569587708,2.754103183746338,0.42877721786499023
0.8853596448898315,2.7672979831695557,0.43255794048309326
0.8723153471946716,2.7953507900238037,0.4384406805038452
0.8932938575744629,2.938054084777832,0.4623859226703644
0.8752955794334412,2.955158233642578,0.466641902923584
0.858555018901825,2.9757561683654785,0.4714587330818176
0.846075177192688,3.0110409259796143,0.47862476110458374
0.8268734812736511,3.0239944458007812,0.48221251368522644
0.8110490441322327,3.051906108856201,0.48794567584991455
0.7905941605567932,3.0648884773254395,0.491354376077652
0.7750924229621887,3.0963547229766846,0.49774226546287537
0.7569632530212402,3.116379737854004,0.5023027658462524
0.7369832992553711,3.1287500858306885,0.5056537389755249
0.720090389251709,3.1561062335968018,0.5113185048103333
0.7012646794319153,3.179797649383545,0.5162352323532104
0.6817690134048462,3.1995158195495605,0.5205245018005371
0.660439133644104,3.2115628719329834,0.5236017107963562
0.6454879641532898,3.2536370754241943,0.5315912961959839
0.6278431415557861,3.2842793464660645,0.5377597808837891
0.6071262359619141,3.303577184677124,0.5419561862945557
0.5863096714019775,3.322755813598633,0.5459346175193787
0.5652868747711182,3.3417959213256836,0.5499243140220642
0.5489155054092407,3.3911547660827637,0.5589483380317688
0.528152585029602,3.4137115478515625,0.5635845065116882
0.5072928071022034,3.4400041103363037,0.5688912272453308
0.48855575919151306,3.481417655944824,0.57658451795578
0.4639444053173065,3.4845950603485107,0.5777180790901184
0.44461122155189514,3.529663562774658,0.5858333110809326
0.42148134112358093,3.547835350036621,0.5895242691040039
0.39835071563720703,3.565829038619995,0.5932143330574036
0.37828171253204346,3.6181960105895996,0.6026743054389954
0.3552796542644501,3.643575429916382,0.6076110601425171
0.3331156075000763,3.684237241744995,0.6147603988647461
0.31075817346572876,3.7285993099212646,0.6225654482841492
0.2857011556625366,3.7459332942962646,0.6258952617645264
0.2614116370677948,3.7823379039764404,0.6324546933174133
0.23744702339172363,3.8223938941955566,0.6396546959877014
0.21336115896701813,3.869988203048706,0.6481589078903198
0.18761476874351501,3.8982553482055664,0.6530707478523254
0.1622088998556137,3.945610284805298,0.6611451506614685
0.13531316816806793,3.981260061264038,0.667296826839447
0.10872052609920502,4.028264999389648,0.6753854751586914
0.08130426704883575,4.059679985046387,0.6808963418006897
0.05355182662606239,4.094757556915283,0.6870583295822144
0.025446012616157532,4.152797222137451,0.6968658566474915
-0.004033295903354883,4.2068281173706055,0.7057886719703674
-0.03352632001042366,4.237537860870361,0.7108334302902222
-0.06373288482427597,4.287299633026123,0.7191068530082703
-0.09354043751955032,4.286774158477783,0.7189794778823853
-0.12383483350276947,4.301443576812744,0.7214354872703552
-0.1542755663394928,4.31591272354126,0.7238216996192932
-0.18964186310768127,4.430298328399658,0.7425280213356018
-0.25536349415779114,5.133162021636963,0.8598273396492004
-0.2946304976940155,5.196789264678955,0.8700180649757385
-0.335828572511673,5.2754950523376465,0.8827618956565857
-0.374662846326828,5.303911209106445,0.8871237635612488
-0.410973459482193,5.285896301269531,0.8837553858757019
-0.44417256116867065,5.244751453399658,0.8760846257209778
-0.47822830080986023,5.21876859664917,0.8708665370941162
-0.5251803398132324,5.326788902282715,0.8880371451377869
-0.5752031207084656,5.44974946975708,0.9077049493789673
-0.5904349088668823,5.238986015319824,0.8718216419219971
-0.6346408128738403,5.300039768218994,0.8812491297721863
-0.662065327167511,5.223153114318848,0.8675081133842468
-0.7030320763587952,5.257014274597168,0.8718758225440979
-0.7401978969573975,5.2600250244140625,0.8711568713188171
-0.7746832370758057,5.239804744720459,0.8666133284568787
-0.8109998106956482,5.234637260437012,0.8646140098571777
-0.8387612700462341,5.175918102264404,0.8538190722465515
-0.868905782699585,5.136097431182861,0.8460878133773804
-0.900012195110321,5.107664585113525,0.839805006980896
-0.9349952936172485,5.101792812347412,0.8372754454612732
-0.9690408110618591,5.088005065917969,0.8334652781486511
-0.9996778964996338,5.05890417098999,0.8272072076797485
-1.032549500465393,5.040903568267822,0.822802722454071
-1.078017234802246,5.083067893981934,0.8282424211502075
-1.0969371795654297,5.004510879516602,0.8134834170341492
-1.1350016593933105,5.0123491287231445,0.8127956986427307
-1.167383074760437,4.9974822998046875,0.8084936738014221
-1.1845147609710693,4.918564319610596,0.7938826084136963
-1.2216278314590454,4.921910762786865,0.7925794720649719
-1.20144522190094,4.700618267059326,0.7552178502082825
-1.2418270111083984,4.7226128578186035,0.7564975619316101
-1.2809381484985352,4.740713119506836,0.7571743726730347
-1.3058991432189941,4.706415176391602,0.7495169639587402
-1.3413643836975098,4.709038734436035,0.7477585673332214
-1.3687845468521118,4.6815972328186035,0.7412301898002625
-1.1122043132781982,3.7068161964416504,0.5851508975028992
-1.1259193420410156,3.662785291671753,0.5761381387710571
-1.150652527809143,3.6555888652801514,0.5729694962501526
-1.4822522401809692,4.600719451904297,0.7185630798339844
-1.5066524744033813,4.569014072418213,0.7110633254051208
-1.5514516830444336,4.595457553863525,0.7125592231750488
-1.6260942220687866,4.709500312805176,0.7274768352508545
-1.6487818956375122,4.673642158508301,0.7188659310340881
-1.6593073606491089,4.604930877685547,0.7052847743034363
-1.698310136795044,4.616124153137207,0.7040021419525146
-1.7209553718566895,4.579549789428711,0.6953646540641785
-1.7396636009216309,4.531805038452148,0.6850443482398987
-1.7915985584259033,4.57466459274292,0.6881310939788818
-1.830892562866211,4.58486795425415,0.6861557364463806
-1.8528941869735718,4.551743984222412,0.677726686000824
-1.861883282661438,4.4860734939575195,0.6644609570503235
-1.9195622205734253,4.534054279327393,0.6679151058197021
-1.921640396118164,4.4539947509765625,0.6524302363395691
-1.9421391487121582,4.420568943023682,0.6435992121696472
-1.9749231338500977,4.4153361320495605,0.6389145851135254
-2.0048582553863525,4.402659893035889,0.6331296563148499
-2.0623693466186523,4.445313930511475,0.6350706815719604
-2.076514482498169,4.396788597106934,0.623946487903595
-2.1091058254241943,4.390746116638184,0.6185921430587769
-2.124729633331299,4.3496174812316895,0.6083379983901978
-2.1507089138031006,4.329071521759033,0.6009536981582642
-2.1816484928131104,4.314500331878662,0.5941809415817261
-2.1987619400024414,4.276233196258545,0.5841143131256104
-2.2198874950408936,4.248748779296875,0.5753494501113892
-2.255290985107422,4.248567581176758,0.5703072547912598
-2.290006399154663,4.244147300720215,0.5645034909248352
-2.2283775806427,4.062189102172852,0.5351917743682861
-2.2691490650177,4.071656227111816,0.5309133529663086
-2.292149782180786,4.050787448883057,0.522704005241394
-2.319161891937256,4.036337375640869,0.5152878761291504
-2.3436355590820312,4.0141801834106445,0.5066168904304504
-2.3708693981170654,3.999150037765503,0.498706191778183
-2.3974905014038086,3.9842610359191895,0.4905461072921753
-2.4195563793182373,3.9627819061279297,0.48170334100723267
-2.447545289993286,3.9466028213500977,0.4730543792247772
-2.47851824760437,3.9374563694000244,0.4650968909263611
-2.4936587810516357,3.9058778285980225,0.4543673098087311
-2.5157251358032227,3.883491039276123,0.4445188045501709
-2.5388753414154053,3.860173225402832,0.43425223231315613
-4.187453269958496,6.277924537658691,0.6934586763381958
-2.617360830307007,3.870745897293091,0.4195733368396759
-2.0495078563690186,2.9874091148376465,0.317218154668808
-2.056835651397705,2.9548444747924805,0.30679455399513245
-2.071131467819214,2.9361674785614014,0.29789021611213684
-2.1043589115142822,2.9420909881591797,0.29109495878219604
-1.063430666923523,1.4657927751541138,0.14106100797653198
-1.1026531457901,1.5002943277359009,0.14022208750247955
-1.1081111431121826,1.4870325326919556,0.1345343440771103
-2.0499777793884277,2.8990602493286133,-0.16983626782894135
-2.5150511264801025,3.61104679107666,-0.22338227927684784
-2.4638423919677734,3.593480348587036,-0.23367303609848022
-2.455829381942749,3.6405410766601562,-0.24822649359703064
-2.434241771697998,3.6635653972625732,-0.2603747844696045
-2.406332492828369,3.681103229522705,-0.27218177914619446
-2.374845266342163,3.69136643409729,-0.2831548750400543
-2.348506212234497,3.7073287963867188,-0.2940835654735565
-2.313990831375122,3.7143049240112305,-0.30443987250328064
-2.2867112159729004,3.7302732467651367,-0.31514182686805725
-2.2641608715057373,3.7522225379943848,-0.326046347618103
-2.2361440658569336,3.768075704574585,-0.33640819787979126
-2.20434832572937,3.7768237590789795,-0.34605279564857483
-2.1810760498046875,3.798370838165283,-0.35663896799087524
-2.153109312057495,3.8133647441864014,-0.36643660068511963
-2.1248676776885986,3.828223943710327,-0.3762218952178955
-2.10320782661438,3.852538585662842,-0.3866545557975769
-2.079157829284668,3.873457908630371,-0.39670613408088684
-2.04286527633667,3.874160051345825,-0.4047691822052002
-2.0254669189453125,3.9086170196533203,-0.41614505648612976
-1.6536505222320557,3.2462825775146484,-0.351897656917572
-1.6091283559799194,3.215700149536133,-0.35465356707572937
-1.578730821609497,3.2126150131225586,-0.3603372871875763
-1.5553641319274902,3.2231833934783936,-0.367506742477417
-1.532514214515686,3.233314037322998,-0.37444743514060974
-1.5122623443603516,3.25060772895813,-0.3821222186088562
-1.488608717918396,3.2606964111328125,-0.38898250460624695
-1.4687148332595825,3.277416467666626,-0.3965092599391937
-1.4485994577407837,3.294036626815796,-0.4039844870567322
-1.4243677854537964,3.3037703037261963,-0.41060516238212585
-1.403535008430481,3.3202898502349854,-0.41800281405448914
-1.3800591230392456,3.3293092250823975,-0.4243786633014679
-1.3621852397918701,3.3526055812835693,-0.43254396319389343
-1.3437061309814453,3.375951051712036,-0.4406255781650543
-1.3160679340362549,3.3776700496673584,-0.44601014256477356
-1.2950553894042969,3.393277883529663,-0.4530321955680847
-1.2751171588897705,3.412430763244629,-0.46049779653549194
-1.2506827116012573,3.420672655105591,-0.46632376313209534
-1.2366280555725098,3.457911491394043,-0.47616681456565857
-1.4814492464065552,4.23730993270874,-0.5893664360046387
-1.4565019607543945,4.261341094970703,-0.5984491109848022
-1.4309083223342896,4.285383224487305,-0.6072623133659363
-1.4062094688415527,4.312950611114502,-0.6166538000106812
-1.3780875205993652,4.329180717468262,-0.6244133710861206
-1.351739764213562,4.352705478668213,-0.6333481669425964
-1.3185895681381226,4.353862762451172,-0.6385461091995239
-1.2898412942886353,4.369613170623779,-0.6458846926689148
-1.2589287757873535,4.377696514129639,-0.6521094441413879
-1.2188137769699097,4.35198974609375,-0.6532567739486694
-1.1738370656967163,4.307395935058594,-0.6511940956115723
-1.125942587852478,4.251373291015625,-0.6472108960151672
-1.0813560485839844,4.202271938323975,-0.6441125869750977
-1.0660043954849243,4.2651238441467285,-0.6581486463546753
-0.9695987105369568,3.9976606369018555,-0.620876669883728
-0.9449076056480408,4.018720626831055,-0.627838671207428
-0.8980441093444824,3.945599317550659,-0.6201229691505432
-0.8637332916259766,3.9209237098693848,-0.61986243724823
-0.8089640736579895,3.7978031635284424,-0.6039146184921265
-0.7907814383506775,3.8443660736083984,-0.6144202351570129
-0.7449333071708679,3.7545957565307617,-0.6030827164649963
-0.712323784828186,3.728886604309082,-0.6020081639289856
-0.684181809425354,3.721787691116333,-0.6038673520088196
-0.644008994102478,3.6461708545684814,-0.5942985415458679
-0.6119857430458069,3.6120693683624268,-0.59117192029953
-0.569974422454834,3.513005256652832,-0.5773465633392334
-0.5437696576118469,3.508856773376465,-0.5791114568710327
-0.5203661918640137,3.5197134017944336,-0.5833030343055725
-0.49137020111083984,3.4923360347747803,-0.5806751251220703
-0.46431446075439453,3.4761922359466553,-0.5799162983894348
-0.43613991141319275,3.448366165161133,-0.5772029161453247
-0.4112256169319153,3.443267583847046,-0.5782915353775024
-0.3829512298107147,3.411285877227783,-0.5745776891708374
-0.354338139295578,3.3675918579101562,-0.5686272978782654
-0.33237528800964355,3.3850104808807373,-0.5730108022689819
-0.3108593225479126,3.4099555015563965,-0.5787144303321838
-0.28707098960876465,3.411741256713867,-0.580475389957428
-0.1871313601732254,2.4305198192596436,-0.41422736644744873
-0.23735880851745605,3.391968250274658,-0.5790684223175049
-0.21030959486961365,3.3395278453826904,-0.571110188961029
-0.18965213000774384,3.3868331909179688,-0.5802335739135742
-0.1660921722650528,3.3879141807556152,-0.5811428427696228
-0.14173732697963715,3.3811938762664795,-0.5805222988128662
-0.11820666491985321,3.3819804191589355,-0.5812078714370728
-0.09472518414258957,3.382601737976074,-0.5818918347358704
-0.07042938470840454,3.34458065032959,-0.5759009718894958
-0.048176784068346024,3.4142541885375977,-0.5879537463188171
-0.023626016452908516,3.352895975112915,-0.5774718523025513
-0.0003202166117262095,3.4299492835998535,-0.5908565521240234
0.023131828755140305,3.368255853652954,-0.5803688764572144
0.046782106161117554,3.3834455013275146,-0.5828155875205994
0.07079951465129852,3.4062092304229736,-0.5863369703292847
0.0944952443242073,3.405712842941284,-0.5858801603317261
0.11979548633098602,3.439666509628296,-0.5913689732551575
0.14372295141220093,3.438835382461548,-0.59087073802948
0.1709785759449005,3.507153034210205,-0.6017065048217773
0.1940770000219345,3.48299503326416,-0.596692681312561
0.22332517802715302,3.562446355819702,-0.6094447374343872
0.24634242057800293,3.530236005783081,-0.6030978560447693
0.27261048555374146,3.5517146587371826,-0.6056481599807739
0.3027082085609436,3.615260601043701,-0.6151086688041687
0.3284810185432434,3.6210289001464844,-0.614740788936615
0.3596791625022888,3.680276870727539,-0.623451828956604
0.38575583696365356,3.677934169769287,-0.6216855049133301
0.4186065196990967,3.740638256072998,-0.6303573250770569
0.4523474872112274,3.803072452545166,-0.638947606086731
0.48700693249702454,3.8652241230010986,-0.6474534869194031
0.5159755945205688,3.8774209022521973,-0.6475808024406433
0.544506311416626,3.881770610809326,-0.646040678024292
0.5681028962135315,3.8555150032043457,-0.6392120122909546
0.5884186029434204,3.8100616931915283,-0.6292723417282104
0.6112632751464844,3.78352427482605,-0.6225228309631348
0.6324756145477295,3.7492482662200928,-0.6145280599594116
0.6538237929344177,3.7187469005584717,-0.6067004203796387
0.6745144128799438,3.684256076812744,-0.5982478260993958
0.6957942843437195,3.657294273376465,-0.5911310315132141
0.7146018743515015,3.6188294887542725,-0.5822139978408813
0.7335931062698364,3.5841147899627686,-0.5736695528030396
0.7416782975196838,3.5002543926239014,-0.557181179523468
0.7730332016944885,3.525698661804199,-0.558107852935791
0.6978427171707153,3.080242872238159,-0.484914094209671
0.6814944744110107,2.9141502380371094,-0.45618483424186707
0.6998931169509888,2.9023935794830322,-0.4514756500720978
0.7190918326377869,2.8942644596099854,-0.4473637044429779
0.7319483160972595,2.8597002029418945,-0.4391583800315857
0.748047411441803,2.840089797973633,-0.4333500862121582
0.7637367248535156,2.8204684257507324,-0.42733150720596313
0.773985743522644,2.782151699066162,-0.4184732437133789
0.7911930680274963,2.769831895828247,-0.41358712315559387
0.8087910413742065,2.757261037826538,-0.40861746668815613
0.8191131949424744,2.722489356994629,-0.4003552496433258
0.8311415314674377,2.695148229598999,-0.393097460269928
0.8708268404006958,2.756307601928711,-0.3987101912498474
0.8686313033103943,2.684462308883667,-0.3850811719894409
0.8999167084693909,2.715540885925293,-0.38617685437202454
0.9136840105056763,2.695204973220825,-0.3797779083251953
0.905667781829834,2.6125855445861816,-0.3647361695766449
0.9161106944084167,2.5848851203918457,-0.3574788570404053
0.9250230193138123,2.553464889526367,-0.3497617542743683
0.9319401383399963,2.518512487411499,-0.34146928787231445
0.981153130531311,2.595876693725586,-0.3482421338558197
1.004747748374939,2.6040656566619873,-0.34565821290016174
1.0230083465576172,2.5975515842437744,-0.3410802185535431
1.0540201663970947,2.623391628265381,-0.3405947685241699
1.0647135972976685,2.598743200302124,-0.3334815800189972
1.0799707174301147,2.5846548080444336,-0.3276962637901306
1.0920374393463135,2.5633294582366943,-0.32104265689849854
1.1129014492034912,2.563417673110962,-0.31701263785362244
1.1179122924804688,2.5279273986816406,-0.30855703353881836
1.132104516029358,2.5136892795562744,-0.30275487899780273
1.143609881401062,2.4920082092285156,-0.2959410846233368
1.1576054096221924,2.477564811706543,-0.2900383174419403
1.1695318222045898,2.4596519470214844,-0.28371235728263855
1.186423659324646,2.4521353244781494,-0.27859601378440857
1.1933435201644897,2.4233973026275635,-0.2710225284099579
1.2103462219238281,2.4155421257019043,-0.2656952738761902
1.2232333421707153,2.4008920192718506,-0.25968506932258606
1.228989601135254,2.372270107269287,-0.25218021869659424
1.2384175062179565,2.3503570556640625,-0.24535995721817017
1.2544540166854858,2.342395067214966,-0.2399733066558838
1.274039626121521,2.3412139415740967,-0.2352568656206131
1.2829806804656982,2.3191115856170654,-0.2282831221818924
1.2934794425964355,2.3004300594329834,-0.22170346975326538
1.301243782043457,2.2786645889282227,-0.21483364701271057
1.3126744031906128,2.263620138168335,-0.20864985883235931
1.3246644735336304,2.248117685317993,-0.2022392600774765
1.3443185091018677,2.2460296154022217,-0.1969365030527115
1.3472251892089844,2.217482089996338,-0.18943147361278534
1.3624943494796753,2.208632230758667,-0.18352079391479492
1.3736798763275146,2.192995309829712,-0.1769566684961319
1.379868984222412,2.1711320877075195,-0.16992643475532532
1.3905388116836548,2.155517101287842,-0.16325989365577698
1.405619502067566,2.1461830139160156,-0.1569673866033554
1.4197276830673218,2.137327194213867,-0.1507035493850708
1.4230595827102661,2.1120755672454834,-0.1432594358921051
1.4290368556976318,2.089601516723633,-0.13578224182128906
1.4428764581680298,2.0804941654205322,-0.12910577654838562
1.4567556381225586,2.0712084770202637,-0.12237614393234253
1.4574464559555054,2.042433738708496,-0.11421730369329453
1.4614601135253906,2.0207080841064453,-0.10656794160604477
1.484463095664978,2.0236430168151855,-0.0998452678322792
1.4884626865386963,2.001638174057007,-0.09169289469718933
1.4404629468917847,2.0268805027008057,0.21749883890151978
1.4669978618621826,2.0978612899780273,0.2310878485441208
1.4593645334243774,2.1213085651397705,0.23953787982463837
1.4529184103012085,2.143810987472534,0.24744796752929688
1.4361416101455688,2.1543383598327637,0.2538711428642273
1.4235483407974243,2.171225070953369,0.2610156834125519
1.4162335395812988,2.1938095092773438,0.2685283422470093
1.4079102277755737,2.2168753147125244,0.2759564220905304
1.3947936296463013,2.2335877418518066,0.28259164094924927
1.382538080215454,2.2496185302734375,0.2889110743999481
1.3684074878692627,2.2620961666107178,0.2946407198905945
1.3626725673675537,2.291995048522949,0.3025848865509033
1.3451007604599,2.301654100418091,0.30784323811531067
1.3325817584991455,2.31722354888916,0.31363674998283386
1.3234244585037231,2.3396496772766113,0.3203194737434387
1.3131622076034546,2.3625316619873047,0.32696589827537537
1.294899821281433,2.371913433074951,0.33184000849723816
1.2852896451950073,2.3941147327423096,0.3382748067378998
1.2735453844070435,2.412902355194092,0.34421494603157043
1.2553000450134277,2.421821355819702,0.34857407212257385
1.244037389755249,2.444396734237671,0.35493287444114685
1.2329050302505493,2.466738700866699,0.3612448573112488
1.225734829902649,2.4956159591674805,0.36843886971473694
1.2107502222061157,2.51092529296875,0.3734895884990692
1.198638677597046,2.5332767963409424,0.3795594274997711
1.1797406673431396,2.5415329933166504,0.38355347514152527
1.1665873527526855,2.559786796569824,0.38894355297088623
1.157702088356018,2.5886785984039307,0.3960406482219696
1.1447159051895142,2.6107966899871826,0.4018310308456421
1.1284335851669312,2.625736951828003,0.4065553843975067
1.1120625734329224,2.6405439376831055,0.4112853407859802
1.0964467525482178,2.654893636703491,0.4158641993999481
1.0832313299179077,2.6764461994171143,0.42164891958236694
1.0706626176834106,2.701784133911133,0.42772823572158813
1.0592014789581299,2.730663299560547,0.43441933393478394
1.0418890714645386,2.7450597286224365,0.4388519525527954
1.0279474258422852,2.7662954330444336,0.4443284273147583
1.0134406089782715,2.7875683307647705,0.4498889744281769
0.9932782053947449,2.794337272644043,0.45285478234291077
0.9602313041687012,2.764554500579834,0.4498266577720642
0.9326315522193909,2.7490732669830322,0.44911131262779236
0.9044963121414185,2.7295546531677246,0.44769197702407837
0.8956933617591858,2.7685303688049316,0.4558946192264557
0.883015513420105,2.796449661254883,0.4622015953063965
0.8888260722160339,2.887176036834717,0.4787469506263733
0.8867153525352478,2.955932855606079,0.4917539656162262
0.8674293160438538,2.969252347946167,0.4956023395061493
0.8529449701309204,2.9970879554748535,0.5018596053123474
0.8336579203605652,3.0100789070129395,0.5056981444358826
0.8181823492050171,3.037893056869507,0.5118014216423035
0.8002158403396606,3.0582399368286133,0.516558051109314
0.7867435812950134,3.0971598625183105,0.5244998931884766
0.7663944959640503,3.109814167022705,0.5280327796936035
0.7478908896446228,3.1297855377197266,0.5328327417373657
0.7295034527778625,3.1495673656463623,0.5376173853874207
0.7112998366355896,3.17314076423645,0.5427854657173157
0.6918705701828003,3.1928794384002686,0.5472573041915894
0.6737731099128723,3.2200393676757812,0.5530419945716858
0.6535216569900513,3.2395970821380615,0.5575767159461975
0.6367638111114502,3.274003505706787,0.5646711587905884
0.6174653172492981,3.2969634532928467,0.5698347687721252
0.6009515523910522,3.338870048522949,0.5779982805252075
0.5784968137741089,3.3503828048706055,0.5808482766151428
0.5567618012428284,3.3694026470184326,0.5850501656532288
0.5395030379295349,3.4148223400115967,0.5938620567321777
0.5167992115020752,3.425851821899414,0.5967230200767517
