X,Y,Z
2.391055107116699,4.204068183898926,0.26566535234451294
2.350194215774536,4.199955940246582,0.26901838183403015
2.2578296661376953,4.103721618652344,0.2663935720920563
2.2346253395080566,4.133857250213623,0.2716927230358124
2.2149956226348877,4.170629978179932,0.2774445414543152
2.1822171211242676,4.178800582885742,0.28113552927970886
2.1633729934692383,4.2146220207214355,0.2866784334182739
2.1280698776245117,4.223546028137207,0.2903209924697876
2.0967981815338135,4.238879203796387,0.294359415769577
2.0671191215515137,4.253165245056152,0.29817864298820496
2.0407333374023438,4.274261474609375,0.3024914264678955
2.0127203464508057,4.295873641967773,0.30667710304260254
1.9843902587890625,4.317351818084717,0.3108566999435425
1.9673835039138794,4.363374710083008,0.3168175518512726
1.9921073913574219,4.50147819519043,0.32946598529815674
1.9709323644638062,4.540286064147949,0.3348563015460968
1.9300957918167114,4.536372184753418,0.3369777500629425
1.9044163227081299,4.568073749542236,0.3417629301548004
1.8497180938720703,4.527162075042725,0.3410552740097046
1.835460901260376,4.583123207092285,0.34760892391204834
1.796867847442627,4.581413269042969,0.3496580421924591
1.7761110067367554,4.626845836639404,0.35525020956993103
1.7644597291946411,4.697711944580078,0.362850546836853
1.3332258462905884,3.627493143081665,0.281827449798584
1.3078736066818237,3.6365299224853516,0.2841510474681854
1.2869535684585571,3.6603357791900635,0.2874990999698639
1.6438877582550049,4.78566837310791,0.3777693212032318
1.6278076171875,4.852607727050781,0.3849719762802124
1.5679540634155273,4.786055564880371,0.38155418634414673
1.5310940742492676,4.785492897033691,0.3833478093147278
1.509952425956726,4.836903095245361,0.3891673982143402
1.4774659872055054,4.854870796203613,0.3922167420387268
1.4658807516098022,4.94354772567749,0.4010252356529236
1.4084596633911133,4.874945640563965,0.3970606327056885
0.4396604895591736,1.5632303953170776,0.12784768640995026
1.3435993194580078,4.9089837074279785,0.40302613377571106
1.2894067764282227,4.846803665161133,0.39924997091293335
1.2565834522247314,4.863288879394531,0.4019586443901062
1.2268577814102173,4.89077615737915,0.4055878221988678
1.1976784467697144,4.921877384185791,0.4095505475997925
1.1705321073532104,4.960241794586182,0.4141279458999634
1.1353445053100586,4.968260765075684,0.41595590114593506
1.1033027172088623,4.991275787353516,0.4190008342266083
1.070177435874939,5.010278224945068,0.4217360019683838
1.0329563617706299,5.009984493255615,0.42286768555641174
1.0056031942367554,5.0550971031188965,0.4278370141983032
0.9717386960983276,5.06950044631958,0.43017715215682983
2.1212635040283203,11.507467269897461,0.9784640669822693
2.0083131790161133,11.345641136169434,0.9667067527770996
1.9078174829483032,11.248214721679688,0.9604608416557312
1.7988210916519165,11.072708129882812,0.9474772214889526
1.6930713653564453,10.90007495880127,0.9347143173217773
1.6035852432250977,10.822876930236816,0.9298176765441895
1.502730131149292,10.66028881072998,0.9172237515449524
1.411725640296936,10.562583923339844,0.9102461934089661
1.3130625486373901,10.378985404968262,0.8958405256271362
1.233014702796936,10.321979522705078,0.8923550844192505
1.1525191068649292,10.252764701843262,0.8878370523452759
1.0692216157913208,10.152068138122559,0.8801778554916382
0.9883728623390198,10.062373161315918,0.8732415437698364
0.38977742195129395,4.282641887664795,0.37204214930534363
0.3588418662548065,4.273575305938721,0.3716455399990082
0.32852742075920105,4.268153190612793,0.3715797960758209
0.3002074658870697,4.28969144821167,0.3738802373409271
0.27582627534866333,4.380978107452393,0.3820827007293701
0.3107771873474121,5.567866325378418,0.48583948612213135
0.2718278765678406,5.5698652267456055,0.48627716302871704
0.234282448887825,5.602691650390625,0.48943060636520386
0.19762960076332092,5.670260906219482,0.4956471920013428
0.15913119912147522,5.702576637268066,0.49881115555763245
0.11868257820606232,5.703548908233643,0.4989667236804962
0.07945680618286133,5.743141174316406,0.5024430751800537
0.03949780762195587,5.755222797393799,0.5035372376441956
-0.0005098438705317676,5.8176140785217285,0.5090579986572266
-0.030208680778741837,4.292081832885742,0.37563344836235046
-0.05811765044927597,4.120553016662598,0.36070188879966736
-0.08577610552310944,4.0772705078125,0.35678791999816895
-0.11526604741811752,4.119384765625,0.3603137731552124
-0.14095576107501984,4.03683614730835,0.3529544174671173
-0.1721024215221405,4.109650135040283,0.3591960668563843
-0.17715851962566376,3.626405954360962,0.31686413288116455
-0.19871854782104492,3.5512542724609375,0.31021836400032043
-0.22234736382961273,3.534289598464966,0.30847951769828796
-0.2655287981033325,3.8005666732788086,0.3314182758331299
-0.3019740581512451,3.9306015968322754,0.34246107935905457
-0.3182138502597809,3.7965967655181885,0.3305140733718872
-0.3376448154449463,3.7129034996032715,0.3229734003543854
-0.35318106412887573,3.605931282043457,0.3134402334690094
-0.37557798624038696,3.580245018005371,0.3107888102531433
-0.4084252715110779,3.6511199474334717,0.3164979815483093
-0.43445783853530884,3.656010627746582,0.31649249792099
-0.4573241174221039,3.6297454833984375,0.3137963116168976
-0.47690460085868835,3.5840985774993896,0.30945339798927307
-0.49965378642082214,3.565335750579834,0.3074530363082886
-0.5207306146621704,3.5387916564941406,0.3045860826969147
-0.5438229441642761,3.5275163650512695,0.3030414581298828
-0.5771312117576599,3.577504873275757,0.3067569136619568
-0.5922306180000305,3.5159189701080322,0.3009245693683624
-1.1080610752105713,6.310500144958496,0.5391427874565125
-1.1602574586868286,6.348742485046387,0.5414217710494995
-1.2159180641174316,6.405857086181641,0.5449540615081787
-1.270155906677246,6.451050281524658,0.5474730134010315
-1.3204588890075684,6.468932628631592,0.5476587414741516
-1.3791223764419556,6.524514675140381,0.5510441064834595
-1.4328670501708984,6.552956581115723,0.5521413683891296
-1.4686776399612427,6.501316070556641,0.5463838577270508
-1.5112175941467285,6.483774662017822,0.5432437062263489
-0.6724902391433716,2.7975525856018066,0.23367196321487427
-0.6935370564460754,2.800523042678833,0.23321394622325897
-0.7033830285072327,2.75799298286438,0.22897562384605408
-0.7245054244995117,2.7606618404388428,0.2285095900297165
-0.7433743476867676,2.75573992729187,0.2273125797510147
-0.7686049342155457,2.773167133331299,0.22789397835731506
-0.7873992323875427,2.7679924964904785,0.22663579881191254
-0.954891562461853,3.271008014678955,0.26682931184768677
-0.9977302551269531,3.3315656185150146,0.2707594931125641
-1.004780888557434,3.272580146789551,0.2649557292461395
-1.0248786211013794,3.258317470550537,0.2626187801361084
-1.0587923526763916,3.2885351181030273,0.2638876736164093
-1.0884381532669067,3.3035969734191895,0.2639234960079193
-1.1114211082458496,3.29607892036438,0.26213139295578003
-1.1191085577011108,3.244211196899414,0.2568408250808716
-1.352224588394165,3.835533618927002,0.30211812257766724
-1.3758156299591064,3.819037437438965,0.2992154359817505
-1.409562349319458,3.831805944442749,0.29864051938056946
-2.1117849349975586,5.620083808898926,0.435636043548584
-2.1313812732696533,5.554566383361816,0.42821004986763
-2.169231653213501,5.540172576904297,0.4245981276035309
-2.232959747314453,5.590682029724121,0.42577093839645386
-1.5282912254333496,3.7533371448516846,0.2840655446052551
-1.5318416357040405,3.688873291015625,0.2773841321468353
-1.5423569679260254,3.6424007415771484,0.27209973335266113
-1.5609419345855713,3.617701292037964,0.26838162541389465
-1.5807826519012451,3.5965118408203125,0.2648300528526306
-1.5983742475509644,3.5718536376953125,0.26108452677726746
-1.6377145051956177,3.5927817821502686,0.26059219241142273
-1.657784342765808,3.5708820819854736,0.25698933005332947
-1.645132303237915,3.4823200702667236,0.24851828813552856
-1.6364984512329102,3.4045963287353516,0.24083854258060455
-1.6524733304977417,3.379725217819214,0.23696909844875336
-1.6864469051361084,3.3892595767974854,0.2354346513748169
-1.723988652229309,3.4055256843566895,0.23432189226150513
-1.7874703407287598,3.474025249481201,0.23661136627197266
-1.8266340494155884,3.493462562561035,0.2354920655488968
-2.4589531421661377,4.623854637145996,0.3082490563392639
-2.4948484897613525,4.613757133483887,0.3041495084762573
-1.1828964948654175,2.1534366607666016,0.140287846326828
-2.519369125366211,4.516354560852051,0.29066410660743713
-2.5499491691589355,4.499464988708496,0.2858942151069641
-2.5740888118743896,4.468017578125,0.2800469696521759
-2.595902442932129,4.4376220703125,0.274243026971817
-2.610820770263672,4.397441387176514,0.26782387495040894
-1.23671555519104,2.0513176918029785,0.12301242351531982
-2.642601251602173,4.315126419067383,0.254586786031723
-2.6836488246917725,4.317625045776367,0.2503097653388977
-2.064304828643799,3.274064302444458,0.186478853225708
-2.091101884841919,3.2665319442749023,0.1824703812599182
-2.130324125289917,3.2786269187927246,0.17947274446487427
-2.1555371284484863,3.271700143814087,0.1753346174955368
-2.201504707336426,3.292966842651367,0.1724400669336319
-2.2463364601135254,3.3100805282592773,0.1691296547651291
-2.2672533988952637,3.2960429191589355,0.16409310698509216
-2.30880069732666,3.3102524280548096,0.16029231250286102
-2.3724782466888428,3.3516480922698975,0.1573665887117386
-2.3983776569366455,3.343045473098755,0.15186889469623566
-2.8682048320770264,3.943000555038452,0.1728373020887375
-2.9133036136627197,3.949002742767334,0.16635243594646454
-2.9810569286346436,4.171024799346924,-0.14673347771167755
-2.4399073123931885,3.4679219722747803,-0.12855520844459534
-2.415013551712036,3.4850471019744873,-0.135319784283638
-2.7686994075775146,4.061227798461914,-0.1647743135690689
-2.7269287109375,4.060908317565918,-0.17122620344161987
-2.1847116947174072,3.3054702281951904,-0.14452800154685974
-2.159520387649536,3.321722984313965,-0.15038365125656128
-2.632941246032715,4.112272262573242,-0.19198735058307648
-1.3064379692077637,2.073908805847168,-0.09972207993268967
-1.2581560611724854,2.0302834510803223,-0.10040044039487839
-1.2642836570739746,2.072176694869995,-0.10512451082468033
-2.0198919773101807,3.366276741027832,-0.17510268092155457
-2.040457010269165,3.458212375640869,-0.18421132862567902
-2.0122792720794678,3.465404510498047,-0.18865826725959778
-1.9641673564910889,3.438819408416748,-0.1911902278661728
-1.1994980573654175,2.136430501937866,-0.1212090328335762
-1.9361449480056763,3.5077145099639893,-0.20290657877922058
-1.8185392618179321,3.34946870803833,-0.19730953872203827
-1.7866488695144653,3.3486602306365967,-0.20074717700481415
-1.7511705160140991,3.3406918048858643,-0.2037270963191986
-1.734981656074524,3.366443157196045,-0.2085951715707779
-1.7248860597610474,3.4063825607299805,-0.21442018449306488
-2.4224185943603516,4.871244430541992,-0.31120818853378296
-2.387251377105713,4.888214111328125,-0.31682464480400085
-2.3697752952575684,4.939638614654541,-0.32460078597068787
-2.346149206161499,4.980731010437012,-0.33169683814048767
-1.6865530014038086,3.648897171020508,-0.24614040553569794
-1.659852385520935,3.6608521938323975,-0.2500971257686615
-1.627959966659546,3.657824754714966,-0.25288650393486023
-1.605179786682129,3.6761295795440674,-0.257098913192749
-1.572500467300415,3.673015594482422,-0.25974032282829285
-2.1827425956726074,5.200615406036377,-0.3717798888683319
-1.582268476486206,3.8459293842315674,-0.2778771221637726
-1.5158215761184692,3.7591097354888916,-0.27438172698020935
-1.4529788494110107,3.6790387630462646,-0.27113077044487
-1.4054479598999023,3.634608745574951,-0.27041560411453247
-1.3427537679672241,3.5457112789154053,-0.2662319540977478
-1.312093734741211,3.5403153896331787,-0.2682962715625763
-1.281352162361145,3.5347611904144287,-0.27012160420417786
-1.2637913227081299,3.565664052963257,-0.2747464179992676
-1.2412272691726685,3.5816047191619873,-0.2782088816165924
-1.218753457069397,3.597317934036255,-0.2816540598869324
-1.1977760791778564,3.6205508708953857,-0.2856414020061493
-1.1575559377670288,3.5843088626861572,-0.28481513261795044
-0.9752254486083984,3.094433069229126,-0.24763870239257812
-0.9605196714401245,3.123305320739746,-0.2516883909702301
-0.8895191550254822,2.9656012058258057,-0.24062572419643402
-0.7985276579856873,2.732451915740967,-0.22307215631008148
-0.7713144421577454,2.711777925491333,-0.22276705503463745
-0.7501850128173828,2.709472894668579,-0.22392603754997253
-0.7373164892196655,2.7370591163635254,-0.22756759822368622
-0.7141176462173462,2.7269647121429443,-0.22801345586776733
-0.7014732360839844,2.7582404613494873,-0.23183484375476837
-1.4917584657669067,6.047809600830078,-0.5110368132591248
-1.4667396545410156,6.129711627960205,-0.5206273198127747
-1.4618624448776245,6.302535057067871,-0.538061797618866
-1.4302376508712769,6.369361400604248,-0.5462527871131897
-1.3645883798599243,6.283926486968994,-0.5412830114364624
-1.3179112672805786,6.285650253295898,-0.5438463091850281
-1.2655973434448242,6.252444744110107,-0.5433277487754822
-1.2146084308624268,6.222629547119141,-0.5430969595909119
-1.1628479957580566,6.188722610473633,-0.5420758128166199
-1.1095333099365234,6.142914772033691,-0.5399934649467468
-1.041736125946045,6.012405872344971,-0.5304571986198425
-0.9481656551361084,5.708350658416748,-0.5054461359977722
-0.957794725894928,6.025907039642334,-0.5354391932487488
-0.7484275102615356,4.932029724121094,-0.4394611120223999
-0.7103847861289978,4.913914680480957,-0.4390812814235687
-0.6786078810691833,4.941817760467529,-0.4428493082523346
-0.6366843581199646,4.888394355773926,-0.43931451439857483
-0.7229440212249756,5.869541645050049,-0.5289032459259033
-0.5584592223167419,4.811534881591797,-0.4344627857208252
-0.6461309790611267,5.929096698760986,-0.536503255367279
-0.602425217628479,5.91009521484375,-0.5359280705451965
-0.5572530627250671,5.879215717315674,-0.5343093872070312
-0.5121745467185974,5.836328983306885,-0.5314393043518066
-0.4698326289653778,5.820281505584717,-0.5307040214538574
-0.2552986443042755,3.4645133018493652,-0.31634825468063354
-0.23244935274124146,3.4855594635009766,-0.31873366236686707
-0.2086922824382782,3.5025932788848877,-0.3207802176475525
-0.2995183765888214,5.694832801818848,-0.5221943855285645
-0.2579860985279083,5.657876014709473,-0.519172728061676
-0.21808402240276337,5.647826194763184,-0.5186415314674377
-0.1775713562965393,5.610278129577637,-0.5156055092811584
-0.1367698758840561,5.564679145812988,-0.5118553638458252
-0.09789730608463287,5.553794860839844,-0.5111352801322937
-0.0591173879802227,5.538776874542236,-0.5097653865814209
-0.01665790192782879,4.477138519287109,-0.41208648681640625
0.01444470789283514,4.457692623138428,-0.41034623980522156
0.040596913546323776,3.9323782920837402,-0.362051784992218
0.09417636692523956,5.448806285858154,-0.5016034245491028
0.13089314103126526,5.401392459869385,-0.4969196915626526
0.16760879755020142,5.373171329498291,-0.4940294623374939
0.20097187161445618,5.266960144042969,-0.4839992821216583
0.2375544309616089,5.265472412109375,-0.48362138867378235
0.22407600283622742,4.292547702789307,-0.3939391076564789
0.25173646211624146,4.256004333496094,-0.39007264375686646
0.27816832065582275,4.207637786865234,-0.385150283575058
0.30681324005126953,4.19790506362915,-0.3837885856628418
0.3350622355937958,4.184096336364746,-0.3820743262767792
0.36831721663475037,4.224329471588135,-0.3851637542247772
0.47231370210647583,5.015772342681885,-0.45642125606536865
0.5070183873176575,5.012490272521973,-0.4552396535873413
0.5401564836502075,4.99348258972168,-0.45265114307403564
0.5726526379585266,4.970386981964111,-0.4497188329696655
0.604830801486969,4.943181037902832,-0.44625532627105713
0.6339715719223022,4.900439739227295,-0.4412161111831665
0.6667155623435974,4.888378143310547,-0.43897274136543274
0.6979166269302368,4.864507675170898,-0.4356878101825714
0.7305976748466492,4.851975917816162,-0.43344438076019287
0.7635679841041565,4.839175701141357,-0.4309988021850586
0.789336621761322,4.787888526916504,-0.4250012934207916
0.8302611112594604,4.828519344329834,-0.4271834194660187
0.8665018677711487,4.838131904602051,-0.4266149401664734
0.8972556591033936,4.816859245300293,-0.4233418405056
0.9304930567741394,4.810736179351807,-0.4212111532688141
0.9610390067100525,4.7890520095825195,-0.41756555438041687
0.9875977635383606,4.752044200897217,-0.41264963150024414
1.0190006494522095,4.737644672393799,-0.4097096920013428
1.0494060516357422,4.719237804412842,-0.40644964575767517
1.0784536600112915,4.696926116943359,-0.402637243270874
1.1130212545394897,4.697081565856934,-0.4006562829017639
1.1360913515090942,4.651710510253906,-0.3948521614074707
1.1627720594406128,4.621250152587891,-0.3903345465660095
1.1949026584625244,4.613264560699463,-0.38774603605270386
1.222480297088623,4.590158462524414,-0.3836261034011841
1.2534540891647339,4.578003883361816,-0.3803923428058624
1.2786734104156494,4.546997547149658,-0.37564900517463684
1.3082149028778076,4.5307207107543945,-0.3721292018890381
1.3329905271530151,4.499371528625488,-0.36733922362327576
1.3592151403427124,4.475496768951416,-0.36297938227653503
1.3973231315612793,4.488485336303711,-0.3615773022174835
0.48402154445648193,1.517722249031067,-0.12143950164318085
0.4970077872276306,1.5218039751052856,-0.12093830853700638
0.5099232792854309,1.5258320569992065,-0.12037850171327591
0.5177990794181824,1.515039086341858,-0.11861942708492279
0.5178645849227905,1.4821337461471558,-0.11515459418296814
0.5336130857467651,1.493189811706543,-0.11508584767580032
0.5720604062080383,1.5663871765136719,-0.11976747214794159
0.5650098323822021,1.5150973796844482,-0.11484327167272568
1.6302424669265747,4.2826738357543945,-0.32179394364356995
1.6598472595214844,4.271564960479736,-0.3180866837501526
1.6872512102127075,4.252712726593018,-0.31375035643577576
1.7119601964950562,4.23049783706665,-0.30912065505981445
1.7435691356658936,4.2262864112854,-0.305751234292984
1.7694050073623657,4.207362174987793,-0.30130478739738464
1.783366322517395,4.1593708992004395,-0.2947594225406647
1.8157047033309937,4.1541547775268555,-0.29116883873939514
1.8405578136444092,4.134958267211914,-0.28654858469963074
1.8716996908187866,4.129802227020264,-0.28291094303131104
1.8939409255981445,4.102769374847412,-0.2776890695095062
1.9223792552947998,4.089808940887451,-0.273431658744812
1.9469565153121948,4.069817543029785,-0.26853254437446594
1.967429757118225,4.042904376983643,-0.2632724940776825
1.9903337955474854,4.018917560577393,-0.2581106424331665
2.014723539352417,3.998300790786743,-0.25317618250846863
2.034348487854004,3.971118688583374,-0.24772922694683075
2.071686029434204,3.9784562587738037,-0.24444401264190674
2.096168041229248,3.9570815563201904,-0.23917345702648163
2.1197900772094727,3.935905933380127,-0.23398171365261078
2.134678840637207,3.9014742374420166,-0.2279660850763321
2.160794496536255,3.8873512744903564,-0.22313402593135834
2.1437549591064453,3.794320821762085,-0.2137001007795334
2.170039415359497,3.7796311378479004,-0.20866267383098602
2.2107462882995605,3.7924156188964844,-0.20515646040439606
2.212686538696289,3.7372419834136963,-0.19787663221359253
2.246711492538452,3.7353875637054443,-0.19336485862731934
2.279442548751831,3.7340755462646484,-0.1887897551059723
2.2880566120147705,3.692391872406006,-0.18208396434783936
2.3220670223236084,3.6898295879364014,-0.17716078460216522
2.355191707611084,3.68757963180542,-0.1721898466348648
2.366438150405884,3.6527554988861084,-0.1656949818134308
2.391634225845337,3.636573076248169,-0.15978160500526428
2.429569959640503,3.6397974491119385,-0.15454496443271637
2.4224088191986084,3.579005241394043,-0.14671355485916138
2.451446294784546,3.5689098834991455,-0.14067162573337555
2.4796807765960693,3.5591180324554443,-0.13454453647136688
2.4844069480895996,3.5178844928741455,-0.12724453210830688
2.5274877548217773,3.5258166790008545,-0.12110628932714462
2.5248074531555176,3.475010633468628,-0.11306530982255936
2.5639333724975586,3.480482339859009,-0.10657389461994171
2.782632350921631,3.9306039810180664,0.20669551193714142
2.7352049350738525,3.9253427982330322,0.2132062464952469
2.7071967124938965,3.944307565689087,0.2205549031496048
2.67153263092041,3.958716630935669,0.22765123844146729
2.6340630054473877,3.9646265506744385,0.23372936248779297
2.627045154571533,4.015589714050293,0.2422659993171692
2.583585262298584,4.01548433303833,0.2476450651884079
2.575112819671631,4.066778182983398,0.2559705078601837
2.537806510925293,4.071399211883545,0.2612791061401367
2.5109004974365234,4.096813201904297,0.2676876485347748
2.4681735038757324,4.095012664794922,0.2722375988960266
2.4554340839385986,4.138613224029541,0.27952614426612854
2.433272361755371,4.169380187988281,0.28591388463974
2.393618583679199,4.173920631408691,0.290498822927475
2.3710529804229736,4.204329490661621,0.29667264223098755
2.2829322814941406,4.114781379699707,0.2941843867301941
2.245234489440918,4.11737060546875,0.2980535328388214
2.221806526184082,4.147407531738281,0.3038730025291443
2.1987884044647217,4.176937580108643,0.3096098005771637
2.1695239543914795,4.191874027252197,0.31414875388145447
2.146073341369629,4.221090316772461,0.3196440637111664
2.114748477935791,4.236534595489502,0.32406267523765564
2.0875344276428223,4.258361339569092,0.3289102017879486
2.062303066253662,4.283287048339844,0.3339757025241852
2.031723737716675,4.2975544929504395,0.3380889892578125
2.003366231918335,4.319123268127441,0.3426412045955658
1.963470697402954,4.315695762634277,0.3452250361442566
2.000019073486328,4.478390693664551,0.3610512912273407
1.9499471187591553,4.449110984802246,0.3614846169948578
1.9354944229125977,4.506025791168213,0.36878645420074463
1.9146126508712769,4.548460960388184,0.37487098574638367
1.889228105545044,4.579831123352051,0.38005325198173523
1.8688968420028687,4.6214919090271,0.3860543370246887
1.83649480342865,4.634161472320557,0.38965898752212524
1.8049559593200684,4.654600620269775,0.3937181532382965
1.7793651819229126,4.689154148101807,0.39896437525749207
1.3527745008468628,3.6428894996643066,0.3117240369319916
1.31935715675354,3.6300621032714844,0.31236493587493896
1.2939902544021606,3.6389660835266113,0.31486472487449646
1.2621082067489624,3.6334617137908936,0.315932959318161
1.6423341035842896,4.840408802032471,0.4229140877723694
1.6004120111465454,4.829568386077881,0.4239844083786011
1.5643240213394165,4.832938194274902,0.42626380920410156
1.5399954319000244,4.8731536865234375,0.43182292580604553
1.5147761106491089,4.917473316192627,0.43755027651786804
1.458085298538208,4.857182025909424,0.4339110255241394
1.4319696426391602,4.897156238555908,0.43922993540763855
0.4648560583591461,1.631855845451355,0.14693434536457062
1.3656258583068848,4.923683166503906,0.44507256150245667
1.3075051307678223,4.846573829650879,0.43966200947761536
1.2682284116744995,4.840704917907715,0.44056767225265503
1.240273118019104,4.875848770141602,0.4452071785926819
1.211523175239563,4.906920433044434,0.4494878947734833
1.179110050201416,4.922610759735107,0.4523763954639435
1.151864767074585,4.960813522338867,0.45736491680145264
1.1193106174468994,4.984033107757568,0.4606931209564209
1.0862417221069336,5.003113269805908,0.46364277601242065
1.058596134185791,5.048614025115967,0.4690746068954468
1.0172297954559326,5.025189399719238,0.46810173988342285
0.9926361441612244,5.08543062210083,0.47495079040527344
2.188431978225708,11.652442932128906,1.0909315347671509
2.0705015659332275,11.472119331359863,1.0761361122131348
1.9632046222686768,11.33672046661377,1.0655455589294434
1.8513867855072021,11.158110618591309,1.050870418548584
1.7444133758544922,10.98603343963623,1.0367628335952759
1.6478166580200195,10.874763488769531,1.028425693511963
1.5520459413528442,10.751065254211426,1.0184539556503296
1.4602632522583008,10.645931243896484,1.0099209547042847
1.3665339946746826,10.513051986694336,0.9987709522247314
1.267702341079712,10.3175687789917,0.981663167476654
1.1859649419784546,10.24094295501709,0.9758618474006653
1.1047266721725464,10.167662620544434,0.9704251885414124
1.0235868692398071,10.078269004821777,0.96295565366745
0.40927547216415405,4.332125186920166,0.41429945826530457
0.3741014301776886,4.2805962562561035,0.40976154804229736
0.3447873294353485,4.290797710418701,0.41114696860313416
0.314421683549881,4.293067455291748,0.411798357963562
0.2860764265060425,4.318370342254639,0.41467463970184326
0.328983873128891,5.554574012756348,0.5336962342262268
0.2912890613079071,5.57999849319458,0.5363711714744568
0.2558867335319519,5.663431644439697,0.5446531772613525
0.2156802862882614,5.665061950683594,0.5451027154922485
0.1770220398902893,5.689700603485107,0.5477879643440247
0.13790377974510193,5.706298351287842,0.549727201461792
0.09858042746782303,5.730432033538818,0.5521237850189209
0.05916553735733032,5.773743152618408,0.556281328201294
0.018173376098275185,5.758460998535156,0.554820716381073
-0.01629006303846836,4.288700103759766,0.4132397770881653
-0.04586641117930412,4.261263847351074,0.41064468026161194
-0.07336358726024628,4.140323162078857,0.39905640482902527
-0.10196709632873535,4.131955623626709,0.39812612533569336
-0.13039742410182953,4.123401641845703,0.3971060514450073
-0.15848058462142944,4.095206260681152,0.3942119777202606
-0.1810905784368515,3.965850353240967,0.3816082179546356
-0.18678727746009827,3.549041986465454,0.34138214588165283
-0.21141618490219116,3.547682762145996,0.34114861488342285
-0.23778745532035828,3.573330879211426,0.34335651993751526
-0.28772589564323425,3.909003734588623,0.37524592876434326
-0.31224215030670166,3.8759653568267822,0.371736079454422
-0.32991334795951843,3.769170045852661,0.36118102073669434
-0.3461976945400238,3.662311315536499,0.3506532609462738
-0.3673374652862549,3.61730694770813,0.34607571363449097
-0.38937222957611084,3.583775520324707,0.3424384891986847
-0.4216315746307373,3.6467537879943848,0.347952276468277
-0.4457472264766693,3.6361215114593506,0.3464518189430237
-0.4683869779109955,3.613741159439087,0.3438490629196167
-0.49141374230384827,3.595054864883423,0.34161603450775146
-0.5102151036262512,3.5453646183013916,0.33645349740982056
-0.5323124527931213,3.5264697074890137,0.3340686857700348
-0.5522565841674805,3.4959354400634766,0.3305325210094452
-0.5870043635368347,3.5573935508728027,0.33570289611816406
-0.5924221873283386,3.4421889781951904,0.32422202825546265
-1.139294147491455,6.355477809906006,0.5975212454795837
-1.1906092166900635,6.381853103637695,0.5988985300064087
-1.240195631980896,6.4043073654174805,0.5995846390724182
-1.3014854192733765,6.483624458312988,0.6055144667625427
-1.3536241054534912,6.51289176940918,0.6067693829536438
-1.407630443572998,6.5454277992248535,0.6083199381828308
-1.4522887468338013,6.527917861938477,0.605205237865448
-1.4880669116973877,6.476171493530273,0.5989785194396973
-1.5231716632843018,6.428284168243408,0.5927168726921082
-0.6819522976875305,2.7932348251342773,0.25676199793815613
-0.7009352445602417,2.7886416912078857,0.25556468963623047
-0.7109264731407166,2.7460501194000244,0.25087594985961914
-0.7300189733505249,2.7411465644836426,0.24966751039028168
-0.7530489563941956,2.751166343688965,0.2497636079788208
-0.7759191393852234,2.7611019611358643,0.24973110854625702
-0.7903329133987427,2.7409398555755615,0.24698778986930847
-0.9838598966598511,3.325144052505493,0.29849672317504883
-1.00239896774292,3.3034913539886475,0.2954391837120056
-1.011468529701233,3.251997709274292,0.28974562883377075
-1.0429353713989258,3.274902105331421,0.29053640365600586
-1.06978440284729,3.28277850151062,0.28994467854499817
-1.0947500467300415,3.2829172611236572,0.288649320602417
-1.102412462234497,3.2312047481536865,0.28280940651893616
-1.3339636325836182,3.822763204574585,0.3330583870410919
-1.370696783065796,3.8430392742156982,0.33320626616477966
-1.3991670608520508,3.8412742614746094,0.33130204677581787
-1.4249950647354126,3.831986665725708,0.32875844836235046
-2.125037908554077,5.594927787780762,0.477377712726593
-2.1527416706085205,5.551254749298096,0.4710558354854584
-2.2054646015167236,5.572752952575684,0.4702238440513611
-1.5213929414749146,3.7704780101776123,0.31616905331611633
-1.5214310884475708,3.699204444885254,0.3082531690597534
-1.5290186405181885,3.645681619644165,0.3018142879009247
-1.548280119895935,3.6208395957946777,0.2977883815765381
-1.5733132362365723,3.6102676391601562,0.2949252724647522
-1.592624545097351,3.5892534255981445,0.2910546064376831
-1.613299012184143,3.571702480316162,0.287491112947464
-1.6413730382919312,3.5677177906036377,0.28493785858154297
-1.6662209033966064,3.5564308166503906,0.28180551528930664
-1.6804853677749634,3.524080991744995,0.27696192264556885
-1.651092529296875,3.4044318199157715,0.2652338147163391
-1.6701992750167847,3.3866567611694336,0.26153069734573364
-1.7045198678970337,3.3959555625915527,0.25977572798728943
-1.7689459323883057,3.4640650749206543,0.26248395442962646
-1.8100141286849976,3.4870247840881348,0.2615598738193512
-2.4457619190216064,4.637163162231445,0.3442326784133911
-2.4843873977661133,4.634645462036133,0.3403508961200714
-1.1603981256484985,2.129074811935425,0.15459135174751282
-1.1675323247909546,2.107534885406494,0.15120385587215424
-2.5346598625183105,4.505852699279785,0.3193072974681854
-2.5645225048065186,4.489289283752441,0.31411632895469666
-2.588019847869873,4.458139419555664,0.30771851539611816
-2.6064836978912354,4.420605182647705,0.30085980892181396
-1.2497562170028687,2.0880417823791504,0.13998888432979584
-2.642592430114746,4.3497514724731445,0.2871742248535156
-2.6565709114074707,4.304991722106934,0.27955517172813416
-2.948333740234375,4.707277774810791,0.30045029520988464
-2.978672742843628,4.688551425933838,0.2939446270465851
-3.0108835697174072,4.668363094329834,0.2870079576969147
-2.160689353942871,3.2997334003448486,0.1987738460302353
-2.1752185821533203,3.276433229446411,0.19317267835140228
-2.2335400581359863,3.31752872467041,0.19123028218746185
-2.247906446456909,3.2892417907714844,0.18491053581237793
-2.291778802871704,3.306734800338745,0.1809745728969574
-2.3510446548461914,3.3465874195098877,0.17813147604465485
-2.3835105895996094,3.3430697917938232,0.1724066138267517
-2.8551361560821533,3.951338052749634,0.19710974395275116
-2.922189474105835,3.9898269176483154,0.19197215139865875
-2.9028127193450928,3.9075124263763428,0.1805039942264557
-2.480023145675659,3.4967169761657715,-0.13606812059879303
-2.4270780086517334,3.476377010345459,-0.14229515194892883
-2.7804582118988037,4.0433549880981445,-0.17311714589595795
-2.7576260566711426,4.077447891235352,-0.18230657279491425
-2.213618040084839,3.3233802318573,-0.15428288280963898
-2.1765434741973877,3.3195135593414307,-0.1596457064151764
-2.1324520111083984,3.305980682373047,-0.164455845952034
-1.2848085165023804,2.0226261615753174,-0.10369787365198135
-1.278022050857544,2.0451643466949463,-0.10798823833465576
-1.266767144203186,2.0611300468444824,-0.11190342903137207
-1.2341487407684326,2.0397074222564697,-0.1135609820485115
-2.0117604732513428,3.3792855739593506,-0.1927589625120163
-1.9925603866577148,3.4038989543914795,-0.19875669479370117
-1.9659557342529297,3.4145214557647705,-0.20384208858013153
-1.1919550895690918,2.1043450832366943,-0.12827280163764954
-1.941034197807312,3.4862797260284424,-0.21680708229541779
-1.844565749168396,3.3699262142181396,-0.21362483501434326
-1.7951010465621948,3.334352731704712,-0.21521778404712677
-1.763354778289795,3.3333096504211426,-0.21898235380649567
-1.7389233112335205,3.345818519592285,-0.22354072332382202
-1.7400364875793457,3.406355619430542,-0.23124992847442627
-2.4369137287139893,4.853695869445801,-0.3346495032310486
-2.4084572792053223,4.884843349456787,-0.34180206060409546
-2.3789608478546143,4.91616153717041,-0.34909695386886597
-2.3545308113098145,4.953391075134277,-0.35657942295074463
-1.7031269073486328,3.648423910140991,-0.2661730647087097
-1.6734304428100586,3.653254270553589,-0.2699302136898041
-1.6437252759933472,3.6578545570373535,-0.27367469668388367
-1.6117886304855347,3.6546995639801025,-0.2767188549041748
-1.5887720584869385,3.6729397773742676,-0.2814311683177948
-2.169157028198242,5.1152801513671875,-0.39629065990448
-2.157597303390503,5.191535949707031,-0.4066010117530823
-2.1917083263397217,5.379283428192139,-0.42573174834251404
-2.162733793258667,5.415729999542236,-0.43305471539497375
-2.138756275177002,5.470834732055664,-0.4417605996131897
-1.35179603099823,3.532188653945923,-0.2879287600517273
-1.3214012384414673,3.526761054992676,-0.29014143347740173
-2.0504441261291504,5.590432167053223,-0.4640810787677765
-2.005537986755371,5.589723110198975,-0.4680083096027374
-1.8861920833587646,5.379597187042236,-0.45422160625457764
-1.5917400121688843,4.644713401794434,-0.3953785002231598
-1.5679185390472412,4.681210994720459,-0.4016716778278351
-1.876420259475708,5.7351837158203125,-0.49593791365623474
-1.8521027565002441,5.799915313720703,-0.5051342248916626
-0.9686539769172668,3.1107990741729736,-0.27290019392967224
-0.9422731399536133,3.1024041175842285,-0.2740713655948639
-0.8022841811180115,2.7093894481658936,-0.24101892113685608
-0.7862989902496338,2.7260451316833496,-0.24404491484165192
-0.7636880278587341,2.720163345336914,-0.24501647055149078
-0.7423802614212036,2.7178115844726562,-0.24629607796669006
-0.7210996150970459,2.715306043624878,-0.2475692331790924
-0.7079837918281555,2.7426998615264893,-0.2515344023704529
-0.6809963583946228,2.717287540435791,-0.25049805641174316
-1.464186668395996,6.022141933441162,-0.558044970035553
-1.4799686670303345,6.278026580810547,-0.5847562551498413
-1.4415326118469238,6.314525604248047,-0.5912244915962219
-1.3964130878448486,6.320324420928955,-0.5945831537246704
-1.3419866561889648,6.2840576171875,-0.5937288403511047
-1.2929075956344604,6.270188331604004,-0.5949892401695251
-1.243906021118164,6.252016067504883,-0.5958167910575867
-1.1878528594970703,6.199234962463379,-0.5933851599693298
-1.135162115097046,6.157413482666016,-0.5915871858596802
-1.0632661581039429,6.004162311553955,-0.5789005160331726
-0.9546635150909424,5.620179653167725,-0.5438004732131958
-0.9517861604690552,5.849037170410156,-0.5679486393928528
-0.9354438781738281,6.0167365074157715,-0.5863561034202576
-0.8920760750770569,6.015235424041748,-0.587877631187439
-0.697728157043457,4.943173885345459,-0.48445630073547363
-0.6600402593612671,4.9246344566345215,-0.48400479555130005
-0.6193441152572632,4.878798484802246,-0.48086875677108765
-0.713033139705658,5.948164939880371,-0.587941586971283
-0.6697297692298889,5.9452056884765625,-0.5888582468032837
-0.6231361031532288,5.903200626373291,-0.5859051942825317
-0.5792204141616821,5.880167007446289,-0.5848442912101746
-0.535453200340271,5.852926731109619,-0.5833767056465149
-0.49211353063583374,5.825370788574219,-0.5818099975585938
-0.4485744535923004,5.801485538482666,-0.5802018046379089
-0.24423231184482574,3.474090814590454,-0.3479146659374237
-0.22150135040283203,3.4989173412323,-0.35089340806007385
-0.32091787457466125,5.696730136871338,-0.5721306800842285
-0.28015565872192383,5.675437927246094,-0.5707201957702637
-0.2389451116323471,5.653926372528076,-0.5689214468002319
-0.198322132229805,5.6204423904418945,-0.5659356713294983
-0.15850728750228882,5.598323822021484,-0.5641176104545593
-0.11939015984535217,5.591466903686523,-0.5638619661331177
-0.07948203384876251,5.526061058044434,-0.5575689077377319
-0.04011671617627144,5.495392799377441,-0.5544456243515015
-0.00146669230889529,4.4461774826049805,-0.4485863447189331
0.029729628935456276,4.488829612731934,-0.45291057229042053
0.07370668649673462,5.428964138031006,-0.5478193163871765
0.11079944670200348,5.397251605987549,-0.5445182919502258
0.1477055549621582,5.376976013183594,-0.5420835614204407
0.1403476446866989,4.06295919418335,-0.4093306362628937
0.21771731972694397,5.246325969696045,-0.5282222032546997
0.2534462511539459,5.229203224182129,-0.5261951088905334
0.23659566044807434,4.268836975097656,-0.42916736006736755
0.263742595911026,4.2283806800842285,-0.42450690269470215
0.2908443808555603,4.187718868255615,-0.4198472797870636
0.3196604251861572,4.181795597076416,-0.41870442032814026
0.35164013504981995,4.214408874511719,-0.4214364290237427
0.38157108426094055,4.2197041511535645,-0.42126399278640747
0.48802056908607483,5.010197639465332,-0.49912843108177185
0.5204561352729797,4.979711055755615,-0.4950501024723053
0.5550801753997803,4.9761061668396,-0.4936865568161011
0.5860165357589722,4.94137716293335,-0.4892650246620178
0.619279146194458,4.92963981628418,-0.4869106113910675
0.6512882113456726,4.910000801086426,-0.4836196005344391
0.6809874176979065,4.870818614959717,-0.4784161448478699
0.7125409245491028,4.850757122039795,-0.4751456379890442
0.7427060008049011,4.8227996826171875,-0.4711332321166992
0.7772690057754517,4.8254241943359375,-0.4698607623577118
0.80665123462677,4.797151565551758,-0.4654760956764221
0.8464608788490295,4.829979419708252,-0.46703511476516724
0.880638837814331,4.824079513549805,-0.46481791138648987
0.9127570390701294,4.810398578643799,-0.46190372109413147
0.9428961873054504,4.788966655731201,-0.4579527676105499
0.9712073802947998,4.759734630584717,-0.4532221555709839
1.0000431537628174,4.734126091003418,-0.44887053966522217
1.031888723373413,4.719571113586426,-0.4455513060092926
1.0646945238113403,4.712519645690918,-0.44299203157424927
1.0899641513824463,4.675060749053955,-0.43726009130477905
1.1184449195861816,4.652595043182373,-0.43296995759010315
1.1524713039398193,4.652568817138672,-0.4307791292667389
1.179657220840454,4.6219353675842285,-0.4257282316684723
1.2077772617340088,4.598851680755615,-0.4213556945323944
1.2362935543060303,4.579471588134766,-0.4171164035797119
1.265602946281433,4.5636725425720215,-0.41323599219322205
1.290858268737793,4.532611846923828,-0.4079805910587311
1.3185486793518066,4.508711814880371,-0.4033617079257965
1.3473576307296753,4.4923624992370605,-0.39930787682533264
1.3757461309432983,4.475916862487793,-0.39515525102615356
1.4040430784225464,4.459267616271973,-0.39100587368011475
1.4303520917892456,4.434851169586182,-0.3861578702926636
1.4556931257247925,4.4064154624938965,-0.3809528350830078
1.4907195568084717,4.411457538604736,-0.3784353733062744
1.515743374824524,4.386772632598877,-0.373382031917572
1.2619832754135132,3.572441577911377,-0.3016551733016968
1.2948590517044067,3.585775852203369,-0.30033302307128906
1.3007034063339233,3.5258748531341553,-0.2928200364112854
1.6121188402175903,4.278772354125977,-0.35213997960090637
1.6441271305084229,4.275254249572754,-0.34869205951690674
1.6710208654403687,4.256781578063965,-0.34398138523101807
1.7035012245178223,4.252614974975586,-0.3404235243797302
1.7278928756713867,4.230485439300537,-0.3352455198764801
1.7570534944534302,4.218803882598877,-0.3308603763580322
1.7618932723999023,4.1494832038879395,-0.32200315594673157
1.8000887632369995,4.158883094787598,-0.3192780315876007
1.8157413005828857,4.118369102478027,-0.31260421872138977
1.849912166595459,4.120569229125977,-0.3091558814048767
1.8754730224609375,4.100778579711914,-0.3039357364177704
1.90739905834198,4.094973087310791,-0.2997708320617676
1.9320012331008911,4.0751447677612305,-0.294495552778244
1.9594542980194092,4.062362194061279,-0.28968292474746704
1.9837777614593506,4.042202949523926,-0.2843084931373596
2.0037174224853516,4.010930061340332,-0.27804329991340637
2.030953884124756,3.997551441192627,-0.2730534076690674
2.057673931121826,3.9842047691345215,-0.26802539825439453
2.0812318325042725,3.9634859561920166,-0.26243507862091064
2.1144137382507324,3.9594974517822266,-0.2578631341457367
2.1244094371795654,3.914595365524292,-0.25058406591415405
2.1584837436676025,3.914078712463379,-0.24606317281723022
2.133901834487915,3.807589292526245,-0.23492027819156647
2.1681578159332275,3.8064870834350586,-0.23032087087631226
2.1737897396087646,3.7586026191711426,-0.22284455597400665
2.210599422454834,3.764563798904419,-0.21856611967086792
2.2453067302703857,3.7624902725219727,-0.213469460606575
2.262732744216919,3.7341229915618896,-0.20694558322429657
2.279090404510498,3.706166982650757,-0.20045103132724762
2.3044228553771973,3.6907894611358643,-0.19446268677711487
2.317453622817993,3.6552441120147705,-0.18733328580856323
2.35439395904541,3.6597487926483154,-0.18214048445224762
2.3874964714050293,3.65720796585083,-0.17649540305137634
2.4000515937805176,3.6212282180786133,-0.16904184222221375
2.423482656478882,3.6058874130249023,-0.16254767775535583
2.4474427700042725,3.5899641513824463,-0.15587089955806732
2.4593963623046875,3.553638458251953,-0.14795204997062683
2.4820802211761475,3.538114309310913,-0.14104434847831726
2.5058488845825195,3.521604061126709,-0.1337713897228241
2.5249969959259033,3.49855375289917,-0.12600702047348022
2.5424931049346924,3.4764516353607178,-0.11829785257577896
2.2338335514068604,3.0105326175689697,-0.0958167240023613
2.7649917602539062,3.875150442123413,0.22184045612812042
2.7434327602386475,3.909008264541626,0.2314826399087906
2.6958706378936768,3.898869037628174,0.2377110719680786
2.685971260070801,3.9477438926696777,0.24744445085525513
2.651520252227783,3.961087942123413,0.2548063099384308
2.645179271697998,4.011662006378174,0.2640993595123291
2.5974032878875732,4.0051398277282715,0.26963379979133606
2.571192741394043,4.030793190002441,0.2771158218383789
2.5345869064331055,4.035053253173828,0.2827054262161255
2.5295040607452393,4.092891216278076,0.29199764132499695
2.5023915767669678,4.118185043334961,0.2989652156829834
2.4643714427948,4.122437953948975,0.30419546365737915
2.439293622970581,4.145931720733643,0.3106606900691986
2.4119226932525635,4.1704792976379395,0.31705203652381897
2.3844916820526123,4.19474458694458,0.3234293758869171
2.347463369369507,4.197302341461182,0.3278500437736511
2.2663440704345703,4.121541976928711,0.3260781764984131
2.235511064529419,4.137932777404785,0.33128562569618225
2.2048020362854004,4.153962135314941,0.3364514112472534
2.190124273300171,4.196511268615723,0.3435901403427124
2.1604151725769043,4.21148157119751,0.3484780490398407
2.1355643272399902,4.241188049316406,0.35448023676872253
2.1006314754486084,4.249510765075684,0.358654648065567
2.075833559036255,4.274290084838867,0.3640589416027069
2.052600860595703,4.302377700805664,0.3697670102119446
2.012918472290039,4.299220561981201,0.3725937604904175
1.9828355312347412,4.317088603973389,0.3772132396697998
1.9703680276870728,4.373714923858643,0.38525503873825073
1.9948879480361938,4.511633396148682,0.4004480838775635
1.9706751108169556,4.543114185333252,0.40624120831489563
1.9312739372253418,4.542725086212158,0.40899160504341125
1.9159324169158936,4.599497318267822,0.41692793369293213
1.8607490062713623,4.558734893798828,0.4159886837005615
4.191320419311523,10.475932121276855,0.9620933532714844
1.8262319564819336,4.659872531890869,0.4305676519870758
1.7811381816864014,4.643627643585205,0.43151068687438965
1.7637639045715332,4.699828147888184,0.43921321630477905
1.3277397155761719,3.616180658340454,0.3398304879665375
1.3077106475830078,3.6397602558135986,0.3439082205295563
1.2741776704788208,3.6266534328460693,0.3444283902645111
1.6243239641189575,4.73208475112915,0.45152243971824646
1.5987274646759033,4.769216537475586,0.457205206155777
1.566807746887207,4.7876763343811035,0.46112552285194397
1.5428396463394165,4.827831745147705,0.4671105146408081
1.5135680437088013,4.853089809417725,0.4716360569000244
1.5000892877578735,4.934286594390869,0.48136475682258606
1.4479660987854004,4.888740539550781,0.4787592887878418
1.4422212839126587,4.999538898468018,0.49148648977279663
0.44472870230674744,1.5836766958236694,0.15628297626972198
1.3461689949035645,4.924987316131592,0.4878578186035156
1.2911527156829834,4.859025955200195,0.4828878939151764
1.2563594579696655,4.86790132522583,0.48527029156684875
1.2271732091903687,4.899155616760254,0.48991549015045166
1.1977496147155762,4.930202007293701,0.4945726692676544
1.1651148796081543,4.945769309997559,0.4976786673069
1.1356858015060425,4.976307392120361,0.5022553205490112
1.1060298681259155,5.01064920425415,0.5069583654403687
1.0768033266067505,5.04860782623291,0.512065589427948
1.0387442111968994,5.048429489135742,0.5133548378944397
1.0050456523895264,5.06296968460083,0.5161203742027283
0.9683250188827515,5.062003135681152,0.5173283815383911
2.1215953826904297,11.52833080291748,1.1807913780212402
2.018880844116211,11.424057006835938,1.172297477722168
1.9006702899932861,11.227204322814941,1.1543405055999756
1.8036150932312012,11.128683090209961,1.1464296579360962
1.699910044670105,10.971641540527344,1.1324670314788818
1.5962069034576416,10.798335075378418,1.1168086528778076
1.5002994537353516,10.666609764099121,1.1049048900604248
1.4083361625671387,10.561284065246582,1.0954701900482178
1.3104056119918823,10.385658264160156,1.0787327289581299
1.2252049446105957,10.29015827178955,1.070318341255188
1.1401022672653198,10.178491592407227,1.060232400894165
1.0660499334335327,10.15501594543457,1.0593589544296265
0.9906514883041382,10.11951732635498,1.0567225217819214
0.39054566621780396,4.3066229820251465,0.45009878277778625
0.3583543002605438,4.285959243774414,0.44833555817604065
0.327793687582016,4.280542373657227,0.4481845200061798
0.29961884021759033,4.305905342102051,0.4512777030467987
0.2701813578605652,4.315568923950195,0.4527498185634613
0.3109656870365143,5.605163097381592,0.588367223739624
0.27285322546958923,5.630439758300781,0.591241180896759
0.23462292551994324,5.659335136413574,0.5945258140563965
0.19646373391151428,5.699615001678467,0.5990381240844727
0.15729492902755737,5.716330051422119,0.6011042594909668
0.11741305887699127,5.744441509246826,0.6044066548347473
0.07792751491069794,5.783949375152588,0.6086352467536926
0.0375211127102375,5.768814563751221,0.6069894433021545
-0.0025901799090206623,5.710664749145508,0.6008475422859192
-0.03180161118507385,4.284824371337891,0.45083197951316833
-0.06256309151649475,4.315568447113037,0.4540936350822449
-0.08992058038711548,4.190743923187256,0.441006600856781
-0.11649597436189651,4.100724220275879,0.43141111731529236
-0.14330604672431946,4.053262233734131,0.42618390917778015
-0.17049092054367065,4.028913974761963,0.42341116070747375
-0.1764628142118454,3.58144211769104,0.37621426582336426
-0.20089545845985413,3.5646212100982666,0.3742927312850952
-0.22296740114688873,3.520519256591797,0.36952969431877136
-0.2729237377643585,3.8832316398620605,0.4073202908039093
-0.29555633664131165,3.827087879180908,0.401023805141449
-0.3210113048553467,3.813403367996216,0.39920252561569214
-0.34288644790649414,3.7569472789764404,0.3929227292537689
-0.36025190353393555,3.665602207183838,0.38303112983703613
-0.3787679374217987,3.597386598587036,0.3755893111228943
-0.4084160327911377,3.637225389480591,0.37932485342025757
-0.43430769443511963,3.6421396732330322,0.3792796730995178
-0.45733213424682617,3.619828462600708,0.3764093220233917
-0.4771607518196106,3.5781588554382324,0.37155985832214355
-0.4998627305030823,3.55945086479187,0.3691164553165436
-0.5200958847999573,3.5252175331115723,0.36508649587631226
-0.5426880121231079,3.510113477706909,0.36293819546699524
-0.5715006589889526,3.533212661743164,0.3645898103713989
-0.5996135473251343,3.552314519882202,0.36584797501564026
