X,Y,Z
-0.8844669461250305,1.4102513790130615,0.27670443058013916
-0.8987089991569519,1.4112372398376465,0.27352529764175415
-0.9006425142288208,1.3925423622131348,0.2664933204650879
-0.8928924798965454,1.3616141080856323,0.25709179043769836
-0.9061152338981628,1.3629688024520874,0.25384119153022766
-0.9245908260345459,1.370093584060669,0.25127872824668884
-2.425624132156372,3.541456460952759,0.639278769493103
-1.3161582946777344,1.8955179452896118,0.3363175094127655
-1.76974618434906,2.513950824737549,0.4381621778011322
-1.4042638540267944,1.886590600013733,0.30150261521339417
-1.3413766622543335,2.1119277477264404,-0.221814826130867
-1.2430866956710815,1.9889801740646362,-0.21662527322769165
-1.1133122444152832,1.8387850522994995,-0.21372975409030914
-0.8417476415634155,1.4598979949951172,-0.1850501000881195
-0.867178738117218,1.5295754671096802,-0.19909995794296265
-0.8996500968933105,1.6129454374313354,-0.2152026742696762
-0.8955026865005493,1.6321638822555542,-0.22302664816379547
-0.8558028936386108,1.586726427078247,-0.22188390791416168
-0.8294298648834229,1.56484055519104,-0.22383663058280945
-0.8038280010223389,1.5424814224243164,-0.22538533806800842
-0.769583523273468,1.5027083158493042,-0.2241513431072235
-0.754952609539032,1.500657558441162,-0.22838163375854492
-0.7235254049301147,1.463662028312683,-0.22704733908176422
-0.6976562738418579,1.4367921352386475,-0.22711369395256042
-0.6738405823707581,1.4131686687469482,-0.22741137444972992
-0.65364670753479,1.396307110786438,-0.22866253554821014
-0.6323556900024414,1.3756362199783325,-0.22908088564872742
0.6275750398635864,1.3527370691299438,-0.2230483591556549
0.6618796586990356,1.4013985395431519,-0.22721318900585175
0.6819472908973694,1.4182677268981934,-0.22598235309123993
0.7021661400794983,1.434989333152771,-0.22459854185581207
0.7244336605072021,1.4549554586410522,-0.22349666059017181
0.7592088580131531,1.4988852739334106,-0.22589629888534546
0.7805569767951965,1.5148354768753052,-0.22384324669837952
0.807373583316803,1.5409586429595947,-0.22311662137508392
0.8399341702461243,1.5771223306655884,-0.22362658381462097
0.8751073479652405,1.616230845451355,-0.22420687973499298
0.9092910289764404,1.6514055728912354,-0.22386282682418823
0.9453348517417908,1.6898876428604126,-0.22377458214759827
0.9838663935661316,1.7313482761383057,-0.22378654778003693
1.0253536701202393,1.7755365371704102,-0.22366489470005035
1.067352294921875,1.8193387985229492,-0.22316798567771912
1.1218072175979614,1.8827846050262451,-0.22456766664981842
1.1933565139770508,1.9721662998199463,-0.22846919298171997
1.2277768850326538,1.9976085424423218,-0.22440318763256073
1.2888199090957642,2.065908193588257,-0.22476646304130554
1.3383175134658813,2.113804817199707,-0.2224126011133194
1.3620609045028687,2.1180500984191895,-0.21475614607334137
1.391587495803833,2.1322734355926514,-0.20813976228237152
1.4059315919876099,2.1236989498138428,-0.1992194950580597
1.4013921022415161,2.085446357727051,-0.18722005188465118
1.7187916040420532,2.5207324028015137,-0.2160051167011261
1.8245365619659424,2.638190746307373,-0.21502935886383057
1.9595012664794922,2.7922186851501465,-0.21536101400852203
1.9606267213821411,2.7542243003845215,-0.20014122128486633
1.9672938585281372,2.726381778717041,-0.18587538599967957
1.4518762826919556,1.9830563068389893,-0.12552587687969208
1.4767688512802124,1.989571213722229,-0.11612685769796371
1.5430431365966797,2.170374870300293,0.390074759721756
1.7629932165145874,2.519240140914917,0.46205756068229675
1.5932540893554688,2.310809850692749,0.4317544400691986
1.5141677856445312,2.2321860790252686,0.42438212037086487
1.5069704055786133,2.2585244178771973,0.4365873634815216
1.494688868522644,2.2742762565612793,0.44620901346206665
1.4814120531082153,2.2904562950134277,0.45597177743911743
1.4713521003723145,2.313558340072632,0.46682143211364746
1.453660249710083,2.3231141567230225,0.4747256338596344
1.463019609451294,2.3746280670166016,0.4910354018211365
1.4730075597763062,2.430046558380127,0.5082011818885803
1.4496341943740845,2.4335062503814697,0.5144997835159302
1.4020317792892456,2.393153667449951,0.5111607313156128
1.3981120586395264,2.425058603286743,0.5229900479316711
1.3877719640731812,2.447180986404419,0.532703697681427
1.3650271892547607,2.4497103691101074,0.5378869771957397
2.8994836807250977,5.2978692054748535,1.1734193563461304
2.8613829612731934,5.315606594085693,1.1866528987884521
2.837456226348877,5.360154628753662,1.2059911489486694
2.8077261447906494,5.398800849914551,1.2234629392623901
2.775028705596924,5.434288024902344,1.2400840520858765
2.7764360904693604,5.5378737449646,1.2724378108978271
2.736762285232544,5.554799556732178,1.2845529317855835
1.2310709953308105,2.543090581893921,0.591860830783844
1.2185859680175781,2.564805269241333,0.600351870059967
1.1991627216339111,2.5727171897888184,0.6055849194526672
1.164076566696167,2.545637845993042,0.6025229692459106
1.1549454927444458,2.573742389678955,0.6124511957168579
2.579119920730591,5.856461048126221,1.4009788036346436
2.5526390075683594,5.911228656768799,1.4208968877792358
2.532010793685913,5.983883857727051,1.444894790649414
2.506110429763794,6.045909881591797,1.4665100574493408
2.4764649868011475,6.096764087677002,1.4853861331939697
2.4486663341522217,6.150640964508057,1.5049995183944702
2.4213335514068604,6.208055019378662,1.5255298614501953
2.3847439289093018,6.248432159423828,1.541013479232788
2.357065200805664,6.313509941101074,1.562732219696045
2.3216917514801025,6.360705852508545,1.5802257061004639
2.299739122390747,6.4391560554504395,1.6053481101989746
2.2680132389068604,6.492430210113525,1.6243653297424316
2.2387638092041016,6.5565972328186035,1.6458889245986938
2.2014811038970947,6.603181838989258,1.6623420715332031
2.1592395305633545,6.638950347900391,1.6762875318527222
2.0962836742401123,6.605245590209961,1.6726113557815552
2.038438081741333,6.5815749168396,1.6713831424713135
1.9788333177566528,6.550167083740234,1.6682149171829224
1.9161361455917358,6.507542133331299,1.6618691682815552
1.8594145774841309,6.486735820770264,1.6602646112442017
1.8012056350708008,6.462019443511963,1.6577774286270142
1.7425624132156372,6.429238796234131,1.6531745195388794
0.841439425945282,3.19234037399292,0.8227306008338928
0.832169234752655,3.248737335205078,0.8392055034637451
1.5811764001846313,6.35659122467041,1.6458673477172852
0.796994686126709,3.30665922164917,0.8576433062553406
1.47484290599823,6.317110061645508,1.6413028240203857
1.4168593883514404,6.270786285400391,1.632161021232605
1.3645190000534058,6.242306709289551,1.6276472806930542
1.3168479204177856,6.231876850128174,1.6278754472732544
1.260357141494751,6.180431365966797,1.6174819469451904
1.212147831916809,6.165780544281006,1.6160587072372437
1.1631115674972534,6.147235870361328,1.6131893396377563
1.1083124876022339,6.09482479095459,1.6014865636825562
1.0643583536148071,6.09779691696167,1.6043825149536133
1.0148040056228638,6.066891670227051,1.5984313488006592
0.967645525932312,6.042970180511475,1.5943385362625122
0.9192256927490234,6.007477760314941,1.587240219116211
0.8755494952201843,6.005619049072266,1.5880711078643799
0.8251621127128601,5.954808712005615,1.5759578943252563
0.7827022671699524,5.963617324829102,1.5797148942947388
0.640377938747406,5.158481121063232,1.367705225944519
0.5934296250343323,5.068415641784668,1.345125436782837
0.5610480308532715,5.0980987548828125,1.3543720245361328
0.5250588059425354,5.097568035125732,1.3555049896240234
0.39006859064102173,4.067074298858643,1.0819367170333862
0.36726704239845276,4.1409173011779785,1.1021058559417725
0.3375357687473297,4.135564804077148,1.101250171661377
0.30837756395339966,4.133752346038818,1.101385474205017
0.2798698842525482,4.1392621994018555,1.1035230159759521
0.25284940004348755,4.1709513664245605,1.1127005815505981
0.4140816330909729,7.7379536628723145,2.065305233001709
0.358894020318985,7.717818737030029,2.0600950717926025
0.30331966280937195,7.682209014892578,2.050853967666626
0.24823200702667236,7.642429828643799,2.0405962467193604
0.1938953697681427,7.598480701446533,2.029317617416382
0.14019502699375153,7.599442005157471,2.0301380157470703
0.0871066004037857,7.573602199554443,2.023885726928711
0.034361910074949265,7.566400527954102,2.022156238555908
-0.01815778762102127,7.536392688751221,2.0136139392852783
-0.07015270739793777,7.494699954986572,2.0020506381988525
-0.1226574257016182,7.463956356048584,1.9935084581375122
-0.17383073270320892,7.432865142822266,1.984978199005127
-0.22503560781478882,7.4165120124816895,1.9804810285568237
-0.276584267616272,7.41489315032959,1.9800142049789429
-0.32751721143722534,7.401760101318359,1.975961685180664
-0.2751290500164032,5.375484943389893,1.4341704845428467
-0.3129761815071106,5.373752117156982,1.432903528213501
-0.34918251633644104,5.356720924377441,1.4276422262191772
-0.38590478897094727,5.346963882446289,1.4243875741958618
-0.42012453079223633,5.306843280792236,1.4131187200546265
-0.4501760005950928,5.225128173828125,1.3908545970916748
-0.4284250736236572,4.594405174255371,1.2221304178237915
-0.45782914757728577,4.5692853927612305,1.2143009901046753
-0.49012646079063416,4.574016571044922,1.2144662141799927
-0.5195126533508301,4.552250385284424,1.2076560258865356
-0.5493469834327698,4.5340142250061035,1.2018390893936157
-0.5814703106880188,4.530501842498779,1.1999694108963013
-0.6099339723587036,4.504367351531982,1.1921883821487427
-0.6409622430801392,4.500668525695801,1.1898754835128784
-0.6695754528045654,4.481895923614502,1.1833534240722656
-0.6967929601669312,4.45546817779541,1.1748788356781006
-0.7279669642448425,4.451168060302734,1.172272801399231
-0.7583211660385132,4.442944526672363,1.168699026107788
-0.7839608788490295,4.408447742462158,1.1582813262939453
-0.8132849335670471,4.396116256713867,1.153754711151123
-0.8298391699790955,4.320683002471924,1.1320914030075073
-0.7256066203117371,3.644085645675659,0.9531798958778381
-0.7440378665924072,3.6063201427459717,0.9417009353637695
-0.9143345952033997,4.282930374145508,1.1165413856506348
-0.9548028111457825,4.32535982131958,1.1257760524749756
-0.9841704964637756,4.315752029418945,1.1214998960494995
-1.0089390277862549,4.2875752449035645,1.1123411655426025
-1.0350639820098877,4.26679801940918,1.1044983863830566
-1.0677661895751953,4.27537727355957,1.1043508052825928
-1.09502112865448,4.26167631149292,1.0984915494918823
-1.1169495582580566,4.225664138793945,1.0869038105010986
-1.146525502204895,4.21877384185791,1.0828648805618286
-1.178622841835022,4.218851089477539,1.0806245803833008
-1.2013070583343506,4.18991756439209,1.0705699920654297
-1.2319142818450928,4.190121173858643,1.0677695274353027
-1.2603880167007446,4.182832717895508,1.063104271888733
-1.2847044467926025,4.160738468170166,1.0546996593475342
-1.3086732625961304,4.134587287902832,1.0452393293380737
-1.3423782587051392,4.140952110290527,1.0441018342971802
-1.3615424633026123,4.1039347648620605,1.0318540334701538
-1.3917800188064575,4.103154182434082,1.028296947479248
-1.4145958423614502,4.080597877502441,1.0193356275558472
-1.4449577331542969,4.079361438751221,1.0157324075698853
-1.4742019176483154,4.0702972412109375,1.0100563764572144
-1.5002293586730957,4.0540452003479,1.002713918685913
-1.5231677293777466,4.030614852905273,0.9935193061828613
-1.5532094240188599,4.028801918029785,0.9891560077667236
-1.5776768922805786,4.012598514556885,0.9813107252120972
-1.5998481512069702,3.988922595977783,0.9716066718101501
-1.6280211210250854,3.979052782058716,0.9652583003044128
-1.6487895250320435,3.951382637023926,0.954657256603241
-1.683774471282959,3.95890474319458,0.9523742198944092
-1.7043906450271606,3.9350953102111816,0.9421594142913818
-1.7298355102539062,3.9214701652526855,0.9343690276145935
-1.7585251331329346,3.914544105529785,0.928180992603302
-1.772101879119873,3.8723556995391846,0.913577139377594
-1.7996881008148193,3.8613033294677734,0.9064028859138489
-1.8293920755386353,3.8575477600097656,0.9004855155944824
-1.862535834312439,3.8604636192321777,0.8958792090415955
-1.881858229637146,3.835829257965088,0.8850125074386597
-1.9057857990264893,3.8173117637634277,0.8753403425216675
-1.9468739032745361,3.8327577114105225,0.8734720349311829
-1.9699712991714478,3.814215660095215,0.8635942339897156
-1.977772831916809,3.768892288208008,0.8474136590957642
-2.003532886505127,3.757199764251709,0.8387801051139832
-2.008199691772461,3.7044408321380615,0.8208730220794678
-1.701403260231018,3.0872669219970703,0.6789612770080566
-1.7227981090545654,3.07704758644104,0.6713598966598511
-0.8384699821472168,1.4751689434051514,0.3191598951816559
-0.8523465991020203,1.476893424987793,0.3167768716812134
-0.8474211692810059,1.4450623989105225,0.3070942759513855
-0.8578280210494995,1.4397528171539307,0.30311310291290283
-0.8636045455932617,1.428168773651123,0.29766690731048584
-0.8731174468994141,1.423221468925476,0.293582946062088
-0.8913453221321106,1.4309453964233398,0.2919003963470459
-0.8934670090675354,1.4123367071151733,0.28479209542274475
-0.8949670791625977,1.3940074443817139,0.27771759033203125
-0.8958231806755066,1.3759881258010864,0.27066779136657715
-0.9095224142074585,1.3771294355392456,0.2673002779483795
-0.9497311115264893,1.4162049293518066,0.27091023325920105
-1.2865452766418457,1.866184949874878,0.3462095558643341
-1.3172876834869385,1.883800745010376,0.343569815158844
-1.2611629962921143,2.001164197921753,-0.2131546437740326
-1.1663990020751953,1.9116662740707397,-0.2180505096912384
-1.1063852310180664,1.8425977230072021,-0.21684163808822632
-0.831294059753418,1.4304659366607666,-0.1783858686685562
-0.8439795970916748,1.4762285947799683,-0.1890895515680313
-0.938040018081665,1.6675443649291992,-0.2191130667924881
-0.9123281836509705,1.649939775466919,-0.22230876982212067
-0.8667711019515991,1.5944730043411255,-0.2200109213590622
-0.8352199196815491,1.5622389316558838,-0.22045522928237915
-0.8058766722679138,1.5331393480300903,-0.2211112529039383
-0.7856454849243164,1.5210462808609009,-0.22404757142066956
-0.7638569474220276,1.5052982568740845,-0.2263498306274414
-0.7426871657371521,1.4891705513000488,-0.2283356487751007
-0.7097010016441345,1.4485938549041748,-0.22635313868522644
-0.6822894215583801,1.4181467294692993,-0.2257082164287567
-0.6621531248092651,1.4013035297393799,-0.22700318694114685
-0.6374770402908325,1.3737157583236694,-0.22639477252960205
-0.6208850741386414,1.363592267036438,-0.22855417430400848
0.6100078821182251,1.3513160943984985,-0.22767287492752075
0.6291942000389099,1.3687487840652466,-0.2269430160522461
0.6569775938987732,1.4034337997436523,-0.22887283563613892
0.6770958304405212,1.420320987701416,-0.22766807675361633
0.7038845419883728,1.451082706451416,-0.2285633683204651
0.7260425090789795,1.4711307287216187,-0.22759750485420227
0.7504397034645081,1.4943259954452515,-0.2269061803817749
0.7680494785308838,1.5035209655761719,-0.22396323084831238
0.8124201893806458,1.5642060041427612,-0.2284383326768875
0.8272358775138855,1.565982460975647,-0.22397038340568542
0.8659288883209229,1.612032413482666,-0.2256835401058197
0.9069482684135437,1.661168098449707,-0.2274961918592453
0.9428808093070984,1.6997531652450562,-0.22756630182266235
0.9701617360115051,1.7208847999572754,-0.2249538153409958
1.0193389654159546,1.7786122560501099,-0.22669918835163116
1.0569663047790527,1.8160091638565063,-0.22558975219726562
1.1110321283340454,1.8797118663787842,-0.2273499220609665
1.168448805809021,1.945894479751587,-0.22874370217323303
1.2204821109771729,2.0016160011291504,-0.22845235466957092
1.273227334022522,2.0568156242370605,-0.22755689918994904
1.3312064409255981,2.11783504486084,-0.22670668363571167
1.3546123504638672,2.122344732284546,-0.2194216251373291
1.381667137145996,2.133594512939453,-0.21273140609264374
1.3985605239868164,2.128096103668213,-0.20411546528339386
1.3944896459579468,2.089627504348755,-0.19207507371902466
1.7273279428482056,2.552072763442993,-0.22449643909931183
1.7910398244857788,2.608652353286743,-0.21886233985424042
1.94990873336792,2.798340320587158,-0.22284089028835297
1.9392099380493164,2.7449305057525635,-0.20681481063365936
1.9650235176086426,2.7418997287750244,-0.19410155713558197
1.456713080406189,2.003295421600342,-0.1323612779378891
1.4697675704956055,1.9943798780441284,-0.12229853868484497
3.400726795196533,4.818952560424805,0.8360466957092285
3.3411216735839844,4.8051581382751465,0.850585401058197
1.5529345273971558,2.270681858062744,0.40957364439964294
1.5067793130874634,2.2396249771118164,0.41128599643707275
1.505377173423767,2.2714972496032715,0.42387497425079346
1.4962983131408691,2.294358253479004,0.4347030818462372
1.482120156288147,2.3111157417297363,0.44431379437446594
1.4649970531463623,2.320507764816284,0.45208337903022766
1.4600541591644287,2.349360227584839,0.46370184421539307
1.4598004817962646,2.388737678527832,0.4771023690700531
1.5222370624542236,2.5339019298553467,0.5119927525520325
1.488093614578247,2.516921043395996,0.5139674544334412
1.4409232139587402,2.476231575012207,0.5109080076217651
1.4178730249404907,2.479198455810547,0.5165366530418396
1.3760381937026978,2.4484872817993164,0.5149083733558655
1.3764461278915405,2.4908714294433594,0.528456449508667
1.3548191785812378,2.4926223754882812,0.5333322882652283
2.844749689102173,5.323886394500732,1.1484323740005493
2.8209052085876465,5.377086162567139,1.1688765287399292
2.802473783493042,5.440034866333008,1.1914658546447754
2.78417706489563,5.498353004455566,1.2126750946044922
2.763517379760742,5.5531721115112305,1.2332854270935059
1.2426241636276245,2.5428266525268555,0.5683867931365967
1.2130392789840698,2.530414581298828,0.5691370964050293
1.1906789541244507,2.5313780307769775,0.5728091597557068
1.1694130897521973,2.531729221343994,0.5761655569076538
1.160833716392517,2.5597658157348633,0.5858699679374695
1.1452491283416748,2.5740480422973633,0.592269241809845
2.57879638671875,5.9125542640686035,1.3671317100524902
2.545685291290283,5.957633018493652,1.384458065032959
2.5206525325775146,6.015608310699463,1.4045242071151733
2.490978479385376,6.062737941741943,1.4221465587615967
2.4619333744049072,6.113363265991211,1.4406431913375854
2.429068088531494,6.161185264587402,1.4576613903045654
2.4044620990753174,6.233984470367432,1.4808509349822998
2.3736507892608643,6.288379669189453,1.4996534585952759
2.3475654125213623,6.352880477905273,1.5208430290222168
2.30908465385437,6.385010242462158,1.5344129800796509
2.28599214553833,6.463942050933838,1.5589014291763306
2.251204490661621,6.518388748168945,1.577103853225708
2.217855453491211,6.575977802276611,1.5961227416992188
2.1883420944213867,6.643949508666992,1.617716670036316
2.1322386264801025,6.628186225891113,1.6189093589782715
2.0729727745056152,6.601103782653809,1.6173726320266724
2.0092623233795166,6.56320333480835,1.6126810312271118
1.9517267942428589,6.543091773986816,1.6117384433746338
1.8892154693603516,6.504271507263184,1.6062268018722534
1.8311861753463745,6.475705623626709,1.6032122373580933
1.7755950689315796,6.450099945068359,1.6008821725845337
1.7193989753723145,6.4203948974609375,1.5975717306137085
0.8422301411628723,3.237569570541382,0.8075079917907715
1.6088050603866577,6.371609210968018,1.5922268629074097
0.8052840232849121,3.2885289192199707,0.8233868479728699
1.4993374347686768,6.317473411560059,1.584911584854126
1.4524766206741333,6.315380096435547,1.58751380443573
1.3992335796356201,6.2871599197387695,1.5836542844772339
1.3415881395339966,6.232431888580322,1.5730931758880615
1.2830201387405396,6.173970699310303,1.5605058670043945
1.23734712600708,6.1744794845581055,1.5628721714019775
1.1866321563720703,6.148609638214111,1.5586298704147339
1.135659098625183,6.118614196777344,1.5533949136734009
1.0928899049758911,6.125357627868652,1.5574921369552612
1.0443259477615356,6.098190784454346,1.5530294179916382
0.9860351085662842,6.01101541519165,1.5328158140182495
0.937427818775177,5.979676246643066,1.5263049602508545
0.8974973559379578,6.00799036026001,1.535123586654663
0.851734459400177,5.990928649902344,1.532391905784607
0.8034135103225708,5.947177886962891,1.5228618383407593
0.7628843188285828,5.95939302444458,1.5277279615402222
0.6063812971115112,5.0130534172058105,1.2866477966308594
0.5856926441192627,5.1445841789245605,1.3213183879852295
0.5519626140594482,5.178318500518799,1.3307815790176392
0.40607839822769165,4.082048416137695,1.0497196912765503
0.3774564862251282,4.084450721740723,1.0510553121566772
0.353523313999176,4.13941764831543,1.0659732818603516
0.3249985873699188,4.145204067230225,1.0682886838912964
0.293712317943573,4.120638847351074,1.0628384351730347
0.26845553517341614,4.179053783416748,1.078104019165039
0.44309282302856445,7.745742321014404,1.9986966848373413
0.3876485526561737,7.725672245025635,1.9940801858901978
0.33229532837867737,7.693861484527588,1.986522912979126
0.27698633074760437,7.673022747039795,1.9819023609161377
0.22299934923648834,7.651766777038574,1.9772518873214722
0.1688837707042694,7.611278057098389,1.967517375946045
0.11543618887662888,7.589596271514893,1.9615955352783203
0.062328044325113297,7.559976100921631,1.9537194967269897
0.008732329122722149,7.529986381530762,1.9458427429199219
-0.04355258494615555,7.518534183502197,1.9428540468215942
-0.09543683379888535,7.487810134887695,1.9349793195724487
-0.14674702286720276,7.449167251586914,1.925150752067566
-0.1977057307958603,7.4215989112854,1.9179483652114868
-0.248666450381279,7.405256271362305,1.9127757549285889
-0.3026007115840912,7.445221900939941,1.9222229719161987
-0.2556321322917938,5.37276029586792,1.3865971565246582
-0.2937827408313751,5.386200428009033,1.389575481414795
-0.33027440309524536,5.369163513183594,1.3847582340240479
-0.3660906255245209,5.344326496124268,1.3779982328414917
-0.40318384766578674,5.3343915939331055,1.37479829788208
-0.4387122392654419,5.316860198974609,1.3691331148147583
-0.40962448716163635,4.579227924346924,1.17825448513031
-0.44233956933021545,4.587984085083008,1.1796265840530396
-0.47346729040145874,4.577664375305176,1.1761441230773926
-0.5054873824119568,4.570836067199707,1.1736035346984863
-0.5355095863342285,4.552567481994629,1.1682006120681763
-0.5651467442512512,4.534217834472656,1.162424087524414
-0.5943605303764343,4.515789031982422,1.1563042402267456
-0.6264134645462036,4.519679546356201,1.1559590101242065
-0.6548174023628235,4.493282318115234,1.147900104522705
-0.6809023022651672,4.455505847930908,1.137016773223877
-0.7107333540916443,4.443752288818359,1.1328386068344116
-0.7428783774375916,4.446751117706299,1.1324782371520996
-0.7694984674453735,4.419854640960693,1.124001145362854
-0.7956892848014832,4.392861366271973,1.1153595447540283
-0.8248060941696167,4.380532741546631,1.1104801893234253
-0.715358316898346,3.661133050918579,0.9267035126686096
-0.737121045589447,3.6381070613861084,0.9194998741149902
-0.7624912261962891,3.63350510597229,0.9170047640800476
-0.9358217120170593,4.310756683349609,1.086362600326538
-0.9690676331520081,4.319887638092041,1.0863944292068481
-0.9984745979309082,4.314099311828613,1.082761526107788
-1.0261338949203491,4.300714015960693,1.0772725343704224
-1.0468904972076416,4.2575531005859375,1.06436288356781
-1.0766572952270508,4.251046657562256,1.0606695413589478
-1.1049953699111938,4.236858367919922,1.0550795793533325
-1.1321746110916138,4.222810745239258,1.0492430925369263
-1.1649171113967896,4.230732440948486,1.0485615730285645
-1.187483310699463,4.201836585998535,1.038807988166809
-1.2162902355194092,4.194661617279053,1.0344656705856323
-1.2440375089645386,4.179697036743164,1.0281552076339722
-1.2700163125991821,4.161040306091309,1.021043300628662
-1.3024487495422363,4.1640706062316895,1.0191881656646729
-1.3225771188735962,4.130993366241455,1.0079708099365234
-1.3529775142669678,4.130366802215576,1.0047317743301392
-1.3790740966796875,4.114936351776123,0.9978858232498169
-1.403030514717102,4.091984748840332,0.9892285466194153
-1.4342929124832153,4.090451717376709,0.9858037829399109
-1.4553085565567017,4.059990882873535,0.9754622578620911
-1.477495789527893,4.037106513977051,0.9663397073745728
-1.5100680589675903,4.042675495147705,0.9640775918960571
-1.5351687669754028,4.026432037353516,0.9565814733505249
-1.5580058097839355,4.002689838409424,0.9472836256027222
-1.586256980895996,3.992978572845459,0.9413616061210632
-1.6115176677703857,3.976022481918335,0.9337260723114014
-1.6383553743362427,3.9665470123291016,0.927299976348877
-1.6641192436218262,3.953190565109253,0.9199405908584595
-1.695563554763794,3.9537885189056396,0.9159002304077148
-1.7204852104187012,3.936229705810547,0.9075325131416321
-1.7436829805374146,3.915008783340454,0.8983851075172424
-1.7739444971084595,3.9113757610321045,0.8930646181106567
-1.8007274866104126,3.9007906913757324,0.8857281804084778
-1.8106659650802612,3.855576992034912,0.8707061409950256
-1.8474496603012085,3.8652355670928955,0.8679550290107727
-1.8715885877609253,3.8467917442321777,0.8588201403617859
-1.8954682350158691,3.8282251358032227,0.8497064709663391
-1.9250620603561401,3.8238155841827393,0.843086302280426
-1.9542046785354614,3.8193814754486084,0.8365813493728638
-1.9769611358642578,3.8008062839508057,0.8268726468086243
-1.9932714700698853,3.768096923828125,0.813975989818573
-2.0056040287017822,3.728538990020752,0.7997071743011475
-2.0379533767700195,3.730341672897339,0.793828547000885
-1.7166444063186646,3.093520164489746,0.6529898047447205
-1.7342469692230225,3.0764617919921875,0.6440090537071228
-0.8217819929122925,1.4343727827072144,0.29765626788139343
-0.8474075794219971,1.455867052078247,0.2994305491447449
-0.8610383868217468,1.4575862884521484,0.2969113290309906
-0.8669650554656982,1.4459015130996704,0.29162898659706116
-0.8812875151634216,1.4470754861831665,0.2888021171092987
-0.8714459538459778,1.4087491035461426,0.2781333327293396
-0.8645932674407959,1.3775140047073364,0.2688489854335785
-0.9027062654495239,1.4180811643600464,0.27349889278411865
-0.8960634469985962,1.386562705039978,0.26396986842155457
-0.9145585894584656,1.3938050270080566,0.261814147233963
-0.9069286584854126,1.362701416015625,0.2523672878742218
-0.9461571574211121,1.4023535251617432,0.2559264004230499
-2.416255235671997,3.5296878814697266,0.6339421272277832
-1.279537558555603,1.8412357568740845,0.32510146498680115
-1.4407591819763184,2.045912981033325,0.3548506498336792
-1.3419970273971558,2.112149238586426,-0.21587421000003815
-1.286498785018921,2.0587971210479736,-0.21835996210575104
-1.1358474493026733,1.8757816553115845,-0.2122572809457779
-1.1217910051345825,1.8833699226379395,-0.21968749165534973
-0.8458713889122009,1.4670945405960083,-0.18102431297302246
-0.9230373501777649,1.6280237436294556,-0.2062133252620697
-0.9468607306480408,1.6984556913375854,-0.22062282264232635
-0.902999997138977,1.6465427875518799,-0.2189772129058838
-0.8837093114852905,1.6385893821716309,-0.22295306622982025
-0.8332602977752686,1.5724284648895264,-0.21882115304470062
-0.8039413690567017,1.5432912111282349,-0.21935808658599854
-0.7840308547019958,1.5310202836990356,-0.22210121154785156
-0.7658475041389465,1.5221236944198608,-0.2252081036567688
-0.7340400218963623,1.4853160381317139,-0.22402550280094147
-0.7096872925758362,1.4620283842086792,-0.2246490716934204
-0.6942368149757385,1.455855369567871,-0.2277190089225769
-0.6704919934272766,1.4321370124816895,-0.2278802990913391
-0.6439070701599121,1.4011406898498535,-0.2267218679189682
-0.6227608323097229,1.3803508281707764,-0.226995587348938
0.6322929263114929,1.4139374494552612,-0.23369860649108887
0.645651638507843,1.417094349861145,-0.23052598536014557
0.6720311045646667,1.4482078552246094,-0.23182877898216248
0.6756178736686707,1.430153489112854,-0.22518187761306763
0.717440664768219,1.4923399686813354,-0.23101146519184113
0.7415863275527954,1.5157610177993774,-0.23054976761341095
0.7560199499130249,1.5180110931396484,-0.22667840123176575
0.7893806099891663,1.5583223104476929,-0.22839197516441345
0.8037306070327759,1.5604236125946045,-0.22435684502124786
0.8363662362098694,1.5966205596923828,-0.22500212490558624
0.8714574575424194,1.6358373165130615,-0.22580358386039734
0.9141726493835449,1.6884976625442505,-0.2281419038772583
0.9522567391395569,1.7303766012191772,-0.22861801087856293
0.9891976714134216,1.7683775424957275,-0.2282642126083374
1.028505563735962,1.8094110488891602,-0.22802825272083282
1.0816694498062134,1.873752474784851,-0.23036134243011475
1.1281424760818481,1.923951268196106,-0.2304583638906479
1.1759185791015625,1.973319172859192,-0.2298508584499359
1.2237352132797241,2.02254056930542,-0.22896713018417358
1.2965353727340698,2.111088752746582,-0.23204123973846436
1.328048586845398,2.129075288772583,-0.2266351878643036
1.3616620302200317,2.1501846313476562,-0.22138503193855286
1.3764402866363525,2.1416194438934326,-0.21285219490528107
1.3956912755966187,2.139280080795288,-0.20477449893951416
1.395715594291687,2.107469320297241,-0.19382396340370178
1.7225871086120605,2.564566135406494,-0.22620178759098053
1.777631402015686,2.608258008956909,-0.21979106962680817
1.931625247001648,2.791904926300049,-0.22368310391902924
1.9209868907928467,2.738511562347412,-0.2081693857908249
1.926313877105713,2.7070393562316895,-0.19408577680587769
1.4496716260910034,2.008220672607422,-0.13500729203224182
1.4581105709075928,1.9930654764175415,-0.12502996623516083
1.4767282009124756,1.9896628856658936,-0.11506903171539307
1.5510486364364624,2.1799874305725098,0.3573310971260071
3.383070945739746,4.826447486877441,0.8083562850952148
3.3481152057647705,4.856685638427734,0.8300297260284424
1.5240263938903809,2.2458910942077637,0.3910365104675293
1.511952519416809,2.2618534564971924,0.40064698457717896
1.5068449974060059,2.2915525436401367,0.4125047028064728
1.4841325283050537,2.295604944229126,0.4197966456413269
1.5006977319717407,2.356950283050537,0.43701624870300293
1.5837348699569702,2.5266404151916504,0.4748075306415558
3.0670225620269775,4.9764604568481445,0.9470033645629883
3.0327694416046143,5.00347375869751,0.9637194275856018
3.0058023929595947,5.039297580718994,0.981752872467041
2.9765079021453857,5.071693420410156,0.9988424181938171
2.9561927318573,5.125243186950684,1.019653081893921
2.9242796897888184,5.158403396606445,1.036443829536438
2.8928236961364746,5.186669826507568,1.0516688823699951
2.8918988704681396,5.272322177886963,1.078890323638916
2.85890531539917,5.305116176605225,1.0945466756820679
2.8379054069519043,5.361576080322266,1.1151832342147827
2.8127002716064453,5.406912803649902,1.1332802772521973
2.782715082168579,5.441423416137695,1.149023413658142
2.773435592651367,5.52098274230957,1.1743568181991577
2.7501413822174072,5.577218532562256,1.1941397190093994
1.2311069965362549,2.5439884662628174,0.5482693314552307
1.1995772123336792,2.524000406265259,0.547340989112854
1.181545615196228,2.531412363052368,0.5523111820220947
1.1663659811019897,2.5458054542541504,0.5587181448936462
1.159428596496582,2.5815470218658447,0.5696370005607605
2.580803394317627,5.861484527587891,1.3002783060073853
2.5642447471618652,5.9373955726623535,1.3238604068756104
2.5340397357940674,5.981327056884766,1.340361475944519
2.5032198429107666,6.025139808654785,1.3569482564926147
2.4820704460144043,6.101922988891602,1.3802443742752075
2.445150852203369,6.139327049255371,1.394685983657837
2.4182090759277344,6.201174736022949,1.414731740951538
2.3851892948150635,6.244561672210693,1.4305115938186646
2.361098527908325,6.312774181365967,1.4521193504333496
2.3330256938934326,6.378045082092285,1.4728107452392578
2.29764461517334,6.425393104553223,1.4888420104980469
2.2628791332244873,6.476155757904053,1.5058070421218872
2.239814043045044,6.558839321136475,1.5302224159240723
2.2068541049957275,6.612288475036621,1.5478882789611816
2.1712276935577393,6.662177562713623,1.5649526119232178
2.103511095046997,6.614076614379883,1.5582047700881958
2.0416367053985596,6.583828449249268,1.5553183555603027
1.981487512588501,6.556675910949707,1.553184986114502
1.919745922088623,6.517758846282959,1.5481834411621094
1.8644713163375854,6.496476650238037,1.5473417043685913
1.805742859840393,6.4639387130737305,1.5439181327819824
1.7514828443527222,6.445796489715576,1.543199896812439
1.686376690864563,6.386969089508057,1.532354474067688
0.8342534899711609,3.2540717124938965,0.7823984622955322
1.584494709968567,6.3671064376831055,1.5342004299163818
0.7940424084663391,3.290093421936035,0.7945245504379272
1.477871298789978,6.3157830238342285,1.5285652875900269
1.4281190633773804,6.302567481994629,1.5284042358398438
1.369066834449768,6.248414993286133,1.5176695585250854
1.308433175086975,6.182621479034424,1.5041358470916748
1.2680084705352783,6.213198184967041,1.5141375064849854
1.2150506973266602,6.172375679016113,1.5067036151885986
1.164777398109436,6.142339706420898,1.5019450187683105
1.119072675704956,6.134329795837402,1.5026239156723022
1.066877007484436,6.09266996383667,1.4941520690917969
1.0163792371749878,6.061967849731445,1.4883744716644287
0.9665542244911194,6.027007102966309,1.4815735816955566
0.9219298362731934,6.017833232879639,1.481142520904541
0.8755669593811035,5.993277072906494,1.4769716262817383
0.829068660736084,5.964616298675537,1.471840500831604
0.7816216349601746,5.932032585144043,1.465462327003479
0.6280525922775269,5.040868759155273,1.2461919784545898
0.5906509160995483,5.029641628265381,1.2443597316741943
0.5729820728302002,5.195340156555176,1.2863917350769043
0.5305247902870178,5.138368129730225,1.2733581066131592
0.3908691704273224,4.061832427978516,1.0074721574783325
0.36611297726631165,4.109446048736572,1.0202531814575195
0.342001348733902,4.1683220863342285,1.035425066947937
0.31070172786712646,4.143940448760986,1.0297187566757202
0.2816094756126404,4.1458048820495605,1.030582070350647
0.2536582946777344,4.166385650634766,1.0361508131027222
0.41645675897598267,7.741386413574219,1.9261705875396729
0.3611634075641632,7.713406562805176,1.9202262163162231
0.3064306378364563,7.688823223114014,1.915212631225586
0.25160279870033264,7.6527557373046875,1.9063023328781128
0.19756487011909485,7.631504058837891,1.9009875059127808
0.1428564339876175,7.606098651885986,1.8947323560714722
0.08964961022138596,7.584081649780273,1.8894118070602417
0.03671931475400925,7.554113388061523,1.8822004795074463
-0.015723438933491707,7.535149097442627,1.8778196573257446
-0.06781792640686035,7.4968767166137695,1.868691086769104
-0.12044978886842728,7.473690986633301,1.8621423244476318
-0.171518012881279,7.438784599304199,1.8527836799621582
-0.2225370854139328,7.4148945808410645,1.8462615013122559
-0.2734242379665375,7.398232460021973,1.8416322469711304
-0.3276718258857727,7.460748195648193,1.8567980527877808
-0.2748515009880066,5.402686595916748,1.3443752527236938
-0.3122837245464325,5.389458179473877,1.3407549858093262
-0.3475642502307892,5.357273578643799,1.3317464590072632
-0.3845241665840149,5.355113506317139,1.3302726745605469
-0.4185572564601898,5.314892768859863,1.319412112236023
-0.4498482346534729,5.248000621795654,1.3020082712173462
-0.42628273367881775,4.591785430908203,1.1385468244552612
-0.45780789852142334,4.585254192352295,1.1363369226455688
-0.4887353777885437,4.574810981750488,1.1329387426376343
-0.5184574127197266,4.556760787963867,1.1272163391113281
-0.5488638281822205,4.546047210693359,1.123368263244629
-0.5777552127838135,4.520015239715576,1.115776538848877
-0.6071655750274658,4.501336097717285,1.1100695133209229
-0.6363965272903442,4.482456684112549,1.104372262954712
-0.668698787689209,4.485915184020996,1.1042356491088867
-0.697913646697998,4.470527648925781,1.099074363708496
-0.7267009019851685,4.451220512390137,1.0926754474639893
-0.7559123039245605,4.43930196762085,1.088183045387268
-0.7838215231895447,4.419687271118164,1.0818554162979126
-0.8118520975112915,4.399834632873535,1.0755140781402588
-0.8303462266921997,4.331301689147949,1.0573513507843018
-0.727109968662262,3.655346632003784,0.8911883234977722
-0.7494310736656189,3.6359972953796387,0.8847792744636536
-0.920050323009491,4.3153910636901855,1.048116683959961
-0.9511311054229736,4.317232608795166,1.0466214418411255
-0.9826704859733582,4.318772315979004,1.0450702905654907
-1.011092185974121,4.3052144050598145,1.0398975610733032
-1.0399065017700195,4.291349411010742,1.0346757173538208
-1.0695754289627075,4.28492546081543,1.031050443649292
-1.0949517488479614,4.263763904571533,1.023504376411438
-1.1220314502716064,4.249804973602295,1.017747402191162
-1.1510573625564575,4.2429938316345215,1.0137461423873901
-1.177120566368103,4.2210235595703125,1.006085753440857
-1.2045148611068726,4.206338405609131,1.0002652406692505
-1.2339413166046143,4.198772430419922,0.9961772561073303
-1.2546887397766113,4.1658782958984375,0.9854832887649536
-1.2851561307907104,4.165650844573975,0.9825749397277832
-1.3115732669830322,4.150526523590088,0.9761496186256409
-1.3358479738235474,4.127871990203857,0.9679799675941467
-1.3647979497909546,4.119510173797607,0.9632063508033752
-1.386389970779419,4.08925199508667,0.9533711075782776
-1.41922128200531,4.09534215927124,0.9515198469161987
-1.4392719268798828,4.065290451049805,0.9412013292312622
-1.4646730422973633,4.049336910247803,0.93415367603302
-1.495589256286621,4.047421455383301,0.9303444623947144
-1.5241013765335083,4.03803825378418,0.924828827381134
-1.549804449081421,4.021318435668945,0.9176846146583557
-1.5743473768234253,4.004915714263916,0.9101276397705078
-1.5989981889724731,3.9882874488830566,0.9024183750152588
-1.625950813293457,3.9787309169769287,0.8964207172393799
-1.6539467573165894,3.968580722808838,0.890174925327301
-1.67151939868927,3.9335310459136963,0.8783960938453674
-1.6991164684295654,3.9230923652648926,0.8721085786819458
-1.7167059183120728,3.8918447494506836,0.8606439232826233
-1.761742353439331,3.923576593399048,0.8631976842880249
-1.7758738994598389,3.8850317001342773,0.8502396941184998
-1.806675910949707,3.880802869796753,0.8446967601776123
-1.824401617050171,3.848599433898926,0.8331178426742554
-1.8645349740982056,3.8650243282318115,0.831600546836853
-1.8837718963623047,3.840216636657715,0.8211269378662109
-1.9027531147003174,3.8153023719787598,0.8107046484947205
-1.940274953842163,3.823882579803467,0.8071433305740356
-1.967473030090332,3.8116354942321777,0.7991909980773926
-1.9865754842758179,3.786072015762329,0.7882207632064819
-2.0051047801971436,3.760633945465088,0.7769700288772583
-2.0119149684906006,3.715034008026123,0.7617736458778381
-1.7193646430969238,3.1229233741760254,0.6351792812347412
-1.722828984260559,3.0784943103790283,0.6210318803787231
-1.7475841045379639,3.074869155883789,0.6149056553840637
-0.8351251482963562,1.4472137689590454,0.2867448329925537
-0.8605374097824097,1.4688012599945068,0.28829875588417053
-0.8631677627563477,1.4501174688339233,0.28179389238357544
-0.8734589219093323,1.444699764251709,0.27788394689559937
-0.8789952993392944,1.4330660104751587,0.27262404561042786
-0.8642040491104126,1.3885631561279297,0.261165589094162
-0.8906067609786987,1.4092274904251099,0.26182758808135986
-0.9090851545333862,1.416561245918274,0.2599100172519684
-0.9016305208206177,1.3853965997695923,0.2508084774017334
-0.906496524810791,1.3737494945526123,0.24531596899032593
-0.9035794734954834,1.34868586063385,0.23715175688266754
-2.40706205368042,3.5397017002105713,0.6127257943153381
-2.421440362930298,3.5132510662078857,0.5980576276779175
-1.5139732360839844,2.1666994094848633,0.3624297082424164
-1.3176075220108032,2.090785503387451,-0.21272310614585876
-1.2922720909118652,2.0828254222869873,-0.219280406832695
-1.221845269203186,2.001972198486328,-0.21779224276542664
-1.15683913230896,1.9268282651901245,-0.21626971662044525
-0.8318657875061035,1.4311556816101074,-0.1699904501438141
-0.8443682789802551,1.4771184921264648,-0.18019509315490723
-0.968981921672821,1.722764253616333,-0.2154526263475418
-0.9092926383018494,1.6441553831100464,-0.21071870625019073
-0.9045254588127136,1.6637274026870728,-0.21825100481510162
-0.8741792440414429,1.635266661643982,-0.21932433545589447
-0.8353888392448425,1.5892515182495117,-0.21775370836257935
-0.8059074878692627,1.5601712465286255,-0.21821893751621246
-0.7784054279327393,1.5343295335769653,-0.2190311849117279
-0.7570812106132507,1.518334984779358,-0.2208937704563141
-0.7427703142166138,1.5160627365112305,-0.22467990219593048
-0.7148740291595459,1.4858684539794922,-0.22417481243610382
-0.6891971826553345,1.4588316679000854,-0.22394849359989166
-0.6722815036773682,1.4489845037460327,-0.2261805534362793
-0.64885413646698,1.4250155687332153,-0.2261456400156021
-0.6242903470993042,1.3972634077072144,-0.22525298595428467
-0.6080018877983093,1.3869091272354126,-0.2270316481590271
0.5879722833633423,1.377919316291809,-0.22966572642326355
0.6101123690605164,1.4026799201965332,-0.23037803173065186
0.6339960694313049,1.4308218955993652,-0.23156149685382843
0.6568712592124939,1.4551297426223755,-0.23193515837192535
0.6704460978507996,1.4581100940704346,-0.22882767021656036
0.6953798532485962,1.4855927228927612,-0.22940248250961304
0.7125600576400757,1.4952822923660278,-0.22705690562725067
0.7333276867866516,1.5117534399032593,-0.22564753890037537
0.7629291415214539,1.545377254486084,-0.22664988040924072
0.7910246849060059,1.5753587484359741,-0.2268821746110916
0.8125481605529785,1.5912208557128906,-0.2249329835176468
0.8578361868858337,1.6514639854431152,-0.22892849147319794
0.8842028975486755,1.6734154224395752,-0.22727826237678528
0.9269493222236633,1.7260973453521729,-0.229621022939682
0.959438681602478,1.7577954530715942,-0.22886058688163757
0.9945569038391113,1.7924023866653442,-0.2281591147184372
1.0432753562927246,1.8504544496536255,-0.23013468086719513
1.0832009315490723,1.8910996913909912,-0.22951985895633698
1.129753828048706,1.9412919282913208,-0.22969301044940948
1.1850690841674805,2.0042808055877686,-0.23095253109931946
1.224708080291748,2.040306806564331,-0.2287486046552658
1.2974258661270142,2.1289517879486084,-0.2319416105747223
1.3251185417175293,2.1402013301849365,-0.22597837448120117
1.358502984046936,2.161485195159912,-0.22103950381278992
1.3688982725143433,2.1465001106262207,-0.21232812106609344
1.3735121488571167,2.12121319770813,-0.20232638716697693
1.383963704109192,2.1058788299560547,-0.19335195422172546
1.7829487323760986,2.6741394996643066,-0.23576459288597107
1.7820457220077515,2.6334598064422607,-0.22216792404651642
1.8577290773391724,2.7054314613342285,-0.2177504301071167
1.8979179859161377,2.7259387969970703,-0.20876096189022064
1.9214401245117188,2.7198779582977295,-0.1970057487487793
1.4427740573883057,2.0130386352539062,-0.13712315261363983
1.4467298984527588,1.9915473461151123,-0.12714649736881256
1.474732756614685,2.000675678253174,-0.11834146827459335
1.574026346206665,2.227346181869507,0.35195133090019226
3.337230682373047,4.801388740539551,0.775319516658783
1.543357014656067,2.2551429271698,0.37136247754096985
1.526615023612976,2.2650721073150635,0.3800323009490967
1.512739658355713,2.282228946685791,0.3895282447338104
1.4950629472732544,2.2924511432647705,0.39766302704811096
1.5035473108291626,2.340866804122925,0.41212236881256104
1.6075876951217651,2.543436050415039,0.45415112376213074
1.5953232049942017,2.56785249710083,0.4648374021053314
3.019604206085205,4.939096450805664,0.9053130149841309
2.9999210834503174,4.984484672546387,0.9245813488960266
2.981745481491089,5.037599086761475,0.9449772834777832
2.94640851020813,5.064610958099365,0.9603623151779175
2.933100938796997,5.127509593963623,0.9823841452598572
2.915123462677002,5.17946195602417,1.0020464658737183
2.8859739303588867,5.215247631072998,1.0183539390563965
2.8678534030914307,5.275359153747559,1.0391321182250977
2.827929973602295,5.294370174407959,1.0517854690551758
2.823363780975342,5.377054214477539,1.0769133567810059
2.788437843322754,5.401475429534912,1.0903918743133545
2.773606538772583,5.47147274017334,1.112438678741455
2.7594051361083984,5.545021057128906,1.1353670358657837
1.2463330030441284,2.5501813888549805,0.5257124900817871
1.2145119905471802,2.5303964614868164,0.5251250267028809
1.1898179054260254,2.524102210998535,0.527214527130127
1.177213191986084,2.5459394454956055,0.5348482131958008
1.1611989736557007,2.5607149600982666,0.5410499572753906
1.1425156593322754,2.5681347846984863,0.5456382036209106
2.572166919708252,5.891748905181885,1.258565068244934
2.549199342727661,5.953728675842285,1.2787977457046509
2.5227489471435547,6.012803554534912,1.2975561618804932
2.488194465637207,6.054102897644043,1.312545657157898
2.463650941848755,6.119881629943848,1.332923412322998
2.4316139221191406,6.163595199584961,1.348402500152588
2.4051742553710938,6.225248336791992,1.3680566549301147
2.377774953842163,6.286989688873291,1.3872915506362915
2.347364664077759,6.345462322235107,1.4054354429244995
2.3149173259735107,6.400193691253662,1.4228954315185547
2.28177547454834,6.450756072998047,1.4394232034683228
2.250387668609619,6.5084028244018555,1.4576866626739502
2.2203879356384277,6.5692524909973145,1.4767144918441772
2.190598726272583,6.637852191925049,1.496779441833496
2.1420726776123047,6.651944160461426,1.5044324398040771
2.0716493129730225,6.596487045288086,1.496395230293274
2.0118587017059326,6.5693769454956055,1.4947201013565063
1.9504035711288452,6.530500411987305,1.4902745485305786
1.897056221961975,6.51674747467041,1.4915837049484253
1.8375741243362427,6.484751224517822,1.4878431558609009
1.7774198055267334,6.448667049407959,1.483031153678894
1.720842719078064,6.423119068145752,1.4806740283966064
1.6621983051300049,6.385954856872559,1.4756423234939575
1.6062264442443848,6.351743698120117,1.471229076385498
0.808567464351654,3.293614387512207,0.7647292017936707
1.509286642074585,6.34160041809082,1.4753239154815674
1.4525792598724365,6.302890300750732,1.4689425230026245
1.3940013647079468,6.256441593170166,1.4608405828475952
1.343263864517212,6.2352705001831055,1.4585901498794556
1.2949374914169312,6.221067905426025,1.45798921585083
1.2326983213424683,6.1355791091918945,1.4406967163085938
1.1923291683197021,6.158063888549805,1.4484484195709229
1.1433720588684082,6.143245697021484,1.44686758518219
1.092190146446228,6.109184265136719,1.440772533416748
1.0409088134765625,6.070966720581055,1.4337430000305176
0.9972965717315674,6.069747447967529,1.4354630708694458
0.9495482444763184,6.041923522949219,1.430950403213501
0.892525315284729,5.9536519050598145,1.4121818542480469
0.8525770902633667,5.974246978759766,1.4183772802352905
0.8101837635040283,5.979548931121826,1.4208853244781494
0.7667904496192932,5.977005958557129,1.4215993881225586
0.6073410511016846,5.011750221252441,1.1931681632995605
0.5806238651275635,5.087122917175293,1.2123286724090576
0.5570752024650574,5.207759857177734,1.2424062490463257
0.40659886598587036,4.06901216506958,0.9716380834579468
0.37937313318252563,4.0866594314575195,0.9762904644012451
0.35743817687034607,4.168485641479492,0.9963343143463135
0.3260262608528137,4.144126892089844,0.9910534620285034
0.2966301143169403,4.146080493927002,0.9921159148216248
0.26829853653907776,4.1553754806518555,0.9949727058410645
0.4462820589542389,7.748655796051025,1.8566242456436157
0.3914138078689575,7.736090183258057,1.8543026447296143
0.3361968696117401,7.711892604827881,1.8486714363098145
0.280197411775589,7.6835408210754395,1.842138409614563
0.22548246383666992,7.647163391113281,1.8337637186050415
