X,Y,Z
1.307978630065918,4.865283012390137,0.6049046516418457
1.275308609008789,4.881587982177734,0.608873724937439
1.2431583404541016,4.897505283355713,0.6127920150756836
1.217966079711914,4.943417549133301,0.6203742027282715
1.1852701902389526,4.962995529174805,0.6243661046028137
1.155028223991394,4.993677139282227,0.6297951340675354
1.1205589771270752,5.0091400146484375,0.6333673596382141
1.088904857635498,5.031663417816162,0.6378113031387329
1.0601649284362793,5.069162368774414,0.6441991329193115
1.0106465816497803,5.007814884185791,0.6378031969070435
0.9853722453117371,5.067876815795898,0.6466647386550903
2.083845615386963,11.147383689880371,1.4251976013183594
1.995648741722107,11.107806205749512,1.422899603843689
0.9077485799789429,5.26254940032959,0.6754504442214966
1.8382598161697388,11.11807918548584,1.4298673868179321
1.739617943763733,11.000076293945312,1.416961669921875
1.6412981748580933,10.885428428649902,1.4041171073913574
1.5444414615631104,10.758257865905762,1.3896467685699463
1.4547438621520996,10.664754867553711,1.3795355558395386
1.3556791543960571,10.482078552246094,1.357883095741272
1.2719229459762573,10.402392387390137,1.3495848178863525
1.1847760677337646,10.287557601928711,1.3362051248550415
1.0999139547348022,10.191492080688477,1.3248720169067383
1.0211780071258545,10.12932300567627,1.3179731369018555
0.4045497477054596,4.315884113311768,0.5620890259742737
0.3724885582923889,4.295323848724365,0.5599607825279236
0.3413488268852234,4.282252311706543,0.5588307976722717
0.31148871779441833,4.292201042175293,0.5605608224868774
0.2854369878768921,4.356058597564697,0.569131076335907
0.33116456866264343,5.66099739074707,0.7399600744247437
0.2907280921936035,5.647619724273682,0.738581657409668
0.2514278292655945,5.649421691894531,0.7392210364341736
0.21283070743083954,5.6896820068359375,0.744939923286438
0.17450478672981262,5.733546733856201,0.7510151863098145
0.1344907283782959,5.7346110343933105,0.7511180639266968
0.09485304355621338,5.758632659912109,0.7542643547058105
0.054813139140605927,5.774632930755615,0.7563968300819397
0.01398201659321785,5.81359338760376,0.7615758776664734
-0.04987476021051407,10.984138488769531,1.4391227960586548
-0.024044545367360115,2.0913589000701904,0.27404800057411194
-0.039789389818906784,2.1569952964782715,0.2825107276439667
-0.15626302361488342,6.152563095092773,0.8054718971252441
-0.2754063010215759,8.512843132019043,1.114033818244934
-0.23835916817188263,6.0453948974609375,0.7908539175987244
-0.27784645557403564,5.989484786987305,0.7833078503608704
-0.19006483256816864,3.562312126159668,0.46576547622680664
-0.2147389054298401,3.560981512069702,0.4652186632156372
-0.2442806214094162,3.6329221725463867,0.47420361638069153
-0.2847382128238678,3.832071304321289,0.49977871775627136
-0.3100426495075226,3.814646005630493,0.4971177577972412
-0.3355417549610138,3.800905227661133,0.4949624836444855
-0.35902732610702515,3.7677125930786133,0.4903019070625305
-0.3819115161895752,3.734421968460083,0.4854312539100647
-0.40511831641197205,3.704826593399048,0.480929970741272
-0.4243639409542084,3.6481986045837402,0.47296735644340515
-0.4485774040222168,3.637618064880371,0.4710064232349396
-0.47035422921180725,3.607642650604248,0.46655774116516113
-0.49015316367149353,3.566023588180542,0.46063584089279175
-0.5107524394989014,3.531959056854248,0.45555171370506287
-0.5361216068267822,3.5361990928649902,0.4552731513977051
-0.561572790145874,3.540257453918457,0.4549889862537384
-0.576411247253418,3.4791259765625,0.4463569223880768
-1.091617226600647,6.3164567947387695,0.8089867234230042
-1.1458756923675537,6.366213321685791,0.8139951229095459
-1.2020094394683838,6.419287204742432,0.8191823959350586
-1.252463936805725,6.445546627044678,0.8206334114074707
-1.3072258234024048,6.490403652191162,0.8244621753692627
-1.3604203462600708,6.523404121398926,0.8267903923988342
-1.4171922206878662,6.56722354888916,0.830477237701416
-1.4602569341659546,6.542286396026611,0.8254661560058594
-1.496595025062561,6.494698524475098,0.8174471855163574
-1.5308740139007568,6.443320274353027,0.8086791634559631
-0.6905290484428406,2.821117401123047,0.35307449102401733
-0.696577250957489,2.763869524002075,0.34494128823280334
-0.7219905853271484,2.781585216522217,0.34615829586982727
-0.735343873500824,2.7542011737823486,0.3417966365814209
-0.7521751523017883,2.7418174743652344,0.33918875455856323
-0.7833577990531921,2.7816824913024902,0.34293171763420105
-1.762671709060669,6.100916862487793,0.7495520114898682
-1.7964812517166138,6.05918550491333,0.7418042421340942
-1.827475905418396,6.009866714477539,0.7331963777542114
-1.8613330125808716,5.9715166091918945,0.7259892821311951
-1.8878157138824463,5.9148736000061035,0.7161892652511597
-1.9229750633239746,5.8877482414245605,0.7099416255950928
-1.9548335075378418,5.849155426025391,0.7023147940635681
-1.9828165769577026,5.7992682456970215,0.6933726072311401
-2.014209508895874,5.7602033615112305,0.6857774257659912
-2.043443202972412,5.7174787521362305,0.6776733994483948
-2.0685014724731445,5.667728900909424,0.6684637665748596
-2.1011159420013428,5.6397223472595215,0.6618785858154297
-2.127781867980957,5.592927932739258,0.6530397534370422
-1.5508978366851807,3.99293851852417,0.46383047103881836
-1.5715678930282593,3.9643826484680176,0.4581487476825714
-1.5617741346359253,3.8641457557678223,0.44399023056030273
-1.5476547479629517,3.7570559978485107,0.42916378378868103
-1.5508025884628296,3.6930580139160156,0.4193217158317566
-1.5552195310592651,3.63252854347229,0.40991002321243286
-1.5712660551071167,3.6006104946136475,0.40380021929740906
-1.5908230543136597,3.579690456390381,0.39875274896621704
-1.60188627243042,3.5410878658294678,0.39171886444091797
-1.603249192237854,3.481083631515503,0.3823375999927521
-1.5962187051773071,3.403341770172119,0.3710484802722931
-1.6133073568344116,3.3784756660461426,0.3656078577041626
-1.639290452003479,3.3750293254852295,0.362309992313385
-1.6720229387283325,3.3854141235351562,0.3604485094547272
-1.7318836450576782,3.4472856521606445,0.3639039695262909
-1.7665928602218628,3.4563236236572266,0.36165183782577515
-1.8048938512802124,3.4720571041107178,0.3600279688835144
-1.8277862071990967,3.460543155670166,0.3553624451160431
-2.781383514404297,5.183614730834961,0.5270984768867493
-1.1439875364303589,2.097437620162964,0.2110685408115387
-1.1891337633132935,2.143975257873535,0.21340936422348022
-2.513826370239258,4.462492942810059,0.43916192650794983
-2.546896457672119,4.453325271606445,0.4331524670124054
-2.6004726886749268,4.477029800415039,0.4301333725452423
-2.6238977909088135,4.445956707000732,0.421651691198349
-1.2450684309005737,2.0773603916168213,0.19431759417057037
-1.25858736038208,2.0695173740386963,0.19088472425937653
-2.6698222160339355,4.32477331161499,0.39304080605506897
-2.7434678077697754,4.375987529754639,0.39150968194007874
-2.9918289184570312,4.703611373901367,0.41394615173339844
-3.003580093383789,4.6552042961120605,0.4026558995246887
-3.0441219806671143,4.64822244644165,0.39462825655937195
-3.0590786933898926,4.601791858673096,0.3830956816673279
-3.0558371543884277,4.534387588500977,0.36976614594459534
-3.0945425033569336,4.52773380279541,0.36122167110443115
-3.1135103702545166,4.487090587615967,0.34933826327323914
-3.146681785583496,4.474210739135742,0.3396562337875366
-2.854219913482666,4.003647327423096,0.2959000766277313
-2.8913800716400146,3.9969043731689453,0.28665658831596375
-2.9279754161834717,3.9950993061065674,0.2775626480579376
-2.909949541091919,3.9170353412628174,0.26276862621307373
-2.4519753456115723,3.458108901977539,-0.1595470905303955
-2.485940456390381,3.562595844268799,-0.17356674373149872
-2.77480411529541,4.036201477050781,-0.20619317889213562
-2.7522900104522705,4.069883823394775,-0.2176278531551361
-2.1992273330688477,3.3032636642456055,-0.1839725822210312
-2.167041301727295,3.3053760528564453,-0.19109684228897095
-1.3321785926818848,2.065478801727295,-0.12373705953359604
-2.1515750885009766,3.3887126445770264,-0.20972122251987457
-2.1226797103881836,3.397216320037842,-0.21688485145568848
-1.2660729885101318,2.0601449012756348,-0.13542672991752625
-2.0403311252593994,3.3736414909362793,-0.2278619110584259
-2.0064592361450195,3.370758533477783,-0.2335643619298935
-1.9892818927764893,3.3985302448272705,-0.24133366346359253
-1.9738446474075317,3.4295384883880615,-0.24937404692173004
-1.214043140411377,2.1436986923217773,-0.15931706130504608
-1.187026858329773,2.131747007369995,-0.16178517043590546
-2.0357491970062256,3.7195732593536377,-0.28809893131256104
-2.5304081439971924,4.700909614562988,-0.371084600687027
-2.5037107467651367,4.732153415679932,-0.380607008934021
-2.486954927444458,4.784263610839844,-0.3916826844215393
-1.7276593446731567,3.38248872756958,-0.2816927134990692
-1.700426459312439,3.3870770931243896,-0.2866984009742737
-1.6658141613006592,3.3777272701263428,-0.29042407870292664
-1.6509675979614258,3.4105069637298584,-0.2978033721446991
-1.6900968551635742,3.555370330810547,-0.3150283396244049
-1.6947046518325806,3.6301751136779785,-0.3262425661087036
-2.3025245666503906,5.0255961418151855,-0.4578068256378174
-2.2818641662597656,5.077024459838867,-0.4686364531517029
-2.245781898498535,5.0923991203308105,-0.4760548174381256
-2.1754910945892334,5.028976917266846,-0.47605636715888977
-2.212435483932495,5.215672492980957,-0.4995436668395996
-2.189772844314575,5.266696453094482,-0.5102166533470154
-1.8910486698150635,4.640130996704102,-0.4545314311981201
-1.8498669862747192,4.6309709548950195,-0.4585713744163513
-1.8049707412719727,4.614652156829834,-0.4617786705493927
-1.3448163270950317,3.511950731277466,-0.354959636926651
-1.7811673879623413,4.751667022705078,-0.4849756360054016
-2.033203601837158,5.5408759117126465,-0.5709376335144043
-1.980969786643982,5.517787456512451,-0.5737953782081604
-1.8764947652816772,5.347949981689453,-0.561058759689331
-1.5899955034255981,4.636223793029785,-0.49057918787002563
-1.5661487579345703,4.672478199005127,-0.49857354164123535
-1.8768504858016968,5.7315850257873535,-0.6166638135910034
-0.972393274307251,3.0423333644866943,-0.32981520891189575
-0.9629985690116882,3.0897583961486816,-0.3375379145145416
-0.919826090335846,3.0254697799682617,-0.332964152097702
-0.7783752679824829,2.62553071975708,-0.29106631875038147
-0.7631091475486755,2.641855478286743,-0.29486626386642456
-0.7506751418113708,2.669351100921631,-0.2998698949813843
-0.7441027760505676,2.7192516326904297,-0.30744776129722595
-0.7227321267127991,2.716684341430664,-0.3091515004634857
-0.712415337562561,2.7552318572998047,-0.3155011534690857
-0.6824766993522644,2.71852970123291,-0.31302541494369507
-0.6714428067207336,2.7569851875305176,-0.31921690702438354
-1.482649564743042,6.278217792510986,-0.7309107184410095
-1.4380346536636353,6.2879791259765625,-0.7361210584640503
-1.3787955045700073,6.229148864746094,-0.7328733801841736
-1.3161870241165161,6.1509108543396,-0.7270268201828003
-1.2641721963882446,6.117713451385498,-0.7264695167541504
-1.2101019620895386,6.068791389465332,-0.7239912152290344
-1.1523324251174927,6.000514507293701,-0.7192280888557434
-1.087550163269043,5.885962963104248,-0.7082012891769409
-1.0304685831069946,5.8052077293396,-0.7011461853981018
-0.9572323560714722,5.620680809020996,-0.6814483404159546
-0.9481087923049927,5.8105268478393555,-0.7071510553359985
-0.935523509979248,6.0006279945373535,-0.7329708337783813
-0.895720899105072,6.022022724151611,-0.7377724647521973
-0.8595197200775146,6.07002067565918,-0.745887815952301
-0.8125045299530029,6.040922164916992,-0.744560718536377
-0.6190047264099121,4.857625484466553,-0.6005457639694214
-0.7207680344581604,5.989401817321777,-0.7424023151397705
-0.6732911467552185,5.951729774475098,-0.7393960356712341
-0.6275347471237183,5.917471408843994,-0.7367987036705017
-0.58258455991745,5.882842063903809,-0.734157383441925
-0.5392115712165833,5.8594584465026855,-0.7329360246658325
-0.49503639340400696,5.8242506980896,-0.729732871055603
-0.45156821608543396,5.800380229949951,-0.7278357744216919
-0.2459508329629898,3.4718704223632812,-0.4363165497779846
-0.22277843952178955,3.4888594150543213,-0.43913760781288147
-0.19671180844306946,3.4592604637145996,-0.4361136555671692
-0.2808767557144165,5.632004737854004,-0.7105427980422974
-0.24088136851787567,5.633759021759033,-0.7113138437271118
-0.20052151381969452,5.604221343994141,-0.7081550359725952
-0.16018511354923248,5.558900833129883,-0.7030274868011475
-0.12154445052146912,5.559802532196045,-0.703637957572937
-0.08235052973031998,5.525627613067627,-0.6993159651756287
-0.04302401840686798,5.495058059692383,-0.6954847574234009
-0.0019574665930122137,2.239938974380493,-0.28352785110473633
0.026773417368531227,4.402281761169434,-0.5573175549507141
0.07046949863433838,5.405633449554443,-0.6842133402824402
0.1075817346572876,5.381834983825684,-0.6807213425636292
0.11200668662786484,4.156833171844482,-0.5254318118095398
0.1793391853570938,5.271486282348633,-0.6659138798713684
0.21371695399284363,5.215970039367676,-0.6585320830345154
0.2003645896911621,4.18087100982666,-0.5272821187973022
0.23023448884487152,4.194973468780518,-0.5283186435699463
0.25166258215904236,4.069601058959961,-0.5118342041969299
0.281487375497818,4.083301544189453,-0.5128714442253113
0.3142663240432739,4.1393327713012695,-0.5192499756813049
0.3448760211467743,4.160393238067627,-0.5208655595779419
0.3695269823074341,4.111748695373535,-0.5136866569519043
0.3938943147659302,4.0668182373046875,-0.5070196986198425
0.4227394759654999,4.0640950202941895,-0.5056256055831909
0.4501664638519287,4.053517818450928,-0.5032954216003418
0.47645288705825806,4.035122394561768,-0.49956855177879333
0.5034684538841248,4.024250507354736,-0.4968053102493286
0.6426248550415039,4.862732410430908,-0.5986320972442627
0.6759582757949829,4.850655555725098,-0.5954556465148926
0.7073743939399719,4.830781936645508,-0.5912586450576782
0.738351047039032,4.810779571533203,-0.5866978764533997
0.7691245675086975,4.7905707359313965,-0.582150936126709
0.7998113036155701,4.770139217376709,-0.5776081681251526
0.844985842704773,4.833564758300781,-0.5832222104072571
0.8776832222938538,4.820213317871094,-0.5792807340621948
0.9065768122673035,4.791559219360352,-0.5733351707458496
0.9396408796310425,4.785567283630371,-0.5701375603675842
0.9683334827423096,4.756472110748291,-0.5642033815383911
0.996704638004303,4.727197170257568,-0.5582959651947021
1.0258151292800903,4.701533317565918,-0.5524530410766602
1.0565744638442993,4.687185764312744,-0.5479321479797363
1.0837032794952393,4.657504558563232,-0.5416598320007324
1.116169810295105,4.650253772735596,-0.5380131006240845
1.1447665691375732,4.627729415893555,-0.5325810313224792
1.173306941986084,4.605022430419922,-0.5267517566680908
1.2010351419448853,4.582274436950684,-0.5210188627243042
1.2328752279281616,4.574270248413086,-0.5169650316238403
1.255476951599121,4.53231954574585,-0.5091085433959961
1.2847418785095215,4.516510486602783,-0.5040355324745178
1.3163386583328247,4.507901668548584,-0.4995554983615875
1.3429219722747803,4.484323024749756,-0.4935074746608734
1.3696285486221313,4.46047306060791,-0.4874330461025238
1.4007320404052734,4.451286792755127,-0.4829963743686676
1.4288475513458252,4.434690475463867,-0.4774557054042816
1.4512248039245605,4.399298667907715,-0.46987810730934143
1.479222297668457,4.382266998291016,-0.46433374285697937
1.504717230796814,4.357638835906982,-0.45800071954727173
1.2617348432540894,3.5741677284240723,-0.37247413396835327
1.280911922454834,3.5512430667877197,-0.366807758808136
1.313328742980957,3.5646839141845703,-0.3649008274078369
1.607218861579895,4.269010066986084,-0.4329107999801636
1.6410895586013794,4.269125938415527,-0.428866982460022
1.665954828262329,4.247488975524902,-0.4224245548248291
1.6992683410644531,4.247373580932617,-0.4181422293186188
1.7214621305465698,4.217960834503174,-0.4109196662902832
1.748465657234192,4.198950290679932,-0.404660165309906
1.7771228551864624,4.187442302703857,-0.3990327715873718
1.8055717945098877,4.175789833068848,-0.39338791370391846
1.8218982219696045,4.135228157043457,-0.38498786091804504
1.8476370573043823,4.115794658660889,-0.3785606622695923
1.879539132118225,4.110435485839844,-0.3732246458530426
1.897519588470459,4.076948642730713,-0.36539724469184875
1.9255846738815308,4.064302921295166,-0.35940074920654297
1.9539586305618286,4.051273345947266,-0.353318452835083
1.973015308380127,4.020879745483398,-0.3456689715385437
2.002314567565918,4.01125955581665,-0.3396977484226227
2.0299153327941895,3.9978930950164795,-0.3334006667137146
2.0453906059265137,3.9598581790924072,-0.32500335574150085
2.079535961151123,3.9601707458496094,-0.3196831941604614
2.102471113204956,3.939730167388916,-0.31265732645988464
2.122239351272583,3.911914587020874,-0.30493924021720886
2.1312265396118164,3.863098382949829,-0.2955029308795929
2.128458023071289,3.798245906829834,-0.2849847972393036
2.15380859375,3.7844202518463135,-0.2783808410167694
2.191962718963623,3.7900023460388184,-0.27292340993881226
2.1982176303863525,3.7417209148406982,-0.2635921239852905
2.2354226112365723,3.747373342514038,-0.25795212388038635
2.264979362487793,3.7391915321350098,-0.2512653172016144
2.27886962890625,3.703781843185425,-0.2426150143146515
2.3074755668640137,3.6957008838653564,-0.23574183881282806
2.327847957611084,3.6741344928741455,-0.22795748710632324
2.3497378826141357,3.651381492614746,-0.21968214213848114
2.365513324737549,3.623013496398926,-0.21121813356876373
2.4107182025909424,3.640428304672241,-0.20537911355495453
2.4100191593170166,3.5850605964660645,-0.19498024880886078
2.4294075965881348,3.562943458557129,-0.18648183345794678
2.4841063022613525,3.5920934677124023,-0.18038979172706604
2.4868106842041016,3.543076276779175,-0.16993100941181183
2.50522780418396,3.5209121704101562,-0.1608692854642868
2.537703275680542,3.5172576904296875,-0.1523367315530777
2.5662789344787598,3.5065479278564453,-0.14299903810024261
2.1743969917297363,2.932413101196289,-0.11210153996944427
2.7758517265319824,3.8934946060180664,0.26545554399490356
2.766239643096924,3.937840700149536,0.2770226001739502
2.708629846572876,3.920248031616211,0.2840536832809448
2.6840505599975586,3.9458823204040527,0.2936565577983856
2.6643693447113037,3.9773263931274414,0.30335065722465515
2.637784957885742,4.003677845001221,0.31253352761268616
2.6036341190338135,4.016025543212891,0.32037341594696045
2.5877344608306885,4.053423881530762,0.3298497200012207
2.56073260307312,4.079098701477051,0.33822309970855713
2.538356065750122,4.1107497215271,0.34698599576950073
2.4932212829589844,4.1012396812438965,0.351906955242157
2.4743480682373047,4.139283180236816,0.36087101697921753
2.4606425762176514,4.187532424926758,0.37062403559684753
2.4168930053710938,4.180876731872559,0.3752487897872925
2.38364577293396,4.190371990203857,0.3811904788017273
2.3561294078826904,4.214245319366455,0.3882059156894684
2.2694740295410156,4.13258171081543,0.38547417521476746
2.2401044368743896,4.148024082183838,0.39135873317718506
2.2109920978546143,4.163064479827881,0.39716973900794983
2.1909565925598145,4.199460029602051,0.40480825304985046
2.164949655532837,4.225502014160156,0.4114668369293213
2.132338047027588,4.237155437469482,0.41666677594184875
2.104276418685913,4.254976749420166,0.42234256863594055
2.0767979621887207,4.276590347290039,0.4282398223876953
2.0450377464294434,4.291355133056641,0.4333595037460327
2.0168557167053223,4.31274938583374,0.43913373351097107
1.98992919921875,4.33330774307251,0.4446902871131897
1.9749528169631958,4.382339000701904,0.4532754123210907
1.9961540699005127,4.517179489135742,0.4704864025115967
1.9691473245620728,4.545478343963623,0.47671937942504883
1.945661187171936,4.580448627471924,0.4836251139640808
4.293640613555908,10.306563377380371,1.0953381061553955
1.8746262788772583,4.592221736907959,0.4911964237689972
1.829476237297058,4.576467514038086,0.49235090613365173
1.815858244895935,4.63991117477417,0.502062201499939
1.7855703830718994,4.6595234870910645,0.5070210695266724
1.7761205434799194,4.733309745788574,0.5178948640823364
1.328338623046875,3.618382692337036,0.39805638790130615
1.3099043369293213,3.6495542526245117,0.40338388085365295
1.2833706140518188,3.65864634513855,0.4063034951686859
1.6225444078445435,4.733071804046631,0.5280722379684448
1.6005792617797852,4.7770233154296875,0.5354090929031372
1.5617884397506714,4.773085594177246,0.5374566912651062
1.5520884990692139,4.861563205718994,0.5495356321334839
1.528518557548523,4.909336090087891,0.5570822358131409
1.4841827154159546,4.890084266662598,0.55704665184021
1.450054407119751,4.89994478225708,0.5602781176567078
1.424419641494751,4.939423084259033,0.5669394135475159
1.3803932666778564,4.919300079345703,0.5665952563285828
1.329745888710022,4.872565746307373,0.5629554390907288
1.2907389402389526,4.866654396057129,0.564038097858429
1.2582780122756958,4.8828444480896,0.5676785707473755
1.2260915040969849,4.89871072769165,0.5712922215461731
1.2004334926605225,4.944684028625488,0.5784951448440552
1.1678136587142944,4.964171409606934,0.58221435546875
1.1357861757278442,4.987241268157959,0.5863649249076843
1.1084455251693726,5.032852649688721,0.5932133793830872
1.0748732089996338,5.047787666320801,0.5964549779891968
1.0421921014785767,5.0702009201049805,0.6006383299827576
1.0082374811172485,5.084704399108887,0.603814959526062
0.9830151200294495,5.148672580718994,0.612541139125824
2.114222526550293,11.516411781311035,1.372705101966858
2.0102827548980713,11.404516220092773,1.3619903326034546
1.8958731889724731,11.219045639038086,1.3424774408340454
1.7978482246398926,11.1089448928833,1.3319307565689087
1.6957762241363525,10.963619232177734,1.3168805837631226
1.5966860055923462,10.829146385192871,1.3024390935897827
1.4931201934814453,10.647743225097656,1.2823638916015625
1.4047834873199463,10.569403648376465,1.2747490406036377
1.3089492321014404,10.401551246643066,1.2562965154647827
1.2306157350540161,10.359991073608398,1.253118872642517
1.1432318687438965,10.233110427856445,1.239384412765503
1.0603687763214111,10.136518478393555,1.2286876440048218
0.5393285751342773,5.5310587882995605,0.6710205674171448
0.3923165798187256,4.345066070556641,0.5276268124580383
0.35404065251350403,4.250978469848633,0.5166915059089661
0.32766586542129517,4.295777797698975,0.5226571559906006
0.2988113462924957,4.313342571258545,0.5252602696418762
0.2680700719356537,4.3075408935546875,0.5247334837913513
0.30856746435165405,5.602466106414795,0.68274986743927
0.27038365602493286,5.627665042877197,0.686123251914978
0.23238493502140045,5.656463146209717,0.6899686455726624
0.1947215050458908,5.704376697540283,0.6961831450462341
0.15570348501205444,5.728786468505859,0.6995328068733215
0.11596798151731491,5.772384166717529,0.7047790288925171
0.07571198046207428,5.765291690826416,0.703871488571167
0.03559389337897301,5.7734293937683105,0.7048574090003967
-0.004590051714330912,5.80455207824707,0.7086837887763977
-0.06848864257335663,8.82869815826416,1.0779979228973389
-0.03214624151587486,2.167257070541382,0.2646617889404297
-0.18761369585990906,8.613730430603027,1.0513887405395508
-0.24774709343910217,8.620054244995117,1.0516393184661865
-0.14578191936016083,4.084349632263184,0.4980645775794983
-0.17088346183300018,4.005795478820801,0.48829013109207153
-0.1781386435031891,3.590153932571411,0.43747150897979736
-0.20133642852306366,3.5501253604888916,0.4324605464935303
-0.22690322995185852,3.5641887187957764,0.43382319808006287
-0.26406797766685486,3.7405478954315186,0.45485720038414
-0.29682424664497375,3.82763409614563,0.46502625942230225
-0.3220210671424866,3.8101089000701904,0.4624992609024048
-0.3443715572357178,3.75761079788208,0.4557479918003082
-0.36670219898223877,3.7166075706481934,0.4504281282424927
-0.3911471664905548,3.702515125274658,0.4482046365737915
-0.41492071747779846,3.6844301223754883,0.4453911781311035
-0.4356616139411926,3.6430907249450684,0.43979766964912415
-0.45833760499954224,3.6169660091400146,0.43605953454971313
-0.4788207709789276,3.5792078971862793,0.4309561252593994
-0.5004247426986694,3.5528619289398193,0.42725637555122375
-0.5238211154937744,3.5417749881744385,0.42526113986968994
-0.5468698143959045,3.5305862426757812,0.42311516404151917
-0.5801584720611572,3.5804479122161865,0.42828094959259033
-0.5944231152534485,3.515319585800171,0.4197245240211487
-1.1178945302963257,6.3423991203308105,0.7559087872505188
-1.1697920560836792,6.37669563293457,0.7586551904678345
-1.2268668413162231,6.437367916107178,0.7643024325370789
-1.2776144742965698,6.463422775268555,0.765548825263977
-1.3342466354370117,6.5117363929748535,0.7694088816642761
-1.385372281074524,6.533127784729004,0.7701244354248047
-1.4373915195465088,6.554010391235352,0.7707785367965698
-1.472614049911499,6.4987874031066895,0.7625232934951782
-1.5109766721725464,6.4624481201171875,0.7562667727470398
-1.5465506315231323,6.414511203765869,0.7484156489372253
-0.6968191266059875,2.8065717220306396,0.32650789618492126
-0.7103128433227539,2.779327392578125,0.3223985731601715
-0.7256883382797241,2.7594728469848633,0.3191623389720917
-0.7428763508796692,2.747025489807129,0.31680452823638916
-0.7744325995445251,2.7868757247924805,0.32029491662979126
-1.7324455976486206,6.075079441070557,0.695716917514801
-1.7779591083526611,6.078532695770264,0.6936396360397339
-1.8110384941101074,6.036772727966309,0.6863920092582703
-1.8428926467895508,5.991006851196289,0.6787236928939819
-1.873643398284912,5.941196918487549,0.6705899834632874
-1.9042670726776123,5.899289131164551,0.6630080938339233
-1.9356266260147095,5.860921859741211,0.6558811068534851
-1.9629342555999756,5.811316967010498,0.647549033164978
-1.9944441318511963,5.772293567657471,0.6403871178627014
-2.0242106914520264,5.729443550109863,0.6328585743904114
-2.056016445159912,5.69382905960083,0.6258928179740906
-2.0807371139526367,5.643951892852783,0.6172800660133362
-2.1117236614227295,5.61217737197876,0.6107053756713867
-2.153149127960205,5.605254173278809,0.6067850589752197
-1.5551496744155884,3.965883731842041,0.42705726623535156
-1.5801178216934204,3.9480059146881104,0.4227796196937561
-1.5786296129226685,3.8693315982818604,0.41187459230422974
-1.5433217287063599,3.711864471435547,0.39273905754089355
-1.5519543886184692,3.6622259616851807,0.3851039707660675
-1.554412603378296,3.598104476928711,0.37596777081489563
-1.5735585689544678,3.5731558799743652,0.3709096908569336
-1.5909861326217651,3.548769474029541,0.36577099561691284
-1.6146453619003296,3.5384442806243896,0.3621051013469696
-1.5912132263183594,3.4254298210144043,0.34796851873397827
-1.6051537990570068,3.3934946060180664,0.34211206436157227
-1.6323027610778809,3.3895413875579834,0.3390032649040222
-1.6615777015686035,3.3930113315582275,0.3365221619606018
-1.7135142087936401,3.441523790359497,0.3384621739387512
-1.747761845588684,3.4508559703826904,0.3363800048828125
-1.7754435539245605,3.445863723754883,0.33284860849380493
-1.8095468282699585,3.4548778533935547,0.3305201828479767
-1.8363417387008667,3.449958562850952,0.3267054557800293
-2.4797751903533936,4.585173606872559,0.4297677278518677
-1.1743360757827759,2.135715961456299,0.19800439476966858
-1.177678108215332,2.107421875,0.19320081174373627
-2.5559003353118896,4.504675388336182,0.4081016182899475
-2.5859181880950928,4.488093376159668,0.40164077281951904
-2.6093573570251465,4.457064628601074,0.39368757605552673
-2.6163222789764404,4.399272918701172,0.38342735171318054
-1.2519850730895996,2.0746402740478516,0.17827685177326202
-2.6672027111053467,4.356087684631348,0.36896175146102905
-2.669353723526001,4.2912821769714355,0.35765397548675537
-2.9712986946105957,4.70510721206665,0.38577762246131897
-3.00579571723938,4.693060398101807,0.3782495856285095
-3.0368170738220215,4.673709869384766,0.369963675737381
-3.048131227493286,4.6203999519348145,0.35864320397377014
-3.0573673248291016,4.568143844604492,0.3472261428833008
-3.086554527282715,4.54913330078125,0.3384746015071869
-3.1071200370788574,4.512160778045654,0.3277823030948639
-3.119407892227173,4.4663615226745605,0.31638485193252563
-2.9537949562072754,4.173461437225342,0.28795793652534485
-2.8600528240203857,3.9822936058044434,0.26659059524536133
-2.90917706489563,3.995535373687744,0.25914424657821655
-2.941018581390381,3.9873223304748535,0.25014039874076843
-2.4741711616516113,3.4620628356933594,-0.1468478888273239
-2.447542190551758,3.480532646179199,-0.15619635581970215
-2.7756292819976807,4.0079755783081055,-0.18905009329319
-1.3588355779647827,1.9928830862045288,-0.09838882088661194
-2.219893217086792,3.3089847564697266,-0.17053093016147614
-2.1751461029052734,3.2915096282958984,-0.17615589499473572
-1.3101767301559448,2.015183210372925,-0.11186264455318451
-1.3162436485290527,2.057450294494629,-0.11813071370124817
-2.114851951599121,3.3570656776428223,-0.1987701952457428
-1.265890121459961,2.0425589084625244,-0.12455572187900543
-2.069014310836792,3.3938190937042236,-0.21284255385398865
-2.0287952423095703,3.3812639713287354,-0.21765118837356567
-1.9982348680496216,3.3854215145111084,-0.22335197031497955
-1.9790276288986206,3.4097957611083984,-0.23037198185920715
-1.1988677978515625,2.0993261337280273,-0.14499473571777344
-1.1915103197097778,2.121159076690674,-0.14964590966701508
-1.9856245517730713,3.597412586212158,-0.2591307759284973
-2.5323126316070557,4.666438102722168,-0.34274154901504517
-2.5251903533935547,4.731670379638672,-0.3540281057357788
-2.5052220821380615,4.776927947998047,-0.36381253600120544
-1.7473211288452148,3.391526937484741,-0.2627946734428406
-1.7123712301254272,3.382707118988037,-0.2664867043495178
-1.678124189376831,3.3733272552490234,-0.26997679471969604
-1.6467002630233765,3.371037006378174,-0.27388742566108704
-1.645763635635376,3.431669235229492,-0.2829594612121582
-1.6980632543563843,3.604787588119507,-0.30141857266426086
-1.6791625022888184,3.630373477935791,-0.3077167570590973
-2.291123867034912,5.050150394439697,-0.4337509572505951
-2.2657811641693115,5.090823650360107,-0.4428407847881317
-2.2285640239715576,5.102386474609375,-0.4492831528186798
-2.168006420135498,5.06011962890625,-0.45088937878608704
-2.194761037826538,5.225790977478027,-0.47094258666038513
-2.1860525608062744,5.313105583190918,-0.4842662811279297
-2.1736412048339844,5.389007568359375,-0.4964560568332672
-2.1329903602600098,5.396248817443848,-0.5023660063743591
-1.3456071615219116,3.4765617847442627,-0.32684561610221863
-1.3275489807128906,3.503925323486328,-0.33263686299324036
-2.053135633468628,5.5375189781188965,-0.5307623744010925
-2.028919219970703,5.591376304626465,-0.5409432053565979
-1.9265656471252441,5.42915153503418,-0.5298051238059998
-1.6148831844329834,4.655852794647217,-0.4582114815711975
-1.576980710029602,4.651920795440674,-0.4616409242153168
-1.8812682628631592,5.681407928466797,-0.5685021281242371
-1.86147141456604,5.756866455078125,-0.5805314183235168
-0.9768944978713989,3.096057415008545,-0.31450971961021423
-0.9571775794029236,3.110043525695801,-0.3182377517223358
-0.8538585305213928,2.844552993774414,-0.2931520640850067
-0.7957449555397034,2.719606876373291,-0.2822663486003876
-0.7707445621490479,2.7063488960266113,-0.28270164132118225
-0.7452628016471863,2.6890430450439453,-0.2826710641384125
-0.7364877462387085,2.731487274169922,-0.2889232039451599
-0.7174530625343323,2.7363052368164062,-0.2912197411060333
-0.7030502557754517,2.759859561920166,-0.29542112350463867
-1.4828921556472778,6.000683784484863,-0.6458361744880676
-1.4957318305969238,6.240959644317627,-0.6753031015396118
-1.4635323286056519,6.299938201904297,-0.6853099465370178
-1.4186958074569702,6.305694103240967,-0.6895824670791626
-1.3675466775894165,6.284729957580566,-0.6904421448707581
-1.317529320716858,6.27113676071167,-0.692109227180481
-1.2649470567703247,6.2379231452941895,-0.691541314125061
-1.2125592231750488,6.200399875640869,-0.6904566884040833
-1.1599462032318115,6.158670425415039,-0.6887556910514832
-1.1069672107696533,6.112804889678955,-0.68610680103302
-1.0173863172531128,5.85624885559082,-0.6597566604614258
-0.9413899183273315,5.65223503112793,-0.6391047239303589
-0.9532783627510071,5.9803361892700195,-0.6786952614784241
-0.9137730002403259,6.001873970031738,-0.6833673119544983
-0.8749111294746399,6.030894756317139,-0.6886413097381592
-0.8365665674209595,6.0712890625,-0.6953006982803345
-0.6343621611595154,4.852858066558838,-0.5573791265487671
-0.7358772158622742,5.950772762298584,-0.6854928135871887
-0.6943156123161316,5.9555206298828125,-0.6876176595687866
-0.6492304801940918,5.929146766662598,-0.6860089302062988
-0.6026707291603088,5.883126258850098,-0.6821371912956238
-0.5595097541809082,5.8715691566467285,-0.6823000907897949
-0.5151849985122681,5.8364481925964355,-0.6797193288803101
-0.47095414996147156,5.797207832336426,-0.6760928630828857
-0.2572905123233795,3.4669675827026367,-0.40489110350608826
-0.233614981174469,3.4763309955596924,-0.4065645635128021
-0.2099633663892746,3.493295907974243,-0.4091588854789734
-0.3021722435951233,5.687419891357422,-0.6670888662338257
-0.26108887791633606,5.658308506011963,-0.6640896201133728
-0.22027432918548584,5.625026226043701,-0.6606281399726868
-0.1804056614637375,5.603082656860352,-0.6585243940353394
-0.13994991779327393,5.573117733001709,-0.6555145978927612
-0.100411556661129,5.5312347412109375,-0.6509527564048767
-0.06174434721469879,5.5162811279296875,-0.6491373777389526
-0.0187569297850132,4.430330753326416,-0.521327018737793
0.012120373547077179,4.46138858795166,-0.5249876379966736
0.053125783801078796,5.419375896453857,-0.6377565264701843
0.09057067334651947,5.403387069702148,-0.6356973648071289
0.12714312970638275,5.360029697418213,-0.6301124095916748
0.1612132042646408,5.254382133483887,-0.6172479391098022
0.15350341796875,4.078499794006348,-0.47879162430763245
0.1818368136882782,4.077384948730469,-0.47836193442344666
0.2262248545885086,4.378299236297607,-0.513096809387207
0.25271305441856384,4.310888767242432,-0.5044655203819275
0.2729456126689911,4.162017822265625,-0.4863610863685608
0.3019000291824341,4.160120964050293,-0.4854768216609955
0.3314567804336548,4.1657586097717285,-0.48549410700798035
0.3588389754295349,4.140262603759766,-0.48157575726509094
0.3875318169593811,4.137829303741455,-0.48025405406951904
0.4080813229084015,4.054111003875732,-0.46953991055488586
0.4337531626224518,4.028176784515381,-0.4655652642250061
0.46173790097236633,4.025214672088623,-0.4642735719680786
0.49382683634757996,4.052876949310303,-0.46614131331443787
0.628474771976471,4.877183437347412,-0.5593472719192505
0.660162091255188,4.8575639724731445,-0.5555222034454346
0.6928278207778931,4.845407009124756,-0.5525790452957153
0.7276461720466614,4.848389625549316,-0.5513592958450317
0.7556858062744141,4.805098056793213,-0.5444326400756836
0.7863365411758423,4.784725666046143,-0.5401868224143982
0.8247339129447937,4.810056686401367,-0.541113555431366
0.8622748255729675,4.827421188354492,-0.5411418676376343
0.8914982676506042,4.7987165451049805,-0.5358994007110596
0.9245588183403015,4.792790412902832,-0.5329005122184753
0.9551219940185547,4.771291255950928,-0.5281617045402527
0.9835381507873535,4.7420525550842285,-0.522632360458374
1.0141559839248657,4.724013328552246,-0.5183711647987366
1.0434859991073608,4.702061176300049,-0.5134900808334351
1.0724310874938965,4.679975509643555,-0.5084412693977356
1.098112940788269,4.642459869384766,-0.5017200708389282
1.1341041326522827,4.6501641273498535,-0.49994051456451416
1.1588938236236572,4.612371444702148,-0.49330222606658936
1.1906275749206543,4.604678630828857,-0.48958250880241394
1.2172579765319824,4.578008651733398,-0.4838255047798157
1.2494341135025024,4.569737434387207,-0.4799802303314209
1.2749899625778198,4.538855075836182,-0.4738216698169708
1.3021750450134277,4.515354156494141,-0.46840381622314453
1.3287076950073242,4.4918293952941895,-0.4627619981765747
1.3572343587875366,4.475588321685791,-0.4579083025455475
1.3842785358428955,4.451444149017334,-0.45218178629875183
1.4177100658416748,4.449492454528809,-0.44878125190734863
1.4399276971817017,4.414165496826172,-0.4418486952781677
1.472617268562317,4.412008285522461,-0.43817517161369324
1.4954272508621216,4.3801164627075195,-0.43156513571739197
1.2400075197219849,3.5510926246643066,-0.34705814719200134
1.2729227542877197,3.5645854473114014,-0.34545090794563293
1.3052440881729126,3.5781095027923584,-0.34368595480918884
1.5972206592559814,4.287752628326416,-0.40816500782966614
1.6270307302474976,4.276982307434082,-0.4033966362476349
1.6568315029144287,4.265976428985596,-0.3986174464225769
1.683626651763916,4.247569561004639,-0.3929085433483124
1.7125070095062256,4.2364678382873535,-0.3879208564758301
1.7343014478683472,4.207009315490723,-0.38123148679733276
1.7637457847595215,4.195211887359619,-0.37611818313598633
1.7895721197128296,4.176253795623779,-0.3702860176563263
1.8090887069702148,4.142829895019531,-0.36304283142089844
1.8342907428741455,4.1236724853515625,-0.357136607170105
1.8598440885543823,4.104124546051025,-0.3511485457420349
1.8914047479629517,4.098718166351318,-0.3463228642940521
1.9223992824554443,4.093346118927002,-0.34137991070747375
1.9405888319015503,4.059331893920898,-0.3339783847332001
1.9621148109436035,4.032114028930664,-0.32714131474494934
1.9933898448944092,4.025902271270752,-0.3219880163669586
2.0169453620910645,4.005890369415283,-0.31565162539482117
2.0387299060821533,3.982173204421997,-0.30902546644210815
2.070157527923584,3.9751789569854736,-0.30356016755104065
2.090589761734009,3.9473023414611816,-0.29639720916748047
2.10959529876709,3.9199299812316895,-0.28934380412101746
2.136256217956543,3.9059133529663086,-0.2832205891609192
2.112391710281372,3.799316167831421,-0.27038225531578064
2.1572329998016357,3.8193166255950928,-0.2665899395942688
2.167556047439575,3.7779829502105713,-0.2583950161933899
2.197554349899292,3.7700793743133545,-0.2524215877056122
2.2197647094726562,3.7484147548675537,-0.24546517431735992
2.244558811187744,3.734043598175049,-0.23894821107387543
2.269598960876465,3.7192962169647217,-0.2323397994041443
2.300144910812378,3.710099220275879,-0.22573654353618622
2.308276414871216,3.668635845184326,-0.21728578209877014
2.340731143951416,3.6669440269470215,-0.21120361983776093
2.3790509700775146,3.670546531677246,-0.20499400794506073
2.386620283126831,3.6287248134613037,-0.19625431299209595
2.4106271266937256,3.6132142543792725,-0.18887478113174438
2.448744297027588,3.6162052154541016,-0.18213453888893127
2.4507839679718018,3.5679543018341064,-0.17278406023979187
2.464787244796753,3.539651393890381,-0.1644841581583023
2.4984490871429443,3.535489082336426,-0.15672455728054047
2.501310348510742,3.490694761276245,-0.14707237482070923
2.540309190750122,3.4966065883636475,-0.13942499458789825
2.1749942302703857,2.951469659805298,-0.11054499447345734
2.757894992828369,3.897855043411255,0.24716925621032715
2.7572381496429443,3.9549429416656494,0.25856247544288635
2.704658031463623,3.9432907104492188,0.26533281803131104
2.6745223999023438,3.9632041454315186,0.27397602796554565
2.633646011352539,3.961864948272705,0.28056493401527405
2.607290744781494,3.9880146980285645,0.28892821073532104
2.6027629375457764,4.046152114868164,0.299483984708786
2.561715602874756,4.044061660766602,0.3052665889263153
2.5553767681121826,4.102725028991699,0.31561148166656494
2.5159106254577637,4.108217716217041,0.32175683975219727
2.4951517581939697,4.138554096221924,0.32939937710762024
2.453444719314575,4.135727405548096,0.3343348503112793
2.4300448894500732,4.16704797744751,0.3418905436992645
2.4027786254882812,4.191284656524658,0.34885358810424805
2.3695123195648193,4.2007341384887695,0.3543066382408142
2.3199217319488525,4.1833343505859375,0.3573288023471832
2.2456512451171875,4.121433734893799,0.3563392162322998
2.223008632659912,4.150891304016113,0.3630692660808563
2.2006375789642334,4.179928779602051,0.3697284162044525
2.173912763595581,4.202192783355713,0.375614732503891
2.1426029205322266,4.217777252197266,0.3808042109012604
2.1151843070983887,4.239835739135742,0.3865411579608917
2.088919162750244,4.261063575744629,0.39207035303115845
2.066617727279663,4.293079853057861,0.3986314535140991
2.034867286682129,4.307782173156738,0.4033351540565491
2.0030460357666016,4.322229385375977,0.40803322196006775
1.9725137948989868,4.3358235359191895,0.4125262200832367
2.0008838176727295,4.480540752410889,0.42958152294158936
4.483395576477051,10.236327171325684,0.9884955883026123
1.957961916923523,4.562187671661377,0.4436498284339905
1.9277005195617676,4.583073139190674,0.44871947169303894
1.8837566375732422,4.567251205444336,0.45008185505867004
1.8605406284332275,4.6015305519104,0.4563988447189331
1.847213864326477,4.665121555328369,0.46539801359176636
1.8195887804031372,4.696425437927246,0.4712301194667816
1.7483711242675781,4.61087703704834,0.46524861454963684
1.3534139394760132,3.645583152770996,0.36984407901763916
1.322579264640808,3.640040397644043,0.3712853789329529
1.301554799079895,3.6638407707214355,0.37552115321159363
1.266845941543579,3.6510212421417236,0.37600263953208923
1.6285302639007568,4.804874420166016,0.497162401676178
1.6059370040893555,4.848989963531494,0.504013180732727
1.571993112564087,4.859743595123291,0.5074395537376404
1.5291835069656372,4.8445234298706055,0.5079385638237
1.5004560947418213,4.877574920654297,0.5133949518203735
1.454039454460144,4.8507304191589355,0.5125364661216736
1.422049641609192,4.867988109588623,0.5163016319274902
1.3997913599014282,4.918579578399658,0.5236281752586365
1.373630404472351,4.957902431488037,0.5297465920448303
1.3067104816436768,4.851039409637451,0.5199180841445923
1.2752431631088257,4.875191688537598,0.5241521596908569
1.2424060106277466,4.891404151916504,0.5275291204452515
1.2175734043121338,4.937395095825195,0.534124493598938
1.1831207275390625,4.945489406585693,0.5366586446762085
1.152539849281311,4.972393989562988,0.5410346388816833
1.1181282997131348,4.987967014312744,0.5440595149993896
1.0874505043029785,5.018356800079346,0.5487142205238342
1.0569080114364624,5.048454761505127,0.5533576011657715
1.0186625719070435,5.040228843688965,0.553815484046936
0.9850398302078247,5.054587364196777,0.5567798614501953
2.1685757637023926,11.569302558898926,1.2768821716308594
2.065138101577759,11.465475082397461,1.2677478790283203
1.9533641338348389,11.303380012512207,1.252173662185669
1.8501062393188477,11.1707763671875,1.239830732345581
1.7431790828704834,10.998880386352539,1.2231029272079468
1.6466816663742065,10.887678146362305,1.213160514831543
1.5470043420791626,10.741170883178711,1.1983553171157837
1.4522030353546143,10.613039016723633,1.1855977773666382
1.3576810359954834,10.472580909729004,1.1714823246002197
1.263831615447998,10.311948776245117,1.1550977230072021
1.178739309310913,10.204503059387207,1.144677758216858
1.1014469861984253,10.165990829467773,1.1420363187789917
1.0276525020599365,10.150114059448242,1.1411255598068237
0.40642616152763367,4.317070484161377,0.4857414662837982
0.37608766555786133,4.319737911224365,0.48646003007888794
0.34069547057151794,4.256394386291504,0.47975876927375793
0.31310132145881653,4.293461799621582,0.4844028353691101
0.288057804107666,4.369050025939941,0.49342095851898193
0.33026108145713806,5.607021331787109,0.6334227323532104
0.29258859157562256,5.640157699584961,0.6373773217201233
0.25429409742355347,5.669161319732666,0.6408985257148743
0.21497517824172974,5.694042682647705,0.6439909338951111
0.1753312200307846,5.69534969329834,0.6444447636604309
0.13586431741714478,5.704141616821289,0.6457772254943848
0.09738525748252869,5.778680801391602,0.6541720032691956
0.05722782760858536,5.794745922088623,0.6559246778488159
0.0159954484552145,5.748428821563721,0.6506479382514954
-0.036965034902095795,8.861310958862305,1.0029834508895874
-0.06654426455497742,5.9809699058532715,0.6769979596138
-0.03894519433379173,2.153862237930298,0.24382294714450836
-0.054480116814374924,2.17683744430542,0.24631677567958832
-0.12924516201019287,4.042491912841797,0.4571648836135864
-0.1580701321363449,4.049275875091553,0.45769259333610535
-0.18313360214233398,3.9822027683258057,0.44990137219429016
-0.1880209594964981,3.550612211227417,0.40097296237945557
-0.21292532980442047,3.553128480911255,0.4011080861091614
-0.24115093052387238,3.6058473587036133,0.40673571825027466
-0.2879520058631897,3.8944761753082275,0.4388411343097687
-0.3051568865776062,3.772519826889038,0.42468851804733276
-0.3305819034576416,3.7626540660858154,0.4231880307197571
-0.3559645414352417,3.752609968185425,0.42168813943862915
-0.3761482834815979,3.692183017730713,0.4145526885986328
-0.400414377450943,3.6740994453430176,0.4120234549045563
-0.42654672265052795,3.679076671600342,0.41197195649147034
-0.44617390632629395,3.629915714263916,0.4058830142021179
-0.4702223539352417,3.619150161743164,0.40411344170570374
-0.4895895719528198,3.573580265045166,0.39848047494888306
-0.512706995010376,3.55474853515625,0.3958469331264496
-0.5320532917976379,3.516680955886841,0.3909626007080078
-0.5561913847923279,3.5130741596221924,0.38979372382164
-0.5885407328605652,3.55910587310791,0.39414021372795105
-0.5952268838882446,3.451775074005127,0.3815305531024933
-1.1409306526184082,6.352604389190674,0.7008509039878845
-1.1950581073760986,6.394252777099609,0.7041340470314026
-1.2479257583618164,6.4318928718566895,0.7067384123802185
-1.3017523288726807,6.473017692565918,0.7094945907592773
-1.3537566661834717,6.502314567565918,0.710966169834137
-1.4107071161270142,6.550107002258301,0.7144526839256287
-1.4553594589233398,6.532680511474609,0.7107961773872375
-1.491136074066162,6.481069087982178,0.703500509262085
-1.52657151222229,6.433227062225342,0.6963390111923218
-0.683659017086029,2.7964015007019043,0.3017638623714447
-0.700740396976471,2.784308910369873,0.2995537519454956
-0.7222206592559814,2.7869975566864014,0.2989179193973541
-0.7335986495018005,2.7520203590393066,0.29427191615104675
-0.7476326823234558,2.72825288772583,0.290853351354599
-0.7840749621391296,2.786862850189209,0.2960262596607208
-1.7579058408737183,6.0897650718688965,0.644487202167511
-1.7932740449905396,6.055514812469482,0.6384763717651367
-1.8250973224639893,6.009836673736572,0.6312999129295349
-1.8553905487060547,5.960240840911865,0.6237602829933167
-1.8941116333007812,5.940279483795166,0.619251012802124
-1.9136790037155151,5.864948272705078,0.6087095141410828
-1.072365164756775,3.2118284702301025,0.3318606913089752
-1.969882845878601,5.769142150878906,0.5934560298919678
-2.0075278282165527,5.748331546783447,0.5886419415473938
-2.03969407081604,5.712644577026367,0.5823501348495483
-2.067671537399292,5.669917106628418,0.5750501155853271
-2.09627628326416,5.630808353424072,0.5681011080741882
-2.1291980743408203,5.602247714996338,0.5622159242630005
-2.1597681045532227,5.56596040725708,0.5555422902107239
-1.5611698627471924,3.9419028759002686,0.39130455255508423
-1.5850836038589478,3.924285650253296,0.3872888386249542
-1.6083464622497559,3.9067299365997314,0.3831927478313446
-1.5626652240753174,3.7238190174102783,0.36296260356903076
-1.5563163757324219,3.6380953788757324,0.3523348867893219
-1.5677016973495483,3.595350503921509,0.34593674540519714
-1.589015007019043,3.577791452407837,0.34188327193260193
-1.6096138954162598,3.5603621006011963,0.33774179220199585
