X,Y,Z
-0.5870954394340515,3.5577332973480225,0.3319229185581207
-0.6042096614837646,3.511554718017578,0.3269472122192383
-1.1377005577087402,6.348506450653076,0.589889407157898
-1.188960313796997,6.374904632568359,0.5911452770233154
-1.241961121559143,6.412530899047852,0.5934092998504639
-1.297210454940796,6.461330890655518,0.5963411927223206
-1.35232675075531,6.5058794021606445,0.598883867263794
-1.4057222604751587,6.538552284240723,0.6003361344337463
-1.453664779663086,6.536261558532715,0.5985390543937683
-1.4894734621047974,6.4845123291015625,0.5922791957855225
-1.538682222366333,6.493243217468262,0.5914186835289001
-0.6765117049217224,2.770817279815674,0.2515609562397003
-0.7048389315605164,2.8039982318878174,0.25376176834106445
-0.7224203944206238,2.791595697402954,0.2518208920955658
-0.7297979593276978,2.7414910793304443,0.24650879204273224
-0.750921905040741,2.743962287902832,0.24594588577747345
-0.7822885513305664,2.7838494777679443,0.24860841035842896
-0.7924928665161133,2.7486982345581055,0.2445264756679535
-0.9836768507957458,3.325537919998169,0.29468902945518494
-1.0066447257995605,3.3188116550445557,0.2929496169090271
-1.0274125337600708,3.304443836212158,0.2905445396900177
-1.0479302406311035,3.2899813652038574,0.2881104350090027
-1.0676921606063843,3.275602102279663,0.285534530878067
-1.075410008430481,3.224036455154419,0.2797262668609619
-1.1124324798583984,3.261019229888916,0.281626433134079
-1.9958343505859375,5.7200117111206055,0.49165046215057373
-2.033088207244873,5.698909759521484,0.48751991987228394
-2.0623226165771484,5.659714221954346,0.48159459233283997
-2.0921802520751953,5.624144554138184,0.47596389055252075
-2.1223976612091064,5.58814811706543,0.470287948846817
-2.1472296714782715,5.537230491638184,0.4633621275424957
-1.535033106803894,3.8784003257751465,0.3227079510688782
-1.5584299564361572,3.8608944416046143,0.3192806839942932
-1.5753419399261475,3.8290045261383057,0.3146139681339264
-1.6013563871383667,3.8184375762939453,0.3116914927959442
-1.6278518438339233,3.8074605464935303,0.30870646238327026
-2.4153621196746826,5.54262638092041,0.4463481307029724
-1.6373366117477417,3.689084529876709,0.2949264347553253
-1.6281622648239136,3.6037914752960205,0.28593599796295166
-1.6444356441497803,3.5752058029174805,0.2814711332321167
-1.669324517250061,3.563899278640747,0.2783302068710327
-1.6840413808822632,3.531327724456787,0.2735579311847687
-1.6939442157745361,3.4922196865081787,0.26817354559898376
-1.703210711479187,3.45322585105896,0.2628278136253357
-1.726916790008545,3.4416840076446533,0.2595088481903076
-1.7349659204483032,3.398547410964966,0.25380414724349976
-1.7295070886611938,3.3314638137817383,0.2463352084159851
-1.7514395713806152,3.3202362060546875,0.24293990433216095
-1.7806633710861206,3.3226051330566406,0.24053940176963806
-1.7944203615188599,3.2932732105255127,0.23571544885635376
-1.197966456413269,2.162139654159546,0.15293926000595093
-2.5312349796295166,4.499147891998291,0.31434208154678345
-2.5529115200042725,4.469281196594238,0.30835679173469543
-2.607142210006714,4.492415904998779,0.305812269449234
-2.6147327423095703,4.434126377105713,0.2976782023906708
-1.2459521293640137,2.081355094909668,0.13764268159866333
-1.2554168701171875,2.0667083263397217,0.1346244513988495
-2.6684772968292236,4.325381278991699,0.27715423703193665
-2.6858463287353516,4.28739595413208,0.2700735330581665
-2.0837700366973877,3.279282808303833,0.20290225744247437
-2.1014633178710938,3.2589786052703857,0.197845920920372
-2.132673740386963,3.257601022720337,0.19378553330898285
-2.1540005207061768,3.243825912475586,0.1889217048883438
-2.211657762527466,3.2853493690490723,0.18718315660953522
-2.238748550415039,3.2767093181610107,0.18215318024158478
-2.2877116203308105,3.300163984298706,0.17867521941661835
-2.3377015590667725,3.327439785003662,0.17532457411289215
-2.3922104835510254,3.356119394302368,0.17150796949863434
-2.414292573928833,3.340585947036743,0.16523133218288422
-2.88480544090271,3.9398562908172607,0.1882859766483307
-2.921471118927002,3.9326045513153076,0.18055902421474457
-2.4751458168029785,3.4910407066345215,-0.12405847012996674
-2.4313955307006836,3.483367443084717,-0.1302516609430313
-2.77131986618042,4.031294822692871,-0.15775355696678162
-2.7355802059173584,4.045894622802734,-0.1654026061296463
-2.187669038772583,3.2849628925323486,-0.13946878910064697
-2.189255475997925,3.3398098945617676,-0.14695340394973755
-1.3158458471298218,2.0404179096221924,-0.0928756594657898
-1.274358868598938,2.0065743923187256,-0.09415134787559509
-1.278017282485962,2.045628309249878,-0.09886113554239273
-1.266842007637024,2.0615758895874023,-0.10244252532720566
-2.0078094005584717,3.3190836906433105,-0.16916349530220032
-2.011617660522461,3.3802568912506104,-0.17653726041316986
-2.0080535411834717,3.4319350719451904,-0.18350329995155334
-1.9794286489486694,3.4392611980438232,-0.1879972368478775
-1.1957225799560547,2.111809492111206,-0.11785781383514404
-1.9485634565353394,3.5010368824005127,-0.19931721687316895
-1.853938102722168,3.3881266117095947,-0.19659875333309174
-1.817257046699524,3.376711130142212,-0.1994987428188324
-1.7778096199035645,3.3621292114257812,-0.2021603137254715
-1.7567192316055298,3.3817360401153564,-0.20677612721920013
-1.736364483833313,3.4007439613342285,-0.2112518548965454
-2.4473562240600586,4.876509666442871,-0.30760031938552856
-2.4153528213500977,4.900781154632568,-0.313657283782959
-1.7439438104629517,3.6052374839782715,-0.23411549627780914
-1.7153370380401611,3.6100447177886963,-0.23761291801929474
-1.6900383234024048,3.621697425842285,-0.24154581129550934
-1.6670030355453491,3.6406779289245605,-0.24587076902389526
-1.6405845880508423,3.652397394180298,-0.24972420930862427
-2.2565712928771973,5.118960380554199,-0.3541347086429596
-2.2030560970306396,5.095169544219971,-0.35665133595466614
-2.169248342514038,5.117774486541748,-0.36211591958999634
-1.5954394340515137,3.8407156467437744,-0.274665892124176
-1.5493305921554565,3.8046348094940186,-0.2748855948448181
-1.486582636833191,3.7246222496032715,-0.271832138299942
-1.4296222925186157,3.658879280090332,-0.2696082890033722
-1.3628997802734375,3.563274621963501,-0.2650054395198822
-1.3240681886672974,3.536076307296753,-0.2653599679470062
-1.291347622871399,3.5230395793914795,-0.26672282814979553
-1.2769172191619873,3.561204671859741,-0.27187618613243103
-1.2509915828704834,3.57017183303833,-0.27478089928627014
-1.2306416034698486,3.593493938446045,-0.27876314520835876
-1.2154515981674194,3.631321430206299,-0.2838699519634247
-1.1852298974990845,3.6246886253356934,-0.28549817204475403
-0.9710766673088074,3.0428249835968018,-0.24132315814495087
-0.9663374423980713,3.1053972244262695,-0.24801084399223328
-0.9445608258247375,3.1119143962860107,-0.2502059042453766
-0.8101099729537964,2.7373366355895996,-0.22155983746051788
-0.7886627316474915,2.735339879989624,-0.22277352213859558
-0.7639511227607727,2.7219841480255127,-0.2229893058538437
-0.7467155456542969,2.734693765640259,-0.2253418117761612
-0.7173045873641968,2.7021448612213135,-0.22396467626094818
-0.7130400538444519,2.76349139213562,-0.2303672730922699
-0.6849455833435059,2.734349012374878,-0.22907428443431854
-1.4708387851715088,6.053050994873047,-0.5096113085746765
-1.4729019403457642,6.25242280960083,-0.5289831757545471
-1.4467493295669556,6.342109680175781,-0.5392346978187561
-1.4007604122161865,6.3441667556762695,-0.5419458150863647
-1.3421567678451538,6.28891658782959,-0.539416491985321
-1.2914725542068481,6.267472743988037,-0.5397804975509644
-1.2407675981521606,6.241741180419922,-0.5397604703903198
-1.1891777515411377,6.211893558502197,-0.5394148826599121
-1.1336561441421509,6.154766082763672,-0.5364532470703125
-1.0848230123519897,6.131732940673828,-0.5362001657485962
-0.962809681892395,5.674752235412598,-0.4978831112384796
-0.7858974933624268,4.836068153381348,-0.4257035255432129
-0.7605432271957397,4.899031639099121,-0.4327104985713959
-0.7262449264526367,4.9040846824646,-0.4343918561935425
-0.693964421749115,4.924340724945068,-0.43728816509246826
-0.6593711376190186,4.928955078125,-0.43882066011428833
-0.6005901098251343,4.7402825355529785,-0.42311227321624756
-0.5657299160957336,4.728764057159424,-0.42318907380104065
-0.5381642580032349,4.786689758300781,-0.4292696416378021
-0.6211820840835571,5.896876335144043,-0.5297910571098328
-0.5798455476760864,5.900962829589844,-0.5311435461044312
-0.5353041291236877,5.865982532501221,-0.5289902687072754
-0.4913272261619568,5.830667495727539,-0.526817798614502
-0.44906386733055115,5.8222784996032715,-0.5267646312713623
-0.24379755556583405,3.477264165878296,-0.314956396818161
-0.22004207968711853,3.486598014831543,-0.3161718547344208
-0.3191993236541748,5.686445713043213,-0.5162850022315979
-0.279651939868927,5.688452243804932,-0.5171182751655579
-0.23784755170345306,5.655266284942627,-0.5144215226173401
-0.19732481241226196,5.625651836395264,-0.5119534134864807
-0.15744508802890778,5.603525638580322,-0.5101895332336426
-0.11765190213918686,5.5655598640441895,-0.50700443983078
-0.07867026329040527,5.546762466430664,-0.5055871605873108
-0.03179958835244179,4.47742223739624,-0.40808966755867004
-0.0005982869188301265,4.458091735839844,-0.4062372148036957
0.02806318923830986,4.111780643463135,-0.37461480498313904
0.07486054301261902,5.434017181396484,-0.49501845240592957
0.11214371770620346,5.410038471221924,-0.4927959144115448
0.11117444187402725,4.0170183181762695,-0.36563554406166077
0.1835354119539261,5.283617973327637,-0.48048123717308044
0.21765777468681335,5.220073699951172,-0.47429507970809937
0.20760709047317505,4.266488552093506,-0.38733798265457153
0.28868022561073303,5.189449787139893,-0.4707699418067932
0.2643935978412628,4.22446870803833,-0.38270071148872375
0.293095201253891,4.20704460144043,-0.38052859902381897
0.3207576870918274,4.185585021972656,-0.3780248761177063
0.35209980607032776,4.2104620933532715,-0.37972208857536316
0.4529787003993988,4.998432159423828,-0.4501539468765259
0.4901989698410034,5.022393703460693,-0.45137569308280945
0.5226272344589233,4.99185848236084,-0.4476165771484375
0.5528408288955688,4.949570655822754,-0.44285324215888977
0.583624005317688,4.914806842803955,-0.43879199028015137
0.6168640851974487,4.903017044067383,-0.43681061267852783
0.6507939100265503,4.898770332336426,-0.43521741032600403
0.6836190223693848,4.882660388946533,-0.432503879070282
0.7139666080474854,4.85486364364624,-0.4288068413734436
0.7429423332214355,4.819162368774414,-0.42443975806236267
0.7776943445205688,4.8217058181762695,-0.42346593737602234
0.809615433216095,4.808726787567139,-0.42083805799484253
0.8527917265892029,4.860713958740234,-0.4238588809967041
0.8834420442581177,4.835635185241699,-0.4201360046863556
0.9141398668289185,4.814255714416504,-0.41678258776664734
0.9431183934211731,4.785036563873291,-0.41278064250946045
0.9729131460189819,4.763378620147705,-0.40913283824920654
1.0024096965789795,4.741544723510742,-0.4054987132549286
1.0332374572753906,4.723172187805176,-0.4021494388580322
1.066075325012207,4.716068267822266,-0.39980265498161316
1.0935287475585938,4.68599796295166,-0.3954872190952301
1.1201918125152588,4.655895709991455,-0.39093172550201416
1.1502783298492432,4.640753269195557,-0.3876613974571228
1.17908775806427,4.617669582366943,-0.38370591402053833
1.2062585353851318,4.590740203857422,-0.3794882297515869
1.2380306720733643,4.58250093460083,-0.3767378032207489
1.2672879695892334,4.566652774810791,-0.37321069836616516
1.2921549081802368,4.535625457763672,-0.36847245693206787
1.321984052658081,4.519148349761963,-0.36488083004951477
1.3534798622131348,4.510052680969238,-0.36193549633026123
1.3753139972686768,4.4711012840271,-0.35645103454589844
1.4011592864990234,4.446988582611084,-0.3521004021167755
1.4340206384658813,4.444938659667969,-0.349508672952652
1.4593932628631592,4.416421413421631,-0.34477725625038147
1.4850887060165405,4.391651630401611,-0.3404085338115692
1.5200719833374023,4.396422863006592,-0.3381235599517822
0.6010317802429199,1.7008607387542725,-0.12978661060333252
0.6127808690071106,1.6967660188674927,-0.1284368932247162
0.6448431611061096,1.7473852634429932,-0.13119180500507355
0.6474530100822449,1.7174084186553955,-0.12782038748264313
0.6605138182640076,1.7167123556137085,-0.12662722170352936
0.675058126449585,1.7195298671722412,-0.12568801641464233
0.6652926206588745,1.660621166229248,-0.12024950981140137
0.6768127679824829,1.6560651063919067,-0.11878417432308197
0.7001977562904358,1.680258870124817,-0.11927973479032516
0.705449104309082,1.661242961883545,-0.11672520637512207
0.7463693022727966,1.724396824836731,-0.11987927556037903
0.7489410638809204,1.6978602409362793,-0.1167609840631485
1.8547662496566772,4.12900447845459,-0.28072118759155273
1.8830699920654297,4.116456031799316,-0.2765498757362366
1.9113167524337769,4.103696346282959,-0.2723740041255951
1.9332008361816406,4.076456069946289,-0.26721328496932983
1.9609119892120361,4.063478469848633,-0.26292479038238525
1.9812631607055664,4.036502361297607,-0.25771355628967285
2.0040740966796875,4.012434959411621,-0.25259339809417725
2.0408623218536377,4.016016006469727,-0.2492091804742813
2.055539608001709,3.9780938625335693,-0.2431952953338623
2.078449010848999,3.9576377868652344,-0.23824933171272278
2.105471134185791,3.943605661392212,-0.23361985385417938
2.136687755584717,3.9359381198883057,-0.22929157316684723
2.1409268379211426,3.8805294036865234,-0.2221018671989441
2.145704984664917,3.8290352821350098,-0.21527664363384247
2.1605160236358643,3.794051170349121,-0.20929886400699615
2.198495864868164,3.799511194229126,-0.20551444590091705
2.2116715908050537,3.7649917602539062,-0.19951824843883514
2.241209030151367,3.7568397521972656,-0.19482019543647766
2.2754695415496826,3.754720687866211,-0.1903051733970642
2.280163526535034,3.706387519836426,-0.1834476739168167
2.3126680850982666,3.7048637866973877,-0.17891749739646912
2.3465464115142822,3.702259063720703,-0.17407099902629852
2.363755702972412,3.6730034351348877,-0.1678280085325241
2.379075765609741,3.6447150707244873,-0.16173535585403442
2.403836488723755,3.6286838054656982,-0.15598830580711365
2.4242563247680664,3.6059179306030273,-0.14983901381492615
2.42543625831604,3.5582118034362793,-0.14271047711372375
2.4544334411621094,3.5480165481567383,-0.13674554228782654
2.4872076511383057,3.544451951980591,-0.13096576929092407
2.5006468296051025,3.516061305999756,-0.12426960468292236
2.520400285720825,3.4925363063812256,-0.1172686442732811
2.5658745765686035,3.507986307144165,-0.1115039810538292
2.179527997970581,2.93916392326355,-0.08784841001033783
2.7549102306365967,3.8606698513031006,0.17637157440185547
2.731419086456299,3.8865346908569336,0.18390880525112152
2.7253928184509277,3.9427199363708496,0.1928762048482895
2.697572946548462,3.961480140686035,0.19945840537548065
2.663890838623047,3.9744837284088135,0.20563405752182007
2.6333835124969482,3.9944238662719727,0.21210385859012604
2.585707902908325,3.9833219051361084,0.2165282666683197
2.5835530757904053,4.044720649719238,0.2247491329908371
2.544268846511841,4.050797939300537,0.22989122569561005
2.5238990783691406,4.081571102142334,0.23606841266155243
2.4986965656280518,4.105873107910156,0.24182423949241638
2.4711077213287354,4.1313090324401855,0.24763785302639008
2.440967082977295,4.148879051208496,0.2527780830860138
2.3923470973968506,4.131789207458496,0.2556273341178894
2.3696208000183105,4.162527084350586,0.2612958252429962
2.3459904193878174,4.193472385406494,0.2669728398323059
2.2610628604888916,4.11094856262207,0.26524263620376587
2.232219934463501,4.1263957023620605,0.2696473300457001
2.212611198425293,4.163177490234375,0.2752982974052429
2.185185194015503,4.186152458190918,0.2800547778606415
2.1554763317108154,4.201251983642578,0.28414973616600037
2.1291096210479736,4.223130702972412,0.28872913122177124
2.1016767024993896,4.245283126831055,0.2931413948535919
2.070307493209839,4.260397911071777,0.29705172777175903
2.0464820861816406,4.288912773132324,0.30183589458465576
2.0132057666778564,4.295762538909912,0.3050448000431061
1.9824719429016113,4.309773921966553,0.3086737394332886
1.9646832942962646,4.356166362762451,0.3145741820335388
1.987989068031311,4.494904518127441,0.32719749212265015
1.9674500226974487,4.53343391418457,0.33251142501831055
1.9357820749282837,4.546789169311523,0.3360089063644409
1.8982843160629272,4.5496602058410645,0.33853569626808167
1.8615423440933228,4.556148529052734,0.3413493037223816
1.8230105638504028,4.5546746253967285,0.3434979021549225
1.7968387603759766,4.581571102142334,0.34774360060691833
1.7675408124923706,4.601064205169678,0.35143473744392395
0.6237347722053528,1.659415602684021,0.12745869159698486
1.3304263353347778,3.620344638824463,0.2796618342399597
1.30458664894104,3.629561424255371,0.2819139063358307
1.2728075981140137,3.6200156211853027,0.28268009424209595
1.6502552032470703,4.800122261047363,0.37682390213012695
1.6006923913955688,4.7673845291137695,0.3759825527667999
1.577799916267395,4.815804958343506,0.3815883696079254
1.543408751487732,4.8267292976379395,0.38420698046684265
0.5303261876106262,1.6991407871246338,0.13585804402828217
1.4668937921524048,4.817561626434326,0.38693106174468994
1.4435093402862549,4.865071773529053,0.3922558128833771
1.4247829914093018,4.931239604949951,0.3990933299064636
1.3971856832504272,4.97130823135376,0.40389201045036316
1.3522539138793945,4.943171501159668,0.40309658646583557
1.287754774093628,4.839391231536865,0.3961065411567688
1.257495403289795,4.8632636070251465,0.39940497279167175
1.2312631607055664,4.905952453613281,0.4041282832622528
1.1974133253097534,4.922176361083984,0.40672463178634644
1.1681251525878906,4.953056335449219,0.4105195701122284
1.1335983276367188,4.960914611816406,0.4124200642108917
1.1049046516418457,4.995141983032227,0.4165395200252533
1.0694166421890259,5.002724647521973,0.4181548058986664
1.0347306728363037,5.017827033996582,0.42043301463127136
1.0096442699432373,5.0783820152282715,0.4265352189540863
0.9684013724327087,5.054566383361816,0.42555516958236694
2.127552032470703,11.538588523864746,0.9738290309906006
2.011526107788086,11.3535737991333,0.9603480696678162
1.90353262424469,11.214027404785156,0.9502441883087158
1.795372486114502,11.05024242401123,0.9380531311035156
1.6978334188461304,10.935441017150879,0.9300105571746826
1.5976355075836182,10.785059928894043,0.9189249277114868
1.502985954284668,10.656936645507812,0.9097298979759216
1.406821846961975,10.516730308532715,0.8991403579711914
1.3121461868286133,10.364038467407227,0.8871814012527466
1.2255895137786865,10.260801315307617,0.8794721961021423
1.1419463157653809,10.164545059204102,0.8723722100257874
1.0606372356414795,10.071446418762207,0.8655537366867065
0.9917188882827759,10.090042114257812,0.868366003036499
0.392292320728302,4.306130409240723,0.37093088030815125
0.35718095302581787,4.250560760498047,0.3664127290248871
0.3267516493797302,4.245159149169922,0.36623311042785645
0.30170729756355286,4.313295841217041,0.3724185526371002
0.27175021171569824,4.315244197845459,0.3729100227355957
0.24163314700126648,4.324787616729736,0.3740832507610321
0.21256960928440094,4.349669456481934,0.37636199593544006
0.18025733530521393,4.3043694496154785,0.3725341558456421
0.1494929939508438,4.2860589027404785,0.3710590898990631
0.1189737543463707,4.263637542724609,0.36924460530281067
0.0874783843755722,4.202102184295654,0.36406031250953674
0.06082119792699814,4.385480880737305,0.38011467456817627
0.03052658401429653,4.420825481414795,0.38311272859573364
-0.00025486716185696423,4.346996307373047,0.37662842869758606
-0.02888612635433674,4.113400459289551,0.3563251793384552
-0.05739781633019447,4.070295333862305,0.35254400968551636
-0.08504277467727661,4.03867769241333,0.34977656602859497
-0.11584722250699997,4.13524866104126,0.35812801122665405
-0.14371554553508759,4.111036777496338,0.35579508543014526
-0.17108216881752014,4.082752227783203,0.3530988395214081
-0.1764151155948639,3.6111533641815186,0.3121075928211212
-0.1992974579334259,3.563215494155884,0.30777373909950256
-0.22330869734287262,3.5501184463500977,0.30647048354148865
-0.26803717017173767,3.8358044624328613,0.33096277713775635
-0.29809412360191345,3.880474328994751,0.3344384431838989
-0.3186938762664795,3.8046844005584717,0.32752901315689087
-0.3380201458930969,3.721003293991089,0.319964736700058
-0.3558861315250397,3.6372692584991455,0.3124309778213501
-0.37548428773880005,3.5805604457855225,0.30724549293518066
-0.4086325764656067,3.6513962745666504,0.3130175471305847
-0.4365069270133972,3.6717538833618164,0.31423431634902954
-0.4559161365032196,3.6184680461883545,0.3091484308242798
-0.4777180552482605,3.5921616554260254,0.3064028024673462
-0.498354971408844,3.5579819679260254,0.3030025362968445
-0.5208068490028381,3.539093494415283,0.3009253442287445
-0.5454049110412598,3.535452365875244,0.3001449704170227
-0.5737925171852112,3.554701328277588,0.3011002540588379
-0.5955408811569214,3.535416603088379,0.298816978931427
-0.6043015718460083,3.443143844604492,0.29039648175239563
-1.1612318754196167,6.3570756912231445,0.5350210666656494
-1.2104092836380005,6.375786304473877,0.5354775190353394
-1.2680493593215942,6.43617057800293,0.5393471121788025
-1.3227875232696533,6.476995468139648,0.5412664413452148
-1.37180757522583,6.490852355957031,0.5409645438194275
-1.4302843809127808,6.546169281005859,0.5441216826438904
-1.4594939947128296,6.464089393615723,0.5358608365058899
-1.4937556982040405,6.408477306365967,0.5298480987548828
-0.6654570698738098,2.7674593925476074,0.22811584174633026
-0.6936237812042236,2.800759792327881,0.23009414970874786
-0.7030119895935059,2.7583441734313965,0.22586368024349213
-0.7219958901405334,2.7535293102264404,0.22472232580184937
-0.7391582131385803,2.741000175476074,0.22295480966567993
-0.7648223042488098,2.758301258087158,0.22360830008983612
-0.787841260433197,2.768120765686035,0.22351723909378052
-0.7978895306587219,2.7329044342041016,0.21979159116744995
-0.9906625747680664,3.309598922729492,0.2651118040084839
-1.0045033693313599,3.2729742527008057,0.2611132264137268
-1.032339334487915,3.280768871307373,0.26065593957901
-1.0476372241973877,3.2515039443969727,0.25720757246017456
-1.0744268894195557,3.259300470352173,0.25660380721092224
-1.1088359355926514,3.2890312671661377,0.2577193081378937
-1.1263107061386108,3.2667527198791504,0.25474172830581665
-2.015624523162842,5.716995716094971,0.4436386823654175
-2.0506107807159424,5.688235759735107,0.4391765296459198
-2.0766549110412598,5.641697406768799,0.4331635534763336
-2.103536367416382,5.5987091064453125,0.42746925354003906
-2.1303746700286865,5.555445671081543,0.421770304441452
-2.169008493423462,5.540745735168457,0.41821351647377014
-1.5459001064300537,3.8682169914245605,0.29024261236190796
-1.5629162788391113,3.836336135864258,0.28596875071525574
-1.5884954929351807,3.826011896133423,0.28332510590553284
-1.6173982620239258,3.82254695892334,0.28117242455482483
-2.395878553390503,5.554194450378418,0.40570491552352905
-2.441505193710327,5.551625728607178,0.4026212692260742
-1.6422674655914307,3.6678035259246826,0.26395323872566223
-1.6505357027053833,3.621497392654419,0.258601576089859
-1.658779501914978,3.575002908706665,0.25324416160583496
-1.6753062009811401,3.545945644378662,0.24912087619304657
-1.6797244548797607,3.4922196865081787,0.2432274967432022
-1.6925019025802612,3.4602277278900146,0.23882484436035156
-1.7066656351089478,3.431706428527832,0.23469644784927368
-1.7339191436767578,3.4269676208496094,0.23210877180099487
-1.7363877296447754,3.3733835220336914,0.22622957825660706
-1.74441659450531,3.3342790603637695,0.2212691456079483
-1.766769528388977,3.3226988315582275,0.218089297413826
-1.8040211200714111,3.3383381366729736,0.21667015552520752
-1.1755805015563965,2.1397950649261475,0.1372605562210083
-1.1861838102340698,2.1251444816589355,0.13466589152812958
-2.5423920154571533,4.486089706420898,0.2806837558746338
-2.572765588760376,4.469038009643555,0.27588751912117004
-2.588113784790039,4.42435359954834,0.2693166434764862
-2.60795259475708,4.390315532684326,0.26336923241615295
-1.2487159967422485,2.0715224742889404,0.1223960593342781
-2.645261287689209,4.322857856750488,0.2513679265975952
-2.6594362258911133,4.27775239944458,0.2444692999124527
-2.069305419921875,3.2802891731262207,0.1841488778591156
-2.0820083618164062,3.2539544105529785,0.1793338805437088
-2.1425578594207764,3.298727512359619,0.17817924916744232
-2.1478893756866455,3.258169412612915,0.1723097264766693
-2.2015316486358643,3.2930610179901123,0.17027787864208221
-2.227769374847412,3.285046100616455,0.16587330400943756
-2.2771518230438232,3.308279037475586,0.16279514133930206
-2.318084239959717,3.3228979110717773,0.15913823246955872
-2.3444108963012695,3.314194679260254,0.15413574874401093
-2.394937515258789,3.3359713554382324,0.15011312067508698
-2.877227544784546,3.955806255340576,0.1720304787158966
-2.9083666801452637,3.9429874420166016,0.16500090062618256
-3.0110294818878174,4.2124810218811035,-0.1336604356765747
-2.44824481010437,3.481588125228882,-0.11665390431880951
-2.7684571743011475,3.9959325790405273,-0.1402513086795807
-2.755869150161743,4.042233467102051,-0.14823375642299652
-2.747798204421997,4.094573497772217,-0.15628047287464142
-2.21942138671875,3.3579764366149902,-0.13289110362529755
-2.16802978515625,3.3354294300079346,-0.13671226799488068
-1.2855563163757324,2.0091166496276855,-0.08498533815145493
-1.2712736129760742,2.018059015274048,-0.08790867775678635
-1.2520390748977661,2.0207417011260986,-0.09052959084510803
-1.2639005184173584,2.0728847980499268,-0.09531749784946442
-2.016101837158203,3.3602590560913086,-0.15841960906982422
-2.1001555919647217,3.5598132610321045,-0.17180725932121277
-2.0703372955322266,3.5679919719696045,-0.1760759800672531
-1.991190791130066,3.487250328063965,-0.17571187019348145
-1.2073698043823242,2.150526762008667,-0.11054584383964539
-1.9093364477157593,3.461156129837036,-0.18146593868732452
-1.8347986936569214,3.3816356658935547,-0.18052014708518982
-1.7980631589889526,3.370178461074829,-0.18307065963745117
-1.7661188840866089,3.369210720062256,-0.18609075248241425
-1.7417219877243042,3.3816802501678467,-0.18981386721134186
-1.7211899757385254,3.40071702003479,-0.1938682496547699
-2.4558963775634766,4.9391584396362305,-0.2857472896575928
-2.4438164234161377,5.005692005157471,-0.293740451335907
-1.7284274101257324,3.6052465438842773,-0.2144785374403
-1.6999355554580688,3.6099355220794678,-0.21759964525699615
-1.6708704233169556,3.614677667617798,-0.22064699232578278
-1.653860092163086,3.64798641204834,-0.22545023262500763
-1.627844214439392,3.659459352493286,-0.2288394570350647
-2.2310221195220947,5.11084508895874,-0.3232601284980774
-2.1823575496673584,5.09760856628418,-0.32596641778945923
-1.6219778060913086,3.865260601043701,-0.24977490305900574
-1.6012994050979614,3.8947412967681885,-0.25432467460632324
-1.518721103668213,3.768178701400757,-0.2485167235136032
-1.45635187625885,3.6879169940948486,-0.24557168781757355
-1.3918706178665161,3.5999059677124023,-0.24189525842666626
-1.348074197769165,3.5622072219848633,-0.24152155220508575
-1.3200277090072632,3.5641937255859375,-0.24379688501358032
-1.2871743440628052,3.551135778427124,-0.24499839544296265
-1.2669227123260498,3.5747804641723633,-0.248573437333107
-1.241317868232727,3.583573818206787,-0.2511330246925354
-1.2185490131378174,3.599433422088623,-0.25417426228523254
-1.1953887939453125,3.6152212619781494,-0.2572484612464905
-1.144708275794983,3.5455105304718018,-0.25407442450523376
-0.9776998162269592,3.1036720275878906,-0.2239035815000534
-0.9601811170578003,3.125303268432617,-0.22696587443351746
-0.8947679996490479,2.986196994781494,-0.21827390789985657
-0.8007529377937317,2.74162220954895,-0.20169608294963837
-0.7756125926971436,2.7284748554229736,-0.20190170407295227
-0.7520584464073181,2.7187793254852295,-0.2023306041955948
-0.7369810938835144,2.738933563232422,-0.20497897267341614
-0.711978018283844,2.7212700843811035,-0.20479318499565125
-0.7015653848648071,2.760054111480713,-0.20882564783096313
-1.4762026071548462,5.987523078918457,-0.45522597432136536
-1.4654779434204102,6.130204200744629,-0.4683156907558441
-1.4594860076904297,6.299461364746094,-0.48353853821754456
-1.4215126037597656,6.335851192474365,-0.4886455833911896
-1.3712247610092163,6.318806171417236,-0.4894338548183441
-1.3241996765136719,6.3206610679626465,-0.4915241301059723
-1.264851689338684,6.257117748260498,-0.4884967803955078
-1.2137528657913208,6.227354049682617,-0.4880713224411011
-1.1610280275344849,6.185691833496094,-0.48670777678489685
-1.1106204986572266,6.1551923751831055,-0.4859504997730255
-1.04989755153656,6.066884994506836,-0.48052048683166504
-0.9351586699485779,5.639833450317383,-0.44812458753585815
-0.7739275097846985,4.876819610595703,-0.38873064517974854
-0.9104404449462891,6.006180763244629,-0.48029202222824097
-0.8739535212516785,6.050807476043701,-0.4851052761077881
-0.6572104096412659,4.791392803192139,-0.3850858509540558
-0.6251916885375977,4.807351112365723,-0.38732075691223145
-0.5916814804077148,4.811485290527344,-0.3886205852031708
-0.5635658502578735,4.861794471740723,-0.3936769962310791
-0.5223613977432251,4.799734592437744,-0.3893584907054901
-0.5927664041519165,5.8258161544799805,-0.4734077751636505
-0.5556674599647522,5.876308917999268,-0.4783666729927063
-0.5107133984565735,5.8333940505981445,-0.47572508454322815
-0.46857136487960815,5.817307472229004,-0.47528472542762756
-0.2549365758895874,3.467373847961426,-0.2836070954799652
-0.23147693276405334,3.480689525604248,-0.2849899232387543
-0.20906013250350952,3.521073818206787,-0.2886125445365906
-0.29825446009635925,5.691836357116699,-0.46706637740135193
-0.2572130560874939,5.662603378295898,-0.46521028876304626
-0.21701419353485107,5.644777774810791,-0.4639567732810974
-0.1771337389945984,5.63056755065918,-0.46295222640037537
-0.13625094294548035,5.592739582061768,-0.4600299000740051
-0.09696663171052933,5.570174217224121,-0.4583795368671417
-0.057799093425273895,5.527869701385498,-0.4551243484020233
-0.015616001561284065,4.46144437789917,-0.3672640919685364
0.014164477586746216,4.087718963623047,-0.33640146255493164
0.05713709443807602,5.422783374786377,-0.4461618661880493
0.09494760632514954,5.430051326751709,-0.4466738700866699
0.1320534199476242,5.405920028686523,-0.4446248710155487
0.16822512447834015,5.362104415893555,-0.44068393111228943
0.20105209946632385,5.24803352355957,-0.4309028685092926
0.1941545158624649,4.289807319641113,-0.3519095182418823
0.2723487615585327,5.202017784118652,-0.42637205123901367
0.25437411665916443,4.286726951599121,-0.35106948018074036
0.27869731187820435,4.2033305168151855,-0.34376463294029236
0.30728620290756226,4.193587303161621,-0.3424183428287506
0.336028128862381,4.187534332275391,-0.34139198064804077
0.37006810307502747,4.235532760620117,-0.3447718322277069
0.47448065876960754,5.027559280395508,-0.40864071249961853
0.5065639615058899,4.9971232414245605,-0.4053453505039215
0.49577847123146057,4.575532913208008,-0.3703051507472992
0.5238508582115173,4.5411376953125,-0.3667006194591522
0.5616093277931213,4.583792686462402,-0.36931562423706055
0.6009736657142639,4.637790203094482,-0.37285739183425903
0.666731595993042,4.880556106567383,-0.39132604002952576
0.6992784738540649,4.868252277374268,-0.38919779658317566
0.7339661121368408,4.871140480041504,-0.38830408453941345
0.7611490488052368,4.819786071777344,-0.3830834925174713
0.7946754693984985,4.8144917488098145,-0.3815726637840271
0.8332146406173706,4.839725494384766,-0.38227230310440063
0.8679062724113464,4.8416829109191895,-0.38103893399238586
0.9012370705604553,4.835733890533447,-0.37919920682907104
0.9318968653678894,4.814197540283203,-0.3761460483074188
0.959805965423584,4.777080535888672,-0.371883749961853
0.989500105381012,4.755264759063721,-0.3686411678791046
1.0221596956253052,4.74851655960083,-0.3665127158164978
1.0505837202072144,4.722522735595703,-0.36292052268981934
1.0781835317611694,4.692484378814697,-0.35903143882751465
1.1095250844955444,4.67733097076416,-0.3562844395637512
1.136064887046814,4.6470770835876465,-0.3521963655948639
1.1678489446640015,4.639371871948242,-0.34981048107147217
1.195865511894226,4.616313457489014,-0.3462783396244049
1.222998857498169,4.5892229080200195,-0.34245195984840393
1.253431797027588,4.573108673095703,-0.3394220769405365
1.2826367616653442,4.55710506439209,-0.3362182080745697
1.3094807863235474,4.533437252044678,-0.33247697353363037
1.3363559246063232,4.509527683258057,-0.32872796058654785
1.3677157163619995,4.500309944152832,-0.32605817914009094
1.3923823833465576,4.468456268310547,-0.3216564655303955
1.4204477071762085,4.451639652252197,-0.3182462453842163
1.4483479261398315,4.4346466064453125,-0.314845472574234
1.4704349040985107,4.3988213539123535,-0.3101007044315338
1.5010284185409546,4.388680934906006,-0.307187020778656
0.5982685685157776,1.7109301090240479,-0.11884570121765137
0.6074637770652771,1.699495553970337,-0.11710672825574875
0.6311051249504089,1.7283408641815186,-0.11814552545547485
0.6390646696090698,1.7130225896835327,-0.11613950878381729
0.6481634974479675,1.7013447284698486,-0.11438585817813873
0.6596840023994446,1.6969988346099854,-0.11307522654533386
0.674243688583374,1.6997472047805786,-0.11222101747989655
0.6655459403991699,1.6445151567459106,-0.10756396502256393
0.6829450726509094,1.6543378829956055,-0.10718507319688797
0.6972340941429138,1.6569197177886963,-0.1062769740819931
0.7145728468894958,1.6665905714035034,-0.105797179043293
0.7495981454849243,1.7152622938156128,-0.1077185720205307
1.8387641906738281,4.129164218902588,-0.25649794936180115
1.8637895584106445,4.109591007232666,-0.25241631269454956
1.8946330547332764,4.104281902313232,-0.24915136396884918
1.9223748445510864,4.091587543487549,-0.24542248249053955
1.9412637948989868,4.056962013244629,-0.24026274681091309
1.9606579542160034,4.026168346405029,-0.23538289964199066
1.9927852153778076,4.023654937744141,-0.23209339380264282
2.0198652744293213,4.010354518890381,-0.2281647026538849
2.0460050106048584,3.9929285049438477,-0.22390566766262054
2.069793224334717,3.9720795154571533,-0.21944788098335266
2.100346326828003,3.965071678161621,-0.21563620865345
2.1195931434631348,3.9373245239257812,-0.21073880791664124
2.1432526111602783,3.91582989692688,-0.20608197152614594
2.1299972534179688,3.829775333404541,-0.19807617366313934
2.159161329269409,3.8225934505462646,-0.19417692720890045
2.173893451690674,3.7874832153320312,-0.18872547149658203
2.208160877227783,3.785911798477173,-0.18492454290390015
2.2333154678344727,3.771345376968384,-0.18043382465839386
2.2541160583496094,3.75005841255188,-0.1756267547607422
2.2719733715057373,3.7212042808532715,-0.17029178142547607
2.297671318054199,3.7056097984313965,-0.16548456251621246
2.3218188285827637,3.690737009048462,-0.1607615351676941
2.3510372638702393,3.6816720962524414,-0.15612666308879852
2.3679487705230713,3.652432918548584,-0.15053173899650574
2.38729190826416,3.6306824684143066,-0.1452561914920807
2.4119982719421387,3.6145238876342773,-0.13999052345752716
2.4413020610809326,3.6044368743896484,-0.13485613465309143
2.4466614723205566,3.5631706714630127,-0.12857545912265778
2.470499038696289,3.546881675720215,-0.1230132058262825
2.4900293350219727,3.5238356590270996,-0.11703070998191833
2.512681245803833,3.5079095363616943,-0.11120830476284027
2.5413196086883545,3.497070074081421,-0.10518679767847061
2.181631326675415,2.9620091915130615,-0.08417883515357971
2.6939923763275146,3.804121732711792,0.15665270388126373
2.6735639572143555,3.832533597946167,0.16332775354385376
2.6834287643432617,3.910879135131836,0.17216265201568604
2.6744754314422607,3.959207534790039,0.17946790158748627
2.6542389392852783,3.9913017749786377,0.18583367764949799
2.606443405151367,3.9851481914520264,0.1903430074453354
2.5950472354888916,4.02951192855835,0.19690710306167603
2.5743002891540527,4.061035633087158,0.20279259979724884
2.5180814266204834,4.0407891273498535,0.20607884228229523
2.505284309387207,4.0851521492004395,0.21235871315002441
2.4886953830718994,4.122401714324951,0.2182028740644455
2.4615633487701416,4.14748477935791,0.22330649197101593
2.422830581665039,4.151916027069092,0.22725220024585724
2.3932993412017822,4.168762683868408,0.23171420395374298
2.3747708797454834,4.20600700378418,0.23719654977321625
2.2808752059936523,4.11077880859375,0.23505061864852905
2.2510244846343994,4.126966953277588,0.23910929262638092
2.2184736728668213,4.135476589202881,0.24261516332626343
2.202536106109619,4.179064750671387,0.24816781282424927
2.167921304702759,4.18811559677124,0.251576691865921
2.1340737342834473,4.196488857269287,0.2548770010471344
2.111650228500366,4.225046157836914,0.2593311369419098
2.084789514541626,4.246837615966797,0.26331326365470886
2.064718008041382,4.286733150482178,0.268400102853775
2.0283801555633545,4.290891170501709,0.27120158076286316
1.998434066772461,4.304710865020752,0.27450641989707947
1.9649871587753296,4.311300277709961,0.27734383940696716
2.00339674949646,4.482001781463623,0.2906475365161896
4.4435834884643555,10.139031410217285,0.6627423167228699
4.385830402374268,10.20612621307373,0.6723368763923645
1.9127423763275146,4.537737846374512,0.3011675775051117
1.9116771221160889,4.626699447631836,0.309244841337204
1.854569673538208,4.582460880279541,0.30833321809768677
1.8298450708389282,4.617362022399902,0.3127443790435791
1.8167142868041992,4.6809401512146,0.31910207867622375
0.6246878504753113,1.6433831453323364,0.1127382442355156
0.6292020082473755,1.6915948390960693,0.11671724915504456
1.3191558122634888,3.6265218257904053,0.25161051750183105
1.2928985357284546,3.6358234882354736,0.2536503076553345
1.26456880569458,3.6373822689056396,0.25513070821762085
0.6333864331245422,1.8635787963867188,0.13140903413295746
1.5840049982070923,4.771663665771484,0.33809277415275574
1.565241813659668,4.830970764160156,0.3438720405101776
1.5257388353347778,4.8270769119262695,0.3451812267303467
1.5051875114440918,4.882315635681152,0.3507259488105774
1.4812442064285278,4.9261016845703125,0.3554595708847046
1.4464008808135986,4.936286449432373,0.3576533794403076
1.4035052061080933,4.920145034790039,0.3578071892261505
1.3682093620300293,4.929927349090576,0.35985755920410156
1.3101425170898438,4.85275936126709,0.3555310368537903
1.271747350692749,4.846705436706543,0.35641545057296753
1.2416783571243286,4.8704400062561035,0.35944440960884094
1.2153042554855347,4.913092136383057,0.3636670708656311
1.1783900260925293,4.913937091827393,0.36481931805610657
1.1470063924789429,4.937231063842773,0.3676524758338928
1.1188666820526123,4.975507736206055,0.3716270923614502
1.0858573913574219,4.990663528442383,0.3738829791545868
1.0545876026153564,5.017157554626465,0.3768317699432373
1.020478367805481,5.03204870223999,0.37883490324020386
0.9877049922943115,5.054354667663574,0.3814193606376648
2.179086923599243,11.588582992553711,0.8766350150108337
2.0720057487487793,11.457566261291504,0.8688102960586548
1.9614832401275635,11.294939041137695,0.8585509657859802
1.850935935974121,11.123888969421387,0.8469997644424438
1.7427949905395508,10.951873779296875,0.8353707790374756
1.6417229175567627,10.817605972290039,0.8266436457633972
1.54916250705719,10.709078788757324,0.8198363780975342
1.4524592161178589,10.557337760925293,0.8097187280654907
1.35655677318573,10.397119522094727,0.7987576723098755
1.2742661237716675,10.332839965820312,0.7947447299957275
1.189456582069397,10.236959457397461,0.7883228659629822
1.1023894548416138,10.117295265197754,0.7801023125648499
1.0286993980407715,10.093612670898438,0.7792811989784241
0.41096988320350647,4.330961227416992,0.33481961488723755
0.37490519881248474,4.267728328704834,0.3302643895149231
0.3449496030807495,4.270221710205078,0.33067962527275085
0.3144499659538269,4.272543907165527,0.3311021029949188
0.2879578769207001,4.325121879577637,0.33543336391448975
0.26176294684410095,4.393081188201904,0.3409801721572876
0.23079358041286469,4.386984348297119,0.34079864621162415
0.2012602984905243,4.41180944442749,0.34287476539611816
0.16550306975841522,4.300259590148926,0.33426931500434875
0.1343589574098587,4.266265392303467,0.33170533180236816
0.10345529019832611,4.220366477966309,0.3282301425933838
0.07567740231752396,4.310531139373779,0.335353821516037
0.046815600246191025,4.416085720062256,0.3436965346336365
0.015541253611445427,4.41630744934082,0.3436768651008606
-0.014965023845434189,4.3501105308532715,0.33843356370925903
-0.04211924597620964,4.050048828125,0.315018892288208
-0.07043832540512085,4.057452201843262,0.3155396282672882
-0.09882045537233353,4.064658164978027,0.3160601854324341
-0.1270206868648529,4.0638813972473145,0.31597524881362915
-0.15286172926425934,3.9889636039733887,0.3099466562271118
-0.2676621079444885,5.913666248321533,0.45914483070373535
-0.18514089286327362,3.5470263957977295,0.275197297334671
-0.20978562533855438,3.5456764698028564,0.2749063968658447
-0.23497125506401062,3.5519256591796875,0.2752172648906708
-0.2851297855377197,3.8920109272003174,0.3013899028301239
-0.30487820506095886,3.800694704055786,0.2939678728580475
-0.33041778206825256,3.7907819747924805,0.2928370237350464
-0.34601885080337524,3.6759979724884033,0.28362947702407837
-0.36407825350761414,3.599921703338623,0.277437686920166
-0.38785719871520996,3.5818068981170654,0.27572837471961975
-0.4257231056690216,3.691267490386963,0.28385037183761597
-0.45110589265823364,3.688307046890259,0.28312820196151733
-0.4725040793418884,3.6542656421661377,0.2800326347351074
-0.4955591559410095,3.6355419158935547,0.27813026309013367
-0.5173051357269287,3.605024576187134,0.2753337323665619
-0.5388274192810059,3.5782923698425293,0.2728532552719116
-0.5563514232635498,3.528353214263916,0.2685963213443756
-0.589329183101654,3.5783448219299316,0.2717776596546173
-0.596020519733429,3.4706361293792725,0.26300179958343506
-0.6026025414466858,3.3706798553466797,0.25486046075820923
-1.1866142749786377,6.376623630523682,0.48105427622795105
-1.236873745918274,6.398936748504639,0.48168450593948364
-1.291799783706665,6.443845272064209,0.48389798402786255
-1.3429155349731445,6.469352722167969,0.4844343364238739
-0.7613864541053772,3.546250820159912,0.2648036777973175
-0.7912517786026001,3.5637412071228027,0.26535269618034363
-1.296714186668396,5.654452800750732,0.419849157333374
-1.3306498527526855,5.622678756713867,0.41633549332618713
-0.6766971945762634,2.7746214866638184,0.20478437840938568
-0.6974531412124634,2.7775890827178955,0.20429684221744537
-0.714699923992157,2.7652313709259033,0.2026797980070114
-0.7297807335853577,2.7452428340911865,0.2005198746919632
-0.745777428150177,2.7289011478424072,0.19863781332969666
-0.7762663960456848,2.7650113105773926,0.20055797696113586
-0.815477728843689,2.830923318862915,0.20449204742908478
-0.9708029627799988,3.2850067615509033,0.23630133271217346
-1.0089800357818604,3.3306360244750977,0.23859642446041107
-1.0402052402496338,3.3497002124786377,0.2389562427997589
-1.043353796005249,3.279367446899414,0.23296263813972473
-1.0885772705078125,3.3427155017852783,0.23635832965373993
-1.0806723833084106,3.2428483963012695,0.22816313803195953
-1.1175645589828491,3.27988600730896,0.22964909672737122
-1.1454323530197144,3.286891222000122,0.2289881706237793
-2.030524730682373,5.698670387268066,0.3950127959251404
-2.0603060722351074,5.659152507781982,0.3901841342449188
-2.0902132987976074,5.623447418212891,0.38549986481666565
-2.114834785461426,5.572778224945068,0.3797934055328369
-2.1475508213043213,5.5437517166137695,0.3755861222743988
-1.5324445962905884,3.8756473064422607,0.26100122928619385
-1.5473577976226807,3.8362622261047363,0.25673750042915344
-1.5700048208236694,3.8187811374664307,0.25384578108787537
-1.6020071506500244,3.8225457668304443,0.252342164516449
-1.6282305717468262,3.811613082885742,0.24985842406749725
-2.415982723236084,5.548560619354248,0.3611184060573578
-1.6300827264785767,3.675046682357788,0.23740196228027344
-1.6384520530700684,3.6287429332733154,0.2325689047574997
-1.6499658823013306,3.5893781185150146,0.2281905710697174
-1.6466827392578125,3.5179834365844727,0.2217913717031479
-1.6711519956588745,3.5065884590148926,0.21920663118362427
-1.6878803968429565,3.481403350830078,0.21567212045192719
-1.7005486488342285,3.4493260383605957,0.21170440316200256
-1.7153688669204712,3.4203438758850098,0.20789258182048798
-1.73917555809021,3.4084699153900146,0.20510238409042358
-1.7410048246383667,3.355053424835205,0.19981640577316284
-1.7594274282455444,3.336780071258545,0.19657151401042938
-1.8034743070602417,3.3665497303009033,0.19614313542842865
-1.8622719049453735,3.41921067237854,0.19686652719974518
-1.1946406364440918,2.156968116760254,0.12267322838306427
-2.532217502593994,4.502472877502441,0.2527894377708435
-2.5538923740386963,4.472485542297363,0.24783504009246826
-2.5807580947875977,4.448260307312012,0.2430504709482193
-2.601783037185669,4.413604736328125,0.2376883178949356
-1.220271348953247,2.0392260551452637,0.10812292993068695
-1.2395682334899902,2.0413730144500732,0.10655912011861801
-2.6447012424468994,4.288200855255127,0.22005294263362885
-2.0629053115844727,3.2945096492767334,0.16610094904899597
-2.079867124557495,3.2747695446014404,0.1620856374502182
-2.089240789413452,3.241159439086914,0.1572655588388443
-2.14176869392395,3.2723913192749023,0.15546013414859772
-2.7372372150421143,4.123622894287109,0.19160526990890503
-2.7483508586883545,4.083564758300781,0.18543343245983124
-2.785583972930908,4.077432632446289,0.18043555319309235
-2.7994306087493896,4.039721965789795,0.17392858862876892
-2.8248519897460938,4.022222995758057,0.16838258504867554
-2.83013916015625,3.970909833908081,0.16096800565719604
-2.8510265350341797,3.9465537071228027,0.15465177595615387
-2.8992421627044678,3.960005521774292,0.14960946142673492
-2.931152582168579,3.9464309215545654,0.14298123121261597
-2.4619534015655518,3.4723448753356934,-0.10282838344573975
-2.4274890422821045,3.4773190021514893,-0.10819341242313385
-2.7674005031585693,4.025465488433838,-0.13093289732933044
-2.757946014404297,4.078956604003906,-0.1384531557559967
-2.2055299282073975,3.311521291732788,-0.11660166084766388
-2.1810450553894043,3.3275296688079834,-0.12132278829813004
-1.303440809249878,2.021207809448242,-0.07615862041711807
-1.2935127019882202,2.036731004714966,-0.07904727011919022
-2.635087728500366,4.218305587768555,-0.1684817373752594
-1.2630928754806519,2.055525064468384,-0.08433286100625992
-2.024618148803711,3.346789836883545,-0.14072291553020477
-2.0042691230773926,3.3679349422454834,-0.14499527215957642
-2.67507266998291,4.571839809417725,-0.20137205719947815
-2.6637659072875977,4.62781286239624,-0.20823706686496735
-1.1962090730667114,2.1125948429107666,-0.0969967246055603
-2.647876262664795,4.757430076599121,-0.22269342839717865
-1.8510138988494873,3.3826775550842285,-0.16129431128501892
-1.818058967590332,3.3781931400299072,-0.16392889618873596
-1.7821316719055176,3.370650053024292,-0.1663765162229538
-1.7501345872879028,3.3696272373199463,-0.1690569519996643
-1.7263610363006592,3.3817059993743896,-0.17228029668331146
-1.7097163200378418,3.4074599742889404,-0.17619319260120392
-2.474679708480835,5.022735118865967,-0.2633916735649109
