X,Y,Z
0.029928259551525116,4.026342868804932,-0.40603888034820557
0.05767327547073364,4.010496616363525,-0.40443384647369385
0.08618222177028656,4.041114330291748,-0.407272070646286
0.11149417608976364,3.9433226585388184,-0.3971920609474182
0.14033855497837067,3.9696547985076904,-0.39963412284851074
0.1671118140220642,3.9491968154907227,-0.397388219833374
0.19457018375396729,3.947981834411621,-0.39696162939071655
0.21935579180717468,3.900033712387085,-0.39163753390312195
0.24884602427482605,3.9372737407684326,-0.39488860964775085
0.2734072208404541,3.8889541625976562,-0.38956931233406067
0.3022651672363281,3.910273551940918,-0.39125537872314453
0.3274606764316559,3.8849215507507324,-0.38811618089675903
0.35650476813316345,3.9058825969696045,-0.3894464671611786
0.38202062249183655,3.8879446983337402,-0.3869161903858185
0.23061974346637726,2.1881096363067627,-0.217337965965271
0.4390907883644104,3.9055843353271484,-0.38721731305122375
0.4642737805843353,3.8871304988861084,-0.38448232412338257
0.5828374028205872,4.609066009521484,-0.4546862840652466
0.6126023530960083,4.5896711349487305,-0.4515952467918396
0.6380225419998169,4.535329341888428,-0.4450761675834656
0.6696033477783203,4.530928134918213,-0.44351086020469666
0.7039284110069275,4.5455780029296875,-0.44352468848228455
0.7309749722480774,4.513925552368164,-0.4389634132385254
0.7595996260643005,4.4936113357543945,-0.4355376958847046
0.7908265590667725,4.488409519195557,-0.4335956871509552
0.8211761116981506,4.475239276885986,-0.43088191747665405
0.7223864793777466,3.789686441421509,-0.36339712142944336
0.7424243092536926,3.754286050796509,-0.3585475981235504
0.7667862176895142,3.7416296005249023,-0.35589680075645447
0.9349004626274109,4.4060444831848145,-0.41739994287490845
0.961872935295105,4.380551338195801,-0.413207471370697
0.9954062700271606,4.389256000518799,-0.4120212197303772
1.0220489501953125,4.36739444732666,-0.40798279643058777
1.0522656440734863,4.3604583740234375,-0.4053531885147095
1.078892469406128,4.338157653808594,-0.40130773186683655
1.1113570928573608,4.338250637054443,-0.3991612195968628
1.1391264200210571,4.323264122009277,-0.3955289423465729
1.1667765378952026,4.308090686798096,-0.39190325140953064
1.198825478553772,4.307631969451904,-0.38960614800453186
1.2266806364059448,4.291957378387451,-0.38594913482666016
1.2522592544555664,4.2686357498168945,-0.3813442289829254
1.2814749479293823,4.2602458000183105,-0.37809956073760986
1.3084747791290283,4.244173049926758,-0.3741837739944458
1.3357155323028564,4.2278056144714355,-0.3702343702316284
1.3625937700271606,4.211329936981201,-0.3662320673465729
1.389404296875,4.194671154022217,-0.36200055480003357
1.4168108701705933,4.181686878204346,-0.3581572473049164
1.44707453250885,4.175736904144287,-0.3548933267593384
1.4696812629699707,4.147489070892334,-0.3497457206249237
1.4954174757003784,4.130311965942383,-0.34537965059280396
1.5235514640808105,4.120333671569824,-0.3415883183479309
1.5523037910461426,4.109908580780029,-0.3377038836479187
1.5753151178359985,4.084766864776611,-0.33264386653900146
1.5977791547775269,4.059611797332764,-0.3275322914123535
1.6311070919036865,4.0634565353393555,-0.32465410232543945
1.652783989906311,4.038177013397217,-0.31946060061454773
1.6874167919158936,4.041054725646973,-0.3163680136203766
1.718536138534546,4.036716461181641,-0.3127419054508209
2.004763126373291,4.622324466705322,-0.3541659712791443
2.0423524379730225,4.623264312744141,-0.35028114914894104
2.071110963821411,4.602290630340576,-0.34466272592544556
2.1086182594299316,4.598482131958008,-0.340239018201828
2.1379799842834473,4.580993175506592,-0.334690123796463
2.1705052852630615,4.570372581481934,-0.3296510577201843
2.2002837657928467,4.552170753479004,-0.3239841163158417
2.2285678386688232,4.530090808868408,-0.31801438331604004
2.26303768157959,4.5220866203308105,-0.3128301799297333
2.2933530807495117,4.507172584533691,-0.3072395324707031
2.324434995651245,4.491611957550049,-0.30148765444755554
2.361196994781494,4.48600959777832,-0.2963446080684662
1.7363513708114624,3.2462689876556396,-0.21089935302734375
1.7505847215652466,3.2211477756500244,-0.20573119819164276
1.7337086200714111,3.1372814178466797,-0.19671693444252014
1.747626781463623,3.1119396686553955,-0.19149935245513916
1.7856661081314087,3.131019353866577,-0.18895216286182404
1.3569819927215576,2.342773199081421,-0.13854801654815674
1.3099654912948608,2.225863218307495,-0.12882836163043976
0.9587849974632263,1.6042088270187378,-0.09075932204723358
0.9673149585723877,1.5946532487869263,-0.08815902471542358
0.9803609848022461,1.591389536857605,-0.08580981194972992
0.9891390800476074,1.581484079360962,-0.08307337015867233
0.9994998574256897,1.5750895738601685,-0.08051122725009918
1.0251365900039673,1.591260313987732,-0.07895831763744354
1.0232529640197754,1.5646986961364746,-0.07525333762168884
1.026916742324829,1.5483933687210083,-0.0720781683921814
1.0481809377670288,1.5577882528305054,-0.07001017779111862
1.054479956626892,1.5442160367965698,-0.06678814440965652
2.5736751556396484,3.716703176498413,-0.15427659451961517
2.5740585327148438,3.6643776893615723,-0.14547255635261536
2.6120853424072266,3.666463851928711,-0.13865888118743896
2.6307239532470703,3.6437644958496094,-0.13088102638721466
2.619114875793457,3.575244426727295,-0.12090067565441132
2.6789562702178955,3.6090128421783447,-0.11436376720666885
2.6406338214874268,3.705005645751953,0.21252313256263733
2.6045641899108887,3.7109298706054688,0.21984945237636566
2.5887465476989746,3.7499756813049316,0.22908756136894226
1.0638436079025269,1.564558982849121,0.09818516671657562
1.0651665925979614,1.5917062759399414,0.10244864225387573
1.0313938856124878,1.567110538482666,0.1033451035618782
1.0371183156967163,1.6004517078399658,0.10787265747785568
1.029429316520691,1.6144790649414062,0.11107037961483002
1.004626750946045,1.6022900342941284,0.1124291941523552
0.9891021847724915,1.6025848388671875,0.11448302865028381
0.9775714874267578,1.6094670295715332,0.11695078015327454
0.9651519656181335,1.6167634725570679,0.1194363534450531
0.9571890234947205,1.6303609609603882,0.12231370806694031
1.3396787643432617,2.3185760974884033,0.17646579444408417
1.8096810579299927,3.1854846477508545,0.2457808554172516
1.7534977197647095,3.140756130218506,0.24556252360343933
1.754830002784729,3.1975953578948975,0.2532143294811249
1.7675323486328125,3.2746517658233643,0.26245155930519104
1.7578516006469727,3.3148598670959473,0.2686794102191925
2.3647682666778564,4.5403947830200195,0.372086763381958
2.3356897830963135,4.563742637634277,0.3779293894767761
2.3031697273254395,4.579805850982666,0.3831612467765808
2.2697396278381348,4.596045970916748,0.38815975189208984
2.235724449157715,4.612267971038818,0.39311978220939636
2.2022130489349365,4.627946376800537,0.3979892432689667
2.1698005199432373,4.642826557159424,0.4026833176612854
2.143120288848877,4.671941757202148,0.40854310989379883
2.1049373149871826,4.680330276489258,0.4125019609928131
2.0751850605010986,4.705967903137207,0.4179524779319763
2.0373847484588623,4.709348678588867,0.42131131887435913
1.7732715606689453,4.178388595581055,0.3765070140361786
1.7176342010498047,4.129660606384277,0.37457066774368286
1.689836859703064,4.149195194244385,0.3787994086742401
1.6539137363433838,4.14656925201416,0.38096392154693604
1.630600094795227,4.1722025871276855,0.3856517970561981
1.601442575454712,4.183169841766357,0.38901087641716003
1.5765738487243652,4.2089385986328125,0.3935149610042572
1.5454676151275635,4.220160484313965,0.3967095613479614
1.5150049924850464,4.230898857116699,0.39982983469963074
1.4892425537109375,4.252118110656738,0.40390264987945557
1.4582536220550537,4.258444309234619,0.4065815210342407
1.428734302520752,4.272274494171143,0.40972796082496643
1.3996883630752563,4.289792060852051,0.41325926780700684
1.3710638284683228,4.306923866271973,0.4167463183403015
1.338695764541626,4.308689117431641,0.41870561242103577
1.3130978345870972,4.332557201385498,0.4228387176990509
1.2822364568710327,4.34154748916626,0.425327867269516
1.2553315162658691,4.3653564453125,0.4291990101337433
1.2255077362060547,4.38165807723999,0.43238943815231323
1.196694254875183,4.397441864013672,0.4354976415634155
1.168015480041504,4.412958145141602,0.4385911524295807
1.1389508247375488,4.4283528327941895,0.4416124224662781
1.1072872877120972,4.436168670654297,0.4436909258365631
1.0786579847335815,4.459006309509277,0.44732290506362915
1.0513476133346558,4.485283374786377,0.4513038992881775
1.018357515335083,4.484710693359375,0.452580988407135
0.9887639284133911,4.499082565307617,0.45538824796676636
0.9552980065345764,4.498177528381348,0.45640861988067627
0.800240159034729,3.9069552421569824,0.3973390758037567
0.7521068453788757,3.8094396591186523,0.388318806886673
0.720258891582489,3.7877538204193115,0.38700568675994873
0.8358685970306396,4.568625450134277,0.4678826630115509
0.8080567717552185,4.597134590148926,0.47190403938293457
0.7768725752830505,4.614187717437744,0.4744715988636017
0.7467174530029297,4.634769439697266,0.477415531873703
0.7150804996490479,4.6474785804748535,0.47957777976989746
0.683729350566864,4.659910202026367,0.4817267060279846
0.6523346304893494,4.672115802764893,0.48387613892555237
0.6201617121696472,4.684201717376709,0.4859573245048523
0.5880692601203918,4.696065902709961,0.4877684414386749
0.5577114820480347,4.72313928604126,0.49118655920028687
0.5256670117378235,4.7384352684021,0.49340975284576416
0.4934753477573395,4.749604225158691,0.49522140622138977
0.4627014696598053,4.776017189025879,0.498649924993515
0.4294370710849762,4.786832332611084,0.5003472566604614
0.3971497714519501,4.805145740509033,0.5026136040687561
0.36516204476356506,4.830991268157959,0.5056961178779602
0.3326159417629242,4.852745056152344,0.5083779096603394
0.2986047863960266,4.8509955406188965,0.50862056016922
0.2652944326400757,4.872315406799316,0.5113164782524109
0.23274002969264984,4.905043125152588,0.515069305896759
0.19844500720500946,4.906519412994385,0.5153583288192749
0.16466020047664642,4.923287868499756,0.5172791481018066
0.130650594830513,4.939821243286133,0.5192018151283264
0.09592707455158234,4.952243328094482,0.5207213759422302
0.06175127625465393,4.976067543029785,0.5234634876251221
0.027245420962572098,4.991903305053711,0.5252150893211365
-0.007482484914362431,4.999752521514893,0.5259310603141785
-0.04250225052237511,5.022898197174072,0.5282809138298035
-0.07836659997701645,5.041903972625732,0.530219554901123
-0.11360304057598114,5.049015045166016,0.5309340953826904
-0.1491178572177887,5.063648223876953,0.5324651002883911
-0.18512804806232452,5.085812568664551,0.5346447229385376
-0.220041885972023,5.076696395874023,0.5333372354507446
-0.2575700879096985,5.1216607093811035,0.5377344489097595
-0.29437774419784546,5.131404399871826,0.5384505987167358
-0.282400906085968,4.388777256011963,0.4602886438369751
-0.30599939823150635,4.2898712158203125,0.44970622658729553
-0.33573198318481445,4.2877044677734375,0.44915521144866943
-0.3669784367084503,4.304717063903809,0.4504465162754059
-0.39401310682296753,4.267290115356445,0.44605615735054016
-0.4180932641029358,4.210416316986084,0.4396723508834839
-0.44281184673309326,4.164986610412598,0.43451204895973206
-0.4656068682670593,4.107834339141846,0.4281591475009918
-0.48892784118652344,4.062166213989258,0.42289450764656067
-0.5124130249023438,4.020209312438965,0.4178633987903595
-0.5343273282051086,3.974334955215454,0.412469744682312
-0.556220293045044,3.9321911334991455,0.40749433636665344
-0.5795513987541199,3.9014246463775635,0.4037212133407593
-0.5982978343963623,3.843644857406616,0.3971841037273407
-0.6215233206748962,3.816452980041504,0.39367279410362244
-0.6391876935958862,3.7624268531799316,0.3872985243797302
-0.6582104563713074,3.719810724258423,0.38213443756103516
-0.6788263320922852,3.6885697841644287,0.3781692683696747
-0.6956902146339417,3.638077735900879,0.37225446105003357
-0.7164609432220459,3.610396146774292,0.3687043786048889
-0.7346070408821106,3.5711827278137207,0.3638138473033905
-0.750887930393219,3.528210401535034,0.35850170254707336
-0.7657467722892761,3.481391429901123,0.35283762216567993
-0.784512460231781,3.4534404277801514,0.34911131858825684
-0.8103020787239075,3.4556117057800293,0.348440557718277
-0.8274288773536682,3.4197072982788086,0.34393832087516785
-0.8441190123558044,3.387749671936035,0.3396528959274292
-0.8613059520721436,3.3595075607299805,0.33575505018234253
-0.8761983513832092,3.323657989501953,0.3311275541782379
-0.8930601477622986,3.2951645851135254,0.3272472620010376
-0.9111523628234863,3.2701945304870605,0.323721319437027
-0.9272762537002563,3.2415647506713867,0.3198128342628479
-0.947029709815979,3.2279248237609863,0.31724438071250916
-0.9598899483680725,3.191826581954956,0.31249895691871643
-0.9770058393478394,3.1705315113067627,0.3092272877693176
-0.988879919052124,3.1303393840789795,0.3040984869003296
-1.0010815858840942,3.0939464569091797,0.2993970215320587
-1.017173409461975,3.0724973678588867,0.29600298404693604
-1.0353831052780151,3.0583879947662354,0.2932977080345154
-1.0521483421325684,3.040503978729248,0.2902536392211914
-1.065379023551941,3.0113370418548584,0.28612470626831055
-1.0814214944839478,2.9892642498016357,0.28266680240631104
-1.0991934537887573,2.9746792316436768,0.27987003326416016
-1.1081874370574951,2.9382975101470947,0.2749514877796173
-1.1069581508636475,2.87650203704834,0.2677097022533417
-1.1209683418273926,2.854555130004883,0.26419541239738464
-1.1325068473815918,2.8250598907470703,0.25996342301368713
-1.1504346132278442,2.813807487487793,0.2574003338813782
-1.1512782573699951,2.763139009475708,0.2511445879936218
-1.143866777420044,2.694672107696533,0.24334533512592316
-1.1375367641448975,2.629824638366699,0.23591813445091248
-1.1561801433563232,2.6218907833099365,0.23358210921287537
-1.1773216724395752,2.621213436126709,0.23186422884464264
-1.1980149745941162,2.620600700378418,0.23005326092243195
-1.2253005504608154,2.633960247039795,0.22946229577064514
-1.243349313735962,2.6257083415985107,0.22693151235580444
-1.2839233875274658,2.66265869140625,0.22822627425193787
-1.3001106977462769,2.650684356689453,0.2252429872751236
-1.2793700695037842,2.565570592880249,0.2160646915435791
-1.2910645008087158,2.546832323074341,0.21254757046699524
-1.294547438621521,2.5102789402008057,0.20747847855091095
-1.3046839237213135,2.487668752670288,0.20358601212501526
-1.31033194065094,2.4584732055664062,0.1990339159965515
-1.322786808013916,2.443161964416504,0.19567616283893585
-1.3376574516296387,2.430837869644165,0.19248494505882263
-1.3508487939834595,2.414839744567871,0.18897737562656403
-1.3590757846832275,2.3925411701202393,0.18490321934223175
-1.371131420135498,2.3768937587738037,0.18131442368030548
-1.3793991804122925,2.354288339614868,0.17717784643173218
-1.3918190002441406,2.338136672973633,0.1734938770532608
-1.4151476621627808,2.3425681591033936,0.17124374210834503
-1.4262405633926392,2.32692551612854,0.1675146520137787
-1.4301066398620605,2.297288417816162,0.16261626780033112
-1.4376578330993652,2.274383068084717,0.15821363031864166
-1.4502371549606323,2.261993169784546,0.1544882357120514
-1.4714016914367676,2.262493371963501,0.15160533785820007
-1.4807323217391968,2.2426414489746094,0.14716997742652893
-1.4956481456756592,2.2329728603363037,0.14330631494522095
-1.4747847318649292,2.172001600265503,0.1362610012292862
-1.4764864444732666,2.1427276134490967,0.13104744255542755
-1.4839600324630737,2.1235392093658447,0.12642210721969604
-1.4973539113998413,2.114354133605957,0.12238011509180069
-1.5121383666992188,2.1040618419647217,0.11789676547050476
-1.5119259357452393,2.0755605697631836,0.11240101605653763
-1.5157530307769775,2.053636312484741,0.1072349101305008
-1.4887964725494385,2.08392333984375,-0.0845908671617508
-1.5198200941085815,2.162198781967163,-0.0926750898361206
-1.4998061656951904,2.166421413421631,-0.09739094227552414
-1.4880484342575073,2.1837425231933594,-0.1025986596941948
-1.489009141921997,2.2205493450164795,-0.10870522260665894
-1.4841831922531128,2.246973991394043,-0.11409501731395721
-1.4647668600082397,2.254784107208252,-0.11863153427839279
-1.4503625631332397,2.2684710025787354,-0.12328309565782547
-1.44675874710083,2.2982449531555176,-0.12868890166282654
-1.4254282712936401,2.3021163940429688,-0.1326473206281662
-1.4167879819869995,2.325491189956665,-0.13764050602912903
-1.412156581878662,2.3553900718688965,-0.14300644397735596
-1.398589849472046,2.3722786903381348,-0.14754454791545868
-1.389029860496521,2.3956844806671143,-0.1524721384048462
-1.3722453117370605,2.4050867557525635,-0.1563837081193924
-1.347061038017273,2.4011571407318115,-0.1593789905309677
-1.336564540863037,2.424577474594116,-0.16424138844013214
-1.3231308460235596,2.440553665161133,-0.16844521462917328
-1.3075798749923706,2.453082323074341,-0.1723870486021042
-1.2967889308929443,2.4761595726013184,-0.17705188691616058
-1.2895565032958984,2.5060038566589355,-0.1822085976600647
-1.2945352792739868,2.5600814819335938,-0.1891714483499527
-1.26740300655365,2.551614761352539,-0.19144980609416962
-1.2521672248840332,2.567532539367676,-0.19553431868553162
-1.2069576978683472,2.5198683738708496,-0.19465771317481995
-1.1744369268417358,2.4962291717529297,-0.1954987496137619
-1.1744358539581299,2.543260335922241,-0.20180577039718628
-1.1959072351455688,2.640273332595825,-0.21225498616695404
-1.153457760810852,2.595008373260498,-0.2112155705690384
-1.1710269451141357,2.6848974227905273,-0.22119465470314026
-1.1255818605422974,2.6321349143981934,-0.21934132277965546
-1.1140360832214355,2.6579055786132812,-0.22399431467056274
-1.1037521362304688,2.6872029304504395,-0.22898069024085999
-1.1373069286346436,2.8246192932128906,-0.24325603246688843
-1.1170846223831177,2.832409143447876,-0.2463681697845459
-1.10512113571167,2.861882448196411,-0.25137773156166077
-1.1068601608276367,2.927624225616455,-0.25961771607398987
-1.092751383781433,2.953400135040283,-0.2644040882587433
-1.0823551416397095,2.990091562271118,-0.27006375789642334
-1.058327078819275,2.9901535511016846,-0.27238622307777405
-1.0471911430358887,3.0267632007598877,-0.27805641293525696
-1.026058554649353,3.033721923828125,-0.28099140524864197
-1.004334807395935,3.040710687637329,-0.2839205861091614
-0.9910275936126709,3.073443651199341,-0.2891150712966919
-0.9737771153450012,3.09500789642334,-0.2933042347431183
-0.9589174389839172,3.1238062381744385,-0.29818370938301086
-0.9370815753936768,3.1301615238189697,-0.3009435832500458
-0.9235416054725647,3.1663615703582764,-0.30640146136283875
-0.9048673510551453,3.187669515609741,-0.31047385931015015
-0.8761377334594727,3.171234130859375,-0.310832679271698
-0.8651221394538879,3.2183241844177246,-0.31742048263549805
-0.8444985747337341,3.231593608856201,-0.32061678171157837
-0.8216111660003662,3.237257719039917,-0.32293397188186646
-0.8057008385658264,3.2730586528778076,-0.3283228576183319
-0.7864529490470886,3.293494701385498,-0.33215469121932983
-0.7749015092849731,3.3478899002075195,-0.33945828676223755
-0.7581070065498352,3.383391857147217,-0.34467947483062744
-0.7408280372619629,3.41882586479187,-0.3498913049697876
-0.7187397480010986,3.435230016708374,-0.35321715474128723
-0.703971266746521,3.4856605529785156,-0.3600466847419739
-0.6855123043060303,3.520800828933716,-0.3652927875518799
-0.668558657169342,3.5673651695251465,-0.3715250492095947
-0.6475082039833069,3.5947420597076416,-0.37580475211143494
-0.6265265941619873,3.6258628368377686,-0.38052818179130554
-0.607643187046051,3.6682660579681396,-0.38644635677337646
-0.5892791152000427,3.7182881832122803,-0.39305374026298523
-0.5695843696594238,3.764414072036743,-0.39912471175193787
-0.5487169027328491,3.8065953254699707,-0.40482285618782043
-0.5264060497283936,3.844860076904297,-0.41016462445259094
-0.5036285519599915,3.8790743350982666,-0.4150906205177307
-0.4835487902164459,3.9401895999908447,-0.42266809940338135
-0.46039512753486633,3.9819254875183105,-0.42811712622642517
-0.43706560134887695,4.027390003204346,-0.43400928378105164
-0.4137517213821411,4.0765581130981445,-0.44033560156822205
-0.38779711723327637,4.110171318054199,-0.44504186511039734
-0.36211347579956055,4.147496700286865,-0.4497815668582916
-0.32660025358200073,4.068527698516846,-0.44191107153892517
-0.30242156982421875,4.12870454788208,-0.4491719901561737
-0.2737073600292206,4.130604267120361,-0.45012128353118896
-0.2453644871711731,4.147846698760986,-0.45271703600883484
-0.21603691577911377,4.1416401863098145,-0.4524227976799011
-0.18593162298202515,4.115830898284912,-0.45000582933425903
-0.1572341024875641,4.11696720123291,-0.45055413246154785
-0.12762963771820068,4.086852073669434,-0.44769978523254395
-0.0983005166053772,4.072080135345459,-0.44641411304473877
-0.06920850276947021,4.029944896697998,-0.4418613910675049
-0.041421595960855484,4.0574951171875,-0.4449705481529236
-0.013137276284396648,4.0382561683654785,-0.4429700970649719
0.015049911104142666,4.065415859222412,-0.4460810422897339
0.04351281374692917,4.041919231414795,-0.44345733523368835
0.07171151787042618,4.049314975738525,-0.4440324008464813
0.09823019802570343,3.982757806777954,-0.43652230501174927
0.12566794455051422,3.9742465019226074,-0.4353991150856018
0.15239329636096954,3.9500255584716797,-0.43257734179496765
0.18020206689834595,3.9566853046417236,-0.43291205167770386
0.20672252774238586,3.9282419681549072,-0.4292747378349304
0.23446887731552124,3.934535503387451,-0.4294656813144684
0.2623126208782196,3.9406330585479736,-0.429654061794281
0.28797367215156555,3.9155495166778564,-0.42646524310112
0.3126312792301178,3.8825936317443848,-0.4221465289592743
0.34063538908958435,3.8881466388702393,-0.42194780707359314
0.3661133646965027,3.870337724685669,-0.41924819350242615
0.3922756612300873,3.860077142715454,-0.41738733649253845
0.415343701839447,3.8226139545440674,-0.4126143157482147
0.4431569576263428,3.831367254257202,-0.4124948978424072
0.4701351821422577,3.8283016681671143,-0.4110894203186035
0.27609819173812866,2.126338005065918,-0.22775176167488098
0.5185492038726807,3.787057876586914,-0.40461593866348267
0.5426537990570068,3.7681336402893066,-0.4015420377254486
0.5698478817939758,3.77215838432312,-0.40063995122909546
0.593949556350708,3.7528915405273438,-0.3972625136375427
0.6174055337905884,3.733534574508667,-0.3939259350299835
0.6433871388435364,3.7293262481689453,-0.3922058939933777
0.676117479801178,3.7632107734680176,-0.3943643867969513
0.6992157101631165,3.7433927059173584,-0.39070427417755127
0.7220418453216553,3.7234385013580322,-0.38706323504447937
0.7514303922653198,3.7336955070495605,-0.38654080033302307
0.7877700924873352,3.778038501739502,-0.38956138491630554
0.9482906460762024,4.395830154418945,-0.4512054920196533
0.9811215400695801,4.400855541229248,-0.4495501220226288
1.005311369895935,4.367763519287109,-0.4440322518348694
1.0326693058013916,4.3456878662109375,-0.4396137595176697
1.0629724264144897,4.338660717010498,-0.43678173422813416
1.0908877849578857,4.324026107788086,-0.43285712599754333
1.1186473369598389,4.309210300445557,-0.4289397597312927
1.1483979225158691,4.301692962646484,-0.4257621467113495
1.176830768585205,4.286259174346924,-0.4217614531517029
1.2086026668548584,4.285815715789795,-0.419190913438797
1.2314748764038086,4.255351543426514,-0.4135226905345917
1.256198763847351,4.2322282791137695,-0.40861082077026367
1.2900902032852173,4.2386250495910645,-0.4065347909927368
1.3178462982177734,4.222271919250488,-0.4022309184074402
1.3444632291793823,4.206060886383057,-0.39777055382728577
1.3756555318832397,4.20451021194458,-0.3946569859981537
1.3959331512451172,4.169466495513916,-0.38841450214385986
1.4275271892547607,4.167342185974121,-0.38523057103157043
1.458990216255188,4.165043830871582,-0.38195446133613586
1.4826613664627075,4.140526294708252,-0.3764384388923645
1.5029183626174927,4.108729362487793,-0.3703605830669403
1.5342040061950684,4.1058349609375,-0.3668603301048279
1.5628383159637451,4.095393657684326,-0.36268723011016846
1.5907641649246216,4.085012435913086,-0.35831955075263977
1.6190263032913208,4.074283123016357,-0.35386720299720764
1.6383174657821655,4.041749000549316,-0.3475715219974518
1.6605377197265625,4.016202449798584,-0.34188365936279297
1.69407057762146,4.019471168518066,-0.33852964639663696
1.9426143169403076,4.523622989654541,-0.3768165111541748
1.99434494972229,4.5568318367004395,-0.37526455521583557
2.035620927810669,4.564593315124512,-0.3715573847293854
2.079833745956421,4.579321384429932,-0.3682888150215149
2.117272138595581,4.5797624588012695,-0.3637394309043884
2.151681900024414,4.572763919830322,-0.35856619477272034
2.1841862201690674,4.557796001434326,-0.3525604009628296
2.2086777687072754,4.529098987579346,-0.3455309271812439
2.2426228523254395,4.521547317504883,-0.340036004781723
2.27329421043396,4.506658554077148,-0.33395811915397644
2.3047683238983154,4.491105556488037,-0.32769954204559326
2.340876340866089,4.486043453216553,-0.32214823365211487
1.7411421537399292,3.28220534324646,-0.23177941143512726
1.7393994331359863,3.2259886264801025,-0.2239513397216797
1.7544106245040894,3.2004036903381348,-0.2182285338640213
1.7399026155471802,3.1240947246551514,-0.209092378616333
1.7721928358078003,3.1331164836883545,-0.20571713149547577
1.8310253620147705,3.1851966381073,-0.20486055314540863
1.3238646984100342,2.2667505741119385,-0.1427307426929474
0.9529014825820923,1.607224941253662,-0.09898833930492401
0.963627815246582,1.6009770631790161,-0.09636209905147552
0.9747937321662903,1.5943665504455566,-0.0936167985200882
0.983561635017395,1.5845444202423096,-0.09063374996185303
0.9960446953773499,1.581495761871338,-0.08807774633169174
1.007004737854004,1.5746992826461792,-0.08517874777317047
1.0155178308486938,1.5647283792495728,-0.08208508044481277
1.0257238149642944,1.5582078695297241,-0.07917362451553345
1.036599040031433,1.5511502027511597,-0.07605693489313126
1.0492202043533325,1.5475093126296997,-0.07310280203819275
1.0680516958236694,1.5537022352218628,-0.0705847218632698
2.5706820487976074,3.6852099895477295,-0.16024774312973022
2.594954490661621,3.668501377105713,-0.15220944583415985
2.628194808959961,3.6643333435058594,-0.14443336427211761
2.607598304748535,3.5832133293151855,-0.13329368829727173
2.639357089996338,3.5796191692352295,-0.12516486644744873
2.6173195838928223,3.70088791847229,0.2369692325592041
2.597428798675537,3.733323097229004,0.2466595470905304
2.5667409896850586,3.7444984912872314,0.25424936413764954
1.0659421682357788,1.5812376737594604,0.11023321002721786
1.0540387630462646,1.58896803855896,0.11348816007375717
1.0300612449645996,1.5765256881713867,0.11510106921195984
1.0263887643814087,1.5972671508789062,0.11905878782272339
1.0101451873779297,1.5981522798538208,0.12150949984788895
0.9987159371376038,1.6051065921783447,0.12428975105285645
0.9867639541625977,1.6122708320617676,0.1269979327917099
0.9704816341400146,1.6128202676773071,0.12916503846645355
0.9629106521606445,1.6262115240097046,0.13224197924137115
1.347504734992981,2.312894582748413,0.19085274636745453
1.8677834272384644,3.262850284576416,0.27305689454078674
1.7917637825012207,3.184645891189575,0.27012404799461365
1.7505805492401123,3.1626455783843994,0.27160102128982544
1.7855770587921143,3.2807977199554443,0.285128653049469
1.7573957443237305,3.2867679595947266,0.2889028787612915
2.3898584842681885,4.551024436950684,0.4045602083206177
2.3471834659576416,4.546397686004639,0.4083601236343384
2.3217837810516357,4.576389312744141,0.41519710421562195
2.284341335296631,4.585999488830566,0.420022189617157
2.2503013610839844,4.602296829223633,0.4254768490791321
2.2206382751464844,4.624831199645996,0.431406170129776
2.1914963722229004,4.646835803985596,0.4372349679470062
2.1588706970214844,4.665904998779297,0.4425177276134491
2.122803211212158,4.6776814460754395,0.4471217095851898
2.09061861038208,4.695951461791992,0.4522917866706848
2.060889720916748,4.7171149253845215,0.4576648771762848
2.0037448406219482,4.677796363830566,0.4570977985858917
1.7361212968826294,4.13588809967041,0.40679749846458435
1.7028968334197998,4.1408867835998535,0.4099512994289398
1.6764757633209229,4.159671783447266,0.41440585255622864
1.6473772525787354,4.170912265777588,0.4181019961833954
1.6197826862335205,4.189682483673096,0.4224567115306854
1.5892730951309204,4.20100212097168,0.425909161567688
1.555984377861023,4.204802989959717,0.4286178648471832
1.5289667844772339,4.222633361816406,0.43270638585090637
1.4994449615478516,4.232865810394287,0.43602123856544495
1.4725956916809082,4.254292964935303,0.4403833746910095
1.4355555772781372,4.246106147766113,0.44151410460472107
1.4108943939208984,4.274520397186279,0.44647398591041565
1.3853868246078491,4.298882007598877,0.4510047435760498
1.3576751947402954,4.315554141998291,0.4547349214553833
1.328978419303894,4.332301139831543,0.4584334194660187
1.3022600412368774,4.356352806091309,0.4626726806163788
1.2687042951583862,4.357865333557129,0.46454718708992004
1.2397258281707764,4.373993873596191,0.4679874777793884
1.2132816314697266,4.397250175476074,0.47218745946884155
1.1825857162475586,4.405325889587402,0.4747837483882904
1.156412959098816,4.436107635498047,0.47958141565322876
1.1246182918548584,4.444025993347168,0.4818771779537201
1.0927255153656006,4.451725959777832,0.4841759502887726
1.0642272233963013,4.470360279083252,0.48765745759010315
1.0330785512924194,4.477416515350342,0.48989519476890564
1.0027639865875244,4.492026329040527,0.49288493394851685
0.9707795977592468,4.498839855194092,0.4947732090950012
0.9387487173080444,4.505424499511719,0.49666136503219604
0.7674975991249084,3.818816900253296,0.42197445034980774
0.7437681555747986,3.8391594886779785,0.4252321422100067
0.8502861857414246,4.561840057373047,0.5065184831619263
0.8222089409828186,4.59047269821167,0.5107114315032959
0.7909339070320129,4.60367488861084,0.5130863785743713
0.760142982006073,4.620494842529297,0.5158941149711609
0.7287878394126892,4.633234977722168,0.5182691812515259
0.6994044780731201,4.661147117614746,0.5223793983459473
0.6658924221992493,4.658040523529053,0.5230233073234558
0.6351829171180725,4.677863121032715,0.5259611010551453
0.606126606464386,4.712903022766113,0.530573308467865
0.5738481283187866,4.724633693695068,0.5325923562049866
0.5407494902610779,4.72840690612793,0.5337376594543457
0.5093502402305603,4.751282691955566,0.5370762944221497
0.47626614570617676,4.754583358764648,0.5382192730903625
0.44652312994003296,4.7963643074035645,0.5433910489082336
0.4128572940826416,4.7992939949035645,0.544150173664093
0.3797328770160675,4.809729099273682,0.5457885265350342
0.3477958142757416,4.843188762664795,0.5500756502151489
0.3153153955936432,4.864773273468018,0.553036630153656
0.28148189187049866,4.866761207580566,0.5537979602813721
0.24825960397720337,4.884068012237549,0.5559667944908142
0.21547146141529083,4.916662216186523,0.5598665475845337
0.1804739385843277,4.918028354644775,0.5602429509162903
0.14683467149734497,4.9424028396606445,0.5632649660110474
0.11270404607057571,4.9549031257629395,0.5649619698524475
0.07834528386592865,4.963286399841309,0.5662180781364441
0.043967630714178085,4.986996650695801,0.5688806176185608
0.008660324849188328,5.002712726593018,0.5706018209457397
-0.0262837503105402,5.018181800842285,0.5723235011100769
-0.06143710017204285,5.037286758422852,0.5744875073432922
-0.09687840193510056,5.0600266456604,0.577093780040741
-0.13188205659389496,5.051476001739502,0.5761594176292419
-0.16818448901176453,5.089273929595947,0.5801993608474731
-0.20409360527992249,5.088014602661133,0.5797268152236938
-0.24007917940616608,5.102038383483887,0.5810287594795227
-0.2782069146633148,5.150684833526611,0.5862975716590881
-0.3126411437988281,5.12543249130249,0.5831804871559143
-0.2953522205352783,4.34483528137207,0.49418124556541443
-0.32042455673217773,4.269185543060303,0.48514318466186523
-0.35211825370788574,4.294034957885742,0.48747286200523376
-0.38318371772766113,4.307047367095947,0.4884764850139618
-0.40818852186203003,4.254144668579102,0.4820307195186615
-0.4317719638347626,4.193371295928955,0.4747260808944702
-0.4555187225341797,4.1362738609313965,0.4678639769554138
-0.48040807247161865,4.102300643920898,0.46341124176979065
-0.501466691493988,4.041228294372559,0.45584455132484436
-0.5237257480621338,3.995455503463745,0.45004168152809143
-0.5459915399551392,3.953402042388916,0.44468995928764343
-0.5694672465324402,3.918823480606079,0.4401969611644745
-0.5914533138275146,3.8803374767303467,0.4353060722351074
-0.6070955395698547,3.8073058128356934,0.4263448417186737
-0.6299967765808105,3.784047842025757,0.4229186475276947
-0.6532332301139832,3.764486074447632,0.419933944940567
-0.6674119234085083,3.695080518722534,0.4114210307598114
-0.6892595291137695,3.6675074100494385,0.4075827896595001
-0.7117541432380676,3.6475236415863037,0.4046301543712616
-0.7282161712646484,3.6008660793304443,0.39849504828453064
-0.7463875412940979,3.5655760765075684,0.3936084806919098
-0.7551087141036987,3.488440990447998,0.3841474950313568
-0.7829374074935913,3.4983909130096436,0.3842853307723999
-0.7967726588249207,3.447610855102539,0.37778574228286743
-0.8153283596038818,3.419480085372925,0.3737964630126953
-0.8348625302314758,3.3989555835723877,0.37041205167770386
-0.8532029390335083,3.3745555877685547,0.36663374304771423
-0.8706658482551575,3.3462018966674805,0.3624376952648163
-0.8857686519622803,3.3102598190307617,0.3574545085430145
-0.9046655297279358,3.2892165184020996,0.35410603880882263
-0.9199343323707581,3.256918430328369,0.3494917154312134
-0.9398056864738464,3.2433578968048096,0.3467516601085663
-0.9532621502876282,3.2072196006774902,0.3416071832180023
-0.9682884216308594,3.1785523891448975,0.337309330701828
-0.9881128072738647,3.1645116806030273,0.3345617949962616
-0.9994686245918274,3.1244428157806396,0.32909658551216125
-1.0110160112380981,3.0882434844970703,0.32389113306999207
-1.0272547006607056,3.0667130947113037,0.32018694281578064
-1.0454267263412476,3.05256986618042,0.31730252504348755
-1.0652164220809937,3.041826009750366,0.3147587776184082
-1.0706599950790405,2.990628957748413,0.30805522203445435
-1.0884987115859985,2.976132392883301,0.30508506298065186
-1.0976202487945557,2.9398348331451416,0.2997877597808838
-1.107998013496399,2.9070634841918945,0.29486823081970215
-1.116568922996521,2.8706586360931396,0.289623498916626
-1.1279680728912354,2.841341972351074,0.2851029932498932
-1.1417614221572876,2.8192849159240723,0.2813010513782501
-1.1561458110809326,2.8010432720184326,0.2777429521083832
-1.1344635486602783,2.6965372562408447,0.2656804919242859
-1.14662504196167,2.674703359603882,0.26185017824172974
-1.1528542041778564,2.638333320617676,0.2565860152244568
-1.1647814512252808,2.6163032054901123,0.2527214586734772
-1.1822361946105957,2.608710527420044,0.2501453459262848
-1.199937343597412,2.6008663177490234,0.2475249469280243
-1.234171748161316,2.628110647201538,0.24822548031806946
-1.2843528985977173,2.6864254474639893,0.25175485014915466
-1.2566473484039307,2.5833675861358643,0.24012058973312378
-1.2874810695648193,2.6031925678253174,0.23987680673599243
-1.3084588050842285,2.6016972064971924,0.23761175572872162
-1.2927758693695068,2.526973009109497,0.22865359485149384
-1.3032737970352173,2.504295587539673,0.22445975244045258
-1.3308384418487549,2.5164906978607178,0.22326022386550903
-1.3216383457183838,2.45987868309021,0.21597369015216827
-1.3344955444335938,2.4443247318267822,0.21230243146419525
-1.3461788892745972,2.4248318672180176,0.20819370448589325
-1.354811191558838,2.4024198055267334,0.2038353979587555
-1.3589175939559937,2.373472213745117,0.1989123821258545
-1.3785911798477173,2.3713881969451904,0.1962273120880127
-1.3872467279434204,2.34853196144104,0.19170601665973663
-1.4153281450271606,2.3593101501464844,0.18981777131557465
-1.418485403060913,2.3303606510162354,0.18473170697689056
-1.4340249300003052,2.3211116790771484,0.18116357922554016
-1.4420216083526611,2.29805588722229,0.17639482021331787
-1.4487818479537964,2.275623083114624,0.1716281771659851
-1.4595023393630981,2.2597718238830566,0.16731353104114532
-1.4514906406402588,2.2141072750091553,0.16072125732898712
-1.488147497177124,2.2369163036346436,0.15902908146381378
-1.489328384399414,2.2082488536834717,0.15360498428344727
-1.5039589405059814,2.1986000537872314,0.14940689504146576
-1.4726927280426025,2.120972156524658,0.14045080542564392
-1.4905034303665161,2.1183223724365234,0.13655948638916016
-1.4998712539672852,2.102409839630127,0.13165134191513062
-1.5051698684692383,2.079681396484375,0.12607461214065552
-1.5089104175567627,2.0579311847686768,0.12056848406791687
-1.5180970430374146,2.041741132736206,0.1150997057557106
-1.4987019300460815,2.1148619651794434,-0.09375941008329391
-1.5029417276382446,2.154573917388916,-0.10062780231237411
-1.4742295742034912,2.1457173824310303,-0.10493694990873337
-1.4968749284744263,2.2150278091430664,-0.11323513090610504
-1.4896600246429443,2.238398790359497,-0.11895871162414551
-1.464616060256958,2.235960006713867,-0.12323854118585587
-1.4476898908615112,2.246677875518799,-0.1282118707895279
-1.4465581178665161,2.279550552368164,-0.1341789811849594
-1.4294737577438354,2.2900190353393555,-0.13893088698387146
-1.4205362796783447,2.3136165142059326,-0.14441852271556854
-1.408321738243103,2.32991361618042,-0.14925190806388855
-1.403268575668335,2.3599390983581543,-0.15499724447727203
-1.3935842514038086,2.3834614753723145,-0.16036315262317657
-1.3608245849609375,2.366102695465088,-0.16285404562950134
-1.3476834297180176,2.38228440284729,-0.1675163358449936
-1.3414320945739746,2.4123129844665527,-0.17316876351833344
-1.3277690410614014,2.4284515380859375,-0.17778630554676056
-1.3199207782745361,2.4545795917510986,-0.18309079110622406
-1.3016209602355957,2.4640259742736816,-0.18717344105243683
-1.2906839847564697,2.4870405197143555,-0.1922546774148941
-1.2802958488464355,2.5096147060394287,-0.1971999853849411
-1.288689136505127,2.57055926322937,-0.20521734654903412
-1.2613601684570312,2.56207275390625,-0.2076854407787323
-1.2154014110565186,2.514824390411377,-0.20696116983890533
-1.1626880168914795,2.4490749835968018,-0.20442569255828857
-1.1797460317611694,2.5311458110809326,-0.2141844779253006
-1.174329400062561,2.567659854888916,-0.22016794979572296
-1.1957664489746094,2.6645166873931885,-0.2314339131116867
-1.1645644903182983,2.6439871788024902,-0.2325105518102646
-1.1422733068466187,2.6449010372161865,-0.23542338609695435
-1.1262304782867432,2.659921884536743,-0.2395000159740448
-1.0982465744018555,2.6460201740264893,-0.24094808101654053
-1.10904061794281,2.725440263748169,-0.2509014308452606
-1.1271158456802368,2.8269355297088623,-0.2629857063293457
-1.1092174053192139,2.8420395851135254,-0.2671206593513489
-1.0972011089324951,2.871387243270874,-0.27257195115089417
-1.0798197984695435,2.885960817337036,-0.2766026556491852
-1.0567638874053955,2.885883092880249,-0.27917733788490295
-1.0439567565917969,2.9150352478027344,-0.2844928801059723
-1.0304040908813477,2.9442708492279053,-0.2899145781993866
-1.0047487020492554,2.9363768100738525,-0.29159972071647644
-0.9915510416030884,2.9651620388031006,-0.296929270029068
-0.9703777432441711,2.9718618392944336,-0.29988235235214233
-0.9515197277069092,2.9858169555664062,-0.30358847975730896
-0.9358798861503601,3.010814905166626,-0.3084629774093628
-0.9238792061805725,3.0467309951782227,-0.31444770097732544
-0.9045419096946716,3.0603463649749756,-0.3180153965950012
-0.8870982527732849,3.0813441276550293,-0.32231682538986206
-0.8768166899681091,3.12841796875,-0.32939350605010986
-0.8570336699485779,3.141663074493408,-0.3329266905784607
-0.8406401872634888,3.1699249744415283,-0.3380616307258606
-0.8269262313842773,3.209383964538574,-0.34420889616012573
-0.8155235052108765,3.2601051330566406,-0.3516291677951813
-0.798157811164856,3.288114070892334,-0.3566402792930603
-0.77960205078125,3.3122401237487793,-0.3612682819366455
-0.7627322673797607,3.3477766513824463,-0.3670184910297394
-0.7407240867614746,3.360414505004883,-0.37017494440078735
-0.7291223406791687,3.4222781658172607,-0.3788045644760132
-0.7067901492118835,3.4346306324005127,-0.3819858729839325
-0.6964254379272461,3.5077760219573975,-0.391954630613327
-0.6734502911567688,3.5238840579986572,-0.3953411281108856
-0.6584649085998535,3.5817620754241943,-0.40343356132507324
-0.6373854875564575,3.6089930534362793,-0.40812253952026367
-0.6180802583694458,3.6475532054901123,-0.41412702202796936
-0.60001140832901,3.697544574737549,-0.4213261306285858
-0.5800958871841431,3.7437267303466797,-0.4279654324054718
-0.5617525577545166,3.8012545108795166,-0.4359327256679535
-0.5352514982223511,3.80486798286438,-0.4377481937408447
-0.5154394507408142,3.85830020904541,-0.44533342123031616
-0.4933592677116394,3.9001271724700928,-0.45133185386657715
-0.46929723024368286,3.9302854537963867,-0.4559168815612793
-0.4512672424316406,4.022045612335205,-0.4677233099937439
-0.4272933602333069,4.063508033752441,-0.4737158715724945
-0.4115118086338043,4.193638801574707,-0.49011218547821045
-0.3772561848163605,4.142185688018799,-0.48490598797798157
-0.34893861413002014,4.1523237228393555,-0.4869247078895569
-0.3206070065498352,4.170039176940918,-0.48987501859664917
-0.2951386570930481,4.222348213195801,-0.49690744280815125
-0.3176593482494354,5.0488810539245605,-0.5951326489448547
-0.2335161417722702,4.17549467086792,-0.49265486001968384
-0.20290014147758484,4.145944118499756,-0.4896601736545563
-0.17287461459636688,4.131694316864014,-0.48849964141845703
-0.14367787539958954,4.121090412139893,-0.48778194189071655
-0.11454374343156815,4.106427192687988,-0.48639416694641113
-0.08543576300144196,4.083830833435059,-0.4838486313819885
-0.05672250688076019,4.068787574768066,-0.4822203516960144
-0.027816379442811012,4.0535454750061035,-0.4805934727191925
0.000330285110976547,4.034221649169922,-0.4785009026527405
0.02831568941473961,4.026374816894531,-0.47748813033103943
0.05608034506440163,4.010593891143799,-0.4754132628440857
0.08424289524555206,4.025649070739746,-0.4770168364048004
0.11160329729318619,4.001727104187012,-0.47402480244636536
0.13804903626441956,3.946589469909668,-0.4673585295677185
0.1652761846780777,3.9417319297790527,-0.46629416942596436
0.19284960627555847,3.9444408416748047,-0.466095894575119
0.21917052567005157,3.9237163066864014,-0.46315306425094604
0.24642910063266754,3.922175884246826,-0.4624994993209839
0.2735867500305176,3.91267991065979,-0.4608859717845917
0.29949817061424255,3.8953428268432617,-0.4580026865005493
0.32518264651298523,3.877833604812622,-0.4551278054714203
0.3514052629470825,3.867877960205078,-0.4531641900539398
0.3775694966316223,3.8577382564544678,-0.4512022137641907
0.40404969453811646,3.8473918437957764,-0.4491008520126343
0.4298335611820221,3.8369576930999756,-0.44674739241600037
0.45640960335731506,3.8340559005737305,-0.4452948272228241
0.47772088646888733,3.7886064052581787,-0.4389302432537079
0.5071620941162109,3.808436632156372,-0.4401542842388153
0.530841052532196,3.7818901538848877,-0.4358072578907013
0.5569933652877808,3.778336524963379,-0.4339888095855713
0.5831530094146729,3.7745962142944336,-0.43216806650161743
0.605664849281311,3.7476680278778076,-0.42771676182746887
0.6317368149757385,3.7435686588287354,-0.42589831352233887
0.6562603712081909,3.7317044734954834,-0.42291730642318726
0.6810641288757324,3.7196149826049805,-0.41983580589294434
0.7053061127662659,3.7074363231658936,-0.4167991876602173
0.7296233773231506,3.6950578689575195,-0.4137534201145172
0.7545225024223328,3.6863389015197754,-0.4111071527004242
0.779939591884613,3.681325674057007,-0.4085882902145386
0.8041059374809265,3.668455123901367,-0.4051869213581085
0.827804446220398,3.6554946899414062,-0.4018282890319824
0.8514793515205383,3.642352819442749,-0.3984681963920593
0.8748697638511658,3.629105567932129,-0.39497697353363037
0.8904587626457214,3.585603713989258,-0.38806408643722534
0.9357884526252747,3.6586265563964844,-0.39371514320373535
0.965193510055542,3.6673643589019775,-0.39242494106292725
1.0435492992401123,3.855896234512329,-0.41026008129119873
1.1815098524093628,4.249579429626465,-0.4492897093296051
1.2149708271026611,4.256694793701172,-0.44714537262916565
1.2426652908325195,4.240992546081543,-0.4425576627254486
1.2666414976119995,4.213995933532715,-0.43685081601142883
1.2981843948364258,4.212921619415283,-0.43375086784362793
1.3247168064117432,4.1969194412231445,-0.4289166033267975
1.3511219024658203,4.180737018585205,-0.42409175634384155
1.3831241130828857,4.178875923156738,-0.42064368724823
1.415993571281433,4.180588245391846,-0.41760823130607605
1.440843939781189,4.160179138183594,-0.41213738918304443
1.4666661024093628,4.14332914352417,-0.4070185422897339
1.4952205419540405,4.133544445037842,-0.40258848667144775
1.5240525007247925,4.123435974121094,-0.3981044292449951
1.550279140472412,4.105781555175781,-0.3927232623100281
1.5726969242095947,4.081021308898926,-0.38662225008010864
1.6005430221557617,4.0706257820129395,-0.381913423538208
1.6231539249420166,4.04534387588501,-0.37575480341911316
1.6601253747940063,4.056005001068115,-0.37290504574775696
1.6791788339614868,4.023324012756348,-0.3658527433872223
1.7217754125595093,4.048070430755615,-0.364093542098999
1.9311013221740723,4.454378604888916,-0.39612165093421936
1.9338963031768799,4.37715482711792,-0.38478490710258484
1.9667516946792603,4.371540069580078,-0.3796063959598541
1.9968924522399902,4.358364582061768,-0.3736993372440338
2.064906120300293,4.426115036010742,-0.3746452033519745
2.129218816757202,4.482454776763916,-0.3744313716888428
2.184908628463745,4.521090507507324,-0.3724430203437805
2.2291259765625,4.534734725952148,-0.3683098256587982
2.262742757797241,4.52295446395874,-0.3618656396865845
2.2925286293029785,4.504089832305908,-0.3549063801765442
2.322754383087158,4.489109039306641,-0.3481154441833496
2.3583202362060547,4.4842658042907715,-0.34211334586143494
1.731436014175415,3.2377891540527344,-0.24279572069644928
1.7538254261016846,3.226099729537964,-0.237651526927948
1.7286268472671509,3.129157781600952,-0.2262064814567566
1.7458463907241821,3.111008882522583,-0.2206420600414276
1.7830212116241455,3.1261861324310303,-0.21725711226463318
1.3605040311813354,2.348423957824707,-0.1597975343465805
1.3049159049987793,2.2185819149017334,-0.14770442247390747
0.9562600255012512,1.6003519296646118,-0.10406597703695297
0.9673436880111694,1.5938644409179688,-0.10115070641040802
0.9798859357833862,1.590950846672058,-0.09844212979078293
0.9946476221084595,1.5911543369293213,-0.09587842971086502
1.0015944242477417,1.5777411460876465,-0.09237655997276306
1.0164567232131958,1.5776809453964233,-0.08959534764289856
1.0204277038574219,1.5613237619400024,-0.08593451976776123
1.0313177108764648,1.5543304681777954,-0.08264312893152237
1.0437346696853638,1.5508975982666016,-0.07953469455242157
1.0384244918823242,1.5216586589813232,-0.07512396574020386
2.5319178104400635,3.654463529586792,-0.17272897064685822
2.586986780166626,3.68306827545166,-0.16637000441551208
2.6157898902893066,3.6726434230804443,-0.15792416036128998
2.61342453956604,3.6170690059661865,-0.14715412259101868
2.6270430088043213,3.5882112979888916,-0.1375957876443863
2.6655755043029785,3.5892701148986816,-0.12845981121063232
