X,Y,Z
0.19798941910266876,1.9140092134475708,-0.19014063477516174
0.21293924748897552,1.9281026124954224,-0.19112972915172577
0.2204485833644867,1.8764365911483765,-0.18561463057994843
0.23879674077033997,1.9173450469970703,-0.18926718831062317
0.24749942123889923,1.8810203075408936,-0.18519006669521332
0.2617780268192291,1.8870071172714233,-0.18523354828357697
0.27539968490600586,1.8890656232833862,-0.18490493297576904
0.2932561933994293,1.9179186820983887,-0.1871950924396515
0.3029254972934723,1.8928625583648682,-0.18423037230968475
0.3211391270160675,1.9214860200881958,-0.18636688590049744
0.33975809812545776,1.949952483177185,-0.18844735622406006
0.35347917675971985,1.9475997686386108,-0.18753555417060852
0.36990487575531006,1.9604663848876953,-0.18810127675533295
0.390264630317688,1.9922820329666138,-0.19047728180885315
0.41555944085121155,2.0468289852142334,-0.1948421150445938
0.42963820695877075,2.044025421142578,-0.1937319040298462
0.44403696060180664,2.0410537719726562,-0.19259481132030487
0.4633657932281494,2.0607876777648926,-0.19361044466495514
0.4741360545158386,2.0424747467041016,-0.1910238265991211
0.4936046600341797,2.0619866847991943,-0.19185230135917664
0.5170904994010925,2.096437454223633,-0.19405068457126617
0.5357416272163391,2.107936382293701,-0.19407974183559418
0.5524031519889832,2.1118004322052,-0.1934187412261963
0.572058379650116,2.126845359802246,-0.193705752491951
0.5928647518157959,2.145510673522949,-0.19423674046993256
0.6118642091751099,2.1564934253692627,-0.19405829906463623
0.6315144300460815,2.1671833992004395,-0.1938094198703766
0.6510831713676453,2.1777799129486084,-0.19356583058834076
0.6694545149803162,2.184569835662842,-0.19285131990909576
0.689075231552124,2.1949379444122314,-0.19242416322231293
0.7161405682563782,2.2273383140563965,-0.1938948929309845
0.7319190502166748,2.222362756729126,-0.19206246733665466
0.7547476887702942,2.239537477493286,-0.19212748110294342
0.7839498519897461,2.2750003337860107,-0.19363415241241455
0.804614245891571,2.2844622135162354,-0.19289951026439667
0.8311115503311157,2.3082668781280518,-0.19331645965576172
0.8512557148933411,2.313539505004883,-0.19216302037239075
0.8810722231864929,2.344186305999756,-0.19295908510684967
0.8998400568962097,2.3455746173858643,-0.1913246363401413
0.9373248815536499,2.393893241882324,-0.1934594064950943
0.9597663283348083,2.401960611343384,-0.19228264689445496
0.9821872115135193,2.409907341003418,-0.19103199243545532
1.0272008180618286,2.471627712249756,-0.1938823163509369
1.0410101413726807,2.4575822353363037,-0.1907694935798645
1.0766783952713013,2.4933838844299316,-0.191459521651268
1.1237938404083252,2.5538175106048584,-0.19393907487392426
1.1473863124847412,2.560610055923462,-0.19218847155570984
1.16823148727417,2.5599541664123535,-0.18982325494289398
1.1942858695983887,2.569627046585083,-0.1881791651248932
1.2255346775054932,2.5896294116973877,-0.18725372850894928
1.249698281288147,2.595592975616455,-0.18519562482833862
1.335742473602295,2.727379083633423,-0.1919725239276886
1.375929355621338,2.7599451541900635,-0.19145745038986206
1.4251084327697754,2.8096415996551514,-0.1920810043811798
1.470691442489624,2.852264881134033,-0.19202163815498352
1.4318647384643555,2.73205304145813,-0.18106403946876526
1.4435749053955078,2.70845890045166,-0.17653115093708038
1.3972697257995605,2.57861328125,-0.16521725058555603
1.3902546167373657,2.524895668029785,-0.1588701456785202
1.4187099933624268,2.536086082458496,-0.15665028989315033
1.413248896598816,2.4856464862823486,-0.1505579799413681
1.4262208938598633,2.469435691833496,-0.1465732902288437
1.4386042356491089,2.4534122943878174,-0.14259405434131622
1.455701470375061,2.443523645401001,-0.13882237672805786
1.4888476133346558,2.4602420330047607,-0.13653898239135742
1.4968022108078003,2.437321186065674,-0.13201051950454712
1.4614673852920532,2.3446691036224365,-0.12378081679344177
1.4110188484191895,2.229085683822632,-0.1144687607884407
1.388139009475708,2.160548448562622,-0.10773704946041107
1.3937839269638062,2.1384782791137695,-0.10346060246229172
1.4216021299362183,2.1484110355377197,-0.10052712261676788
1.4228380918502808,2.119619131088257,-0.09578117728233337
1.4365794658660889,2.110501289367676,-0.09193435311317444
1.4493154287338257,2.0972115993499756,-0.08759348839521408
1.4496031999588013,2.06864070892334,-0.08271472901105881
1.4496123790740967,2.0401268005371094,-0.077802874147892
1.4408936500549316,1.9985138177871704,-0.0722675621509552
1.4718745946884155,2.014777898788452,-0.06884194165468216
1.480924367904663,1.9985790252685547,-0.0639386773109436
2.2930972576141357,3.2100460529327393,0.1834067702293396
2.2587075233459473,3.2148542404174805,0.190033957362175
2.2339251041412354,3.2269906997680664,0.19635631144046783
2.242748975753784,3.291515350341797,0.20589224994182587
3.1429336071014404,4.688322067260742,0.3009929358959198
3.1379010677337646,4.752021312713623,0.31225281953811646
3.114442825317383,4.79478120803833,0.32224735617637634
1.6313499212265015,2.5534584522247314,0.17526957392692566
1.6342121362686157,2.5975286960601807,0.18169903755187988
1.6111953258514404,2.6024086475372314,0.185382679104805
3.0145320892333984,4.952120304107666,0.3589670956134796
2.990412712097168,4.993460655212402,0.36793041229248047
2.9652912616729736,5.030521392822266,0.37640902400016785
2.9099416732788086,5.021700859069824,0.38123175501823425
2.808624505996704,4.9310383796691895,0.37966248393058777
2.7644460201263428,4.933117866516113,0.3847838044166565
2.6874899864196777,4.877291202545166,0.38536056876182556
2.6231396198272705,4.845349311828613,0.38741612434387207
2.5414373874664307,4.778160095214844,0.38650548458099365
2.5188262462615967,4.81605863571167,0.3938010632991791
2.436891555786133,4.739599704742432,0.39168447256088257
2.381763219833374,4.719142436981201,0.3939324915409088
2.3156356811523438,4.673376560211182,0.39393341541290283
1.246253490447998,2.559908866882324,0.21776250004768372
1.2215924263000488,2.55428147315979,0.21925245225429535
1.1947177648544312,2.5452442169189453,0.22032634913921356
1.180827021598816,2.5643632411956787,0.22380594909191132
1.1620584726333618,2.572700262069702,0.2263498306274414
1.1566599607467651,2.609025239944458,0.23130933940410614
2.0761449337005615,4.773256301879883,0.42635977268218994
2.053346872329712,4.816600322723389,0.43319615721702576
2.484691858291626,5.948185443878174,0.538632333278656
2.4700112342834473,6.033816814422607,0.5500353574752808
2.452486991882324,6.111849308013916,0.5607541799545288
2.4205496311187744,6.157574653625488,0.5684295296669006
2.3911056518554688,6.214511871337891,0.5769555568695068
2.362387180328369,6.274957180023193,0.585877537727356
2.332364559173584,6.331364154815674,0.5944395661354065
1.9450281858444214,5.395355701446533,0.5093187689781189
2.275505542755127,6.454371929168701,0.6124407649040222
2.243945837020874,6.514392375946045,0.6210436224937439
2.207974433898926,6.563200950622559,0.6286409497261047
2.175485372543335,6.622771263122559,0.6373096704483032
2.1411194801330566,6.674407958984375,0.6452057361602783
2.080347776412964,6.644291877746582,0.6451589465141296
2.0200605392456055,6.617770671844482,0.6450692415237427
1.959089994430542,6.5870208740234375,0.6445717215538025
1.901458978652954,6.56303596496582,0.6447045207023621
1.8411003351211548,6.527340412139893,0.6436868906021118
1.7821524143218994,6.490909576416016,0.6425477862358093
1.725821614265442,6.465546607971191,0.642144501209259
1.666782259941101,6.428495407104492,0.6404668092727661
0.819837749004364,3.257680654525757,0.325588196516037
1.5482372045516968,6.341440677642822,0.6358001232147217
0.7963579297065735,3.363144636154175,0.3382504880428314
1.4430352449417114,6.289845943450928,0.6345103979110718
1.4007210731506348,6.311093807220459,0.6382113099098206
1.3329046964645386,6.214231491088867,0.629976749420166
1.289745569229126,6.231013774871826,0.6332862377166748
1.2432284355163574,6.2243571281433105,0.6341934204101562
1.1859078407287598,6.160094738006592,0.6292371153831482
1.1297980546951294,6.099271774291992,0.6243947744369507
1.093355655670166,6.145188808441162,0.6302774548530579
1.0437381267547607,6.122066974639893,0.6291351914405823
0.9888713955879211,6.056164741516113,0.6235724687576294
0.9514130353927612,6.093433380126953,0.6286477446556091
0.8957900404930115,6.011310577392578,0.6214223504066467
0.8436174392700195,5.948054313659668,0.6158263087272644
0.8050053715705872,5.984620571136475,0.6204674243927002
0.7617530822753906,5.982296943664551,0.6210963129997253
0.6192747950553894,5.150181293487549,0.5354700088500977
0.5642589330673218,4.9843549728393555,0.518989622592926
0.5484994649887085,5.165762424468994,0.5386915802955627
0.4031207859516144,4.067456245422363,0.424565851688385
0.3750979006290436,4.081773281097412,0.4264295995235443
0.35106149315834045,4.138434886932373,0.4327374994754791
0.32556408643722534,4.183319091796875,0.4378412067890167
0.29703235626220703,4.19316291809082,0.43930310010910034
0.2646223306655884,4.144657611846924,0.43466916680336
0.2389315515756607,4.2123284339904785,0.44198936223983765
0.3870429992675781,7.787496566772461,0.8174586892127991
0.3309316039085388,7.751132011413574,0.8140145540237427
0.27586910128593445,7.722122669219971,0.8113771677017212
0.2215004414319992,7.696603298187256,0.8091409802436829
0.16636346280574799,7.666840076446533,0.8065041899681091
0.11248435080051422,7.632837295532227,0.8029651045799255
0.05915512144565582,7.610126495361328,0.800524890422821
0.006221390329301357,7.579273700714111,0.7972672581672668
-0.046455685049295425,7.563593864440918,0.7956441640853882
-0.0997399389743805,7.543652057647705,0.793612539768219
-0.15139849483966827,7.503933906555176,0.7895373702049255
-0.20283852517604828,7.4794464111328125,0.7866660952568054
-0.25399118661880493,7.4546217918396,0.7836410403251648
-0.30600419640541077,7.46050500869751,0.7838832139968872
-0.35818976163864136,7.4660210609436035,0.7841233015060425
-0.2979850172996521,5.411325454711914,0.5681052207946777
-0.33466005325317383,5.393655300140381,0.5660594701766968
-0.3719695210456848,5.3912835121154785,0.5653683543205261
-0.4092496335506439,5.388667583465576,0.5645474195480347
-0.44388726353645325,5.354824066162109,0.5604855418205261
-0.4677134156227112,5.196863174438477,0.5434666275978088
-0.44824254512786865,4.621238708496094,0.48286858201026917
-0.4783322215080261,4.598764419555664,0.48014265298843384
-0.5091590285301208,4.587731838226318,0.47840768098831177
-0.5397417545318604,4.576519012451172,0.4765532314777374
-0.5688345432281494,4.5496110916137695,0.4730796217918396
-0.5993310809135437,4.537964820861816,0.471226304769516
-0.6309055685997009,4.533792495727539,0.4701700806617737
-0.6602016091346741,4.514020919799805,0.46752089262008667
-0.2620398700237274,1.7093050479888916,0.17672839760780334
-0.27087846398353577,1.6883057355880737,0.17421357333660126
-0.27475571632385254,1.6404662132263184,0.16895592212677002
-0.2941305339336395,1.6845183372497559,0.17316775023937225
-0.3016526997089386,1.6595458984375,0.17028672993183136
-0.30739912390708923,1.6269116401672363,0.16663773357868195
-0.3319975733757019,1.6934833526611328,0.17305554449558258
-0.7455536127090454,3.668088912963867,0.3739017844200134
-0.7705556750297546,3.663062572479248,0.37248510122299194
-0.9405669569969177,4.322484970092773,0.4384732246398926
-0.9774170517921448,4.34635591506958,0.43983733654022217
-1.0058515071868896,4.332056045532227,0.4373544156551361
-1.0303910970687866,4.3025078773498535,0.4330403804779053
-1.05961012840271,4.295607089996338,0.4310358464717865
-1.0792571306228638,4.250811576843262,0.4252583086490631
-1.1127249002456665,4.258454322814941,0.42472609877586365
-1.136301040649414,4.228274345397949,0.42044252157211304
-1.166016697883606,4.220388889312744,0.41830283403396606
-1.194597840309143,4.212616920471191,0.41598811745643616
-1.2252589464187622,4.212130069732666,0.4144112765789032
-1.2496592998504639,4.188954830169678,0.4106047749519348
-1.2776107788085938,4.176679611206055,0.40787193179130554
-1.3048053979873657,4.160346984863281,0.4047397971153259
-1.3283191919326782,4.136808395385742,0.4007626175880432
-1.3488849401474,4.10584020614624,0.39601561427116394
-1.3864777088165283,4.126393795013428,0.396250456571579
-1.4125311374664307,4.109579086303711,0.39285826683044434
-1.4359514713287354,4.085219860076904,0.38876622915267944
-1.4618781805038452,4.068012237548828,0.3852696120738983
-1.4945255517959595,4.072991847991943,0.3837195932865143
-1.519079327583313,4.055864334106445,0.38010314106941223
-1.5441560745239258,4.038332939147949,0.37642303109169006
-1.5694583654403687,4.020495414733887,0.3727107346057892
-1.5892202854156494,3.987884998321533,0.3676014840602875
-1.615917444229126,3.977440357208252,0.3643605709075928
-1.6365547180175781,3.9524426460266113,0.35981395840644836
-1.6665502786636353,3.9486401081085205,0.3571711480617523
-1.700188159942627,3.951535224914551,0.35509246587753296
-1.7170852422714233,3.914790153503418,0.3494194447994232
-1.7335933446884155,3.882251501083374,0.34399330615997314
-1.7529343366622925,3.8567657470703125,0.3392334580421448
-1.7858490943908691,3.859121799468994,0.33686381578445435
-1.8061033487319946,3.832792282104492,0.3319569528102875
-1.8295012712478638,3.813368082046509,0.3275700509548187
-1.8444801568984985,3.780489683151245,0.321937620639801
-1.8764127492904663,3.7824673652648926,0.31929293274879456
-1.9027256965637207,3.769639253616333,0.31525713205337524
-1.9326547384262085,3.763482093811035,0.31177273392677307
-1.9543025493621826,3.7438418865203857,0.3070477545261383
-1.9867653846740723,3.744718074798584,0.30389484763145447
-2.008422613143921,3.724644422531128,0.29902511835098267
-1.700934886932373,3.102656364440918,0.24630342423915863
-1.718229055404663,3.0844898223876953,0.24202026426792145
-1.7268450260162354,3.053133487701416,0.23664680123329163
-0.8504711389541626,1.4802628755569458,0.11326136440038681
-0.8647515177726746,1.4811502695083618,0.11180272698402405
-0.8629238605499268,1.455236792564392,0.1083173081278801
-0.872389018535614,1.4497296810150146,0.10632745176553726
-0.8901880979537964,1.4573246240615845,0.10524775087833405
-0.8923250436782837,1.4378504753112793,0.10211052745580673
-0.901940107345581,1.431990623474121,0.09995729476213455
-0.9027654528617859,1.4131442308425903,0.09689322859048843
-0.8911961913108826,1.3743647336959839,0.09242026507854462
-0.8986234068870544,1.365004062652588,0.08993334323167801
-0.9616253972053528,1.4403871297836304,0.09283377230167389
-2.3665497303009033,3.4949700832366943,0.22012661397457123
-1.2728338241577148,1.8518797159194946,0.11373550444841385
-1.340501070022583,1.9238775968551636,0.11507343500852585
-1.2304283380508423,1.7737090587615967,-0.079230897128582
-1.2723442316055298,1.863139033317566,-0.08700814843177795
-1.2736207246780396,1.8950788974761963,-0.09222593158483505
-1.281867504119873,1.93629789352417,-0.09776747971773148
-1.2841354608535767,1.971948504447937,-0.10319105535745621
-1.1770713329315186,1.8364988565444946,-0.09928356856107712
-1.139143466949463,1.8049392700195312,-0.10056784749031067
-1.1049890518188477,1.7800946235656738,-0.10209562629461288
-1.167276382446289,1.9110703468322754,-0.11260908842086792
-1.9773173332214355,3.344291925430298,-0.20710092782974243
-0.8816834688186646,1.5667541027069092,-0.10358152538537979
-1.7096130847930908,3.0917088985443115,-0.2086218297481537
-1.661676049232483,3.0554165840148926,-0.21007630228996277
-1.6052591800689697,3.0013580322265625,-0.21014070510864258
-1.55241060256958,2.9540464878082275,-0.21046070754528046
-1.5041471719741821,2.9129445552825928,-0.2110602706670761
-1.4587023258209229,2.874596118927002,-0.21168574690818787
-1.405206322669983,2.818312406539917,-0.21077346801757812
-1.367526888847351,2.793165683746338,-0.21202312409877777
-1.3289597034454346,2.763944387435913,-0.21283693611621857
-1.2813268899917603,2.712982177734375,-0.21181389689445496
-1.2357810735702515,2.665191650390625,-0.21086497604846954
-1.2016032934188843,2.6420271396636963,-0.21178218722343445
-1.1637413501739502,2.607546329498291,-0.2116318792104721
-1.131355881690979,2.5832715034484863,-0.21221205592155457
-1.0913900136947632,2.5409111976623535,-0.211173415184021
-1.0563424825668335,2.509009599685669,-0.2108808308839798
-1.0262876749038696,2.4875333309173584,-0.21140912175178528
-0.986975908279419,2.4402551651000977,-0.20960110425949097
-0.9553732872009277,2.4107320308685303,-0.20918963849544525
-0.9267739057540894,2.388263463973999,-0.2092715948820114
-0.9028365015983582,2.376378059387207,-0.21023453772068024
-0.8696006536483765,2.3387413024902344,-0.20887981355190277
-0.8385040163993835,2.3043410778045654,-0.20769444108009338
-0.8167368769645691,2.2954204082489014,-0.20866231620311737
-0.7900446057319641,2.2715985774993896,-0.20825040340423584
-0.7604113221168518,2.2363219261169434,-0.20669838786125183
-0.7445282936096191,2.2414565086364746,-0.2088911384344101
-0.714217483997345,2.202075242996216,-0.2067626714706421
-0.6891265511512756,2.17724609375,-0.20593564212322235
-0.6761079430580139,2.1892855167388916,-0.2085707187652588
-0.6507165431976318,2.160245656967163,-0.2072746455669403
-0.6311514377593994,2.149655818939209,-0.207671657204628
-0.613475501537323,2.146507501602173,-0.20870374143123627
-0.5940854549407959,2.1356451511383057,-0.20895729959011078
-0.5680058002471924,2.0982799530029297,-0.20657309889793396
-0.553365170955658,2.1020257472991943,-0.20822125673294067
-0.41810065507888794,1.6348575353622437,-0.16284197568893433
-0.49432775378227234,1.992417812347412,-0.19954459369182587
-0.49215853214263916,2.0448343753814697,-0.20588897168636322
-0.47437912225723267,2.0329248905181885,-0.20577581226825714
-0.45759737491607666,2.0246739387512207,-0.20600011944770813
-0.4399930238723755,2.012533664703369,-0.2056884765625
-0.4191235601902008,1.9850867986679077,-0.20381775498390198
-0.4114632308483124,2.018306255340576,-0.2081611454486847
-0.38988012075424194,1.9828689098358154,-0.2054288387298584
-0.37743625044822693,1.9930707216262817,-0.20733371376991272
-0.3592272698879242,1.9726320505142212,-0.20596767961978912
-0.3431036174297333,1.963559865951538,-0.20579807460308075
-0.3255596458911896,1.9428062438964844,-0.20438086986541748
-0.310783326625824,1.9372509717941284,-0.20456045866012573
-0.29719308018684387,1.9392921924591064,-0.20541353523731232
-0.28243905305862427,1.9335581064224243,-0.2054067999124527
-0.2665339708328247,1.9200413227081299,-0.20458418130874634
-0.2521543800830841,1.9140621423721313,-0.20455366373062134
-0.23788687586784363,1.9079749584197998,-0.20451579988002777
-0.22135187685489655,1.8825236558914185,-0.20222964882850647
-0.20818431675434113,1.8839608430862427,-0.20282942056655884
-0.19583863019943237,1.8930292129516602,-0.2042614221572876
-0.1824391782283783,1.8943017721176147,-0.20487087965011597
-0.1678648293018341,1.879990816116333,-0.2037665843963623
-0.15471886098384857,1.8810735940933228,-0.20417912304401398
-0.14040078222751617,1.8665740489959717,-0.2029077708721161
-0.1263401359319687,1.8519647121429443,-0.20162813365459442
-0.11323484778404236,1.8527675867080688,-0.20203877985477448
-0.09949459135532379,1.8379623889923096,-0.20069505274295807
-0.0874042883515358,1.8541032075881958,-0.20260997116565704
-0.07355125993490219,1.8313629627227783,-0.20028498768806458
-0.06104970723390579,1.839568853378296,-0.2013528048992157
-0.047796595841646194,1.8321678638458252,-0.2007254660129547
-0.03474557399749756,1.8169118165969849,-0.19916115701198578
-0.02226359024643898,1.8326373100280762,-0.20089535415172577
-0.009443416260182858,1.8249784708023071,-0.2000759392976761
0.0032794266007840633,1.8405286073684692,-0.20181076228618622
0.016164250671863556,1.8249244689941406,-0.20014002919197083
0.028836198151111603,1.8247756958007812,-0.20007255673408508
0.04187047854065895,1.8400752544403076,-0.20162735879421234
0.0541963055729866,1.8242307901382446,-0.19977916777133942
0.0664462223649025,1.8121845722198486,-0.1983582079410553
0.07920832931995392,1.8155744075775146,-0.19863685965538025
0.09203888475894928,1.8149991035461426,-0.19836337864398956
0.10507270693778992,1.8221068382263184,-0.1988796591758728
0.11922696977853775,1.8446208238601685,-0.20108246803283691
0.12981554865837097,1.8127970695495605,-0.19737249612808228
0.1448364108800888,1.842860221862793,-0.20041029155254364
0.15780995786190033,1.8418468236923218,-0.19992829859256744
0.17126426100730896,1.8485008478164673,-0.20025557279586792
0.18176867067813873,1.8241361379623413,-0.19723433256149292
0.19610907137393951,1.8383299112319946,-0.19839203357696533
0.2089158594608307,1.8369741439819336,-0.1978776454925537
0.22277818620204926,1.8432443141937256,-0.19801396131515503
0.23751729726791382,1.8571429252624512,-0.19896835088729858
0.25039732456207275,1.8555254936218262,-0.19826485216617584
0.2644056975841522,1.8615044355392456,-0.19837848842144012
0.2773379385471344,1.85969877243042,-0.19765350222587585
0.2940039336681366,1.8808284997940063,-0.19920121133327484
0.3088785707950592,1.8903480768203735,-0.199527770280838
0.3220027685165405,1.888251543045044,-0.1986304074525833
0.32902589440345764,1.8516268730163574,-0.19412113726139069
0.34328868985176086,1.85703706741333,-0.19398650527000427
0.35755762457847595,1.8623669147491455,-0.193728968501091
0.3721325695514679,1.8675469160079956,-0.19344490766525269
0.38513267040252686,1.8650201559066772,-0.19237443804740906
0.3965058922767639,1.85479736328125,-0.19052183628082275
0.4110274910926819,1.8597136735916138,-0.1901487559080124
0.4238373637199402,1.8569608926773071,-0.18892745673656464
0.43776270747184753,1.8578479290008545,-0.18806593120098114
0.46907100081443787,1.930429220199585,-0.19443754851818085
0.4872480034828186,1.9460970163345337,-0.19503846764564514
0.5025926828384399,1.9503651857376099,-0.1943601816892624
0.5239829421043396,1.977071762084961,-0.19588057696819305
0.5378904938697815,1.9734833240509033,-0.1943662166595459
0.5600360035896301,1.9997893571853638,-0.19579893350601196
0.5771507024765015,2.0072124004364014,-0.19533750414848328
0.5952931046485901,2.0182952880859375,-0.19510963559150696
0.6226374506950378,2.0590062141418457,-0.19771502912044525
0.6325971484184265,2.0398521423339844,-0.1945195198059082
0.6609592437744141,2.080045223236084,-0.19699348509311676
0.6764914393424988,2.0793135166168213,-0.19547566771507263
0.7005321383476257,2.104351758956909,-0.19631458818912506
0.7175353169441223,2.107020378112793,-0.19503723084926605
0.7424528002738953,2.131549596786499,-0.1957487165927887
0.7640447020530701,2.1447641849517822,-0.19534796476364136
0.7866323590278625,2.1616475582122803,-0.19517657160758972
0.809484601020813,2.178323745727539,-0.194960817694664
0.8384756445884705,2.2092196941375732,-0.19593992829322815
0.8539022207260132,2.203505516052246,-0.19364815950393677
0.8907404541969299,2.2520129680633545,-0.19596071541309357
0.9177374839782715,2.2749855518341064,-0.19598837196826935
0.9349039196968079,2.2724130153656006,-0.19377274811267853
0.965789258480072,2.301969528198242,-0.19425183534622192
1.0045678615570068,2.3492112159729004,-0.19610096514225006
1.0269496440887451,2.3567521572113037,-0.19448116421699524
1.0525400638580322,2.3712596893310547,-0.19342559576034546
1.0899556875228882,2.4102253913879395,-0.19426169991493225
1.132709264755249,2.459472894668579,-0.19580233097076416
1.1608847379684448,2.476701498031616,-0.19464804232120514
1.2015234231948853,2.5180797576904297,-0.19525879621505737
1.2258872985839844,2.523904323577881,-0.19303683936595917
1.2588533163070679,2.547065019607544,-0.19207870960235596
1.3091890811920166,2.6049771308898926,-0.19357529282569885
1.3552132844924927,2.6518330574035645,-0.19409528374671936
1.4079022407531738,2.708273410797119,-0.1950940489768982
1.4305180311203003,2.7055001258850098,-0.19166608154773712
1.420933723449707,2.644608974456787,-0.18418921530246735
1.3660613298416138,2.501655340194702,-0.17117276787757874
1.3702152967453003,2.468463182449341,-0.16580231487751007
1.396476149559021,2.47636342048645,-0.16316913068294525
1.420927882194519,2.4806621074676514,-0.16018743813037872
1.4262588024139404,2.4508144855499268,-0.1549438089132309
1.4433094263076782,2.441061019897461,-0.15096502006053925
1.45940363407135,2.431718111038208,-0.1469685137271881
1.4655506610870361,2.4054481983184814,-0.1419224739074707
1.5051977634429932,2.431713342666626,-0.13974812626838684
1.521454095840454,2.4218173027038574,-0.13549111783504486
1.484869360923767,2.329759120941162,-0.12675566971302032
1.4205609560012817,2.1950552463531494,-0.1157979667186737
1.409703016281128,2.1464438438415527,-0.1096465066075325
1.4195795059204102,2.1307594776153564,-0.10518281906843185
1.4299572706222534,2.1146016120910645,-0.1005530059337616
1.4441167116165161,2.105158805847168,-0.0962349995970726
1.4420382976531982,2.0735771656036377,-0.09093806147575378
1.4564768075942993,2.063659906387329,-0.08631067723035812
1.4565476179122925,2.035061836242676,-0.0808618813753128
1.4653459787368774,2.0192782878875732,-0.07589416950941086
1.4698801040649414,1.9968003034591675,-0.07046819478273392
2.268800973892212,3.202061891555786,0.20441102981567383
2.251842975616455,3.2278084754943848,0.21246057748794556
2.2221343517303467,3.2383837699890137,0.2194279432296753
2.371476411819458,3.5089540481567383,0.24391676485538483
2.3907105922698975,3.594146251678467,0.2558973729610443
2.343885898590088,3.582479238510132,0.26095888018608093
3.1042728424072266,4.8174638748168945,0.358120858669281
1.6347326040267944,2.577686071395874,0.19539804756641388
1.6064234972000122,2.576709270477295,0.19907967746257782
1.5880231857299805,2.5877559185028076,0.20337414741516113
3.004483938217163,4.973602294921875,0.3973454236984253
2.9747025966644287,5.008969783782959,0.40637943148612976
2.943269729614258,5.040405750274658,0.41503551602363586
2.8529748916625977,4.96601676940918,0.4146425724029541
2.794301986694336,4.945039749145508,0.418384850025177
2.7439706325531006,4.941381454467773,0.4233736991882324
2.7078025341033936,4.960705280303955,0.43020156025886536
2.6157588958740234,4.872671127319336,0.42744049429893494
2.5655181407928467,4.863545894622803,0.4314560890197754
2.5559794902801514,4.933887958526611,0.44230160117149353
2.4632678031921387,4.840879440307617,0.4383845627307892
2.436354637145996,4.8713788986206055,0.44538185000419617
2.4380812644958496,4.961243629455566,0.4578670859336853
1.2324845790863037,2.5560684204101562,0.23799628019332886
1.2069343328475952,2.5507495403289795,0.23955678939819336
1.1889976263046265,2.5589029788970947,0.24228417873382568
1.171067237854004,2.5669000148773193,0.2450019270181656
1.1588852405548096,2.589233160018921,0.24899975955486298
1.1398454904556274,2.597421407699585,0.25159338116645813
2.5488176345825195,5.925804138183594,0.5781300067901611
2.520934581756592,5.975190162658691,0.5869160294532776
2.4939703941345215,6.0280585289001465,0.596118152141571
2.4661691188812256,6.085144996643066,0.6054365038871765
2.436013698577881,6.138609409332275,0.6144227981567383
2.409541606903076,6.202779293060303,0.6245540976524353
2.3772971630096436,6.247982501983643,0.6326934695243835
2.3499679565429688,6.307603359222412,0.6423654556274414
1.9595153331756592,5.3777174949646,0.5504150390625
2.2884292602539062,6.424201488494873,0.6607821583747864
2.258208751678467,6.487915992736816,0.6706618070602417
2.2278037071228027,6.547219276428223,0.6800346970558167
2.195451259613037,6.6027140617370605,0.6890873312950134
2.16367506980896,6.66586971282959,0.698643147945404
2.1119298934936523,6.6697492599487305,0.701910138130188
2.04464054107666,6.625159740447998,0.7001245617866516
1.98598051071167,6.597900867462158,0.7000260949134827
1.928957462310791,6.573861122131348,0.7002664804458618
1.8686467409133911,6.538309097290039,0.6990830302238464
1.8090940713882446,6.506258010864258,0.6979665756225586
1.7511769533157349,6.477427959442139,0.6971978545188904
1.6948175430297852,6.451848983764648,0.6967832446098328
0.8302412629127502,3.2522523403167725,0.35239145159721375
1.5853031873703003,6.394852161407471,0.6952013373374939
0.8071632981300354,3.3576574325561523,0.3660125434398651
1.4792275428771973,6.351778984069824,0.6942247152328491
1.421162486076355,6.308963775634766,0.6914243698120117
1.3614261150360107,6.246302127838135,0.6863735914230347
1.3090381622314453,6.213526248931885,0.6846068501472473
1.2671045064926147,6.229836463928223,0.6881946325302124
1.2153136730194092,6.200318813323975,0.6863253712654114
1.1552711725234985,6.1285576820373535,0.6798146367073059
1.102234959602356,6.082822799682617,0.676159679889679
1.059177041053772,6.086277961730957,0.6779717206954956
1.0174022912979126,6.097087383270264,0.6806358695030212
0.9667245745658875,6.053988456726074,0.6771315336227417
0.9219388365745544,6.052918434143066,0.6780357956886292
0.8757455348968506,6.0360426902771,0.677180826663971
0.8322725892066956,6.034160614013672,0.6780284643173218
0.7772203683853149,5.939526081085205,0.6684567332267761
0.7359246015548706,5.944596290588379,0.6701205968856812
0.5854911208152771,5.016333103179932,0.5662553906440735
0.5626775622367859,5.139901638031006,0.5807881951332092
0.5300939679145813,5.17836856842041,0.5857410430908203
0.39437171816825867,4.138516426086426,0.46862566471099854
0.358368843793869,4.059873104095459,0.46023502945899963
0.34014230966567993,4.185980319976807,0.47508367896080017
0.31097763776779175,4.195954322814941,0.47664961218833923
0.2786785066127777,4.155379295349121,0.47228044271469116
0.25208011269569397,4.199796199798584,0.47759464383125305
0.4115886390209198,7.763289928436279,0.88336181640625
0.35761570930480957,7.765864849090576,0.8842268586158752
0.30203330516815186,7.752587795257568,0.8833404183387756
0.2462121546268463,7.696242809295654,0.8773382306098938
0.19156306982040405,7.6589484214782715,0.8731398582458496
0.1380060613155365,7.652310848236084,0.8724787831306458
0.08433161675930023,7.618133544921875,0.8687189817428589
0.030410047620534897,7.602989673614502,0.8671738505363464
-0.02227810025215149,7.571943283081055,0.8638527393341064
-0.07460479438304901,7.540552139282227,0.8603665232658386
-0.1263255774974823,7.504973888397217,0.85598224401474
-0.17783308029174805,7.480682373046875,0.852928876876831
-0.22956573963165283,7.471553325653076,0.8516461253166199
-0.28154635429382324,7.446518421173096,0.8485889434814453
-0.33327817916870117,7.444427013397217,0.8481922149658203
-0.27974945306777954,5.407067775726318,0.6159058213233948
-0.317113995552063,5.405089855194092,0.615164041519165
-0.35452166199684143,5.402850151062012,0.6144211292266846
-0.3919795751571655,5.392564296722412,0.6127858757972717
-0.4276213049888611,5.366577625274658,0.6094043254852295
-0.46258535981178284,5.336488723754883,0.6055904030799866
-0.43263185024261475,4.618274211883545,0.5237427353858948
-0.4636774957180023,4.607573509216309,0.5218464136123657
-0.49600642919540405,4.604323387145996,0.5208079218864441
-0.5263580679893494,4.589345455169678,0.5184825658798218
-0.5553598403930664,4.562579154968262,0.5148499608039856
-0.586046576499939,4.551026344299316,0.5129621028900146
-0.6155015230178833,4.531580924987793,0.5102081894874573
-0.6409883499145508,4.4850664138793945,0.5040714740753174
-0.6734099388122559,4.492242813110352,0.5040137767791748
-0.2624027132987976,1.67233145236969,0.18731610476970673
-0.27150705456733704,1.655198335647583,0.18509024381637573
-0.26926544308662415,1.5729550123214722,0.17560936510562897
-0.28427910804748535,1.5940358638763428,0.17767998576164246
-0.8223259449005127,4.432655334472656,0.49293917417526245
-0.8437793850898743,4.381366729736328,0.4861401617527008
-0.7353407144546509,3.682577610015869,0.40769991278648376
-0.7562136650085449,3.6547179222106934,0.40371936559677124
-0.9272458553314209,4.329298496246338,0.4771941900253296
-0.9628069400787354,4.345599174499512,0.47789466381073
-0.9923707842826843,4.339169502258301,0.4758365750312805
-1.0183675289154053,4.317405700683594,0.47212162613868713
-1.0331884622573853,4.250172138214111,0.46347567439079285
-1.0608093738555908,4.235578536987305,0.4605921804904938
-1.0946468114852905,4.24323844909668,0.4601249694824219
-1.1258201599121094,4.243350028991699,0.4587565064430237
-1.156620740890503,4.2433695793151855,0.45718902349472046
-1.181148886680603,4.220726490020752,0.45320579409599304
-1.2101224660873413,4.212768077850342,0.4508039355278015
-1.235544204711914,4.189444541931152,0.4467374086380005
-1.2692114114761353,4.195869445800781,0.4458911120891571
-1.2897191047668457,4.1614203453063965,0.44048598408699036
-1.315423846244812,4.145498275756836,0.43699225783348083
-1.3386094570159912,4.122011661529541,0.4327280819416046
-1.3726255893707275,4.127494812011719,0.4314436614513397
-1.3988819122314453,4.110751152038574,0.42787840962409973
-1.4221285581588745,4.086601734161377,0.4234992265701294
-1.449639081954956,4.077239513397217,0.4204549193382263
-1.4743961095809937,4.0603928565979,0.41666439175605774
-1.5022112131118774,4.050501346588135,0.41357171535491943
-1.5308423042297363,4.040092945098877,0.41038021445274353
-1.5533106327056885,4.015151023864746,0.40577566623687744
-1.5773183107376099,3.997758150100708,0.4016958177089691
-1.5982040166854858,3.9730262756347656,0.39689502120018005
-1.6118286848068237,3.9300436973571777,0.3902833163738251
-1.6457914113998413,3.933166980743408,0.3881629407405853
-1.6839420795440674,3.9469540119171143,0.38713499903678894
-1.7104681730270386,3.9358928203582764,0.3834401071071625
-1.7288943529129028,3.906930923461914,0.3779852092266083
-1.7457342147827148,3.874203681945801,0.3721768260002136
-1.7796677350997925,3.8762450218200684,0.36960697174072266
-1.8000746965408325,3.8499996662139893,0.3644036650657654
-1.8122116327285767,3.810229539871216,0.3577307462692261
-1.8442212343215942,3.8125197887420654,0.35502055287361145
-1.863315224647522,3.786261796951294,0.34958404302597046
-1.9006489515304565,3.7942004203796387,0.34719017148017883
-1.926652193069458,3.7814552783966064,0.3428899049758911
-1.962294340133667,3.789811372756958,0.34034067392349243
-1.9691166877746582,3.742719888687134,0.3328388035297394
-1.9879244565963745,3.7155189514160156,0.3269627094268799
-2.021307945251465,3.7156171798706055,0.32350867986679077
-1.707136869430542,3.088686227798462,0.2658289074897766
-1.7311958074569702,3.0845463275909424,0.26240646839141846
-0.8375957012176514,1.4687706232070923,0.12341423332691193
-0.8517592549324036,1.4697870016098022,0.12193132191896439
-0.8654709458351135,1.470976710319519,0.12039349973201752
-0.8672094345092773,1.4519997835159302,0.11716977506875992
-0.8812274932861328,1.4528366327285767,0.11549301445484161
-0.8791406750679016,1.4268814325332642,0.11167343705892563
-0.9050139784812927,1.447700023651123,0.11145045608282089
-0.9060348272323608,1.428807020187378,0.10814820230007172
-0.8866182565689087,1.3766286373138428,0.1022355929017067
-0.8938853144645691,1.3674415349960327,0.09960326552391052
-0.9026229381561279,1.3618634939193726,0.09720144420862198
-2.40452241897583,3.5759317874908447,0.24968962371349335
-1.384989619255066,2.0013747215270996,0.13307926058769226
-1.362309455871582,1.9413763284683228,0.1256834864616394
-1.4247077703475952,2.0378475189208984,-0.09449420124292374
-1.237026572227478,1.7972798347473145,-0.0873638316988945
-1.3065546751022339,1.9291647672653198,-0.09801872819662094
-1.3211004734039307,1.980288028717041,-0.10463302582502365
-1.1882750988006592,1.8105883598327637,-0.09930314123630524
-1.2598466873168945,1.9500092267990112,-0.11064589768648148
-1.246091604232788,1.9585952758789062,-0.11468836665153503
-1.8673245906829834,3.132214069366455,-0.2048158198595047
-0.8600041270256042,1.5159045457839966,-0.10615667700767517
-1.6691617965698242,2.9929347038269043,-0.21402297914028168
-1.6012417078018188,2.918768882751465,-0.21281863749027252
-1.548970341682434,2.8714122772216797,-0.21334931254386902
-1.4891548156738281,2.8102197647094727,-0.2126968950033188
-1.4275997877120972,2.7409634590148926,-0.21107764542102814
-1.3977398872375488,2.7297375202178955,-0.21372385323047638
-1.3535710573196411,2.690650224685669,-0.21404585242271423
-1.3011513948440552,2.6337406635284424,-0.21279332041740417
-1.2533133029937744,2.583103656768799,-0.211854949593544
-1.2100675106048584,2.5387558937072754,-0.2112303525209427
-1.1917017698287964,2.547126054763794,-0.21484585106372833
-1.1407115459442139,2.4846034049987793,-0.21240146458148956
-1.1088535785675049,2.460300922393799,-0.21302907168865204
-1.069533109664917,2.4178667068481445,-0.21200484037399292
-1.0347131490707397,2.3860764503479004,-0.21176734566688538
-1.0052640438079834,2.364548444747925,-0.21232861280441284
-0.9692166447639465,2.3245487213134766,-0.21108779311180115
-0.9411758184432983,2.302171230316162,-0.21137642860412598
-0.9087709188461304,2.268843412399292,-0.2104933112859726
-0.8751289248466492,2.2316856384277344,-0.20920749008655548
-0.8468531966209412,2.2048466205596924,-0.2087477445602417
-0.8259112238883972,2.1959118843078613,-0.20994070172309875
-0.8048887848854065,2.186891555786133,-0.21101665496826172
-0.7892025709152222,2.192366600036621,-0.21344201266765594
-0.754027247428894,2.142719268798828,-0.21047407388687134
-0.7314451336860657,2.1256422996520996,-0.21059411764144897
-0.7065467834472656,2.1010286808013916,-0.20988233387470245
-0.6891210079193115,2.098412036895752,-0.21125970780849457
-0.6587604880332947,2.054910659790039,-0.2084829956293106
-0.6464624404907227,2.066751718521118,-0.21129997074604034
-0.6206718683242798,2.033824920654297,-0.20949922502040863
-0.5973383784294128,2.0081863403320312,-0.20826078951358795
-0.5776529908180237,1.993523120880127,-0.20813016593456268
-0.5573228597640991,1.9748975038528442,-0.20755064487457275
-0.5394188761711121,1.9635629653930664,-0.20771396160125732
-0.5233738422393799,1.9596781730651855,-0.2086077630519867
-0.5094701647758484,1.9631704092025757,-0.21018658578395844
-0.4025614559650421,1.597348928451538,-0.17200276255607605
-0.4680468738079071,1.9131819009780884,-0.2071801871061325
-0.4529145658016205,1.9086731672286987,-0.207863911986351
-0.43574750423431396,1.8965767621994019,-0.20758572220802307
-0.41898879408836365,1.8842920064926147,-0.20724456012248993
-0.40250125527381897,1.8718518018722534,-0.2068745344877243
-0.38784921169281006,1.8668676614761353,-0.2073218673467636
-0.372488796710968,1.8579751253128052,-0.20729048550128937
-0.3606245219707489,1.8680979013442993,-0.20927350223064423
-0.3445962369441986,1.8552019596099854,-0.2086712121963501
-0.32893478870391846,1.8421469926834106,-0.20803655683994293
-0.31084877252578735,1.813660740852356,-0.20564843714237213
-0.29814791679382324,1.8156825304031372,-0.2066124528646469
-0.2785591781139374,1.775479793548584,-0.2027004212141037
-0.2701210677623749,1.804161548614502,-0.2066454440355301
-0.2559204399585724,1.7943696975708008,-0.2061939537525177
-0.2403053194284439,1.772931694984436,-0.20440110564231873
-0.22887341678142548,1.7821873426437378,-0.20600196719169617
-0.21358650922775269,1.760552167892456,-0.2040088176727295
-0.2010648101568222,1.761946439743042,-0.2046957165002823
-0.18962542712688446,1.7709412574768066,-0.20626680552959442
-0.1765068769454956,1.7644208669662476,-0.20602725446224213
-0.16345471143722534,1.7578281164169312,-0.20560617744922638
-0.14917439222335815,1.7356771230697632,-0.20336908102035522
-0.13746322691440582,1.7443711757659912,-0.2047586888074875
-0.12533029913902283,1.7452291250228882,-0.20523269474506378
-0.11316695064306259,1.746010422706604,-0.20565494894981384
-0.09940444678068161,1.7196131944656372,-0.2027459591627121
-0.08839284628629684,1.7396034002304077,-0.20531494915485382
-0.07575798034667969,1.7323991060256958,-0.20468872785568237
-0.06430252641439438,1.7483562231063843,-0.20680609345436096
-0.05111567676067352,1.713840126991272,-0.202873095870018
-0.039641741663217545,1.7335337400436401,-0.20526280999183655
-0.02771124616265297,1.7415133714675903,-0.20627637207508087
-0.01525954157114029,1.7261385917663574,-0.204534649848938
-0.003272379282861948,1.7417081594467163,-0.20646846294403076
0.008797245100140572,1.7339333295822144,-0.20552587509155273
0.020618340000510216,1.714447021484375,-0.20313633978366852
0.032919663935899734,1.733664870262146,-0.20534254610538483
0.044785026460886,1.7256489992141724,-0.20433250069618225
0.05726998671889305,1.7330533266067505,-0.20515748858451843
0.06885196268558502,1.7210136651992798,-0.2035394012928009
0.08135785907506943,1.7321515083312988,-0.20463527739048004
0.09152891486883163,1.6967123746871948,-0.20024098455905914
0.10544279962778091,1.730918288230896,-0.2040761113166809
0.11979600042104721,1.7611271142959595,-0.20743891596794128
0.12967737019062042,1.72935950756073,-0.2033294439315796
0.14165891706943512,1.7284740209579468,-0.202863872051239
0.15435092151165009,1.7352323532104492,-0.20330274105072021
0.1664315015077591,1.7341704368591309,-0.20283280313014984
0.1779022514820099,1.725289225578308,-0.20142318308353424
0.19068869948387146,1.7318062782287598,-0.20167304575443268
0.20449116826057434,1.7459356784820557,-0.20281171798706055
0.21374614536762238,1.7214429378509521,-0.19947461783885956
0.22976893186569214,1.750770926475525,-0.20238050818443298
0.24001722037792206,1.7338104248046875,-0.19986560940742493
0.25087761878967285,1.7245242595672607,-0.1981508731842041
0.25753822922706604,1.6883082389831543,-0.1933661699295044
0.27233225107192993,1.705735683441162,-0.19473746418952942
0.28674232959747314,1.7192106246948242,-0.19565436244010925
0.2999662458896637,1.7249399423599243,-0.19558995962142944
0.31067582964897156,1.7152684926986694,-0.19370567798614502
0.3254058063030243,1.7284539937973022,-0.1944197416305542
0.335963636636734,1.7186354398727417,-0.1925457864999771
0.3479291498661041,1.7163664102554321,-0.19153134524822235
0.3733365833759308,1.7786600589752197,-0.1975584775209427
0.38912433385849,1.7913105487823486,-0.197997584939003
0.41005057096481323,1.8265999555587769,-0.20093274116516113
0.42455825209617615,1.831397294998169,-0.20049253106117249
0.42647433280944824,1.783199429512024,-0.19425217807292938
0.442472368478775,1.7954570055007935,-0.19449329376220703
0.4646281898021698,1.8301175832748413,-0.19711776077747345
0.47540003061294556,1.819474220275879,-0.19486261904239655
0.49716800451278687,1.8500388860702515,-0.1970117688179016
0.5161606073379517,1.8691953420639038,-0.19783999025821686
0.53324955701828,1.8807286024093628,-0.19777724146842957
0.557309627532959,1.9144318103790283,-0.19999273121356964
0.5706367492675781,1.9106793403625488,-0.19828970730304718
0.5873682498931885,1.9179792404174805,-0.19773419201374054
0.6028332710266113,1.9215158224105835,-0.1966426521539688
0.6302467584609985,1.961954116821289,-0.1992969512939453
0.6441104412078857,1.957645297050476,-0.19733288884162903
0.6664639711380005,1.9790891408920288,-0.1979731023311615
0.6801275014877319,1.9746376276016235,-0.1959448754787445
0.7039688229560852,1.9994912147521973,-0.1967361867427826
0.7256249189376831,2.016766309738159,-0.19673866033554077
0.7544499635696411,2.052030086517334,-0.19843009114265442
0.7744633555412292,2.0614144802093506,-0.19753818213939667
0.7968544363975525,2.0781118869781494,-0.19724401831626892
0.828030526638031,2.1163387298583984,-0.19894076883792877
0.8470975756645203,2.1215898990631104,-0.197455033659935
0.8766029477119446,2.1518900394439697,-0.19825997948646545
0.9005366563796997,2.167543411254883,-0.19754092395305634
0.9319522380828857,2.201045513153076,-0.1984076052904129
0.9533248543739319,2.209095001220703,-0.19689807295799255
0.987553060054779,2.2453982830047607,-0.19783459603786469
1.0172843933105469,2.270801305770874,-0.1976809948682785
1.049074411392212,2.2994329929351807,-0.19765684008598328
1.0927742719650269,2.3524701595306396,-0.19963784515857697
1.1191853284835815,2.3661744594573975,-0.1981613039970398
1.138793706893921,2.36572527885437,-0.19543351233005524
1.1478677988052368,2.3442718982696533,-0.19094166159629822
1.157271146774292,2.322523832321167,-0.18636909127235413
1.2616219520568848,2.4884018898010254,-0.19665931165218353
1.289371132850647,2.500767946243286,-0.19453825056552887
1.3333168029785156,2.544102907180786,-0.19470177590847015
1.378272294998169,2.5867726802825928,-0.19462265074253082
1.375855803489685,2.5397021770477295,-0.1877359300851822
1.3782106637954712,2.5031843185424805,-0.18161194026470184
1.3396692276000977,2.3955581188201904,-0.1705503910779953
1.3524574041366577,2.3796820640563965,-0.16602644324302673
1.4138609170913696,2.448146104812622,-0.1672658771276474
1.4301005601882935,2.4389808177948,-0.16305245459079742
1.446838617324829,2.429377555847168,-0.15869218111038208
1.4637811183929443,2.4194936752319336,-0.15426017343997955
1.473915934562683,2.3998899459838867,-0.14920419454574585
1.504142165184021,2.4135725498199463,-0.146187886595726
1.5418156385421753,2.436264991760254,-0.14340032637119293
1.5545086860656738,2.419198513031006,-0.1381382793188095
1.5000100135803223,2.3013570308685303,-0.12738315761089325
1.4060163497924805,2.1252474784851074,-0.11369644850492477
1.4031370878219604,2.089883804321289,-0.10783886909484863
1.434227705001831,2.106779098510742,-0.10467275977134705
1.4511172771453857,2.1001648902893066,-0.09997544437646866
1.4629710912704468,2.0873851776123047,-0.09499116241931915
1.4582037925720215,2.052741289138794,-0.08906544744968414
1.44515860080719,2.0046885013580322,-0.08228449523448944
1.4719682931900024,2.014378547668457,-0.07792104780673981
1.464411735534668,1.9765115976333618,-0.07150730490684509
2.296062707901001,3.215197801589966,0.22067376971244812
2.2570841312408447,3.213542938232422,0.22775804996490479
2.2340643405914307,3.229045867919922,0.23532803356647491
2.269566535949707,3.331810712814331,0.24926172196865082
2.3564672470092773,3.5171618461608887,0.26979562640190125
2.299422264099121,3.48431658744812,0.27322691679000854
2.3264997005462646,3.58247447013855,0.2870113253593445
1.642339825630188,2.571676731109619,0.2102241963148117
1.6322548389434814,2.596123695373535,0.21611981093883514
1.5891743898391724,2.5674948692321777,0.2174949198961258
3.0237386226654053,4.968553066253662,0.4278680384159088
2.986266851425171,4.990405082702637,0.4366416037082672
2.976841449737549,5.054162979125977,0.4487026631832123
2.9437503814697266,5.081780433654785,0.4574965238571167
2.91304874420166,5.11663818359375,0.46685072779655457
2.8874666690826416,5.1571946144104,0.4765220880508423
2.8711659908294678,5.214508533477783,0.48778006434440613
2.773594379425049,5.125142574310303,0.48494088649749756
2.643779993057251,4.973231792449951,0.4757963716983795
2.611575126647949,4.998353004455566,0.4832305610179901
2.5765345096588135,5.015865325927734,0.4898282587528229
2.548501968383789,5.051321506500244,0.4981372058391571
2.502396821975708,5.0519890785217285,0.5027795433998108
1.2336171865463257,2.536478281021118,0.2546912431716919
1.2225308418273926,2.55879282951355,0.259120374917984
1.197928786277771,2.552920341491699,0.2606993615627289
1.17744779586792,2.557856559753418,0.26320457458496094
1.1598336696624756,2.5698585510253906,0.2664858102798462
1.1478937864303589,2.591947317123413,0.27072808146476746
2.560077667236328,5.891077041625977,0.6197081208229065
2.537874698638916,5.955013751983643,0.6307108998298645
2.5091588497161865,6.008693218231201,0.6404418349266052
