X,Y,Z
1.224989414215088,3.5166285037994385,-0.532213568687439
1.2497868537902832,3.508882999420166,-0.5256437063217163
1.2742986679077148,3.5010271072387695,-0.5191342830657959
1.2989386320114136,3.492928981781006,-0.5125749707221985
1.3219215869903564,3.481135368347168,-0.5053470730781555
1.3460355997085571,3.4728684425354004,-0.4985254108905792
1.3648993968963623,3.4498393535614014,-0.4895147979259491
1.3863002061843872,3.433917999267578,-0.48159635066986084
1.3984755277633667,3.3964524269104004,-0.4706496596336365
1.4369021654129028,3.4234187602996826,-0.4684925079345703
1.4514659643173218,3.3929593563079834,-0.4584500789642334
1.8090519905090332,4.147568702697754,-0.5529747009277344
1.8222826719284058,4.100549697875977,-0.5393895506858826
1.8504544496536255,4.089089393615723,-0.5304054021835327
1.8851556777954102,4.09146785736084,-0.5231853127479553
1.9074372053146362,4.0651631355285645,-0.5121484994888306
1.9363446235656738,4.052655220031738,-0.5027094483375549
1.952286958694458,4.015955924987793,-0.49033060669898987
1.9799946546554565,4.003506183624268,-0.4809451103210449
2.0046896934509277,3.98364520072937,-0.47054436802864075
2.025282382965088,3.956890344619751,-0.45932453870773315
2.0486321449279785,3.937199831008911,-0.44891488552093506
2.0872154235839844,3.9444146156311035,-0.4412986934185028
2.104011058807373,3.9101204872131348,-0.42902129888534546
2.134640693664551,3.90343976020813,-0.41975533962249756
2.117668867111206,3.8117055892944336,-0.40149450302124023
2.1557371616363525,3.818193197250366,-0.39348334074020386
2.155956983566284,3.7564444541931152,-0.37826967239379883
2.1891121864318848,3.7562649250030518,-0.3694395422935486
2.2185657024383545,3.7489941120147705,-0.35981830954551697
2.23297119140625,3.7142117023468018,-0.3472520112991333
2.2584025859832764,3.699784278869629,-0.33664482831954956
2.2917988300323486,3.6985039710998535,-0.32703521847724915
2.300981044769287,3.6569907665252686,-0.3136882483959198
2.330568790435791,3.6483986377716064,-0.3031189739704132
2.3675105571746826,3.6533429622650146,-0.29360249638557434
2.384009599685669,3.624861478805542,-0.28105881810188293
2.3924663066864014,3.5827529430389404,-0.26711153984069824
2.433527708053589,3.5935850143432617,-0.2573036849498749
2.44032883644104,3.5520308017730713,-0.24337896704673767
2.464938163757324,3.5358328819274902,-0.23092420399188995
2.5239012241363525,3.571495771408081,-0.2217227667570114
2.5079147815704346,3.497481346130371,-0.20486196875572205
2.563627004623413,3.525397539138794,-0.19393441081047058
2.1742329597473145,2.9502062797546387,-0.15162312984466553
2.7824745178222656,3.939105987548828,0.45077016949653625
2.7570977210998535,3.9647908210754395,0.4653015434741974
2.728271722793579,3.9831366539001465,0.47834429144859314
2.683056116104126,3.984060525894165,0.4891427457332611
2.6531381607055664,4.002540111541748,0.5013200640678406
2.63309383392334,4.032862663269043,0.5145385265350342
2.6121907234191895,4.068055629730225,0.5280985832214355
2.584984540939331,4.093104362487793,0.5402857661247253
2.5552797317504883,4.110297203063965,0.5509611964225769
2.5147647857666016,4.111086368560791,0.559096097946167
2.4929544925689697,4.145597457885742,0.5716236233711243
2.469999313354492,4.175978660583496,0.5833731293678284
2.4481332302093506,4.2054619789123535,0.5947337746620178
2.4086415767669678,4.2090020179748535,0.6023025512695312
2.368847370147705,4.21243143081665,0.6095364093780518
2.3489491939544678,4.248856067657471,0.621364951133728
2.257744073867798,4.151822090148926,0.6133079528808594
2.234722137451172,4.180618762969971,0.6235330104827881
2.2169389724731445,4.223866939544678,0.6358358263969421
2.178135633468628,4.225383758544922,0.6417691111564636
2.151690721511841,4.246440887451172,0.6503763198852539
2.125016450881958,4.267336845397949,0.6590153574943542
2.1032259464263916,4.3028483390808105,0.6694982051849365
2.067021131515503,4.310628890991211,0.6757926940917969
2.048821210861206,4.352419376373291,0.6872423887252808
2.0083601474761963,4.344610214233398,0.6907575130462646
1.9709503650665283,4.343662261962891,0.6952474117279053
2.0172693729400635,4.53366231918335,0.7300867438316345
1.9743188619613647,4.526173114776611,0.7333197593688965
1.960900068283081,4.585608005523682,0.747399091720581
1.940516471862793,4.626755237579346,0.7584407329559326
1.9164711236953735,4.660789966583252,0.7682906985282898
1.8618991374969482,4.62365198135376,0.7659683227539062
1.8476632833480835,4.68651819229126,0.7802498936653137
1.8104145526885986,4.691765785217285,0.785011351108551
1.7856237888336182,4.725061893463135,0.7943451404571533
1.380247950553894,3.730592966079712,0.6301490068435669
1.3228583335876465,3.656414031982422,0.6201527118682861
1.3051244020462036,3.6907482147216797,0.628501296043396
3.2476608753204346,9.40401840209961,1.608024001121521
1.620463490486145,4.800094127655029,0.8239876627922058
1.608505368232727,4.87637186050415,0.8403677344322205
1.5714795589447021,4.879487037658691,0.8439946174621582
1.531469464302063,4.875251293182373,0.845984697341919
1.5021791458129883,4.907736778259277,0.8544512987136841
1.4669991731643677,4.91758394241333,0.858947217464447
1.4347150325775146,4.934356212615967,0.864635705947876
1.413761019706726,4.991687297821045,0.8775091767311096
1.392442226409912,5.052901744842529,0.8907637596130371
1.3091427087783813,4.887308597564697,0.8637828230857849
1.2732487916946411,4.896102428436279,0.8676290512084961
1.2497985363006592,4.9491400718688965,0.8793047666549683
1.2188559770584106,4.972048282623291,0.8856642842292786
1.1876534223556519,4.994758129119873,0.8920456171035767
1.1539232730865479,5.009964466094971,0.896698534488678
1.1249114274978638,5.0514702796936035,0.9059541821479797
1.0887315273284912,5.0588250160217285,0.909111499786377
1.057639479637146,5.088432788848877,0.9162997603416443
1.0236549377441406,5.102668285369873,0.9207499623298645
0.9894675016403198,5.116683483123779,0.9252138137817383
1.7106382846832275,9.198992729187012,1.6662784814834595
1.6438790559768677,9.20254135131836,1.6693373918533325
1.5673149824142456,9.148774147033691,1.6620676517486572
1.5013371706008911,9.151244163513184,1.665063500404358
1.430351734161377,9.115128517150879,1.6610691547393799
1.3742048740386963,9.181275367736816,1.6758418083190918
1.2995365858078003,9.117661476135254,1.666540503501892
1.2293440103530884,9.084152221679688,1.6620222330093384
1.1650638580322266,9.092046737670898,1.6651548147201538
1.1075537204742432,9.156726837158203,1.678784728050232
1.0398824214935303,9.129280090332031,1.6755796670913696
0.9773391485214233,9.15493392944336,1.6822302341461182
0.9101737141609192,9.126533508300781,1.6789960861206055
0.40191519260406494,4.3385329246521,0.7985794544219971
0.36780843138694763,4.2989702224731445,0.7917529344558716
0.3369833827018738,4.293619155883789,0.7912610769271851
0.3116534650325775,4.368544101715088,0.805616557598114
0.2839544415473938,4.412607669830322,0.8143236041069031
0.32436540722846985,5.6530680656433105,1.0440372228622437
0.28451037406921387,5.647375583648682,1.0434104204177856
0.24748197197914124,5.706709861755371,1.0545032024383545
0.20856457948684692,5.754303932189941,1.0634844303131104
0.16858454048633575,5.763214588165283,1.0653668642044067
0.12939152121543884,5.806405544281006,1.073639988899231
0.08949491381645203,5.837804317474365,1.0797878503799438
0.04884485900402069,5.8305230140686035,1.0787969827651978
0.007630826905369759,5.888388156890869,1.0891931056976318
-0.050441764295101166,8.911261558532715,1.647962212562561
-0.11112192273139954,8.8070650100708,1.6283953189849854
-0.1709563434123993,8.733181953430176,1.614517331123352
-0.22793421149253845,8.589777946472168,1.5878692865371704
-0.28707176446914673,8.572700500488281,1.5846526622772217
-0.3323943614959717,8.194498062133789,1.514169692993164
-0.16934455931186676,3.5646862983703613,0.6582504510879517
-0.19530144333839417,3.586554765701294,0.6618894338607788
-0.21870364248752594,3.562223196029663,0.6570345759391785
-0.537523627281189,7.861199855804443,1.4492204189300537
-0.5881558656692505,7.79232931137085,1.4358500242233276
-0.5488442182540894,6.654903888702393,1.225723147392273
-0.5946495532989502,6.65132999420166,1.2237530946731567
-0.6309245228767395,6.547990322113037,1.2035024166107178
-0.6598792672157288,6.387124061584473,1.1727830171585083
-0.705692708492279,6.390313148498535,1.1722466945648193
-0.7519779205322266,6.400862693786621,1.1731265783309937
-0.7926728129386902,6.36531925201416,1.1656194925308228
-0.8301588892936707,6.310576438903809,1.1542060375213623
-0.8660889267921448,6.251909255981445,1.141804814338684
-0.9070638418197632,6.227165222167969,1.13564133644104
-0.9562618136405945,6.263063907623291,1.1406148672103882
-1.0070921182632446,6.302307605743408,1.1462126970291138
-1.0592178106307983,6.344932556152344,1.1524558067321777
-1.1124441623687744,6.390987396240234,1.1592210531234741
-1.1622592210769653,6.417933464050293,1.161855936050415
-1.218247652053833,6.470824241638184,1.169170618057251
-1.2706286907196045,6.504508018493652,1.1730703115463257
-1.3256961107254028,6.545201301574707,1.178228735923767
-1.3823941946029663,6.58917236328125,1.183990716934204
-1.4356887340545654,6.613877296447754,1.186320185661316
-1.4707591533660889,6.555713176727295,1.1730953454971313
-1.5067927837371826,6.508830547332764,1.1619181632995605
-1.5395737886428833,6.45051908493042,1.148791790008545
-0.6913589239120483,2.810959577560425,0.49943509697914124
-0.7024165391921997,2.7728374004364014,0.49151018261909485
-0.7162129878997803,2.74578857421875,0.48557645082473755
-0.7409465312957764,2.7635257244110107,0.48736318945884705
-0.7596652507781982,2.7588369846343994,0.4851049482822418
-1.7347971200942993,6.138164520263672,1.0761690139770508
-1.776954174041748,6.126987934112549,1.071065068244934
-1.8095057010650635,6.078186511993408,1.059347152709961
-1.8396379947662354,6.025729179382324,1.0471357107162476
-1.8739160299301147,5.991898059844971,1.0377591848373413
-1.9027007818222046,5.943352222442627,1.025691270828247
-1.929771900177002,5.890993595123291,1.0130544900894165
-1.9636996984481812,5.856382846832275,1.0034339427947998
-1.995866298675537,5.817964553833008,0.9932502508163452
-2.023818016052246,5.768433094024658,0.981251060962677
-2.055046319961548,5.7338666915893555,0.9712846875190735
-2.0816941261291504,5.688357830047607,0.9594412446022034
-2.111870527267456,5.6535773277282715,0.9494902491569519
-2.1381826400756836,5.603498935699463,0.9368417263031006
-2.177523136138916,5.589416980743408,0.9303258061408997
-2.2420732975006104,5.639795303344727,0.9343922734260559
-2.304671049118042,5.686580181121826,0.9373025298118591
-2.345879077911377,5.679248332977295,0.931277334690094
-2.3792014122009277,5.649820804595947,0.9215397834777832
-2.4065463542938232,5.6058244705200195,0.9094551205635071
-2.48140549659729,5.671449661254883,0.9151533842086792
-3.9381697177886963,8.840415000915527,1.4179997444152832
-2.563589096069336,5.654332160949707,0.9014198780059814
-2.5614829063415527,5.55030632019043,0.8793056011199951
-2.585745334625244,5.5019354820251465,0.8659693002700806
-2.6011013984680176,5.436028480529785,0.849998950958252
-2.6617066860198975,5.468249797821045,0.8490201234817505
-2.6775383949279785,5.410109519958496,0.8338446021080017
-4.739434719085693,9.417293548583984,1.4405689239501953
-2.725754737854004,5.3235883712768555,0.8079506158828735
-2.7596940994262695,5.2987236976623535,0.7978024482727051
-2.795248508453369,5.281463623046875,0.788417398929596
-2.808242082595825,5.223259449005127,0.7728811502456665
-1.177474021911621,2.155689239501953,0.31610116362571716
-1.1985927820205688,2.157944917678833,0.31335681676864624
-2.522477388381958,4.469054222106934,0.6426130533218384
-2.5364720821380615,4.42669153213501,0.6298686265945435
-6.0025858879089355,10.320602416992188,1.452967643737793
-6.082563400268555,10.294783592224121,1.4328113794326782
-1.2501026391983032,2.0820229053497314,0.286317378282547
-2.9335718154907227,4.8146820068359375,0.653828501701355
-2.9528841972351074,4.776960372924805,0.6404046416282654
-3.0127017498016357,4.800662040710449,0.6347514986991882
-3.0237460136413574,4.744677543640137,0.6183561682701111
-3.0258991718292236,4.680234909057617,0.600513756275177
-3.0562751293182373,4.661947250366211,0.5888222455978394
-3.0437278747558594,4.574027061462402,0.567764401435852
-3.079906702041626,4.560686111450195,0.5559154748916626
-3.1048688888549805,4.535851955413818,0.5424015522003174
-3.1112453937530518,4.481094837188721,0.5248623490333557
-3.1765732765197754,4.508204936981201,0.5164148211479187
-2.8506600856781006,3.9921836853027344,0.4466854929924011
-2.8673486709594727,3.9624366760253906,0.43248680233955383
-2.9300613403320312,3.990480899810791,0.4234176278114319
-2.9462757110595703,3.9606199264526367,0.4079169034957886
-2.4458067417144775,3.450500965118408,-0.204947367310524
-2.4414782524108887,3.500413656234741,-0.220356285572052
-2.868670701980591,4.176339149475098,-0.27679455280303955
-2.2565267086029053,3.3371732234954834,-0.23205606639385223
-2.241842269897461,3.369658946990967,-0.24501526355743408
-2.2307307720184326,3.4042088985443115,-0.2574988305568695
-2.184507369995117,3.3869147300720215,-0.26600977778434753
-2.1589584350585938,3.4023821353912354,-0.276981383562088
-1.2633130550384521,2.022418975830078,-0.17014449834823608
-1.2607437372207642,2.0509867668151855,-0.1779775172472
-2.11592698097229,3.4996824264526367,-0.31287410855293274
-2.1049137115478516,3.5371711254119873,-0.32499977946281433
-2.0773894786834717,3.5479674339294434,-0.33467045426368713
-1.1786425113677979,2.047828435897827,-0.1982056349515915
-1.1887738704681396,2.099756956100464,-0.20812644064426422
-2.578824281692505,4.629798412322998,-0.46941715478897095
-2.55212140083313,4.661074638366699,-0.48300155997276306
-2.5289604663848877,4.698930740356445,-0.49730437994003296
-2.498732805252075,4.722598075866699,-0.5100011229515076
-2.479076385498047,4.766753673553467,-0.5247550010681152
-2.4493629932403564,4.793887138366699,-0.5376389026641846
-2.425278663635254,4.830917835235596,-0.551535964012146
-2.39805269241333,4.860523223876953,-0.5644842386245728
-2.3724377155303955,4.897646427154541,-0.5784180760383606
-2.348414659500122,4.937989234924316,-0.5926283597946167
-2.323099136352539,4.974335670471191,-0.606261670589447
-2.2944495677948,5.003352165222168,-0.6190165281295776
-2.267813205718994,5.0396809577941895,-0.6324917674064636
-2.234379291534424,5.061707973480225,-0.6442388296127319
-2.059087038040161,4.755929946899414,-0.6137099862098694
-1.9875249862670898,4.679834365844727,-0.6119610071182251
-1.020781397819519,2.4520158767700195,-0.32469964027404785
-0.9927733540534973,2.4335498809814453,-0.32627663016319275
-0.981312096118927,2.4542531967163086,-0.3330111801624298
-0.9637372493743896,2.4605441093444824,-0.3378787636756897
-0.923906683921814,2.408871650695801,-0.3344569206237793
-0.8957374095916748,2.3857946395874023,-0.334880530834198
-0.8775022029876709,2.3878188133239746,-0.33875030279159546
-0.8724328875541687,2.4261107444763184,-0.3478144407272339
-0.8522228598594666,2.424457550048828,-0.3510851263999939
-0.8449071049690247,2.459160566329956,-0.35956498980522156
-0.8323967456817627,2.4791343212127686,-0.365934818983078
-0.8197745084762573,2.499001979827881,-0.3723222017288208
-0.8055731058120728,2.5151891708374023,-0.37806329131126404
-0.7942585349082947,2.542483329772949,-0.38548535108566284
-0.7807251214981079,2.562227487564087,-0.3917606770992279
-0.7649051547050476,2.57444429397583,-0.3969048261642456
-0.7510339021682739,2.5940115451812744,-0.40312767028808594
-0.7483202815055847,2.6544604301452637,-0.4156031906604767
-0.737632691860199,2.688898801803589,-0.424126535654068
-0.7124775052070618,2.671090841293335,-0.4244522750377655
-0.70634526014328,2.723989725112915,-0.43600720167160034
-0.6804929375648499,2.702148199081421,-0.43530145287513733
-0.6677872538566589,2.732567071914673,-0.44303959608078003
-0.650384783744812,2.744123935699463,-0.4477548599243164
-0.6342588663101196,2.763146162033081,-0.45378124713897705
-0.6198471784591675,2.789583683013916,-0.46078503131866455
-0.5969464778900146,2.7782771587371826,-0.4614453613758087
-0.5836578011512756,2.8120808601379395,-0.4696320593357086
-0.5624842643737793,2.8080029487609863,-0.4715189039707184
-0.5439673662185669,2.818976640701294,-0.47589948773384094
-0.8752570748329163,4.71260929107666,-0.7992281317710876
-0.840774416923523,4.71027946472168,-0.8025121092796326
-0.7902893424034119,4.612756252288818,-0.7895102500915527
-0.742490828037262,4.522387981414795,-0.7776122689247131
-0.6988857984542847,4.454622268676758,-0.7690091133117676
-0.6596571207046509,4.405483722686768,-0.7633678317070007
-0.6239715218544006,4.375070571899414,-0.7609423995018005
-0.5831242799758911,4.302419662475586,-0.7511289119720459
-0.5457807779312134,4.2485575675964355,-0.7443112134933472
-0.5100586414337158,4.202132225036621,-0.7382822036743164
-0.4723403751850128,4.1363606452941895,-0.7288660407066345
-0.44224071502685547,4.127617359161377,-0.7294555306434631
-0.40963584184646606,4.091860294342041,-0.7252779603004456
-0.384628564119339,4.132564067840576,-0.7340865135192871
-0.2828978896141052,3.2879202365875244,-0.5852533578872681
-0.2550368309020996,3.23205828666687,-0.5765403509140015
-0.23392333090305328,3.252666711807251,-0.5814587473869324
-0.2132994681596756,3.2846803665161133,-0.5882543325424194
-0.1917792111635208,3.308948516845703,-0.5933234095573425
-0.1691223680973053,3.317713975906372,-0.595649003982544
-0.1464661955833435,3.337860107421875,-0.6000665426254272
-0.1284664124250412,3.480778217315674,-0.626611053943634
-0.11341560631990433,3.7889225482940674,-0.6824495792388916
-0.08845661580562592,3.8510401248931885,-0.6939390897750854
-0.06165396794676781,3.851487398147583,-0.6943542957305908
-0.034562766551971436,3.8671274185180664,-0.6975496411323547
-0.00757440272718668,3.813424587249756,-0.6880121231079102
0.018761027604341507,3.7788376808166504,-0.6814923882484436
0.0449359156191349,3.7709782123565674,-0.6798286437988281
0.0717703104019165,3.80521821975708,-0.685786247253418
0.09861645847558975,3.8200502395629883,-0.6882762312889099
0.12397395819425583,3.7694597244262695,-0.6784296035766602
0.1515500545501709,3.8032524585723877,-0.6836968660354614
0.18175925314426422,3.8829333782196045,-0.6972222924232483
0.2095426619052887,3.897111177444458,-0.6990007758140564
0.23801934719085693,3.918804168701172,-0.7019314169883728
0.2656905949115753,3.917329788208008,-0.7002314925193787
0.29572898149490356,3.9540417194366455,-0.7054035663604736
0.32387521862983704,3.9598560333251953,-0.7050766944885254
0.3558903932571411,4.0076117515563965,-0.7122311592102051
0.38595595955848694,4.028418064117432,-0.7140354514122009
0.4187992513179779,4.068116664886475,-0.719021201133728
0.4462401568889618,4.057886600494385,-0.7152363657951355
0.47132307291030884,4.028359413146973,-0.7081013917922974
0.5102383494377136,4.113285064697266,-0.720869779586792
0.5492735505104065,4.190338134765625,-0.7317233681678772
0.5920454859733582,4.282252311706543,-0.7450488209724426
0.6102580428123474,4.198583126068115,-0.7278870344161987
0.6372310519218445,4.179554462432861,-0.7220233082771301
0.7476012706756592,4.685267448425293,-0.8059259653091431
0.7814264297485352,4.688299655914307,-0.8028894662857056
0.8028678297996521,4.61896276473999,-0.7875333428382874
0.8472945094108582,4.6783447265625,-0.7941002249717712
0.8869640231132507,4.710983753204346,-0.7958974838256836
0.9204117655754089,4.709347248077393,-0.791449248790741
0.9576694369316101,4.7263665199279785,-0.790155827999115
0.9891293048858643,4.712863445281982,-0.7837520241737366
1.0169371366500854,4.680190086364746,-0.7741559743881226
1.0477936267852783,4.6664137840271,-0.7672199010848999
1.0784881114959717,4.652439117431641,-0.7602431178092957
1.1055554151535034,4.623219966888428,-0.7508270144462585
1.1341485977172852,4.601321697235107,-0.742668867111206
1.1468167304992676,4.515576362609863,-0.7239717841148376
1.1898635625839233,4.553313732147217,-0.724930465221405
0.9880203604698181,3.6770126819610596,-0.5813139081001282
1.0065699815750122,3.644740581512451,-0.5721298456192017
1.0236390829086304,3.6086666584014893,-0.5624048113822937
1.0598740577697754,3.639309883117676,-0.5626315474510193
1.0851094722747803,3.6327097415924072,-0.5571550726890564
1.101466178894043,3.5962975025177,-0.5471309423446655
1.1290253400802612,3.5966813564300537,-0.5427445769309998
1.149310827255249,3.574873208999634,-0.5347704291343689
1.1696913242340088,3.552856206893921,-0.5266497135162354
1.196907877922058,3.552809476852417,-0.521883487701416
1.2218425273895264,3.545175790786743,-0.515982449054718
1.2439830303192139,3.5301353931427,-0.508897066116333
1.2657573223114014,3.5150463581085205,-0.5016720294952393
1.2874308824539185,3.4997944831848145,-0.4944579601287842
1.3056615591049194,3.4732494354248047,-0.4855435788631439
1.3272120952606201,3.4576492309570312,-0.47825250029563904
1.3567378520965576,3.4637153148651123,-0.4737480878829956
1.3633955717086792,3.4119489192962646,-0.4614006280899048
1.4151568412780762,3.471365451812744,-0.46398183703422546
1.7258330583572388,4.149467468261719,-0.547961950302124
1.7604209184646606,4.15285062789917,-0.5415859818458557
1.7858718633651733,4.134591102600098,-0.5324085354804993
1.8148908615112305,4.123015403747559,-0.5239813327789307
1.8375928401947021,4.097009658813477,-0.5137420296669006
1.8662340641021729,4.0851359367370605,-0.5049732327461243
1.8975569009780884,4.080307483673096,-0.49720102548599243
1.9161925315856934,4.046892166137695,-0.4858425259590149
1.9480775594711304,4.04132080078125,-0.4778401851654053
1.9722517728805542,4.021978378295898,-0.46806880831718445
1.9880729913711548,3.9848573207855225,-0.45616796612739563
2.0195634365081787,3.978750705718994,-0.4477994740009308
2.0403382778167725,3.951673984527588,-0.4370596408843994
2.0635719299316406,3.9318246841430664,-0.42706990242004395
2.097705364227295,3.9323601722717285,-0.4192706346511841
2.1253821849823,3.9184858798980713,-0.4096730947494507
2.1379764080047607,3.877134323120117,-0.3971000611782074
2.1242263317108154,3.792255163192749,-0.38037875294685364
2.1541552543640137,3.785245418548584,-0.37147438526153564
2.1925084590911865,3.7911226749420166,-0.363592267036438
2.1945888996124268,3.7367684841156006,-0.3499377965927124
2.220153570175171,3.7225592136383057,-0.3399770259857178
2.254326343536377,3.721116781234741,-0.3309491276741028
2.2637364864349365,3.679760694503784,-0.3183636963367462
2.288287878036499,3.665414333343506,-0.3081742823123932
2.3260116577148438,3.6701786518096924,-0.2992765009403229
2.335325241088867,3.628115177154541,-0.28618988394737244
2.3721249103546143,3.632962465286255,-0.27698928117752075
2.4053831100463867,3.630580186843872,-0.2669179141521454
2.4135420322418213,3.588454008102417,-0.2535906136035919
2.4370479583740234,3.573317050933838,-0.2422756403684616
2.4837546348571777,3.589341402053833,-0.2324882298707962
2.4773173332214355,3.528024911880493,-0.21748970448970795
2.5091559886932373,3.5253515243530273,-0.20622512698173523
2.555967330932617,3.5405309200286865,-0.19527120888233185
2.5889642238616943,3.5365467071533203,-0.18277008831501007
2.169719696044922,2.924907684326172,-0.14084993302822113
2.782304286956787,3.9047813415527344,0.4142725467681885
2.7649784088134766,3.944148302078247,0.42997604608535767
2.750094175338745,3.9862163066864014,0.4456092417240143
2.7106871604919434,3.988248825073242,0.4560243785381317
2.683732271194458,4.014395713806152,0.4688994586467743
2.6529359817504883,4.033426761627197,0.48068368434906006
2.5983386039733887,4.012034893035889,0.4870680570602417
2.5971038341522217,4.076164722442627,0.5034476518630981
2.5797884464263916,4.117923736572266,0.517124593257904
2.546133518218994,4.128432750701904,0.5262801647186279
2.5164923667907715,4.14530611038208,0.5361226201057434
2.4761362075805664,4.1501922607421875,0.5442027449607849
2.4426333904266357,4.164246082305908,0.5532819628715515
2.430490016937256,4.210524559020996,0.5662502646446228
2.407687187194824,4.240257263183594,0.5769737958908081
2.367807388305664,4.243709087371826,0.5838302969932556
2.2810888290405273,4.161954879760742,0.5788934826850891
2.24429988861084,4.163201332092285,0.5848524570465088
2.2183544635772705,4.184756278991699,0.5936524868011475
2.1940269470214844,4.2139692306518555,0.6031838655471802
2.158762216567993,4.222352981567383,0.609782338142395
2.1417782306671143,4.264630317687988,0.6211816668510437
2.115098714828491,4.285520076751709,0.6293553709983826
2.0905332565307617,4.313748359680176,0.6383879780769348
2.061593770980835,4.3352131843566895,0.6462765336036682
2.026088237762451,4.342360973358154,0.6520391702651978
1.9986588954925537,4.362597465515137,0.6595640778541565
1.964199423789978,4.368741512298584,0.6650636792182922
1.9976311922073364,4.530767440795898,0.6939867734909058
1.973272681236267,4.5657572746276855,0.703548014163971
1.9246622323989868,4.543529510498047,0.7042811512947083
1.917850136756897,4.616738796234131,0.7196991443634033
1.8876349925994873,4.636563777923584,0.7269653677940369
1.8566688299179077,4.656479835510254,0.7337913513183594
1.813938021659851,4.647526741027832,0.7359738945960999
1.8045228719711304,4.724828720092773,0.7518894076347351
1.7497047185897827,4.678609371185303,0.748022198677063
1.3353312015533447,3.6490683555603027,0.5862021446228027
1.311832308769226,3.6651487350463867,0.5913431644439697
1.2800025939941406,3.659414529800415,0.5927765369415283
1.6503334045410156,4.829796314239502,0.7854979634284973
1.6109981536865234,4.825991630554199,0.787973940372467
1.571751594543457,4.8218865394592285,0.7904263734817505
3.060581684112549,9.616211891174316,1.5825104713439941
1.5120590925216675,4.871786117553711,0.8043103218078613
1.4789310693740845,4.889301776885986,0.809801459312439
1.4685728549957275,4.984279632568359,0.8282110095024109
1.4357606172561646,5.001158237457275,0.8336470723152161
1.4063693284988403,5.032819747924805,0.8416473865509033
1.337524175643921,4.919117450714111,0.825139045715332
1.2942854166030884,4.898174285888672,0.8236969709396362
1.2561554908752441,4.895554065704346,0.8253642916679382
1.2331346273422241,4.9524641036987305,0.8371208906173706
1.2015348672866821,4.975488185882568,0.8432009220123291
1.1720048189163208,5.005686283111572,0.850519061088562
1.1367356777191162,5.013247489929199,0.8538442254066467
1.1066783666610718,5.047086715698242,0.8612620830535889
1.0737454891204834,5.069447040557861,0.8667814135551453
1.0415421724319458,5.099242210388184,0.8736559748649597
1.0015182495117188,5.083205223083496,0.8726500868797302
1.8092281818389893,9.532075881958008,1.6397446393966675
1.7397154569625854,9.528467178344727,1.6422510147094727
1.664727807044983,9.498117446899414,1.6393016576766968
1.598573088645935,9.524348258972168,1.646239161491394
1.513135313987732,9.42448616027832,1.6314009428024292
1.4404538869857788,9.388416290283203,1.6275967359542847
1.3761518001556396,9.405129432678223,1.6330119371414185
1.3074232339859009,9.390901565551758,1.6331100463867188
1.2439395189285278,9.430055618286133,1.6414645910263062
1.1682542562484741,9.36551284790039,1.6318180561065674
1.104779839515686,9.395947456359863,1.6387929916381836
1.0373352766036987,9.387628555297852,1.6390750408172607
0.9755229949951172,9.428563117980957,1.6480319499969482
0.9065414071083069,9.400135040283203,1.6449443101882935
0.3872530162334442,4.338862419128418,0.7597950100898743
0.3555013835430145,4.325990200042725,0.757933497428894
0.32308506965637207,4.301377296447754,0.7540481686592102
0.2974002957344055,4.36865234375,0.7663111090660095
0.3434861898422241,5.622469425201416,0.9868924617767334
0.30401989817619324,5.632258892059326,0.9893207550048828
0.26657646894454956,5.672523498535156,0.9969209432601929
0.2282978743314743,5.708780765533447,1.0033777952194214
0.18984097242355347,5.7563157081604,1.011867642402649
0.14939594268798828,5.7497429847717285,1.0108964443206787
0.11006064713001251,5.823673725128174,1.0241343975067139
0.06997799128293991,5.855005264282227,1.0299309492111206
0.02923429198563099,5.839893817901611,1.0276081562042236
-0.017321962863206863,8.925421714782715,1.5701757669448853
-0.0784708634018898,8.828997611999512,1.5527644157409668
-0.13960975408554077,8.747527122497559,1.5380609035491943
-0.19827055931091309,8.650272369384766,1.5206695795059204
-0.2569817006587982,8.60262393951416,1.512076735496521
-0.2227911800146103,6.047796249389648,1.0629158020019531
-0.2625483572483063,5.996245384216309,1.053519368171692
-0.18187624216079712,3.5851519107818604,0.6294562816619873
-0.20712372660636902,3.5838942527770996,0.6288167238235474
-0.23245729506015778,3.5901622772216797,0.6295340061187744
-0.5634778738021851,7.856479167938232,1.3768585920333862
-0.615382730960846,7.818088054656982,1.369425654411316
-0.570493757724762,6.655968189239502,1.16532301902771
-0.6117910146713257,6.594669818878174,1.1533199548721313
-0.6354615092277527,6.3723554611206055,1.1132277250289917
-0.6769193410873413,6.345192909240723,1.1073263883590698
-0.7282437682151794,6.40569543838501,1.1167641878128052
-0.7691199779510498,6.370236873626709,1.1095142364501953
-0.8098255395889282,6.3306050300598145,1.101584792137146
-0.8473878502845764,6.279475212097168,1.091333270072937
-0.882459282875061,6.216777801513672,1.0787854194641113
-0.9308211207389832,6.249100208282471,1.0827853679656982
-0.9779573678970337,6.2696309089660645,1.084774374961853
-1.0296967029571533,6.308632850646973,1.089951992034912
-1.0819149017333984,6.351139068603516,1.0957919359207153
-1.1326794624328613,6.381889343261719,1.099489450454712
-1.1880978345870972,6.438993453979492,1.1071076393127441
-1.2407243251800537,6.476729869842529,1.1114097833633423
-1.2947416305541992,6.517817497253418,1.1163039207458496
-1.3493112325668335,6.5506415367126465,1.1197357177734375
-1.407786250114441,6.601992607116699,1.126386046409607
-1.4537651538848877,6.592646598815918,1.122715950012207
-1.4867452383041382,6.530706405639648,1.1094285249710083
-1.5251158475875854,6.494884490966797,1.1006066799163818
-0.6721217632293701,2.776034355163574,0.46925079822540283
-0.6913201212882996,2.771635055541992,0.4673607647418976
-0.7068286538124084,2.7521228790283203,0.46294060349464417
-0.7299500703811646,2.7623555660247803,0.4635482430458069
-0.7487761974334717,2.757671594619751,0.4614037275314331
-0.7792151570320129,2.7936699390411377,0.46598201990127563
-1.7555947303771973,6.133612632751465,1.0199984312057495
-1.7892556190490723,6.0925493240356445,1.0100924968719482
-1.8262065649032593,6.062263011932373,1.002014398574829
-1.8548504114151,6.005942344665527,0.9897136092185974
-1.8870196342468262,5.964459419250488,0.9792863130569458
-1.9166754484176636,5.919404983520508,0.9683160781860352
-1.9469614028930664,5.877891540527344,0.9580122828483582
-1.976521611213684,5.832258224487305,0.9470316767692566
-2.0071516036987305,5.790019989013672,0.9366558194160461
-2.0346486568450928,5.740374565124512,0.9251117706298828
-2.064732551574707,5.701880931854248,0.9147797226905823
-2.095069646835327,5.667078971862793,0.9051852822303772
-2.1224093437194824,5.624846935272217,0.8944696187973022
-2.1506659984588623,5.58198881149292,0.883591890335083
-2.2067151069641113,5.610930442810059,0.8841130137443542
-2.2673816680908203,5.650270938873291,0.8858640193939209
-2.334547281265259,5.707563400268555,0.8901399970054626
-2.357898235321045,5.65717077255249,0.8776379823684692
-2.387807846069336,5.620510578155518,0.8672208786010742
-2.4272117614746094,5.604719161987305,0.8600021004676819
-2.5356128215789795,5.744241714477539,0.8763412833213806
-2.550177812576294,5.675418376922607,0.8604150414466858
-2.5349619388580322,5.543277263641357,0.8350896239280701
-2.5955748558044434,5.57616662979126,0.8346233367919922
-2.621450185775757,5.531008243560791,0.8223281502723694
-2.6289021968841553,5.447116374969482,0.8042755722999573
-2.641218900680542,5.382057189941406,0.7887471318244934
-2.7081193923950195,5.427961349487305,0.7895007133483887
-2.7012298107147217,5.324251174926758,0.7684154510498047
-4.915783882141113,9.524557113647461,1.363512635231018
-2.761134386062622,5.2609663009643555,0.746913731098175
-2.8111135959625244,5.270911693572998,0.7415438294410706
-2.8164021968841553,5.198915481567383,0.7248306274414062
-1.1821192502975464,2.1469571590423584,0.2964719235897064
-1.193473219871521,2.1323294639587402,0.2915581464767456
-2.5346155166625977,4.458619594573975,0.6033035516738892
-2.5392701625823975,4.398996829986572,0.5887065529823303
-6.083726406097412,10.379719734191895,1.3735520839691162
-1.2472808361053467,2.094541549682617,0.2738753855228424
-1.2536213397979736,2.0731992721557617,0.2677396237850189
-2.946582794189453,4.802987098693848,0.6122364401817322
-2.987252712249756,4.797469615936279,0.603196918964386
-3.008693218231201,4.757896900177002,0.5895347595214844
-3.0201501846313477,4.705907821655273,0.5742968916893005
-3.0464026927948,4.681050777435303,0.5622471570968628
-3.0499801635742188,4.619669437408447,0.5456051230430603
-3.0701825618743896,4.57965612411499,0.5309823155403137
-3.09147572517395,4.547914981842041,0.5173133611679077
-3.107370376586914,4.510128021240234,0.5029841661453247
-3.1368212699890137,4.486419677734375,0.48932307958602905
-2.863260507583618,4.037961483001709,0.43021947145462036
-2.864319086074829,3.9859018325805664,0.414224773645401
-2.9171547889709473,4.0018792152404785,0.4045310616493225
-2.953275680541992,3.9960484504699707,0.3921140730381012
-2.476248025894165,3.4679152965545654,-0.19316983222961426
-2.44602370262146,3.4790265560150146,-0.2056971788406372
-2.874586820602417,4.154370307922363,-0.25947999954223633
-2.3157408237457275,3.3969151973724365,-0.22258517146110535
-2.213973045349121,3.300189733505249,-0.22628118097782135
-2.2261884212493896,3.3709375858306885,-0.24095790088176727
-2.2186992168426514,3.4123568534851074,-0.25356948375701904
-2.16558575630188,3.3855092525482178,-0.2608906030654907
-2.128434658050537,3.380598545074463,-0.26941487193107605
-1.276991605758667,2.060091257095337,-0.16940268874168396
-1.2189620733261108,1.9992303848266602,-0.1694062352180481
-2.103682279586792,3.507673740386963,-0.3058784008026123
-2.1125500202178955,3.5786077976226807,-0.32040777802467346
-2.105634927749634,3.626908779144287,-0.3330836296081543
-1.2199029922485352,2.1368489265441895,-0.20109662413597107
-2.596410036087036,4.622374534606934,-0.44500699639320374
-2.566176176071167,4.646973609924316,-0.45748475193977356
-2.5393054485321045,4.6782755851745605,-0.47045642137527466
-2.520334243774414,4.722679615020752,-0.4845976233482361
-2.4940741062164307,4.75301456451416,-0.49727389216423035
-2.468015670776367,4.787306785583496,-0.5102788805961609
-2.4427740573883057,4.825176239013672,-0.5238981246948242
-2.4191360473632812,4.861958026885986,-0.5369685292243958
-2.394772529602051,4.898776054382324,-0.550086498260498
-2.365811347961426,4.9288649559021,-0.5623840689659119
-2.345082998275757,4.976216793060303,-0.5766953825950623
-2.313265085220337,4.9984307289123535,-0.5879707336425781
-2.2930150032043457,5.049185276031494,-0.6027324795722961
-2.2469005584716797,5.043145656585693,-0.6104699373245239
-2.1003267765045166,4.805341720581055,-0.5896397233009338
-2.0343017578125,4.7439446449279785,-0.5898131728172302
-1.9688202142715454,4.682072639465332,-0.5895658135414124
-1.9403311014175415,4.709589958190918,-0.6004633903503418
-1.8412439823150635,4.560372352600098,-0.5884494185447693
-1.8347846269607544,4.637029647827148,-0.6053473353385925
-1.3366718292236328,3.4486639499664307,-0.4552949070930481
-1.2953704595565796,3.4138762950897217,-0.4555917978286743
-0.9373793601989746,2.5250086784362793,-0.34063029289245605
-2.0086069107055664,5.528014183044434,-0.7534887790679932
-0.9562228918075562,2.690086841583252,-0.37036633491516113
-0.8619574904441833,2.4804022312164307,-0.3447549641132355
-0.846731424331665,2.4932591915130615,-0.34981250762939453
-0.8240122199058533,2.4839797019958496,-0.3517792224884033
-0.8112912178039551,2.5038836002349854,-0.35782304406166077
-0.7992600202560425,2.527514696121216,-0.3642251789569855
-0.7880716323852539,2.554784059524536,-0.37121886014938354
-0.7723117470741272,2.5671253204345703,-0.3760579526424408
-0.7586514353752136,2.5867702960968018,-0.3820019066333771
-0.7517069578170776,2.6325244903564453,-0.3917047679424286
-0.7434070110321045,2.6745009422302246,-0.400826632976532
-0.7305752038955688,2.7015299797058105,-0.40778300166130066
-0.7185065746307373,2.7322041988372803,-0.41534286737442017
-0.6963990926742554,2.725428342819214,-0.4171110689640045
-0.6749241352081299,2.72235369682312,-0.4192959666252136
-0.65838223695755,2.7378158569335938,-0.4243147075176239
-0.6392379999160767,2.7418441772460938,-0.4275641441345215
-0.6268942952156067,2.775862693786621,-0.43553581833839417
-0.6106417179107666,2.7948319911956787,-0.44084280729293823
-0.5938220620155334,2.81376314163208,-0.4462304413318634
-0.5810139179229736,2.8514246940612793,-0.45460495352745056
-0.5670070052146912,2.885234832763672,-0.4624365568161011
-0.5481845140457153,2.8962769508361816,-0.46644148230552673
-0.5319234728813171,2.922415018081665,-0.4727419316768646
-0.5143557190895081,2.944704055786133,-0.47850432991981506
-0.4931633472442627,2.943988800048828,-0.48051345348358154
-0.4756613075733185,2.965972423553467,-0.4862229824066162
-0.459543377161026,2.9993584156036377,-0.49344736337661743
-0.44186627864837646,3.025023937225342,-0.4994570314884186
-0.4235626757144928,3.0506160259246826,-0.5055311918258667
-0.6591026782989502,5.001917362213135,-0.8318991661071777
-0.6241900324821472,5.005854606628418,-0.8351354598999023
-0.537440299987793,4.569496154785156,-0.7644227743148804
-0.49873363971710205,4.511418342590332,-0.75680011510849
-0.49469026923179626,4.778764247894287,-0.803893506526947
-0.46302297711372375,4.804692268371582,-0.810543954372406
-0.4257180988788605,4.765263080596924,-0.8054145574569702
-0.3867740333080292,4.69868278503418,-0.7956992387771606
-0.34968435764312744,4.6433234214782715,-0.7878791093826294
-0.3152589797973633,4.614578723907471,-0.7845816016197205
-0.2785303592681885,4.551088333129883,-0.7750085592269897
-0.24556171894073486,4.529653549194336,-0.7722160816192627
-0.21544857323169708,4.561831951141357,-0.7786029577255249
-0.18276697397232056,4.539941310882568,-0.7757994532585144
-0.15116913616657257,4.540909290313721,-0.7769348621368408
-0.11805282533168793,4.507155418395996,-0.7714195847511292
-0.08654455095529556,4.500104904174805,-0.7704735994338989
-0.055329084396362305,4.508234977722168,-0.7721640467643738
-0.024220192804932594,4.543097496032715,-0.778472900390625
0.00695790397003293,4.300586700439453,-0.7369729280471802
0.03625219687819481,4.173442840576172,-0.7148364782333374
0.06443806737661362,4.123104572296143,-0.7059107422828674
0.09225248545408249,4.084124565124512,-0.6989692449569702
0.1215747743844986,4.114233016967773,-0.7038863897323608
0.15481901168823242,4.240428924560547,-0.7246564030647278
0.17878353595733643,4.112480163574219,-0.7019204497337341
0.21564620733261108,4.265129089355469,-0.7270921468734741
0.24327827990055084,4.229109287261963,-0.7201269268989563
0.2706906795501709,4.196785926818848,-0.7136301398277283
0.29815560579299927,4.172054290771484,-0.707968533039093
0.3226122558116913,4.112578868865967,-0.6964713335037231
0.35990726947784424,4.206439971923828,-0.7109376788139343
0.3994540870189667,4.315372943878174,-0.7279413938522339
0.4233044683933258,4.251546382904053,-0.7153050899505615
0.4671282172203064,4.383012771606445,-0.7353374361991882
0.485832154750824,4.276710510253906,-0.7154995203018188
0.525822103023529,4.353929042816162,-0.7263723015785217
0.5590201616287231,4.37354850769043,-0.7275245189666748
0.6486340165138245,4.809396743774414,-0.7971147298812866
0.6922833919525146,4.877885818481445,-0.8055505752563477
0.7284684777259827,4.888800144195557,-0.8044582605361938
0.7618866562843323,4.876502990722656,-0.7995292544364929
0.7920132875442505,4.84892463684082,-0.791719913482666
0.8198038935661316,4.809792995452881,-0.7818606495857239
0.8437545299530029,4.751501560211182,-0.7689831852912903
0.8754938840866089,4.7385945320129395,-0.763516366481781
0.9114322066307068,4.748227119445801,-0.761621356010437
0.9419463276863098,4.7273268699646,-0.7542157769203186
0.9677175879478455,4.687431335449219,-0.7439295649528503
1.004456639289856,4.700209140777588,-0.7420298457145691
0.8381645679473877,3.7927775382995605,-0.5956200957298279
0.8576929569244385,3.7573976516723633,-0.5866355299949646
0.8806827664375305,3.736902952194214,-0.5798159837722778
0.9084922671318054,3.7388722896575928,-0.5765736103057861
0.9289801716804504,3.7106223106384277,-0.5686973929405212
0.9587138891220093,3.7197036743164062,-0.566484808921814
0.9715939164161682,3.6651384830474854,-0.5542807579040527
1.001492977142334,3.673848867416382,-0.5516393184661865
1.02299165725708,3.6525890827178955,-0.5445594191551208
1.0485718250274658,3.6460494995117188,-0.5397080779075623
1.0738787651062012,3.639435291290283,-0.5345627665519714
1.0968128442764282,3.6252706050872803,-0.528265118598938
1.1156201362609863,3.5959997177124023,-0.5197250843048096
1.1384831666946411,3.5814616680145264,-0.5134210586547852
1.163445234298706,3.5741994380950928,-0.5080418586730957
1.185714602470398,3.559501886367798,-0.5014342665672302
1.2053622007369995,3.5373167991638184,-0.49381890892982483
1.230146884918213,3.529555082321167,-0.48820602893829346
1.2461756467819214,3.4959421157836914,-0.4789585471153259
1.2755895853042603,3.5026159286499023,-0.4750872552394867
1.3092048168182373,3.519944906234741,-0.47262927889823914
1.325588583946228,3.489741325378418,-0.463734894990921
1.6388733386993408,4.225800514221191,-0.5556734204292297
1.6685750484466553,4.215162754058838,-0.5480228662490845
1.69760262966156,4.204534530639648,-0.54046630859375
1.7268933057785034,4.193567276000977,-0.5328205227851868
1.7503416538238525,4.167979717254639,-0.5233128070831299
1.7821602821350098,4.163898468017578,-0.5163642168045044
1.80498206615448,4.138114929199219,-0.5065675377845764
1.8274084329605103,4.112244606018066,-0.49685707688331604
1.856369137763977,4.100224018096924,-0.4887734055519104
1.8814698457717896,4.081183910369873,-0.47976091504096985
1.899503231048584,4.0480499267578125,-0.4690834581851959
1.9347749948501587,4.049516677856445,-0.46223747730255127
1.9547175168991089,4.019287586212158,-0.45183655619621277
1.9754433631896973,3.992748260498047,-0.4418102502822876
2.0025839805603027,3.9801392555236816,-0.4333133101463318
2.026676893234253,3.960129499435425,-0.42389026284217834
2.054593801498413,3.946653366088867,-0.4150885343551636
2.085658073425293,3.9400711059570312,-0.40679702162742615
2.1124112606048584,3.926703453063965,-0.39790815114974976
2.1323320865631104,3.899106740951538,-0.3874167501926422
2.1198952198028564,3.8135299682617188,-0.37128713726997375
2.1493775844573975,3.806807279586792,-0.36290034651756287
2.1601147651672363,3.7657318115234375,-0.35110706090927124
2.182694673538208,3.7445449829101562,-0.34108731150627136
2.2123332023620605,3.737014055252075,-0.3322868049144745
2.2293386459350586,3.709554672241211,-0.32170921564102173
2.2509443759918213,3.688189744949341,-0.31144896149635315
2.2935428619384766,3.699418783187866,-0.30362021923065186
2.30149507522583,3.6584906578063965,-0.29165521264076233
2.3263142108917236,3.6435470581054688,-0.28164324164390564
2.368953227996826,3.6539905071258545,-0.2731952667236328
2.3760805130004883,3.6128480434417725,-0.2608945965766907
2.3920485973358154,3.584315061569214,-0.24930518865585327
2.434727907180786,3.593966007232666,-0.24004985392093658
2.445096969604492,3.5592777729034424,-0.2278365045785904
2.473278045654297,3.549968719482422,-0.21705292165279388
2.516123056411743,3.5587360858917236,-0.2067459523677826
2.5166735649108887,3.511120080947876,-0.19302161037921906
2.5772087574005127,3.5450940132141113,-0.1833130568265915
2.1702492237091064,2.943899393081665,-0.14219063520431519
2.773742437362671,3.9224255084991455,0.3954041302204132
2.7525365352630615,3.955017328262329,0.4094781279563904
2.725940704345703,3.9815165996551514,0.42271724343299866
2.7058162689208984,4.012757301330566,0.4357354938983917
2.66660737991333,4.019017696380615,0.4456617832183838
2.6309356689453125,4.031919002532959,0.45618027448654175
2.6022937297821045,4.0493011474609375,0.46638986468315125
2.5807526111602783,4.080296993255615,0.4780687093734741
2.54038143157959,4.086053371429443,0.48674431443214417
2.522426128387451,4.123371124267578,0.49870213866233826
2.493137836456299,4.140020847320557,0.507949709892273
2.475637197494507,4.181016445159912,0.5199431777000427
2.4357426166534424,4.185285568237305,0.5273503661155701
2.4128332138061523,4.215342998504639,0.5377180576324463
2.375349998474121,4.217691898345947,0.5443714261054993
2.3341188430786133,4.217430114746094,0.550298810005188
2.2594504356384277,4.155536651611328,0.5480546951293945
2.2313621044158936,4.174089431762695,0.5560416579246521
2.2085633277893066,4.202725410461426,0.5654173493385315
2.177532196044922,4.217912673950195,0.5726406574249268
2.152846097946167,4.246989727020264,0.5816750526428223
2.1250898838043213,4.268646240234375,0.5896384119987488
2.095026969909668,4.28255033493042,0.5963617563247681
2.074033260345459,4.317619323730469,0.6060860753059387
2.041869878768921,4.332018852233887,0.6125123500823975
2.0063517093658447,4.339138507843018,0.6179360747337341
1.962479591369629,4.324271202087402,0.6200562119483948
2.001352310180664,4.492757320404053,0.6485540866851807
1.9721781015396118,4.513210773468018,0.6556826233863831
1.9595470428466797,4.576855659484863,0.6689484715461731
1.925737977027893,4.590313911437988,0.6748863458633423
1.9033570289611816,4.628102779388428,0.6843149065971375
1.8577663898468018,4.60822057723999,0.6851997971534729
1.8333722352981567,4.642128944396973,0.6939301490783691
1.8196192979812622,4.70899772644043,0.7074074745178223
1.7877769470214844,4.728650093078613,0.7138175368309021
1.3621054887771606,3.6814231872558594,0.5583698153495789
1.324426293373108,3.6575560569763184,0.5573360323905945
1.3012536764144897,3.673473358154297,0.5623517036437988
1.2740191221237183,3.6824519634246826,0.5659769773483276
1.6220502853393555,4.800609111785889,0.7407459020614624
1.5897469520568848,4.8188323974609375,0.7464835047721863
1.557178020477295,4.832823276519775,0.7515174150466919
1.5349715948104858,4.879745960235596,0.7617291808128357
1.527854561805725,4.982411861419678,0.7805063128471375
1.4664355516433716,4.9075398445129395,0.7712200284004211
1.4309475421905518,4.91737174987793,0.7752461433410645
1.398102045059204,4.9342145919799805,0.7803789973258972
1.37180495262146,4.973024845123291,0.7890039682388306
1.3079540729522705,4.8737382888793945,0.7757213115692139
1.2744218111038208,4.890042304992676,0.7803711891174316
1.2373318672180176,4.891066551208496,0.7824898362159729
1.2177681922912598,4.96303129196167,0.7960212230682373
1.1846754550933838,4.978443622589111,0.8005037307739258
1.1533693075180054,5.0011067390441895,0.8061885833740234
1.1245869398117065,5.038753986358643,0.8143815398216248
1.0853842496871948,5.031106948852539,0.8147218823432922
1.0581563711166382,5.07981538772583,0.824202835559845
1.0218764543533325,5.086788654327393,0.8269695043563843
