X,Y,Z
0.6392359733581543,1.3905032873153687,-0.22516676783561707
0.650593638420105,1.390181064605713,-0.22146528959274292
0.6806243658065796,1.4280259609222412,-0.2236017882823944
0.6908008456230164,1.4238293170928955,-0.21911196410655975
0.7367053627967834,1.4925559759140015,-0.22559309005737305
0.7609888315200806,1.5157862901687622,-0.2249334454536438
0.784143328666687,1.535188913345337,-0.2234628051519394
0.8021946549415588,1.5440571308135986,-0.22035984694957733
0.8311920166015625,1.5733693838119507,-0.21992234885692596
0.8696825504302979,1.6195085048675537,-0.2216489315032959
0.9109700918197632,1.6684964895248413,-0.22335660457611084
0.9358692765235901,1.6865657567977905,-0.22068706154823303
0.9798814654350281,1.7383277416229248,-0.22217045724391937
1.0193250179290771,1.779244303703308,-0.22174860537052155
1.0652331113815308,1.8297923803329468,-0.2222161889076233
1.115427017211914,1.8867493867874146,-0.22306670248508453
1.1603463888168335,1.9331927299499512,-0.2223040610551834
1.2166155576705933,1.9954298734664917,-0.2227037101984024
1.2779099941253662,2.0636258125305176,-0.2231610268354416
1.3312184810638428,2.118345260620117,-0.22181423008441925
1.3502141237258911,2.116396903991699,-0.21406330168247223
1.3842824697494507,2.1370041370391846,-0.20833609998226166
1.4029115438461304,2.134977340698242,-0.20028960704803467
1.3940774202346802,2.09027099609375,-0.18802393972873688
1.4220253229141235,2.1004531383514404,-0.18064084649085999
1.7735875844955444,2.5832183361053467,-0.2118871510028839
1.9493376016616821,2.7991111278533936,-0.21810804307460785
1.9444408416748047,2.751140594482422,-0.20248645544052124
1.9583512544631958,2.732595682144165,-0.18903179466724396
1.4517909288406372,1.9974174499511719,-0.12905755639076233
1.4610259532928467,1.9816148281097412,-0.11857672780752182
2.1976683139801025,3.1160099506378174,0.5433881282806396
2.163597583770752,3.113960027694702,0.5536803007125854
1.5358309745788574,2.244645357131958,0.4065588712692261
1.5108705759048462,2.2458832263946533,0.4140811562538147
1.500251293182373,2.2653112411499023,0.4243938624858856
1.4921679496765137,2.287539005279541,0.4350663125514984
1.474189043045044,2.2976152896881104,0.4431847631931305
1.4723165035247803,2.333775758743286,0.45638132095336914
1.4632277488708496,2.3561527729034424,0.4665464162826538
1.460148572921753,2.388218879699707,0.4786328673362732
1.5325796604156494,2.549853801727295,0.5167341828346252
1.4832100868225098,2.510512351989746,0.5143605470657349
1.439940333366394,2.4764821529388428,0.5124622583389282
1.4179353713989258,2.4788362979888916,0.518100917339325
1.372519850730896,2.4413528442382812,0.5149093270301819
1.3573168516159058,2.4572341442108154,0.5228706002235413
1.350145936012268,2.4860870838165283,0.5334595441818237
2.8543198108673096,5.344178676605225,1.1560524702072144
2.828498601913452,5.389708995819092,1.1751364469528198
2.7959368228912354,5.42548942565918,1.1914914846420288
2.7716307640075684,5.478143692016602,1.2117029428482056
2.7580249309539795,5.546619415283203,1.2350316047668457
1.2356152534484863,2.528862476348877,0.5668227076530457
1.2133495807647705,2.529926300048828,0.5706446766853333
1.1876895427703857,2.524012804031372,0.5726251006126404
1.171802043914795,2.538698673248291,0.5793026089668274
1.163183331489563,2.5667672157287598,0.5889065861701965
1.1511380672454834,2.5878212451934814,0.5969700217247009
2.5765178203582764,5.9043755531311035,1.3691154718399048
2.5436301231384277,5.949426651000977,1.3861589431762695
2.5168166160583496,6.00810432434082,1.406429409980774
2.4864213466644287,6.0555315017700195,1.4240014553070068
2.4604692459106445,6.113156795501709,1.4440162181854248
2.4352166652679443,6.174218654632568,1.4650094509124756
2.4024908542633057,6.225653171539307,1.4830125570297241
2.3684043884277344,6.273163795471191,1.5000028610229492
2.343111515045166,6.345457077026367,1.5230661630630493
2.315056800842285,6.406267166137695,1.5432926416397095
2.2798402309417725,6.449018955230713,1.5593205690383911
2.249281883239746,6.509927272796631,1.5797703266143799
2.2160892486572266,6.567526817321777,1.598533272743225
2.185739755630493,6.635794639587402,1.620050072669983
2.1374034881591797,6.6494975090026855,1.628335952758789
2.071131944656372,6.600740909576416,1.6212102174758911
2.012662410736084,6.577065944671631,1.6203361749649048
1.9497474431991577,6.534616470336914,1.6145334243774414
1.8873261213302612,6.495833873748779,1.6087528467178345
1.8328070640563965,6.482105255126953,1.6092168092727661
1.7737650871276855,6.449571132659912,1.6050373315811157
1.7215509414672852,6.434568881988525,1.6051459312438965
0.8301612138748169,3.193125009536743,0.7985166907310486
0.8263124227523804,3.271674156188965,0.820181667804718
0.8054156303405762,3.287907123565674,0.8257376551628113
1.4951056241989136,6.297894477844238,1.5845866203308105
1.4462783336639404,6.2923784255981445,1.5861833095550537
1.3962476253509521,6.27902889251709,1.5858501195907593
1.3419709205627441,6.239142417907715,1.578787088394165
1.2906336784362793,6.209958076477051,1.574467658996582
1.2377187013626099,6.173201084136963,1.5676214694976807
1.192823886871338,6.1771464347839355,1.570717215538025
1.1437581777572632,6.162253379821777,1.5691295862197876
1.087398886680603,6.098324775695801,1.5550494194030762
1.0410140752792358,6.082366466522217,1.5532081127166748
0.9949039816856384,6.066064357757568,1.5513378381729126
0.9460635781288147,6.030725955963135,1.5446487665176392
0.8991666436195374,6.0141825675964355,1.541793704032898
0.8522712588310242,5.989686965942383,1.5369411706924438
0.8031637668609619,5.946086883544922,1.5272469520568848
0.7595303058624268,5.9358415603637695,1.526161551475525
0.6072794198989868,5.0235066413879395,1.2929543256759644
0.5755917429924011,5.057105541229248,1.3030378818511963
0.5512176156044006,5.169640064239502,1.3332972526550293
0.403098464012146,4.051056385040283,1.0453293323516846
0.3744659125804901,4.053492069244385,1.0465353727340698
0.35326066613197327,4.1424150466918945,1.0701353549957275
0.3240894675254822,4.140690803527832,1.0703755617141724
0.29424574971199036,4.135015964508057,1.069656252861023
0.268625408411026,4.185716152191162,1.0835676193237305
0.4432116448879242,7.751532077789307,2.007535696029663
0.3866877257823944,7.708863258361816,1.9967851638793945
0.33208703994750977,7.6960129737854,1.9938533306121826
0.27635303139686584,7.671469211578369,1.9879969358444214
0.22250975668430328,7.657835483551025,1.9850510358810425
0.1684601902961731,7.621142387390137,1.9762177467346191
0.11501187831163406,7.595415115356445,1.9703189134597778
0.06192382052540779,7.573300838470459,1.964605450630188
0.00820213183760643,7.535813808441162,1.954508900642395
-0.04410341754555702,7.516855716705322,1.9493231773376465
-0.0961865484714508,7.4937543869018555,1.9431579113006592
-0.1475307047367096,7.462736129760742,1.9350354671478271
-0.1987409144639969,7.438925266265869,1.9288748502731323
-0.24899141490459442,7.395866394042969,1.9178160429000854
-0.3033975660800934,7.450912952423096,1.9313170909881592
-0.2559453845024109,5.371458053588867,1.3915778398513794
-0.2940698266029358,5.388723850250244,1.3953827619552612
-0.33187782764434814,5.394388675689697,1.3962448835372925
-0.3659665286540985,5.343183517456055,1.3824573755264282
-0.40199050307273865,5.318120002746582,1.3755000829696655
-0.4395342469215393,5.323019504547119,1.376368761062622
-0.4101760685443878,4.581809997558594,1.183753490447998
-0.44244512915611267,4.586841583251953,1.18402099609375
-0.4740245044231415,4.5841193199157715,1.182341456413269
-0.5049943327903748,4.569831848144531,1.1777188777923584
-0.5359032154083252,4.559125900268555,1.174090027809143
-0.5666875839233398,4.548208713531494,1.1704665422439575
-0.5943813920021057,4.514566898345947,1.1610575914382935
-0.627444863319397,4.525994777679443,1.1625113487243652
-0.6525357961654663,4.477168560028076,1.1485155820846558
-0.6821204423904419,4.465709686279297,1.1442039012908936
-0.7124373912811279,4.457756042480469,1.1408365964889526
-0.7441330552101135,4.457035541534424,1.1393667459487915
-0.7680556178092957,4.411303997039795,1.1264564990997314
-0.7959807515144348,4.391603469848633,1.120095133781433
-0.8209688663482666,4.356958866119385,1.1093586683273315
-0.7140746116638184,3.652719497680664,0.9285233020782471
-0.7353088855743408,3.6298229694366455,0.9212287664413452
-0.7543016672134399,3.5955991744995117,0.9111007452011108
-0.935405433177948,4.309828281402588,1.0903956890106201
-0.9693266749382019,4.31867790222168,1.090964913368225
-0.9973146915435791,4.305398941040039,1.0855923891067505
-1.021341323852539,4.277313232421875,1.0762420892715454
-1.0468435287475586,4.256457805633545,1.0687804222106934
-1.079751968383789,4.264840602874756,1.0686960220336914
-1.1005220413208008,4.221287727355957,1.055579423904419
-1.1359436511993408,4.236445903778076,1.0572428703308105
-1.1655125617980957,4.229378700256348,1.0533469915390015
-1.1900979280471802,4.207852840423584,1.045226812362671
-1.2165607213974,4.19347620010376,1.038945198059082
-1.2422552108764648,4.175164699554443,1.0317057371139526
-1.2669628858566284,4.152966022491455,1.0235425233840942
-1.3006343841552734,4.159615516662598,1.0225268602371216
-1.3228108882904053,4.129785537719727,1.012602686882019
-1.3486844301223755,4.114629745483398,1.0058221817016602
-1.3770586252212524,4.10650110244751,1.0005804300308228
-1.404904842376709,4.098313331604004,0.9954259395599365
-1.4307886362075806,4.0825581550598145,0.9884171485900879
-1.456907033920288,4.066509246826172,0.9813531041145325
-1.482867956161499,4.0502848625183105,0.974306583404541
-1.5132976770401,4.0485148429870605,0.970356822013855
-1.5356496572494507,4.025200843811035,0.9609821438789368
-1.5600675344467163,4.009013652801514,0.9534350633621216
-1.5879216194152832,3.999492645263672,0.9474197030067444
-1.6162031888961792,3.9895973205566406,0.9412967562675476
-1.6444205045700073,3.9794938564300537,0.935171902179718
-1.6720677614212036,3.969514846801758,0.9285373687744141
-1.6928523778915405,3.9456279277801514,0.9186189770698547
-1.719504952430725,3.9356274604797363,0.9119911789894104
-1.7472416162490845,3.9249935150146484,0.9050748944282532
-1.7671650648117065,3.8966822624206543,0.8941228985786438
-1.7918330430984497,3.8786094188690186,0.8854078054428101
-1.8211740255355835,3.8750600814819336,0.8795996308326721
-1.8439747095108032,3.857457160949707,0.8706345558166504
-1.8771947622299194,3.8601417541503906,0.8661776781082153
-1.8978681564331055,3.8346872329711914,0.8552731275558472
-1.9256207942962646,3.822597026824951,0.8473246693611145
-1.954993486404419,3.8180830478668213,0.8406566381454468
-1.9805715084075928,3.8066890239715576,0.8324156999588013
-1.9885423183441162,3.761014223098755,0.816679060459137
-2.004507303237915,3.728292942047119,0.8035928606987
-2.049560546875,3.7494006156921387,0.8021286129951477
-1.7136207818984985,3.085747003555298,0.6547113656997681
-1.73801589012146,3.082493782043457,0.6485852003097534
-0.8366191983222961,1.4609928131103516,0.3047546148300171
-0.8509641289710999,1.462393045425415,0.3022720515727997
-0.861358106136322,1.4570972919464111,0.29838109016418457
-0.8672587871551514,1.4454532861709595,0.2929748594760895
-0.8768770098686218,1.4404436349868774,0.2889910042285919
-0.887124240398407,1.4350075721740723,0.284729540348053
-0.8933534026145935,1.4228976964950562,0.279136061668396
-0.8988139033317566,1.41117525100708,0.2734997570514679
-0.8957468271255493,1.3865087032318115,0.26532500982284546
-0.9055018424987793,1.3810338973999023,0.2607252895832062
-0.898381769657135,1.3496131896972656,0.25120702385902405
-0.9247497320175171,1.3700015544891357,0.2511962354183197
-2.441305637359619,3.568129539489746,0.644158124923706
-1.325131893157959,1.9081259965896606,0.3384833037853241
-1.3374924659729004,2.105194568634033,-0.22094383835792542
-1.2703179121017456,2.0316131114959717,-0.22108714282512665
-1.1213356256484985,1.852104902267456,-0.2152622491121292
-1.1119716167449951,1.8659197092056274,-0.22348271310329437
-0.83379065990448,1.4465504884719849,-0.18339858949184418
-0.8310747146606445,1.4652830362319946,-0.1906435489654541
-0.9280251860618591,1.6637638807296753,-0.2219540923833847
-0.8913955688476562,1.625557541847229,-0.22218477725982666
-0.8612774610519409,1.5969877243041992,-0.2233210802078247
-0.8295753002166748,1.5647692680358887,-0.2237975001335144
-0.7946981191635132,1.5253952741622925,-0.2228914052248001
-0.7799829244613647,1.5234826803207397,-0.22725701332092285
-0.758624792098999,1.5074892044067383,-0.22934581339359283
-0.7236749529838562,1.4635998010635376,-0.22697272896766663
-0.6975110173225403,1.4368661642074585,-0.22709111869335175
-0.6771396994590759,1.4201654195785522,-0.2285066843032837
-0.6489425301551819,1.3857218027114868,-0.22687256336212158
-0.6324184536933899,1.3756146430969238,-0.22903725504875183
-0.61283940076828,1.3583338260650635,-0.22990354895591736
0.065213143825531,2.1597890853881836,-0.5687620043754578
0.6373931169509888,1.3737374544143677,-0.22650007903575897
0.6537770628929138,1.3838565349578857,-0.22436337172985077
0.6718475818634033,1.397383213043213,-0.2226424515247345
0.6986620426177979,1.4280909299850464,-0.22351160645484924
0.7279995679855347,1.4618316888809204,-0.22452406585216522
0.7593360543251038,1.4988243579864502,-0.22587284445762634
0.7839503288269043,1.5217978954315186,-0.22487981617450714
0.8108144402503967,1.5478991270065308,-0.22414471209049225
0.8437422513961792,1.5838834047317505,-0.22455263137817383
0.8622563481330872,1.5923250913619995,-0.22088192403316498
0.9127407670021057,1.6583536863327026,-0.2248467653989792
0.9452998638153076,1.6899062395095825,-0.223782479763031
0.9899740815162659,1.7412842512130737,-0.2249988466501236
1.0214054584503174,1.7688459157943726,-0.22283603250980377
1.0669970512390137,1.8195337057113647,-0.22327788174152374
1.11799955368042,1.8760133981704712,-0.22371312975883484
1.1714285612106323,1.935463309288025,-0.2241756170988083
1.215157151222229,1.9779669046401978,-0.22228366136550903
1.288710594177246,2.0659713745117188,-0.22481267154216766
1.3346713781356812,2.1069183349609375,-0.2215723842382431
1.3618441820144653,2.1181817054748535,-0.21483221650123596
1.3891563415527344,2.129199504852295,-0.20794297754764557
1.4042924642562866,2.1201298236846924,-0.19873929023742676
1.396982192993164,2.079019546508789,-0.1866774559020996
1.7445482015609741,2.559741497039795,-0.21956965327262878
1.829596996307373,2.6441867351531982,-0.2153249830007553
1.9773931503295898,2.817762613296509,-0.21734413504600525
1.9487971067428589,2.7386951446533203,-0.19922703504562378
1.959072232246399,2.7131001949310303,-0.1846487671136856
1.453952670097351,1.9863650798797607,-0.12581956386566162
1.4720124006271362,1.983378529548645,-0.1158360168337822
1.5610589981079102,2.1954963207244873,0.3946487605571747
1.7726867198944092,2.5313334465026855,0.4642811119556427
1.554826259613037,2.257517099380493,0.42200398445129395
1.5138027667999268,2.2323997020721436,0.4245607256889343
1.5038936138153076,2.2513420581817627,0.4351489543914795
1.4901936054229736,2.267988681793213,0.44502830505371094
1.4886155128479004,2.3040919303894043,0.4588422477245331
1.471801996231079,2.3132853507995605,0.46675705909729004
1.4627885818481445,2.335585117340088,0.477285772562027
1.4563599824905396,2.3651528358459473,0.4891126751899719
1.4838244915008545,2.450413942337036,0.512586236000061
1.438202142715454,2.413473129272461,0.5103175044059753
1.40688157081604,2.399221897125244,0.5125519633293152
1.3900690078735352,2.4119503498077393,0.520196259021759
1.3750454187393188,2.4278736114501953,0.528576135635376
1.3650195598602295,2.4497034549713135,0.5379371047019958
2.8949482440948486,5.282917499542236,1.1702029705047607
2.869380235671997,5.328714847564697,1.1896599531173706
2.8354766368865967,5.361186504364014,1.2060626745224
2.7989354133605957,5.3860602378845215,1.2205862998962402
2.775935649871826,5.4338274002075195,1.2400740385055542
2.775691032409668,5.52967643737793,1.2709076404571533
2.730198860168457,5.5409770011901855,1.2813842296600342
1.2266658544540405,2.536729097366333,0.5902515649795532
1.2013978958129883,2.530642509460449,0.5923436284065247
1.183306336402893,2.537949562072754,0.5974754691123962
1.1651676893234253,2.545119047164917,0.6026053428649902
1.1613514423370361,2.5875961780548096,0.6157993674278259
2.586507797241211,5.878251075744629,1.4058774709701538
2.556572437286377,5.926145553588867,1.4242808818817139
2.5351402759552,5.990830898284912,1.4466276168823242
2.5056633949279785,6.03782844543457,1.4648582935333252
2.4722540378570557,6.081996917724609,1.482052206993103
2.4452624320983887,6.143833160400391,1.5031167268753052
2.4187991619110107,6.209120750427246,1.5252113342285156
2.3865201473236084,6.255922794342041,1.5426872968673706
2.3581385612487793,6.313089370727539,1.5628082752227783
2.327033281326294,6.366775035858154,1.5823228359222412
2.2955942153930664,6.42446756362915,1.6018438339233398
2.264570474624634,6.485652446746826,1.6222748756408691
2.2339229583740234,6.550302505493164,1.64374577999115
2.2007510662078857,6.6034417152404785,1.6622763872146606
2.1650466918945312,6.652989864349365,1.680126667022705
2.0996334552764893,6.6080241203308105,1.6740877628326416
2.036757707595825,6.5741095542907715,1.6696889400482178
1.9799290895462036,6.557837009429932,1.6697801351547241
1.913811206817627,6.508335590362549,1.661440372467041
1.8615844249725342,6.4979729652404785,1.6629793643951416
1.8058950901031494,6.4763994216918945,1.6617567539215088
1.7424577474594116,6.421263217926025,1.6518670320510864
0.8418237566947937,3.1922030448913574,0.822870671749115
0.8281108140945435,3.234156608581543,0.8353095650672913
1.5792580842971802,6.357240676879883,1.6451998949050903
0.79818195104599,3.3141987323760986,0.8594242334365845
1.4732826948165894,6.309670925140381,1.6394838094711304
1.4181503057479858,6.270376205444336,1.6326152086257935
1.3640843629837036,6.234529972076416,1.6261847019195557
1.318617582321167,6.239256858825684,1.6297435760498047
1.2595082521438599,6.180759906768799,1.6168880462646484
1.2124550342559814,6.173574447631836,1.6174564361572266
1.1615076065063477,6.13987922668457,1.6110892295837402
1.1083821058273315,6.0909037590026855,1.6007519960403442
1.063159704208374,6.082479000091553,1.6011208295822144
1.012892246246338,6.051807403564453,1.5947710275650024
0.9661934971809387,6.035610675811768,1.5921244621276855
0.9169217944145203,6.000380516052246,1.5845204591751099
0.8714183568954468,5.983403205871582,1.5817772150039673
0.8286263942718506,5.981017112731934,1.582945704460144
0.7818286418914795,5.952176570892334,1.5772056579589844
0.6228797435760498,5.012029647827148,1.3295565843582153
0.5826864838600159,4.974556922912598,1.3203866481781006
0.5616363883018494,5.105715751647949,1.3560566902160645
0.5279433727264404,5.1316070556640625,1.363861083984375
0.39119917154312134,4.082192897796631,1.0857354402542114
0.3672698438167572,4.140890598297119,1.1022073030471802
0.3390357494354248,4.150487422943115,1.1056625843048096
0.3100429177284241,4.152431488037109,1.1068720817565918
0.2808874845504761,4.1543049812316895,1.1076247692108154
0.25405383110046387,4.193649768829346,1.118424654006958
0.41418424248695374,7.753302097320557,2.068453073501587
0.3577747046947479,7.7028398513793945,2.0557570457458496
0.30357643961906433,7.689688682556152,2.0531108379364014
0.24896524846553802,7.657297611236572,2.0454213619232178
0.1943640559911728,7.605814456939697,2.0321028232574463
0.14023852348327637,7.599433898925781,2.0301671028137207
0.08709485083818436,7.581336975097656,2.025205612182617
0.03406738489866257,7.551547527313232,2.0172195434570312
-0.018339600414037704,7.5138421058654785,2.007216215133667
-0.07039792090654373,7.494643211364746,2.002253293991089
-0.12278485298156738,7.456202983856201,1.992249846458435
-0.1741170883178711,7.440235137939453,1.98764169216156
-0.2250443547964096,7.41652774810791,1.9804227352142334
-0.2770574688911438,7.430187225341797,1.9832780361175537
-0.328937292098999,7.435940742492676,1.9841166734695435
-0.2758101522922516,5.3868584632873535,1.4369271993637085
-0.31317445635795593,5.373702526092529,1.433045744895935
-0.34904614090919495,5.3490214347839355,1.426168441772461
-0.3849794566631317,5.331778049468994,1.4207969903945923
-0.41998153924942017,5.306872844696045,1.4130523204803467
-0.44844287633895874,5.210262775421143,1.3863070011138916
-0.42864152789115906,4.602101802825928,1.2236318588256836
-0.4606779217720032,4.599407196044922,1.2221214771270752
-0.48907485604286194,4.5626912117004395,1.211635947227478
-0.5207860469818115,4.559577941894531,1.2101389169692993
-0.5504587888717651,4.5414018630981445,1.2041583061218262
-0.5803118944168091,4.523056507110596,1.197894811630249
-0.6093470454216003,4.504579067230225,1.1916885375976562
-0.6435853242874146,4.523312568664551,1.1953765153884888
-0.6683831810951233,4.474464416503906,1.1812551021575928
-0.6972070932388306,4.455355644226074,1.175058364868164
-0.7287670373916626,4.450906276702881,1.172770380973816
-0.7535874247550964,4.413002967834473,1.1610920429229736
-0.7837919592857361,4.408514499664307,1.158143401145935
-0.8139698505401611,4.403817176818848,1.1551945209503174
-0.8357678651809692,4.3542938232421875,1.1405469179153442
-0.7249868512153625,3.6403579711914062,0.9521828293800354
-0.7546349763870239,3.654313564300537,0.9544909000396729
-0.9201091527938843,4.304794788360596,1.1228128671646118
-0.9527416825294495,4.314148902893066,1.1230226755142212
-0.9804942607879639,4.301109790802002,1.1174514293670654
-1.0098949670791626,4.295250415802002,1.1137981414794922
-1.0384060144424438,4.281628608703613,1.10812246799469
-1.0664814710617065,4.267875671386719,1.1024954319000244
-1.0981429815292358,4.268625736236572,1.1006720066070557
-1.1217436790466309,4.2400078773498535,1.090956687927246
-1.1525533199310303,4.240717887878418,1.0884746313095093
-1.173697590827942,4.20456075668335,1.0765516757965088
-1.2066541910171509,4.2121262550354,1.0759093761444092
-1.2318631410598755,4.190149784088135,1.0677145719528198
-1.2568682432174683,4.168003559112549,1.0595426559448242
-1.2826670408248901,4.149363040924072,1.0522727966308594
-1.3113147020339966,4.141702651977539,1.0471292734146118
-1.339381456375122,4.1339874267578125,1.0420805215835571
-1.3674463033676147,4.126063823699951,1.0370222330093384
-1.393908977508545,4.110484600067139,1.0299983024597168
-1.4178589582443237,4.087503433227539,1.0211725234985352
-1.4440505504608154,4.071556568145752,1.0141754150390625
-1.4722473621368408,4.06289005279541,1.008373498916626
-1.5024211406707764,4.061379909515381,1.004354476928711
-1.5245301723480225,4.038291931152344,0.9950573444366455
-1.550089955329895,4.021860122680664,0.9873409867286682
-1.5729097127914429,3.998095989227295,0.977865993976593
-1.598802924156189,3.981091022491455,0.9700494408607483
-1.6258057355880737,3.971712112426758,0.9635918140411377
-1.655564308166504,3.969242572784424,0.9587798118591309
-1.6823763847351074,3.9595279693603516,0.9522539973258972
-1.7043582201004028,3.935133934020996,0.9420571327209473
-1.732784390449524,3.9243640899658203,0.9351009130477905
-1.758844256401062,3.9102184772491455,0.9273397922515869
-1.769311785697937,3.865257740020752,0.9118294715881348
-1.8050934076309204,3.8756957054138184,0.9094404578208923
-1.8317463397979736,3.8649141788482666,0.902000367641449
-1.8630013465881348,3.860262393951416,0.8957780003547668
-1.8870588541030884,3.8418235778808594,0.8864891529083252
-1.9097950458526611,3.8238654136657715,0.8769023418426514
-1.9423861503601074,3.82645320892334,0.8719014525413513
-1.9646586179733276,3.8083088397979736,0.8621838092803955
-1.9882553815841675,3.789344072341919,0.8520177006721497
-2.0049595832824707,3.7564566135406494,0.8386979103088379
-2.012450933456421,3.710850238800049,0.822405219078064
-1.700500726699829,3.0877485275268555,0.679032564163208
-1.7250550985336304,3.0845377445220947,0.6730097532272339
-0.8385083079338074,1.4751496315002441,0.31914830207824707
-0.8416028022766113,1.4565112590789795,0.3123888075351715
-0.8553619384765625,1.4582282304763794,0.30988365411758423
-0.8611657023429871,1.4467068910598755,0.30453306436538696
-0.875150740146637,1.4481430053710938,0.3018188774585724
-0.8896316289901733,1.449221134185791,0.2988848090171814
-0.9000016450881958,1.4437123537063599,0.2944663465023041
-0.8890223503112793,1.4060330390930176,0.28349030017852783
-0.8943519592285156,1.394382357597351,0.2778172194957733
-0.9002131223678589,1.3823401927947998,0.2718784809112549
-0.9015173316001892,1.3639485836029053,0.2647157907485962
-0.9536092877388,1.42288076877594,0.27220651507377625
-2.377613067626953,3.4987263679504395,0.6595229506492615
-1.3355166912078857,1.908797025680542,0.34802544116973877
-1.3086481094360352,2.0770013332366943,-0.22127006947994232
-1.1709120273590088,1.9180430173873901,-0.21861712634563446
-1.098423957824707,1.8292502164840698,-0.21522769331932068
-0.8236691951751709,1.4169392585754395,-0.17663146555423737
-0.8403077125549316,1.4693920612335205,-0.18816067278385162
-0.9415447115898132,1.6744699478149414,-0.22006593644618988
-0.9047574996948242,1.6363928318023682,-0.22048798203468323
-0.8671010732650757,1.5943074226379395,-0.21990954875946045
-0.8425551652908325,1.575904130935669,-0.22235065698623657
-0.8092886209487915,1.540096402168274,-0.22213105857372284
-0.7822305560112,1.5140992403030396,-0.2229810506105423
-0.764066755771637,1.5052000284194946,-0.22629547119140625
-0.7426020503044128,1.4892135858535767,-0.2283308357000351
-0.7147209048271179,1.459055781364441,-0.2279927283525467
-0.6824762225151062,1.4180641174316406,-0.2256617546081543
-0.6655891537666321,1.40823495388031,-0.22810041904449463
-0.6455147862434387,1.391283631324768,-0.22926636040210724
-0.6304808855056763,1.3846832513809204,-0.23207655549049377
6.927268981933594,71.53137969970703,-18.382070541381836
0.6293312907218933,1.3686853647232056,-0.22694551944732666
0.6503982543945312,1.3894448280334473,-0.2266002595424652
0.676920473575592,1.4204000234603882,-0.22769567370414734
0.7005441188812256,1.4441066980361938,-0.22746168076992035
0.7296716570854187,1.4779726266860962,-0.22864826023578644
0.746900737285614,1.4874379634857178,-0.22587178647518158
0.7748765349388123,1.5174182653427124,-0.2260749787092209
0.8017939925193787,1.5435361862182617,-0.22541029751300812
0.8274226784706116,1.5658878087997437,-0.22394175827503204
0.8584480881690979,1.5984426736831665,-0.2238062024116516
0.8993851542472839,1.647616982460022,-0.22567099332809448
0.9393723011016846,1.692834734916687,-0.22659146785736084
0.9740908145904541,1.727583408355713,-0.22581686079502106
1.015133261680603,1.7720613479614258,-0.2259291112422943
1.0647757053375244,1.8294379711151123,-0.22726933658123016
1.111443281173706,1.8794804811477661,-0.22725394368171692
1.1562994718551636,1.9259833097457886,-0.2264450341463089
1.2201683521270752,2.001793622970581,-0.2285701334476471
1.2735869884490967,2.056605339050293,-0.2274458408355713
1.323021650314331,2.104600667953491,-0.22528663277626038
1.354010820388794,2.1227047443389893,-0.21964877843856812
1.3880770206451416,2.1433544158935547,-0.21372877061367035
1.3923962116241455,2.1181724071502686,-0.20314542949199677
1.3938881158828735,2.090008497238159,-0.19229833781719208
1.7142049074172974,2.5327234268188477,-0.22284583747386932
1.8069490194320679,2.6308274269104004,-0.2206408530473709
1.9914560317993164,2.8596339225769043,-0.22797322273254395
1.9348347187042236,2.7384769916534424,-0.20630116760730743
1.9632163047790527,2.738408088684082,-0.19371585547924042
1.4445675611495972,1.9879937171936035,-0.13160182535648346
1.4608709812164307,1.9815587997436523,-0.12139046937227249
2.1885204315185547,3.099323272705078,0.5376214981079102
2.1829686164855957,3.1432387828826904,0.5566287636756897
1.5116046667099,2.2100133895874023,0.3986364006996155
1.5143760442733765,2.248514175415039,0.41284483671188354
1.5005378723144531,2.2654223442077637,0.42278632521629333
1.491424322128296,2.288290500640869,0.4336617887020111
1.4706237316131592,2.291041851043701,0.4403664469718933
1.4613938331604004,2.313680648803711,0.4507385790348053
1.4630486965179443,2.35654354095459,0.46513134241104126
1.4634997844696045,2.3954875469207764,0.4784909784793854
1.5116113424301147,2.5133848190307617,0.5077904462814331
1.4807811975479126,2.503375291824341,0.5112215280532837
1.4457303285598755,2.486758232116699,0.5130791068077087
1.4134246110916138,2.4728565216064453,0.515288233757019
1.372997760772705,2.4413883686065674,0.5134655833244324
1.362444281578064,2.463505744934082,0.5227470397949219
1.3507566452026367,2.4860827922821045,0.5319313406944275
2.8386178016662598,5.318391799926758,1.1472879648208618
2.8139474391937256,5.363396167755127,1.1659870147705078
2.8017594814300537,5.431811809539795,1.189807415008545
2.7851791381835938,5.49784517288208,1.2126749753952026
2.758540153503418,5.547093868255615,1.2317441701889038
1.2349754571914673,2.5295016765594482,0.5653637647628784
1.2099263668060303,2.523416519165039,0.567581832408905
1.1886098384857178,2.5238990783691406,0.5712143778800964
1.169783115386963,2.5315587520599365,0.576163113117218
1.1601394414901733,2.560091733932495,0.5858207941055298
1.1410131454467773,2.567559242248535,0.5906843543052673
2.575406074523926,5.90567684173584,1.3655906915664673
2.553652763366699,5.970818042755127,1.3878366947174072
2.52190899848938,6.015035629272461,1.4047192335128784
2.4929721355438232,6.0701775550842285,1.4237842559814453
2.4619226455688477,6.121635437011719,1.4421398639678955
2.4333832263946533,6.175876617431641,1.4610637426376343
2.402561664581299,6.226504325866699,1.4793176651000977
2.3786299228668213,6.294551372528076,1.5017684698104858
2.3453915119171143,6.345528602600098,1.5192530155181885
2.315338611602783,6.4071044921875,1.5393857955932617
2.280898094177246,6.457700729370117,1.557010293006897
2.2531442642211914,6.525767803192139,1.5788788795471191
2.2192018032073975,6.575463771820068,1.5963690280914307
2.190375328063965,6.643158912658691,1.6182122230529785
2.134819984436035,6.635329246520996,1.6207609176635742
2.0737266540527344,6.608921051025391,1.6188229322433472
2.0137414932250977,6.585761547088623,1.617762804031372
1.951064109802246,6.543284893035889,1.6117597818374634
1.8901430368423462,6.503926753997803,1.6065328121185303
1.8328557014465332,6.4750823974609375,1.6038209199905396
1.7757946252822876,6.450009822845459,1.6010234355926514
1.7143545150756836,6.406102657318115,1.5935801267623901
0.8411563038825989,3.237905740737915,0.8072793483734131
1.6062335968017578,6.3644585609436035,1.5902611017227173
0.803832471370697,3.28104305267334,0.821641743183136
1.49673593044281,6.298451900482178,1.5808265209197998
1.4465720653533936,6.285533428192139,1.580316185951233
1.3973060846328735,6.279881954193115,1.5815309286117554
1.3418164253234863,6.240330219268799,1.5742180347442627
1.2914625406265259,6.218770503997803,1.571452260017395
1.2367631196975708,6.170712471008301,1.5620005130767822
1.1921460628509521,6.170596122741699,1.5647330284118652
1.1354942321777344,6.110800743103027,1.5520328283309937
1.088563084602356,6.099180698394775,1.5508720874786377
1.0437724590301514,6.098409652709961,1.5525410175323486
0.9942185878753662,6.067393779754639,1.5465717315673828
0.9465224742889404,6.039628982543945,1.541449785232544
0.8979993462562561,6.007847785949707,1.5353890657424927
0.8528092503547668,5.990603446960449,1.5330647230148315
0.8039724826812744,5.946999549865723,1.523264765739441
0.7579689621925354,5.921884536743164,1.517989158630371
0.6079962253570557,5.032059192657471,1.2909400463104248
0.5776429176330566,5.080826282501221,1.3045655488967896
0.5444449782371521,5.110602855682373,1.3134019374847412
0.40392518043518066,4.059365272521973,1.0442185401916504
0.37843602895736694,4.0918049812316895,1.053600549697876
0.3557812571525574,4.165744781494141,1.0730106830596924
0.32471829652786255,4.145260334014893,1.0681546926498413
0.29502832889556885,4.147224426269531,1.0691429376602173
0.267040491104126,4.164035320281982,1.074001431465149
0.44311484694480896,7.7532734870910645,2.000818967819214
0.3877515494823456,7.725480079650879,1.9948060512542725
0.3326631188392639,7.697354316711426,1.9885711669921875
0.2765403687953949,7.657811164855957,1.978341817855835
0.2223704606294632,7.636743545532227,1.9729828834533691
0.1684247851371765,7.611513614654541,1.9666438102722168
0.11528834700584412,7.597246170043945,1.9632306098937988
0.06229616701602936,7.57504415512085,1.9578602313995361
0.008683870546519756,7.529782772064209,1.9466294050216675
-0.04357386380434036,7.518283843994141,1.9438213109970093
-0.09521802514791489,7.472613334655762,1.9313430786132812
-0.14667654037475586,7.449275970458984,1.9247362613677979
-0.1979161947965622,7.4293646812438965,1.9191102981567383
-0.2490132749080658,7.412881374359131,1.9144644737243652
-0.30317482352256775,7.452699184417725,1.9244458675384521
-0.2579270005226135,5.414156913757324,1.3979034423828125
-0.294280081987381,5.389803409576416,1.391163945198059
-0.3303513526916504,5.369128227233887,1.3848750591278076
-0.36647337675094604,5.3519816398620605,1.3795665502548218
-0.4023779332637787,5.327007293701172,1.3723002672195435
-0.4375057518482208,5.301822185516357,1.3650628328323364
-0.4109586179256439,4.590466499328613,1.181316614151001
-0.4428410530090332,4.5878143310546875,1.180098295211792
-0.4725852608680725,4.566234111785889,1.1736596822738647
-0.5058090686798096,4.574609756469727,1.1745644807815552
-0.5350421071052551,4.552729606628418,1.167781949043274
-0.5635841488838196,4.526897430419922,1.1600492000579834
-0.5950782895088196,4.523369312286377,1.1580820083618164
-0.626550555229187,4.5196213722229,1.1561146974563599
-0.6552549004554749,4.493099689483643,1.1483670473098755
-0.6821780800819397,4.462902069091797,1.1392104625701904
-0.7115675210952759,4.451318264007568,1.1346402168273926
-0.7420769929885864,4.447011470794678,1.1319808959960938
-0.7714174389839172,4.435004711151123,1.127409815788269
-0.799586296081543,4.415292739868164,1.1209266185760498
-0.8210641741752625,4.358056545257568,1.1049678325653076
-0.7110028266906738,3.6348536014556885,0.9204736351966858
-0.7342925071716309,3.6231837272644043,0.9158278703689575
-0.7589994072914124,3.6187899112701416,0.9130518436431885
-0.9380542635917664,4.325941562652588,1.0895239114761353
-0.9701605439186096,4.3274946212768555,1.0879554748535156
-0.9970016479492188,4.30666971206665,1.0808305740356445
-1.0253125429153442,4.293066501617432,1.0755834579467773
-1.0514297485351562,4.27202033996582,1.0682600736618042
-1.074913501739502,4.243680000305176,1.0587317943572998
-1.0986233949661255,4.2150774002075195,1.049165964126587
-1.135280728340149,4.237813949584961,1.0524635314941406
-1.1628787517547607,4.223464012145996,1.0465354919433594
-1.1882622241973877,4.201615333557129,1.0388126373291016
-1.21551513671875,4.186908721923828,1.0329183340072632
-1.2466202974319458,4.186855316162109,1.029975175857544
-1.2694522142410278,4.161269664764404,1.0208078622817993
-1.2953505516052246,4.146458625793457,1.0143524408340454
-1.3195909261703491,4.1240057945251465,1.0060100555419922
-1.3485417366027832,4.115808010101318,1.0011820793151855
-1.3779298067092896,4.1072564125061035,0.9962710738182068
-1.4060503244400024,4.098981857299805,0.9910455346107483
-1.4287586212158203,4.0762858390808105,0.9821778535842896
-1.4563583135604858,4.067803382873535,0.9767922759056091
-1.487160563468933,4.066084384918213,0.9729936122894287
-1.510467529296875,4.0425519943237305,0.963972806930542
-1.5394573211669922,4.032958507537842,0.9582769274711609
-1.5587941408157349,4.002382755279541,0.9472829103469849
-1.5830246210098267,3.986091375350952,0.939518928527832
-1.6128318309783936,3.983794927597046,0.9350964426994324
-1.6405613422393799,3.9739277362823486,0.9288197755813599
-1.666137933731079,3.956498384475708,0.9207040071487427
-1.6941242218017578,3.9460766315460205,0.9143352508544922
-1.7208422422409058,3.936070203781128,0.9075465202331543
-1.745786428451538,3.9224629402160645,0.8998964428901672
-1.7659235000610352,3.8982203006744385,0.8898608088493347
-1.7941112518310547,3.8869986534118652,0.8825346827507019
-1.811972737312317,3.854978561401367,0.8706383109092712
-1.8487468957901,3.8646140098571777,0.8679608106613159
-1.8714067935943604,3.8468916416168213,0.8587701916694641
-1.900699496269226,3.8427574634552,0.8526521325111389
-1.917691707611084,3.8103699684143066,0.8400328159332275
-1.9588439464569092,3.825650691986084,0.8379418849945068
-1.9716614484786987,3.7862861156463623,0.8238351345062256
-1.9791042804718018,3.7408828735351562,0.8080370426177979
-2.0005226135253906,3.722567081451416,0.7981984615325928
-2.0209457874298096,3.700263023376465,0.7873300313949585
-1.7102620601654053,3.0795278549194336,0.6499688625335693
-1.728127121925354,3.0622994899749756,0.6410438418388367
-0.8293718695640564,1.4477529525756836,0.3003966808319092
-0.850620448589325,1.4628880023956299,0.30084067583084106
-0.8649226427078247,1.4642342329025269,0.29823651909828186
-0.8716375231742859,1.452102780342102,0.2928255498409271
-0.8735150098800659,1.4337843656539917,0.2861272692680359
-0.858726441860199,1.3894308805465698,0.27428972721099854
-0.8642074465751648,1.3777467012405396,0.26889753341674805
-0.8990046977996826,1.4113186597824097,0.2721293866634369
-0.9006117582321167,1.392822504043579,0.2651304602622986
-0.9013552665710449,1.3747638463974,0.25823813676834106
-0.9107734560966492,1.3694007396697998,0.25364789366722107
-0.9552565217018127,1.4148728847503662,0.2581430673599243
-2.4342610836029053,3.554844617843628,0.6384036540985107
-1.3447073698043823,1.93714439868927,0.34209564328193665
-1.273722529411316,1.8087748289108276,0.3136812746524811
-1.3143856525421143,2.069732904434204,-0.21168187260627747
-1.2580660581588745,2.012354612350464,-0.21329393982887268
-1.1394238471984863,1.8826905488967896,-0.21315307915210724
-1.1458479166030884,1.9233365058898926,-0.22429713606834412
-0.8417630791664124,1.4604905843734741,-0.18024063110351562
-0.9192500710487366,1.6212472915649414,-0.2053326666355133
-0.9435722827911377,1.6914209127426147,-0.21959178149700165
-0.9105308055877686,1.6601194143295288,-0.22074124217033386
-0.8614532947540283,1.5977082252502441,-0.21741148829460144
-0.8334217667579651,1.5723485946655273,-0.2187810242176056
-0.8004916906356812,1.5363507270812988,-0.21836493909358978
-0.7838066220283508,1.531127691268921,-0.2221522033214569
-0.7657104730606079,1.5221856832504272,-0.22525513172149658
-0.7410997152328491,1.4991040229797363,-0.22608567774295807
-0.7164825201034546,1.4759352207183838,-0.22678683698177338
-0.6873583197593689,1.4419901371002197,-0.22556515038013458
-0.6638754606246948,1.418154001235962,-0.2256796509027481
-0.6440414190292358,1.4010775089263916,-0.2267305999994278
-0.6227160692214966,1.3803679943084717,-0.22701437771320343
-0.6032631397247314,1.3629791736602783,-0.2277277112007141
0.6145310997962952,1.3999905586242676,-0.23494690656661987
0.6182014346122742,1.3821587562561035,-0.2284526526927948
0.639388382434845,1.4029622077941895,-0.22824165225028992
0.6687204241752625,1.4412195682525635,-0.2307143360376358
0.6887644529342651,1.4581575393676758,-0.22959837317466736
0.710873007774353,1.4783291816711426,-0.2288377285003662
0.7349098324775696,1.5017931461334229,-0.22843167185783386
0.7593209743499756,1.5250134468078613,-0.22774404287338257
0.7857879996299744,1.5514544248580933,-0.22740603983402252
0.8039538860321045,1.5603150129318237,-0.22431179881095886
0.8454767465591431,1.61372971534729,-0.22740280628204346
0.8785210251808167,1.6496427059173584,-0.22773444652557373
0.9215607643127441,1.7021417617797852,-0.22998474538326263
0.9526086449623108,1.730193853378296,-0.22853556275367737
0.9816098809242249,1.7548308372497559,-0.22651703655719757
1.028207778930664,1.809570074081421,-0.22811076045036316
1.0741111040115356,1.8601845502853394,-0.22863546013832092
1.1245585680007935,1.9170560836791992,-0.22955454885959625
1.1836280822753906,1.986817479133606,-0.2314586490392685
1.231695532798767,2.0358986854553223,-0.23050102591514587
1.3011565208435059,2.1173977851867676,-0.23259887099266052
1.3238643407821655,2.1225109100341797,-0.22596625983715057
1.3549610376358032,2.140590190887451,-0.22055354714393616
1.37677800655365,2.1414108276367188,-0.21276938915252686
1.3766605854034424,2.109853744506836,-0.20196396112442017
1.3908268213272095,2.1013426780700684,-0.19345860183238983
1.7293894290924072,2.574082374572754,-0.226987823843956
1.7603365182876587,2.582322597503662,-0.2175760120153427
1.9484347105026245,2.818162202835083,-0.22611945867538452
1.9302464723587036,2.751070976257324,-0.20906542241573334
1.95359206199646,2.745063304901123,-0.19680114090442657
1.4490910768508911,2.00862193107605,-0.1352710872888565
1.463311791419983,1.9989428520202637,-0.12518572807312012
1.4672225713729858,1.9772754907608032,-0.1144329234957695
2.2184958457946777,3.116445779800415,0.5107024908065796
2.197436809539795,3.1384527683258057,0.5258578658103943
2.1874358654022217,3.1715099811553955,0.5418606400489807
1.5292376279830933,2.251737356185913,0.39193195104599
1.5067353248596191,2.2560219764709473,0.39963170886039734
1.4981461763381958,2.2787766456604004,0.41020119190216064
1.4896957874298096,2.3012614250183105,0.42066365480422974
1.5027409791946411,2.3602309226989746,0.43758517503738403
1.578157663345337,2.5209779739379883,0.4738544523715973
3.0469980239868164,4.943514823913574,0.9407185912132263
3.0392138957977295,5.008634090423584,0.9647117257118225
3.0052456855773926,5.039628028869629,0.9817605018615723
2.965827703475952,5.0600199699401855,0.9966303110122681
2.9447429180145264,5.105190753936768,1.0156381130218506
2.926983594894409,5.156936168670654,1.036113977432251
2.891299247741699,5.183134078979492,1.0508947372436523
2.8634586334228516,5.226507186889648,1.0693292617797852
2.8669590950012207,5.322580814361572,1.0981563329696655
2.8323774337768555,5.34714412689209,1.1122121810913086
2.807349920272827,5.39238977432251,1.130374550819397
2.7819466590881348,5.441826343536377,1.14897882938385
2.763760805130005,5.508631229400635,1.1715935468673706
2.74303936958313,5.563608646392822,1.191208839416504
1.2220960855484009,2.522801399230957,0.5437432527542114
1.1969467401504517,2.5167651176452637,0.5458246469497681
1.1844128370285034,2.5385446548461914,0.5537688136100769
1.1588858366012573,2.532381296157837,0.5556448101997375
1.16874361038208,2.602555990219116,0.5742390751838684
2.5891151428222656,5.874574184417725,1.3033020496368408
2.5693109035491943,5.943542003631592,1.3254399299621582
2.539775848388672,5.995552062988281,1.3433586359024048
2.508134603500366,6.043878078460693,1.3605972528457642
2.4781906604766846,6.095266342163086,1.3785511255264282
2.4505574703216553,6.1495208740234375,1.3970850706100464
2.4208226203918457,6.200107574462891,1.4149408340454102
2.388688564300537,6.251413822174072,1.4320977926254272
2.3597710132598877,6.313345909118652,1.4517931938171387
2.3256709575653076,6.36453914642334,1.4692256450653076
2.2922310829162598,6.411135673522949,1.4854272603988647
2.267127752304077,6.482735633850098,1.5075645446777344
2.2419254779815674,6.5580596923828125,1.5304722785949707
2.2047595977783203,6.604977607727051,1.5460658073425293
2.1696386337280273,6.662815093994141,1.5644429922103882
2.1064300537109375,6.629225730895996,1.5612884759902954
2.046146869659424,6.598405838012695,1.5586811304092407
1.985366940498352,6.563419342041016,1.5550950765609741
1.9257452487945557,6.531792163848877,1.5519955158233643
1.864651083946228,6.496446132659912,1.5472511053085327
1.8042658567428589,6.464471817016602,1.5434131622314453
1.7517141103744507,6.453711986541748,1.5445815324783325
1.6879922151565552,6.39442777633667,1.5340633392333984
0.8348104953765869,3.2538974285125732,0.7825304269790649
1.5805513858795166,6.344437122344971,1.529412031173706
0.7996155619621277,3.3122127056121826,0.7999142408370972
1.4788206815719604,6.323466777801514,1.529957890510559
1.4165308475494385,6.258544445037842,1.5171033143997192
1.37019681930542,6.255983352661133,1.5193305015563965
1.3091516494750977,6.1824212074279785,1.5043361186981201
1.2635858058929443,6.1829376220703125,1.5074567794799805
1.2144521474838257,6.164676189422607,1.5051870346069336
1.16338050365448,6.134920597076416,1.4999253749847412
1.1120431423187256,6.1010355949401855,1.4937080144882202
1.0676312446594238,6.100330829620361,1.4956486225128174
1.0167224407196045,6.061901569366455,1.4884108304977417
0.9677110910415649,6.026721954345703,1.4819774627685547
0.9243214726448059,6.025003433227539,1.4835699796676636
0.8710829019546509,5.959395885467529,1.4687169790267944
0.830903947353363,5.979791164398193,1.4751194715499878
0.7807928323745728,5.9322896003723145,1.4648643732070923
0.6254280805587769,5.022121429443359,1.2413735389709473
0.5917395353317261,5.037110328674316,1.2463963031768799
0.5678640604019165,5.142351150512695,1.2738425731658936
0.5294455885887146,5.123128890991211,1.2700201272964478
0.3908956050872803,4.0618391036987305,1.0074331760406494
0.3671228587627411,4.124685764312744,1.0235953330993652
0.3415653109550476,4.168445110321045,1.035074234008789
0.3099939227104187,4.136404991149902,1.0277769565582275
0.28248366713523865,4.157090187072754,1.0336278676986694
0.25493112206459045,4.18137264251709,1.040431022644043
0.41623592376708984,7.73369026184082,1.9247499704360962
0.3610164523124695,7.713469505310059,1.9200003147125244
0.30634310841560364,7.696640968322754,1.916186809539795
0.25154978036880493,7.66806173324585,1.909538745880127
0.19733941555023193,7.631509304046631,1.9009894132614136
0.14300823211669922,7.6135406494140625,1.8971697092056274
0.08971109241247177,7.583819389343262,1.8904603719711304
0.03682747855782509,7.56160306930542,1.88445246219635
-0.01562902145087719,7.527647972106934,1.8756139278411865
-0.06780417263507843,7.50469970703125,1.8696105480194092
-0.12030940502882004,7.466217041015625,1.8598271608352661
-0.17156031727790833,7.438758373260498,1.8528852462768555
-0.22300414741039276,7.4298930168151855,1.8506643772125244
-0.2743002772331238,7.4207258224487305,1.8482309579849243
-0.32682690024375916,7.4455389976501465,1.8533039093017578
-0.27411749958992004,5.3914079666137695,1.341261625289917
-0.3116392493247986,5.382054805755615,1.3382511138916016
-0.34748607873916626,5.357339382171631,1.331499695777893
-0.38361185789108276,5.339944362640381,1.3266345262527466
-0.4201086163520813,5.329864025115967,1.323653221130371
-0.45468753576278687,5.300726890563965,1.3157097101211548
-0.42695096135139465,4.599316596984863,1.1405178308486938
-0.4574829339981079,4.585360527038574,1.1360392570495605
-0.4881914556026459,4.574975967407227,1.132505178451538
-0.5191556215286255,4.564347267150879,1.12895667552948
-0.5482293367385864,4.5384368896484375,1.1216871738433838
-0.5784626007080078,4.519803524017334,1.1162649393081665
-0.6086557507514954,4.508688449859619,1.1123474836349487
-0.6385883092880249,4.497467041015625,1.108119010925293
-0.6666651964187622,4.474788665771484,1.1011308431625366
-0.6963196992874146,4.463169097900391,1.0969195365905762
-0.7266746163368225,4.451230525970459,1.0926522016525269
-0.7550513744354248,4.4316840171813965,1.08660089969635
-0.7845186591148376,4.419430732727051,1.0823967456817627
-0.8092862963676453,4.384786605834961,1.0721579790115356
