X,Y,Z
-1.4936193227767944,2.176882028579712,-0.15437264740467072
-1.4900816679000854,2.206958293914795,-0.16446326673030853
-1.4786940813064575,2.2233574390411377,-0.1730613261461258
-1.461832046508789,2.233832836151123,-0.18122777342796326
-1.4727940559387207,2.2864530086517334,-0.19275115430355072
-1.4438549280166626,2.2765393257141113,-0.19883784651756287
-1.4346263408660889,2.3000454902648926,-0.20794104039669037
-1.4177407026290894,2.3097951412200928,-0.21554510295391083
-1.413362979888916,2.339113473892212,-0.22482293844223022
-1.3799861669540405,2.3220889568328857,-0.2296142578125
-1.3589215278625488,2.3247427940368652,-0.23619480431079865
-1.3363054990768433,2.3236351013183594,-0.24222779273986816
-1.3077585697174072,2.3123202323913574,-0.24697977304458618
-1.2830572128295898,2.307598114013672,-0.2523574233055115
-1.2628098726272583,2.3091557025909424,-0.2581808865070343
-1.2608733177185059,2.3448398113250732,-0.2678249478340149
-1.2432231903076172,2.3534750938415527,-0.27451077103614807
-1.2386339902877808,2.3858132362365723,-0.28384101390838623
-1.2252445220947266,2.4006779193878174,-0.2910398840904236
-1.2182224988937378,2.429562568664551,-0.29994356632232666
-1.2004292011260986,2.4376108646392822,-0.30631744861602783
-1.1995701789855957,2.480407476425171,-0.31712108850479126
-1.181946039199829,2.4880499839782715,-0.3233664631843567
-1.175304651260376,2.5203771591186523,-0.33276647329330444
-1.1795448064804077,2.577390193939209,-0.34559547901153564
-1.1548882722854614,2.5707108974456787,-0.3498445451259613
-1.1928414106369019,2.705693006515503,-0.37356245517730713
-1.1882438659667969,2.749084711074829,-0.38494011759757996
-1.3300682306289673,3.138293981552124,-0.4454600214958191
-1.3197749853134155,3.175201177597046,-0.45663851499557495
-1.3030327558517456,3.197815418243408,-0.4657800495624542
-1.2857444286346436,3.2204644680023193,-0.4748366177082062
-1.2593910694122314,3.2215075492858887,-0.4808311462402344
-1.2448911666870117,3.2509765625,-0.4909345209598541
-1.2217390537261963,3.2587170600891113,-0.4977303445339203
-1.1876575946807861,3.237356424331665,-0.4998626410961151
-1.1422169208526611,3.182935953140259,-0.49675941467285156
-1.0937994718551636,3.117116689682007,-0.4916732907295227
-1.047940969467163,3.054382801055908,-0.48669564723968506
-1.0003827810287476,2.9839658737182617,-0.48005354404449463
-0.9610652327537537,2.935086488723755,-0.47670310735702515
-0.9179829359054565,2.871067762374878,-0.4706847667694092
-0.8858593702316284,2.839869737625122,-0.4699391722679138
-0.8465477824211121,2.782548666000366,-0.4643765687942505
-0.8036888837814331,2.7100601196289062,-0.45611217617988586
-0.7759950160980225,2.6852493286132812,-0.45570769906044006
-0.7435076832771301,2.6416335105895996,-0.45201727747917175
-0.7227308750152588,2.638686180114746,-0.45491987466812134
-0.6858425736427307,2.5760934352874756,-0.44749000668525696
-0.6532030701637268,2.5242350101470947,-0.44171151518821716
-0.6279911398887634,2.4981918334960938,-0.4403453767299652
-0.6040037870407104,2.475731372833252,-0.4393250346183777
-0.5794627666473389,2.449345827102661,-0.4374419152736664
-0.5550304055213928,2.4228062629699707,-0.4355321526527405
-0.5322011709213257,2.399742603302002,-0.4341442286968231
-0.5104793310165405,2.380284070968628,-0.43322935700416565
-0.4858895242214203,2.345635414123535,-0.4292834401130676
-0.46407315135002136,2.322082757949829,-0.427325040102005
-0.44463542103767395,2.3096959590911865,-0.42742347717285156
-0.4243045449256897,2.2895584106445312,-0.4259864389896393
-0.4082575738430023,2.292022228240967,-0.4284115135669708
-0.3857245445251465,2.2565102577209473,-0.4237266182899475
-0.3668120503425598,2.239758253097534,-0.4225360155105591
-0.35086819529533386,2.2418572902679443,-0.4249381124973297
-0.33175960183143616,2.221088171005249,-0.42266014218330383
-0.31185486912727356,2.1925876140594482,-0.41880759596824646
-0.29755449295043945,2.201951742172241,-0.4221867024898529
-0.28122222423553467,2.1959915161132812,-0.422644704580307
-0.26405495405197144,2.1823296546936035,-0.4214441776275635
-0.24811524152755737,2.1800427436828613,-0.4222370982170105
-0.2296360284090042,2.150920867919922,-0.4178127348423004
-0.21236883103847504,2.129284620285034,-0.414829820394516
-0.19755351543426514,2.130432605743408,-0.4162535071372986
-0.18206831812858582,2.1239089965820312,-0.4158164858818054
-0.16580897569656372,2.1096479892730713,-0.41389158368110657
-0.15111085772514343,2.110546112060547,-0.41493985056877136
-0.13591402769088745,2.103691339492798,-0.4144807457923889
-0.12213387340307236,2.1197457313537598,-0.41824308037757874
-0.10658295452594757,2.1051089763641357,-0.41585978865623474
-0.09298727661371231,2.1363120079040527,-0.4225657284259796
-0.0781310424208641,2.136779546737671,-0.4232099950313568
-0.06396817415952682,2.1601555347442627,-0.42824697494506836
-0.04859727993607521,2.1451809406280518,-0.4254342019557953
-0.0327921137213707,2.0879554748535156,-0.4142568111419678
-0.018563242629170418,2.153224229812622,-0.4274079501628876
-0.003544342005625367,2.1455960273742676,-0.42609903216362
0.011512454599142075,2.1685993671417236,-0.4304529130458832
0.02651323191821575,2.1608457565307617,-0.4287211298942566
4.670255184173584,242.835693359375,-48.160316467285156
0.056761011481285095,2.1680123805999756,-0.42981892824172974
0.07260876893997192,2.1829745769500732,-0.432354599237442
0.0885578989982605,2.201688051223755,-0.4355045557022095
0.10459014773368835,2.216458320617676,-0.437887042760849
0.12040065973997116,2.2234599590301514,-0.43875089287757874
0.13677963614463806,2.238025665283203,-0.4409887492656708
0.1536378264427185,2.252519369125366,-0.44288402795791626
0.1704316884279251,2.2669050693511963,-0.44478335976600647
0.18778149783611298,2.284986734390259,-0.4474133849143982
0.20436938107013702,2.2914810180664062,-0.4477856457233429
0.22323767840862274,2.3208396434783936,-0.45220890641212463
0.24284563958644867,2.3500308990478516,-0.4565311074256897
0.2600460946559906,2.3562183380126953,-0.4564097821712494
0.2813703119754791,2.396571636199951,-0.46290120482444763
0.2999410629272461,2.4101481437683105,-0.4639504849910736
0.32122668623924255,2.4426424503326416,-0.46843934059143066
0.341698557138443,2.46352481842041,-0.4706524610519409
0.36664843559265137,2.5146656036376953,-0.47864213585853577
0.38825780153274536,2.5390453338623047,-0.481398344039917
0.4132517874240875,2.5822761058807373,-0.487343430519104
0.43504798412323,2.6025679111480713,-0.4889260530471802
0.4591656029224396,2.6340341567993164,-0.49257802963256836
0.48610720038414,2.676593780517578,-0.4982239007949829
0.5111797451972961,2.707719087600708,-0.5013267993927002
0.5433570742607117,2.7725937366485596,-0.5105552673339844
0.5695728659629822,2.8032639026641846,-0.5134081244468689
0.6002659201622009,2.8525171279907227,-0.519594132900238
0.6393480896949768,2.9353103637695312,-0.5314627885818481
0.6707627773284912,2.9803075790405273,-0.5362218022346497
0.7045984864234924,3.0325183868408203,-0.5421819686889648
0.7518710494041443,3.1368024349212646,-0.5572734475135803
0.7913715839385986,3.2032644748687744,-0.5653570890426636
0.8359309434890747,3.284281015396118,-0.5754342079162598
0.8724890947341919,3.331413984298706,-0.5794985294342041
0.9168843626976013,3.4042282104492188,-0.5878715515136719
0.972675621509552,3.513744592666626,-0.6023586988449097
1.02456796169281,3.604283571243286,-0.6129112839698792
1.0879532098770142,3.727510929107666,-0.6286329030990601
1.1605063676834106,3.876039743423462,-0.6483275890350342
1.2273532152175903,3.9979634284973145,-0.6631937623023987
1.2842071056365967,4.08249044418335,-0.6712486743927002
1.345733642578125,4.177535057067871,-0.6806550621986389
1.3875291347503662,4.205770969390869,-0.6788619756698608
1.4122101068496704,4.182485103607178,-0.6688126921653748
1.4414851665496826,4.173742294311523,-0.6609302163124084
1.4704915285110474,4.164883136749268,-0.6528633236885071
1.4890352487564087,4.1266937255859375,-0.6402559876441956
1.5006937980651855,4.070191860198975,-0.6248998641967773
1.2911051511764526,3.427302837371826,-0.5204436182975769
1.3106937408447266,3.408494472503662,-0.511765718460083
1.3371458053588867,3.4075706005096436,-0.5058040618896484
1.3583041429519653,3.391914129257202,-0.4975776672363281
1.3791745901107788,3.3761703968048096,-0.4893382787704468
1.4029483795166016,3.3674397468566895,-0.4818544387817383
1.4232299327850342,3.351550340652466,-0.47348853945732117
1.4468553066253662,3.342470645904541,-0.46600911021232605
1.473460078239441,3.340345859527588,-0.45946091413497925
1.4965003728866577,3.3311376571655273,-0.45178407430648804
1.5102089643478394,3.300428628921509,-0.44113919138908386
1.5433259010314941,3.311805009841919,-0.4361094832420349
1.5881696939468384,3.347484588623047,-0.4341210424900055
1.6078048944473267,3.3305246829986572,-0.4251328110694885
1.6084957122802734,3.27508807182312,-0.4113471210002899
1.604256510734558,3.2088961601257324,-0.39614859223365784
1.6248692274093628,3.195143461227417,-0.3876383900642395
1.6217541694641113,3.136600971221924,-0.37375861406326294
1.6741310358047485,3.1847379207611084,-0.37252721190452576
1.7259340286254883,3.228630542755127,-0.37040162086486816
1.7481715679168701,3.2176220417022705,-0.361807644367218
1.7159587144851685,3.1076772212982178,-0.34217047691345215
1.748981237411499,3.116931200027466,-0.3358316719532013
1.7997971773147583,3.1561524868011475,-0.33245792984962463
1.3161150217056274,2.272758722305298,-0.23386704921722412
0.9606638550758362,1.6337409019470215,-0.16409608721733093
0.9564407467842102,1.6005319356918335,-0.15655876696109772
0.9714580178260803,1.6010372638702393,-0.15243947505950928
0.9781388640403748,1.588273048400879,-0.14705471694469452
0.989193320274353,1.5818617343902588,-0.1421336978673935
1.0001966953277588,1.5753700733184814,-0.13714079558849335
1.0108857154846191,1.568966269493103,-0.13208648562431335
1.0195196866989136,1.5591390132904053,-0.1267060786485672
1.0261106491088867,1.5458799600601196,-0.12094395607709885
1.04720938205719,1.5556219816207886,-0.11696812510490417
1.0467885732650757,1.5327489376068115,-0.11040571331977844
2.5528459548950195,3.682888984680176,-0.2529331147670746
2.5768275260925293,3.6670401096343994,-0.2396746575832367
2.606405019760132,3.6565518379211426,-0.22614489495754242
2.594513177871704,3.589097023010254,-0.20889900624752045
2.6498782634735107,3.6171674728393555,-0.19726230204105377
2.6892833709716797,3.618010997772217,-0.18264620006084442
2.64448881149292,3.719939708709717,0.4467122554779053
2.617764472961426,3.737168550491333,0.4601089060306549
2.574965238571167,3.7368597984313965,0.47099748253822327
1.0702136754989624,1.5785666704177856,0.20340636372566223
1.0546058416366577,1.5790623426437378,0.20752306282520294
1.0423588752746582,1.5865249633789062,0.2124226838350296
1.0380980968475342,1.60715651512146,0.2191649228334427
1.009935975074768,1.5877251625061035,0.22001592814922333
1.0022050142288208,1.6011649370193481,0.22531752288341522
0.9938012361526489,1.6148912906646729,0.2306118607521057
0.9857242703437805,1.628300666809082,0.23577268421649933
0.9699494242668152,1.628137469291687,0.2388792634010315
0.9615510106086731,1.6415215730667114,0.24378518760204315
1.341264247894287,2.329726457595825,0.3500952124595642
1.8183156251907349,3.2115042209625244,0.48799508810043335
1.7709977626800537,3.179283857345581,0.4882495701313019
1.7542226314544678,3.205174207687378,0.49721044301986694
1.7774772644042969,3.3059723377227783,0.5177995562553406
1.7566007375717163,3.324810743331909,0.5255929231643677
2.376614809036255,4.575205326080322,0.729640543460846
2.3502511978149414,4.604784965515137,0.7405503392219543
2.3114430904388428,4.614346981048584,0.7480840682983398
2.273207426071167,4.623310565948486,0.7554466724395752
2.250369071960449,4.658918857574463,0.766887366771698
2.2140443325042725,4.666421413421631,0.7737300992012024
2.1795241832733154,4.681379318237305,0.7813475131988525
2.1509850025177,4.710285186767578,0.7912443280220032
2.1154396533966064,4.725070476531982,0.7988835573196411
2.0883290767669678,4.752774238586426,0.808427095413208
2.042552947998047,4.73780632019043,0.810744047164917
1.7538491487503052,4.150957107543945,0.7141247391700745
1.7202225923538208,4.155654430389404,0.7187129259109497
1.6948431730270386,4.181697368621826,0.7270970940589905
1.6653639078140259,4.192555904388428,0.7326594591140747
1.635773777961731,4.203215599060059,0.7382280826568604
1.6079318523406982,4.221277236938477,0.74471515417099
1.5795645713806152,4.239295482635498,0.7511173486709595
1.5478402376174927,4.250054836273193,0.7563362717628479
1.5228747129440308,4.274543762207031,0.7638755440711975
1.4966219663619995,4.295163154602051,0.770753800868988
1.4660706520080566,4.3048319816589355,0.7755119800567627
1.4371616840362549,4.3218817710876465,0.7812880277633667
1.4075102806091309,4.338901996612549,0.7871591448783875
1.3761980533599854,4.348130702972412,0.7915906310081482
1.3433902263641357,4.349538326263428,0.7945599555969238
1.3151124715805054,4.365423202514648,0.8002089858055115
1.288100004196167,4.388787269592285,0.8068569302558899
1.2605476379394531,4.412083625793457,0.8133842945098877
1.2259936332702637,4.413112163543701,0.8158925771713257
1.200573205947876,4.443305015563965,0.8237668871879578
1.1714355945587158,4.458340644836426,0.82884681224823
1.1440008878707886,4.480640411376953,0.8353328704833984
1.1119110584259033,4.488105297088623,0.8385840058326721
1.0790561437606812,4.495508670806885,0.8418400883674622
1.0476477146148682,4.5062785148620605,0.8457363843917847
1.020841121673584,4.535468101501465,0.8531151413917542
0.9891589283943176,4.541894435882568,0.8562405705451965
0.9558538198471069,4.540580749511719,0.8579451441764832
0.7793517708778381,3.839245080947876,0.7266721129417419
0.7549130320549011,3.8593711853027344,0.7316829562187195
0.7224128246307373,3.8378283977508545,0.7288274765014648
0.8381810188293457,4.632074356079102,0.8811694383621216
0.804543673992157,4.629760265350342,0.8822591304779053
0.7735255360603333,4.646228313446045,0.887002170085907
0.7443334460258484,4.673914432525635,0.8934531807899475
0.7123309373855591,4.686290264129639,0.8968586325645447
0.6812899112701416,4.706040859222412,0.9017259478569031
0.6490633487701416,4.717966556549072,0.9051408767700195
0.6175892353057861,4.737292289733887,0.910029947757721
0.586453914642334,4.756339073181152,0.9148975014686584
0.5540201663970947,4.767629146575928,0.9180383682250977
0.5224782824516296,4.790229797363281,0.9230430126190186
0.49103426933288574,4.81643533706665,0.928794264793396
0.45634913444519043,4.811879634857178,0.9286620616912842
0.42349323630332947,4.830024719238281,0.9329646825790405
0.3922888934612274,4.863187789916992,0.9402067065238953
0.3592754602432251,4.8770246505737305,0.9437267780303955
0.3250381350517273,4.879292011260986,0.9444194436073303
0.29175424575805664,4.896629810333252,0.9480760097503662
0.2583800256252289,4.929091453552246,0.9547176361083984
0.22429777681827545,4.938302993774414,0.9568981528282166
0.1905059516429901,4.954937934875488,0.9605643153190613
0.15649333596229553,4.971341133117676,0.9642346501350403
0.122162364423275,4.983750343322754,0.9667794704437256
0.08687936514616013,4.992148399353027,0.9683310985565186
0.05256320536136627,5.03863525390625,0.9773194193840027
0.01738683506846428,5.038867473602295,0.9773831367492676
-0.0176993440836668,5.061862945556641,0.9819098114967346
-0.05290394276380539,5.0654401779174805,0.9827174544334412
-0.08919520676136017,5.095617294311523,0.9886483550071716
-0.12471727281808853,5.102660655975342,0.9895346164703369
-0.16058188676834106,5.117121696472168,0.9919050335884094
-0.19577184319496155,5.10833740234375,0.9898166060447693
-0.2329871654510498,5.145282745361328,0.9966339468955994
-0.27138423919677734,5.193445205688477,1.0056663751602173
-0.30816060304641724,5.191514015197754,1.0050404071807861
-0.28855353593826294,4.351335048675537,0.841847836971283
-0.3161112666130066,4.315017223358154,0.8341088891029358
-0.3453274369239807,4.305289268493652,0.8315566778182983
-0.3764228820800781,4.318291664123535,0.8334334492683411
-0.40263423323631287,4.269903182983398,0.823492705821991
-0.42499828338623047,4.1946845054626465,0.8084432482719421
-0.44913193583488464,4.146082878112793,0.798491358757019
-0.47372007369995117,4.108887672424316,0.7903310656547546
-0.4954437017440796,4.052508354187012,0.7785404324531555
-0.5194098353385925,4.014983654022217,0.7704118490219116
-0.5399269461631775,3.9583499431610107,0.7586848735809326
-0.5636310577392578,3.9281952381134033,0.7520826458930969
-0.5852272510528564,3.8865127563476562,0.7433227896690369
-0.6042102575302124,3.8334522247314453,0.7320536375045776
-0.6259182095527649,3.799225330352783,0.7242861390113831
-0.6454660296440125,3.7573742866516113,0.7151404023170471
-0.6665377616882324,3.726759433746338,0.7081848978996277
-0.6826674938201904,3.6695380210876465,0.6962152719497681
-0.70458984375,3.6461997032165527,0.6907293200492859
-0.7252577543258667,3.61903977394104,0.6843709945678711
-0.7386853694915771,3.557943105697632,0.6713550686836243
-0.7565311789512634,3.523196220397949,0.6634026765823364
-0.777265191078186,3.5033679008483887,0.6583080291748047
-0.7930257320404053,3.4608559608459473,0.6489794850349426
-0.8109222054481506,3.429497241973877,0.6417961120605469
-0.8296470046043396,3.40173077583313,0.635219395160675
-0.8471235632896423,3.374140501022339,0.6284000873565674
-0.8652597069740295,3.3501765727996826,0.6223027110099792
-0.882086992263794,3.3224081993103027,0.6155496835708618
-0.8990256190299988,3.2944447994232178,0.6087793707847595
-0.9120460748672485,3.2514352798461914,0.5992467999458313
-0.9325277805328369,3.2381081581115723,0.5952118635177612
-0.951197624206543,3.221188545227051,0.5901980996131897
-0.9641072750091553,3.185744047164917,0.5818411707878113
-0.9834164381027222,3.1723175048828125,0.5775537490844727
-0.9941641688346863,3.1291592121124268,0.5678305625915527
-1.0124366283416748,3.1116957664489746,0.5628477334976196
-1.0267325639724731,3.083221673965454,0.5558324456214905
-1.03511381149292,3.040358304977417,0.5459877252578735
-1.0505867004394531,3.0193240642547607,0.5401204228401184
-1.0696921348571777,3.0091006755828857,0.536224365234375
-1.08315908908844,2.9803006649017334,0.5289567708969116
-1.1093937158584595,2.9876763820648193,0.528171181678772
-1.1189738512039185,2.9517662525177,0.5195896029472351
-1.1124123334884644,2.8764820098876953,0.5039991140365601
-1.1317663192749023,2.8695414066314697,0.5004618763923645
-1.1430610418319702,2.8407692909240723,0.49308356642723083
-1.1571513414382935,2.8190226554870605,0.4869530498981476
-1.145662784576416,2.7367093563079834,0.47045812010765076
-1.1382983922958374,2.6692581176757812,0.4563378691673279
-1.1500658988952637,2.6480207443237305,0.4502095580101013
-1.1619065999984741,2.6266095638275146,0.4440556764602661
-1.1835203170776367,2.6260650157928467,0.441387802362442
-1.1987838745117188,2.611285448074341,0.4363425672054291
-1.239349603652954,2.6527652740478516,0.44045329093933105
-1.250431776046753,2.631147623062134,0.433991014957428
-1.2582275867462158,2.6023905277252197,0.4263576865196228
-1.2986416816711426,2.6392881870269775,0.42938530445098877
-1.280938982963562,2.558152437210083,0.41323745250701904
-1.3350765705108643,2.6225028038024902,0.4203979969024658
-1.3294302225112915,2.5696210861206055,0.40867501497268677
-1.3195348978042603,2.5100536346435547,0.3960283696651459
-1.322967529296875,2.4739491939544678,0.386954128742218
-1.3367282152175903,2.4584624767303467,0.38122469186782837
-1.341772198677063,2.429957866668701,0.37326574325561523
-1.357837438583374,2.4217514991760254,0.3684747815132141
-1.3666588068008423,2.3997182846069336,0.36151158809661865
-1.3819290399551392,2.387258291244507,0.35584041476249695
-1.3824034929275513,2.351856231689453,0.34674426913261414
-1.3978430032730103,2.3434698581695557,0.3415900766849518
-1.4013292789459229,2.3149914741516113,0.33351781964302063
-1.4380431175231934,2.338808536529541,0.33269739151000977
-1.4543707370758057,2.3295040130615234,0.3269546926021576
-1.430154800415039,2.2584476470947266,0.3126313090324402
-1.4367414712905884,2.23660945892334,0.3052155673503876
-1.4717166423797607,2.256398916244507,0.30314332246780396
-1.459087610244751,2.2051196098327637,0.29144951701164246
-1.4909427165985107,2.2220354080200195,0.28864526748657227
-1.4798636436462402,2.174088478088379,0.2772875726222992
-1.5129115581512451,2.1899547576904297,0.27386391162872314
-1.4868606328964233,2.123689651489258,0.2601048946380615
-1.5007989406585693,2.1146771907806396,0.2533983886241913
-1.5092867612838745,2.095142364501953,0.2448887974023819
-1.5181185007095337,2.0799663066864014,0.23691341280937195
-1.5362436771392822,2.0771408081054688,0.23017427325248718
-1.5039974451065063,2.109407901763916,-0.1262107491493225
-1.513704776763916,2.1545963287353516,-0.13673965632915497
-1.5105735063552856,2.184749126434326,-0.14652562141418457
-1.5031263828277588,2.2082056999206543,-0.15570484101772308
-1.4871642589569092,2.218414068222046,-0.1636670082807541
-1.47455632686615,2.2355575561523438,-0.17216797173023224
-1.4580596685409546,2.2457427978515625,-0.17993472516536713
-1.4564142227172852,2.278639316558838,-0.18932035565376282
-1.4350835084915161,2.2822957038879395,-0.1963314563035965
-1.426835060119629,2.3051745891571045,-0.2047269344329834
-1.4182448387145996,2.3280839920043945,-0.21310454607009888
-1.412524938583374,2.3581504821777344,-0.22232656180858612
-1.4033385515213013,2.3810482025146484,-0.23066455125808716
-1.3668277263641357,2.3566339015960693,-0.23423245549201965
-1.3416295051574707,2.3524861335754395,-0.2396680861711502
-1.3072623014450073,2.331010103225708,-0.24317045509815216
-1.2866790294647217,2.332871437072754,-0.2489435076713562
-1.2621936798095703,2.3278489112854004,-0.25380614399909973
-1.2596266269683838,2.363842010498047,-0.2631721794605255
-1.2391383647918701,2.3651819229125977,-0.26856204867362976
-1.2311514616012573,2.3905258178710938,-0.2766524851322174
-1.2203354835510254,2.4127681255340576,-0.28448760509490967
-1.2061984539031982,2.427818775177002,-0.2914179265499115
-1.195778250694275,2.4495434761047363,-0.2990715503692627
-1.1881790161132812,2.4783642292022705,-0.30760854482650757
-1.1667671203613281,2.479199171066284,-0.3126595616340637
-1.1863213777542114,2.5678060054779053,-0.3288763761520386
-1.1790226697921753,2.600231647491455,-0.33812177181243896
-1.1602457761764526,2.6078946590423584,-0.3440041244029999
-1.1444079875946045,2.6225697994232178,-0.3508053421974182
-1.188214898109436,2.7759933471679688,-0.37638357281684875
-1.2886368036270142,3.069329023361206,-0.42167001962661743
-1.3030571937561035,3.1673145294189453,-0.44071799516677856
-1.3005014657974243,3.225977659225464,-0.4544360339641571
-1.274706244468689,3.2269909381866455,-0.46005865931510925
-1.27848482131958,3.3035483360290527,-0.4765333831310272
-1.2548296451568604,3.3116636276245117,-0.48303964734077454
-1.233336091041565,3.327018976211548,-0.4906885027885437
-1.2123137712478638,3.3420169353485107,-0.4981928765773773
-1.186109185218811,3.3422434329986572,-0.503487765789032
-1.1546475887298584,3.3277688026428223,-0.5062940716743469
-1.1146585941314697,3.2874364852905273,-0.5050212740898132
-1.076302409172058,3.250453233718872,-0.5041981339454651
-1.0355862379074097,3.2019011974334717,-0.5013310313224792
-0.9861345291137695,3.123577833175659,-0.4934115707874298
-0.9502517580986023,3.0854010581970215,-0.49155622720718384
-0.9072549939155579,3.0209882259368896,-0.48537781834602356
-0.8740700483322144,2.9857442378997803,-0.4837261736392975
-0.8357012867927551,2.9317779541015625,-0.4788444936275482
-0.7994181513786316,2.881139039993286,-0.4741075932979584
-0.7628892064094543,2.8264338970184326,-0.4685837924480438
-0.73227858543396,2.7899842262268066,-0.46594950556755066
-0.7012205123901367,2.749544858932495,-0.46251341700553894
-0.6693928241729736,2.705233573913574,-0.45807868242263794
-0.646675705909729,2.694281816482544,-0.4591909646987915
-0.6164098978042603,2.649348497390747,-0.4544453024864197
-0.5893855094909668,2.6154096126556396,-0.45150649547576904
-0.5660617351531982,2.5963613986968994,-0.45076674222946167
-0.5434993505477905,2.580958127975464,-0.4506315290927887
-0.5177222490310669,2.546443223953247,-0.44707539677619934
-0.4954560399055481,2.5268096923828125,-0.4460899233818054
-0.4748768210411072,2.5146024227142334,-0.44618940353393555
-0.4482690095901489,2.468202590942383,-0.44000351428985596
-0.4306447207927704,2.4708783626556396,-0.44258108735084534
-0.4070426821708679,2.4354372024536133,-0.43827617168426514
-0.3936857581138611,2.460566520690918,-0.4448044002056122
-0.37238067388534546,2.4362757205963135,-0.44208648800849915
-0.35420647263526917,2.430835723876953,-0.44278737902641296
-0.33270254731178284,2.402447462081909,-0.43932926654815674
-0.3139321208000183,2.3890936374664307,-0.43857815861701965
-0.29626739025115967,2.383291006088257,-0.43887758255004883
-0.2769033908843994,2.3621106147766113,-0.4362694025039673
-0.2599896192550659,2.3598709106445312,-0.4371633529663086
-0.2419564127922058,2.3460464477539062,-0.4359202980995178
-0.22603358328342438,2.35508394241333,-0.4387792944908142
-0.20822949707508087,2.3410847187042236,-0.4370936155319214
-0.19063185155391693,2.3269543647766113,-0.43539270758628845
-0.17329490184783936,2.312692880630493,-0.4336726665496826
-0.15772688388824463,2.321289539337158,-0.4362492561340332
-0.13987940549850464,2.299217700958252,-0.43266183137893677
-0.1255231648683548,2.3306667804718018,-0.4391593933105469
-0.10967520624399185,2.339014768600464,-0.44133424758911133
-0.0924743264913559,2.3165714740753174,-0.437717080116272
-0.07610967010259628,2.3093996047973633,-0.43672260642051697
-0.05994177609682083,2.3174993991851807,-0.43846774101257324
-0.04396706819534302,2.3254804611206055,-0.44020941853523254
-0.027792518958449364,2.3256750106811523,-0.4404991567134857
-0.011637890711426735,2.3334507942199707,-0.4421510398387909
0.0045905266888439655,2.3335044384002686,-0.4419971704483032
0.02131464332342148,2.3564705848693848,-0.4462008476257324
0.0378255769610405,2.3639698028564453,-0.4474983513355255
0.054687801748514175,2.3828649520874023,-0.45097365975379944
0.07125803083181381,2.382523536682129,-0.45046478509902954
0.0881088599562645,2.3897550106048584,-0.4513172507286072
0.10538140684366226,2.4045379161834717,-0.4536134898662567
0.12316139042377472,2.4191834926605225,-0.45589128136634827
0.14085140824317932,2.4337470531463623,-0.45799750089645386
0.15949109196662903,2.4597280025482178,-0.4619790315628052
0.1782233715057373,2.4817402362823486,-0.4652191996574402
0.19608165323734283,2.4882988929748535,-0.4655730724334717
0.21502356231212616,2.5023581981658936,-0.4673289656639099
0.23633524775505066,2.543153762817383,-0.4736369550228119
0.2570784091949463,2.5723154544830322,-0.47775569558143616
0.2749897241592407,2.570755958557129,-0.47617456316947937
0.29637330770492554,2.599609375,-0.4802348017692566
0.3226388990879059,2.6626431941986084,-0.4902840256690979
0.34313100576400757,2.675966262817383,-0.4909757673740387
0.36844122409820557,2.7234184741973877,-0.4979128837585449
0.3885100185871124,2.7287886142730713,-0.4971395432949066
0.4120737314224243,2.7568418979644775,-0.5004180669784546
0.4327790439128876,2.761939525604248,-0.49910399317741394
0.46753695607185364,2.8542256355285645,-0.5135276913642883
0.49197739362716675,2.8779296875,-0.515536367893219
0.5174897909164429,2.9052176475524902,-0.5181629657745361
0.5475332140922546,2.955076217651367,-0.5244027376174927
0.5775526762008667,3.0009121894836426,-0.5297626852989197
0.6131569147109985,3.0690691471099854,-0.5389251112937927
0.6510293483734131,3.1444852352142334,-0.5492863059043884
0.6883023381233215,3.2120633125305176,-0.55796217918396
0.7239876985549927,3.2680745124816895,-0.5642445683479309
0.7630628347396851,3.3350305557250977,-0.5723055005073547
0.8089643716812134,3.424013614654541,-0.5839196443557739
0.8502554893493652,3.4901747703552246,-0.5915194153785706
0.8904598951339722,3.5485825538635254,-0.5972630381584167
0.9527580142021179,3.6887528896331787,-0.6165480017662048
1.0102598667144775,3.8021557331085205,-0.6310558915138245
1.0577224493026733,3.87019419670105,-0.637751579284668
1.124321699142456,4.004871845245361,-0.6549018025398254
1.1788954734802246,4.090686321258545,-0.6636801958084106
1.2391875982284546,4.190752029418945,-0.6745290160179138
1.2899173498153687,4.25321102142334,-0.6790941953659058
1.3224389553070068,4.2524309158325195,-0.6731709837913513
1.3449183702468872,4.2221903800964355,-0.6624956130981445
1.3742895126342773,4.213846683502197,-0.655306339263916
1.4038869142532349,4.205203533172607,-0.6480462551116943
1.4183416366577148,4.152482986450195,-0.6339927911758423
1.4382115602493286,4.118130207061768,-0.6225665807723999
1.2305411100387573,3.446035146713257,-0.5156987309455872
1.2520413398742676,3.4309957027435303,-0.5082486867904663
1.2788267135620117,3.4303064346313477,-0.5029252767562866
1.299774408340454,3.4151132106781006,-0.49522271752357483
1.320568561553955,3.3997790813446045,-0.4875466823577881
1.3419660329818726,3.38403582572937,-0.4796830713748932
1.3687454462051392,3.382605791091919,-0.4739350974559784
1.3892170190811157,3.3668391704559326,-0.46597933769226074
1.4155062437057495,3.365241765975952,-0.45998913049697876
1.4359859228134155,3.3490798473358154,-0.4519655108451843
1.4630820751190186,3.346766710281372,-0.4456920921802521
1.4830191135406494,3.330453395843506,-0.4374929666519165
1.5155256986618042,3.3423125743865967,-0.43297189474105835
1.553510308265686,3.3642914295196533,-0.42958739399909973
1.5804965496063232,3.361238956451416,-0.42290639877319336
1.5972886085510254,3.3370625972747803,-0.41334179043769836
1.6099296808242798,3.306030750274658,-0.40312138199806213
1.6037510633468628,3.2364463806152344,-0.3882327973842621
1.6108366250991821,3.1947367191314697,-0.37681859731674194
1.625584363937378,3.1707067489624023,-0.3674808740615845
1.6777944564819336,3.218977689743042,-0.3664478361606598
1.7190278768539429,3.24214506149292,-0.3620699942111969
1.7379167079925537,3.224134683609009,-0.35312792658805847
1.720555305480957,3.141510486602783,-0.3372400403022766
1.7193785905838013,3.0897014141082764,-0.32485294342041016
1.7699490785598755,3.1291046142578125,-0.32182708382606506
1.3535239696502686,2.3550174236297607,-0.23666274547576904
1.2988289594650269,2.2253990173339844,-0.21843771636486053
0.9450420141220093,1.594014286994934,-0.15260887145996094
0.960151731967926,1.594483494758606,-0.1487288475036621
0.9708097577095032,1.5884323120117188,-0.144222229719162
0.9838746786117554,1.5853793621063232,-0.13983789086341858
0.9950675368309021,1.578794002532959,-0.13506251573562622
1.0140308141708374,1.5856175422668457,-0.13140083849430084
1.0140509605407715,1.562817096710205,-0.12527139484882355
1.0250388383865356,1.5560272932052612,-0.12026479840278625
1.0377843379974365,1.5526334047317505,-0.11543335020542145
1.0371087789535522,1.5299508571624756,-0.10926882177591324
2.5357179641723633,3.6852986812591553,-0.2516079545021057
2.564514636993408,3.675685405731201,-0.23930837213993073
2.5889339447021484,3.659353017807007,-0.22633041441440582
2.6012988090515137,3.6226322650909424,-0.21120570600032806
2.6039788722991943,3.5781259536743164,-0.19606396555900574
2.6770031452178955,3.6269779205322266,-0.18518026173114777
2.619840145111084,3.711071014404297,0.4251996874809265
2.6053261756896973,3.74822998046875,0.44030457735061646
2.570972442626953,3.7609381675720215,0.45240819454193115
1.0610167980194092,1.5765149593353271,0.1937538981437683
1.0621676445007324,1.6031839847564697,0.2009626030921936
1.0495785474777222,1.6108484268188477,0.2057599127292633
1.0166468620300293,1.585314154624939,0.2060500681400299
1.0259791612625122,1.6248302459716797,0.21465834975242615
1.0090352296829224,1.625699520111084,0.21813422441482544
0.9843624830245972,1.6129753589630127,0.21966470777988434
0.980891227722168,1.6326885223388672,0.2253543734550476
0.9649755358695984,1.6326103210449219,0.22826014459133148
1.347856879234314,2.3199896812438965,0.328350692987442
1.3569985628128052,2.3765928745269775,0.3404271602630615
1.8127650022506714,3.226747989654541,0.46730950474739075
1.761033058166504,3.1880605220794678,0.4665811359882355
1.7904189825057983,3.2990903854370117,0.48765838146209717
1.7582237720489502,3.2978312969207764,0.49226438999176025
2.395806074142456,4.571534156799316,0.6887370347976685
2.3629677295684814,4.58730411529541,0.6972810626029968
2.328401803970337,4.603687286376953,0.7055386304855347
2.2971582412719727,4.626729488372803,0.7148652076721191
2.260349988937378,4.6349897384643555,0.7217084765434265
2.2303357124328613,4.656854152679443,0.7306881546974182
2.1996076107025146,4.678814888000488,0.7392929792404175
2.1646900177001953,4.693906784057617,0.7466572523117065
2.1296651363372803,4.708727836608887,0.7540199160575867
2.0964109897613525,4.722509384155273,0.7609885931015015
2.0662341117858887,4.743098735809326,0.7690872550010681
1.9960949420928955,4.675491809844971,0.7625017166137695
1.7409642934799194,4.161698341369629,0.6824350357055664
1.7102733850479126,4.1734724044799805,0.6881126165390015
1.6807390451431274,4.184554576873779,0.6935608983039856
1.6540361642837524,4.202577114105225,0.7001907229423523
1.6257929801940918,4.220981121063232,0.70664381980896
1.5920491218566895,4.224737167358398,0.7104438543319702
1.5609633922576904,4.235477924346924,0.7154554724693298
1.53867769241333,4.267416477203369,0.7239956259727478
1.5061246156692505,4.270018577575684,0.7275670170783997
1.4777734279632568,4.287263870239258,0.7335477471351624
1.4489893913269043,4.304468631744385,0.7391610145568848
1.421278476715088,4.325123310089111,0.7454134225845337
1.390028476715088,4.334519386291504,0.7497528195381165
1.359627366065979,4.343421936035156,0.7539652585983276
1.3286027908325195,4.352267265319824,0.7582553029060364
1.3039344549179077,4.38317346572876,0.7659680843353271
1.2764618396759033,4.406641483306885,0.7723091244697571
1.2466721534729004,4.422506809234619,0.7773663401603699
1.2172679901123047,4.438027381896973,0.7823711633682251
1.1881643533706665,4.453235149383545,0.7873340845108032
1.152603030204773,4.44600772857666,0.7884027361869812
1.126321792602539,4.476001262664795,0.7955281138420105
1.0959620475769043,4.490894317626953,0.8000198006629944
1.0654935836791992,4.5055670738220215,0.8045169115066528
1.0362554788589478,4.523669242858887,0.8096442222595215
1.0024592876434326,4.522834300994873,0.8114355206489563
0.9724505543708801,4.536701679229736,0.8158495426177979
0.8612857460975647,4.16260290145874,0.7498582005500793
0.7676015496253967,3.8475890159606934,0.6943281292915344
0.737959623336792,3.841247081756592,0.6944308280944824
0.849478006362915,4.598607540130615,0.8328846096992493
0.8200947642326355,4.619106769561768,0.8381382822990417
0.7917584180831909,4.646996021270752,0.8447863459587097
0.7594500780105591,4.655920028686523,0.8474642634391785
0.7287951111793518,4.676025390625,0.8521854281425476
0.6961961388587952,4.688399791717529,0.8555648922920227
0.6653586626052856,4.708048343658447,0.860292911529541
0.6335160732269287,4.719841480255127,0.8636239767074585
0.6035321950912476,4.746660232543945,0.8697525262832642
0.5719392895698547,4.765771389007568,0.8740886449813843
0.5391746759414673,4.777073383331299,0.8768584132194519
0.5060432553291321,4.792032718658447,0.8803606033325195
0.4737963378429413,4.810520648956299,0.8845442533493042
0.44238999485969543,4.836410999298096,0.8901298642158508
0.4093526005744934,4.846778869628906,0.8929071426391602
0.3766843378543854,4.8646321296691895,0.8968628644943237
0.34248220920562744,4.874721050262451,0.8990404605865479
0.30948448181152344,4.896036148071289,0.9033292531967163
0.27512723207473755,4.897947311401367,0.9040840864181519
0.242920383810997,4.937973499298096,0.9119185209274292
0.20854926109313965,4.9394049644470215,0.9126731753349304
0.17463918030261993,4.971327304840088,0.919116199016571
0.13991527259349823,4.97239875793457,0.9192652106285095
0.10548465698957443,4.984746932983398,0.9215439558029175
0.07110466063022614,5.0160603523254395,0.927374005317688
0.036238525062799454,5.031770706176758,0.9303649067878723
0.0006449089269153774,5.039555072784424,0.9319382905960083
-0.034537483006715775,5.0624566078186035,0.9363510012626648
-0.07006601989269257,5.089018821716309,0.9411103129386902
-0.10517334192991257,5.080821514129639,0.939197838306427
-0.14107659459114075,5.1030988693237305,0.9429620504379272
-0.1770285665988922,5.1174445152282715,0.9453036189079285
-0.21259844303131104,5.100804805755615,0.9419623017311096
-0.2503576874732971,5.1453351974487305,0.9499664306640625
-0.28802549839019775,5.178098201751709,0.9557638168334961
-0.27421876788139343,4.382508277893066,0.808242917060852
-0.3021185100078583,4.346192359924316,0.8009175658226013
-0.3280051052570343,4.282845497131348,0.7886525988578796
-0.3621896207332611,4.3342461585998535,0.7975656986236572
-0.38744837045669556,4.278227806091309,0.7867494225502014
-0.41381192207336426,4.2411885261535645,0.7794712781906128
-0.4374814033508301,4.184963703155518,0.7683477997779846
-0.4629393517971039,4.147694110870361,0.7605766654014587
-0.4851340055465698,4.091241836547852,0.7493595480918884
-0.5070972442626953,4.038484573364258,0.7388746738433838
-0.5290823578834534,3.9893977642059326,0.7291094064712524
-0.5509853959083557,3.943997383117676,0.7200687527656555
-0.5743070244789124,3.909871816635132,0.7129642367362976
-0.5946872234344482,3.8643763065338135,0.7035191655158997
-0.6150810718536377,3.822575569152832,0.6948032975196838
-0.6336555480957031,3.7730867862701416,0.684746503829956
-0.6538538336753845,3.7348344326019287,0.6767721176147461
-0.6757010221481323,3.707814931869507,0.6708782315254211
-0.69480961561203,3.6654717922210693,0.6622323989868164
-0.7116974592208862,3.619513511657715,0.6525538563728333
-0.7318288087844849,3.5923352241516113,0.6463158130645752
-0.7428910732269287,3.5236353874206543,0.6326695084571838
-0.7622863054275513,3.496248722076416,0.6264904737472534
-0.7811607122421265,3.4648635387420654,0.6196084022521973
-0.8079485297203064,3.4709513187408447,0.619484543800354
-0.818205714225769,3.409641742706299,0.6070176959037781
-0.8414222002029419,3.4044315814971924,0.6045194864273071
-0.8541653156280518,3.3580188751220703,0.5947517156600952
-0.8737294673919678,3.3375115394592285,0.5895865559577942
-0.8909420371055603,3.309479236602783,0.58314448595047
-0.9057866334915161,3.2739291191101074,0.5754271149635315
-0.9207390546798706,3.2422170639038086,0.568134605884552
-0.9383901953697205,3.2215967178344727,0.5627453923225403
-0.9583671689033508,3.2081642150878906,0.5586212873458862
-0.9645674824714661,3.150416374206543,0.5468472838401794
-0.9888275265693665,3.1514551639556885,0.5452998876571655
-1.0002057552337646,3.1119322776794434,0.5367718935012817
-1.0140430927276611,3.0836398601531982,0.529918372631073
-1.0302677154541016,3.0625298023223877,0.5242632031440735
-1.0396498441696167,3.0232059955596924,0.5155771374702454
-1.0579421520233154,3.009209632873535,0.5112180113792419
-1.0816328525543213,3.0095129013061523,0.5092820525169373
-1.0946170091629028,2.9807090759277344,0.5024022459983826
-1.1092935800552368,2.959378242492676,0.4965362250804901
-1.1295816898345947,2.952277660369873,0.4930538237094879
-1.1200145483016968,2.869638681411743,0.47707390785217285
-1.13441002368927,2.8479371070861816,0.47123074531555176
-1.1514625549316406,2.8333210945129395,0.4666000306606293
-1.1545047760009766,2.786742687225342,0.4565642476081848
-1.1149240732192993,2.6406009197235107,0.4302452504634857
-1.1326385736465454,2.6336145401000977,0.4267852008342743
-1.1477532386779785,2.619203805923462,0.42207643389701843
-1.1724833250045776,2.625750780105591,0.4207186698913574
-1.200214147567749,2.6392905712127686,0.4203564524650574
-1.208420991897583,2.6106295585632324,0.4130638837814331
-1.2423648834228516,2.638071298599243,0.4146980345249176
-1.253806233406067,2.6161365509033203,0.4084949791431427
-1.2654495239257812,2.5939555168151855,0.4022340178489685
-1.2764779329299927,2.5719199180603027,0.39594483375549316
-1.283430576324463,2.54313588142395,0.3884464204311371
-1.325097918510437,2.5833871364593506,0.3915296196937561
-1.3088666200637817,2.509629011154175,0.37726977467536926
-1.3228858709335327,2.4941675662994385,0.3718152642250061
-1.3324302434921265,2.47216534614563,0.3652792274951935
-1.3375921249389648,2.443577766418457,0.357732892036438
-1.346474528312683,2.421644926071167,0.3511654734611511
-1.3597229719161987,2.406024217605591,0.34539446234703064
-1.370750069618225,2.387042760848999,0.339155912399292
-1.3786178827285767,2.3652639389038086,0.33236733078956604
-1.390203833580017,2.350147247314453,0.32656073570251465
-1.4027289152145386,2.3343658447265625,0.32043859362602234
-1.4354116916656494,2.351576805114746,0.3188035786151886
-1.4181618690490723,2.290008783340454,0.30636224150657654
-1.449651837348938,2.3076705932617188,0.3045625388622284
-1.4655693769454956,2.2983334064483643,0.2989346981048584
-1.456734299659729,2.249371290206909,0.2880344092845917
-1.4841430187225342,2.2600557804107666,0.28472471237182617
-1.4837363958358765,2.228442907333374,0.2761092483997345
-1.5016850233078003,2.2218527793884277,0.2702242434024811
-1.4793710708618164,2.157860279083252,0.25738754868507385
-1.5112254619598389,2.1744155883789062,0.25405868887901306
-1.4991892576217651,2.1266438961029053,0.2430165410041809
-1.5025981664657593,2.101140260696411,0.23440922796726227
-1.5159685611724854,2.0922656059265137,0.22760260105133057
-1.530078649520874,2.0827457904815674,0.22038280963897705
-1.5349681377410889,2.0605506896972656,0.2114996314048767
-1.4928427934646606,2.10776948928833,-0.1256977617740631
-1.4833225011825562,2.1282615661621094,-0.1344459503889084
-1.4941885471343994,2.1771485805511475,-0.14480923116207123
-1.482312560081482,2.1941378116607666,-0.15309055149555206
-1.4741744995117188,2.2178125381469727,-0.1617860347032547
-1.4669009447097778,2.240750551223755,-0.17004331946372986
-1.4545798301696777,2.2574846744537354,-0.17784138023853302
-1.4396262168884277,2.2710797786712646,-0.1854260265827179
-1.4355918169021606,2.300652027130127,-0.19411002099514008
-1.418644905090332,2.3105461597442627,-0.20105935633182526
-1.413387417793274,2.3404929637908936,-0.20980988442897797
-1.4047062397003174,2.363248109817505,-0.21768991649150848
-1.3914986848831177,2.379453182220459,-0.2249804586172104
-1.3618577718734741,2.3689916133880615,-0.22981391847133636
-1.3563107252120972,2.398404598236084,-0.23824012279510498
-1.3316681385040283,2.3937442302703857,-0.2432044893503189
-1.3028191328048706,2.3823554515838623,-0.2473614662885666
-1.2780224084854126,2.377454996109009,-0.25208860635757446
-1.2481508255004883,2.3618834018707275,-0.25554269552230835
-1.2363382577896118,2.380596876144409,-0.26255714893341064
-1.225883960723877,2.4028096199035645,-0.26999154686927795
-1.215611219406128,2.4247705936431885,-0.2773434817790985
-1.1984628438949585,2.4326348304748535,-0.283051460981369
-1.1905736923217773,2.4617488384246826,-0.29125192761421204
-1.1826177835464478,2.490722417831421,-0.29945334792137146
-1.1731536388397217,2.515955924987793,-0.30716437101364136
-1.1988449096679688,2.6188526153564453,-0.32453545928001404
-1.165489912033081,2.5949177742004395,-0.3262116014957428
-1.1763792037963867,2.670048236846924,-0.340412974357605
-1.1218324899673462,2.59578013420105,-0.3355056643486023
-1.116989254951477,2.635122060775757,-0.34507378935813904
-1.1188033819198608,2.69252610206604,-0.35705554485321045
-1.1432945728302002,2.8074748516082764,-0.37693414092063904
-1.254219889640808,3.1422595977783203,-0.4269671142101288
-1.2554792165756226,3.2117371559143066,-0.4415917694568634
-1.2642444372177124,3.3030381202697754,-0.459214448928833
-1.2378144264221191,3.3038978576660156,-0.46439793705940247
-1.2251981496810913,3.3407511711120605,-0.47460436820983887
-1.210701584815979,3.3739726543426514,-0.4843093454837799
-1.1912745237350464,3.396428346633911,-0.4924100637435913
-1.1744951009750366,3.4259579181671143,-0.5015344619750977
-1.1503599882125854,3.433277130126953,-0.5073884725570679
-1.1357556581497192,3.4698452949523926,-0.517581045627594
-1.1015759706497192,3.4475529193878174,-0.5187215209007263
-1.0569825172424316,3.3918614387512207,-0.5148223042488098
-1.0195980072021484,3.35402512550354,-0.513385534286499
-0.9817729592323303,3.312121868133545,-0.5112192630767822
-0.9389868378639221,3.251432180404663,-0.5056896805763245
-0.8981368541717529,3.194056510925293,-0.5005221366882324
-0.8603276610374451,3.1437065601348877,-0.49631649255752563
-0.8279305696487427,3.1117308139801025,-0.4949786067008972
-0.791495144367218,3.060756206512451,-0.49021026492118835
-0.7576114535331726,3.016972064971924,-0.48637789487838745
-0.7180139422416687,2.9466323852539062,-0.4781547486782074
-0.6973451375961304,2.9509713649749756,-0.48197075724601746
-0.6581535339355469,2.876312732696533,-0.4727417230606079
-0.6320182681083679,2.8539786338806152,-0.4717097580432892
-0.6118808388710022,2.857818126678467,-0.4750030040740967
-0.5840435028076172,2.8237380981445312,-0.4719644784927368
-0.5552256107330322,2.78185772895813,-0.4675649404525757
-0.5302405953407288,2.7587876319885254,-0.465920090675354
-0.5066280961036682,2.7392499446868896,-0.4648105204105377
-0.4833999574184418,2.719510078430176,-0.46364349126815796
-0.4670334458351135,2.737541675567627,-0.4689229726791382
-0.43856891989707947,2.683307647705078,-0.4615701138973236
-0.41589754819869995,2.6631417274475098,-0.45990481972694397
-0.39499738812446594,2.6503686904907227,-0.4594819247722626
-0.3732548654079437,2.629809856414795,-0.4577018916606903
-0.3471793532371521,2.5747666358947754,-0.4498097896575928
-0.32816675305366516,2.5691986083984375,-0.4501928389072418
-0.309268981218338,2.5634894371032715,-0.4505635201931
-0.29020920395851135,2.5576674938201904,-0.45094841718673706
-0.27237826585769653,2.559328317642212,-0.45264580845832825
-0.25375044345855713,2.5532681941986084,-0.45265793800354004
-0.23662659525871277,2.5624139308929443,-0.45528024435043335
-0.21809937059879303,2.556112766265869,-0.4551788568496704
-0.19999399781227112,2.5573649406433105,-0.45645806193351746
-0.18271735310554504,2.5661685466766357,-0.45894768834114075
-0.16434341669082642,2.5595569610595703,-0.45839521288871765
-0.1460506170988083,2.552816390991211,-0.45783865451812744
-0.12867103517055511,2.5613043308258057,-0.4600341320037842
-0.11021778732538223,2.55431866645813,-0.45948442816734314
-0.09243233501911163,2.554947853088379,-0.4599083960056305
-0.0741000846028328,2.5362489223480225,-0.4568139910697937
-0.05661143735051155,2.5443246364593506,-0.45856332778930664
-0.02122982032597065,2.58705472946167,-0.46673884987831116
-0.003275503171607852,2.6179094314575195,-0.47219759225845337
0.014776277355849743,2.5871315002441406,-0.4665619730949402
3.039966106414795,239.9935302734375,-43.27460861206055
0.05074015259742737,2.5867080688476562,-0.4663853049278259
0.06872822344303131,2.58638596534729,-0.4658670425415039
0.08805035799741745,2.6166739463806152,-0.47084590792655945
0.10749538987874985,2.646829605102539,-0.47582101821899414
0.12752597033977509,2.6806836128234863,-0.48147353529930115
