X,Y,Z
-0.7690267562866211,2.848743438720703,-0.4723184406757355
-0.7323560118675232,2.7899603843688965,-0.4659712314605713
-0.6983495950698853,2.738370656967163,-0.4604499638080597
-0.6712630391120911,2.7127254009246826,-0.45927003026008606
-0.6449865698814392,2.6867589950561523,-0.45792412757873535
-0.6226191520690918,2.6755754947662354,-0.45906099677085876
-0.5910194516181946,2.622965097427368,-0.4526521861553192
-0.5618138313293457,2.57759428024292,-0.44741278886795044
-0.5465713739395142,2.5960497856140137,-0.4532691240310669
-0.5161327719688416,2.5388927459716797,-0.4458467662334442
-0.4938848614692688,2.519285202026367,-0.4446882903575897
-0.4761756360530853,2.5222132205963135,-0.4473972022533417
-0.45092639327049255,2.4833664894104004,-0.4426767826080322
-0.4319651424884796,2.478444814682007,-0.4440111815929413
-0.4070379137992859,2.4354305267333984,-0.4383164048194885
-0.3899851441383362,2.4378230571746826,-0.44051486253738403
-0.3723376989364624,2.436293601989746,-0.4420234262943268
-0.3558576703071594,2.442241907119751,-0.44490841031074524
-0.3348129093647003,2.417649269104004,-0.442264199256897
-0.3128703534603119,2.38150691986084,-0.43703708052635193
-0.29334530234336853,2.360441207885742,-0.43455567955970764
-0.27550822496414185,2.3506693840026855,-0.43415147066116333
-0.26038166880607605,2.3636739253997803,-0.4379720389842987
-0.24192051589488983,2.3460566997528076,-0.4358839988708496
-0.22452189028263092,2.3398265838623047,-0.4357629418373108
-0.20683042705059052,2.3257970809936523,-0.43418264389038086
-0.19188953936100006,2.3422529697418213,-0.4383123815059662
-0.1732833832502365,2.3126778602600098,-0.4337562322616577
-0.15822511911392212,2.328993558883667,-0.437469482421875
-0.14031073451042175,2.30690336227417,-0.4340003430843353
-0.12549306452274323,2.33066725730896,-0.43916651606559753
-0.10893144458532333,2.323655843734741,-0.43855875730514526
-0.092462919652462,2.3165931701660156,-0.43760353326797485
-0.07634792476892471,2.317103862762451,-0.43800774216651917
-0.059944998472929,2.3175084590911865,-0.4384191334247589
-0.044115714728832245,2.3331425189971924,-0.44172945618629456
-0.027798134833574295,2.3256728649139404,-0.44051098823547363
-0.011626956053078175,2.3258163928985596,-0.4404764771461487
0.0045598773285746574,2.333523750305176,-0.4418954849243164
0.021349381655454636,2.364142894744873,-0.4476742148399353
0.037559691816568375,2.348593235015869,-0.44473227858543396
0.054422855377197266,2.3713855743408203,-0.44862794876098633
0.07127906382083893,2.3825483322143555,-0.4503307342529297
0.08811508864164352,2.389756917953491,-0.4513055682182312
0.10537239164113998,2.40451717376709,-0.453725129365921
0.12350426614284515,2.426856756210327,-0.4573201835155487
0.14034080505371094,2.426116704940796,-0.4563889503479004
0.15915937721729279,2.4559104442596436,-0.4612137973308563
0.17709960043430328,2.4664087295532227,-0.46242061257362366
0.1960970014333725,2.4882736206054688,-0.4657024145126343
0.21439023315906525,2.4947428703308105,-0.4656904339790344
0.23532097041606903,2.531696319580078,-0.4713912606239319
0.2556304931640625,2.557018518447876,-0.4749186635017395
0.2758755683898926,2.5783660411834717,-0.4777093231678009
0.29642927646636963,2.599621057510376,-0.4801369607448578
0.3189738988876343,2.6321537494659424,-0.4844915270805359
0.347063273191452,2.706468343734741,-0.4965192675590515
0.3638750910758972,2.689115524291992,-0.49171319603919983
0.39074471592903137,2.7439959049224854,-0.4999488592147827
0.41323307156562805,2.7644824981689453,-0.5015844106674194
0.4363880753517151,2.78474497795105,-0.5031301975250244
0.4570617973804474,2.789682626724243,-0.5019410252571106
0.3993584215641022,2.335676431655884,-0.4185292422771454
0.5228846073150635,2.935549020767212,-0.523404598236084
0.5460909605026245,2.947540521621704,-0.5229225158691406
0.5819222927093506,3.0235931873321533,-0.5337386131286621
0.6162503361701965,3.0841386318206787,-0.5416633486747742
0.6471201777458191,3.1256439685821533,-0.5459406971931458
0.6858185529708862,3.200813055038452,-0.5558094382286072
0.72395259141922,3.2680938243865967,-0.5641787648200989
0.7631584405899048,3.33500075340271,-0.5723518133163452
0.8072339296340942,3.4164888858795166,-0.5827228426933289
0.8428733348846436,3.460270643234253,-0.5862404108047485
0.885701060295105,3.5299172401428223,-0.5940321683883667
0.9508897662162781,3.6812667846679688,-0.6153172254562378
1.0034366846084595,3.7760093212127686,-0.6268688440322876
1.0535352230072021,3.8553645610809326,-0.6351568102836609
1.1199818849563599,3.9900801181793213,-0.6523412466049194
1.1660009622573853,4.046205997467041,-0.6564357280731201
1.2393158674240112,4.19070291519165,-0.6745960712432861
1.2853577136993408,4.23846435546875,-0.6766660809516907
1.3199323415756226,4.2451491355896,-0.6718243360519409
1.3471835851669312,4.229590892791748,-0.6635721921920776
1.3744982481002808,4.213780879974365,-0.6552901864051819
1.3966504335403442,4.183175086975098,-0.6446244716644287
1.425665020942688,4.17452335357666,-0.6371504068374634
1.4304300546646118,4.096282005310059,-0.6191813349723816
1.2255406379699707,3.431396961212158,-0.5134840607643127
1.2522417306900024,3.4309206008911133,-0.5082610249519348
1.2759783267974854,3.4231300354003906,-0.5017123222351074
1.2996628284454346,3.4151642322540283,-0.4951620399951935
1.3208107948303223,3.399693727493286,-0.48748597502708435
1.3422569036483765,3.383917808532715,-0.4797011911869049
1.368531584739685,3.3827054500579834,-0.4738425612449646
1.3889139890670776,3.366964101791382,-0.46597719192504883
1.4094971418380737,3.350951671600342,-0.4580334722995758
1.436148762702942,3.3490047454833984,-0.4520060122013092
1.4565520286560059,3.332700490951538,-0.44375452399253845
1.4795207977294922,3.3235182762145996,-0.43657511472702026
1.5156124830245972,3.3422770500183105,-0.43293923139572144
1.5603322982788086,3.3782389163970947,-0.4313746392726898
1.5835764408111572,3.3683764934539795,-0.4237252175807953
1.5937070846557617,3.330169677734375,-0.41247063875198364
1.610242247581482,3.3058905601501465,-0.40302422642707825
1.607633113861084,3.2432010173797607,-0.3889904320240021
1.6140539646148682,3.2018229961395264,-0.3775763511657715
1.6146595478057861,3.1501049995422363,-0.36510759592056274
1.6601755619049072,3.1843454837799072,-0.36241981387138367
1.7119226455688477,3.228318691253662,-0.3604801893234253
1.7375625371932983,3.2243261337280273,-0.35312390327453613
1.716701626777649,3.1347527503967285,-0.33650892972946167
1.7274681329727173,3.1030216217041016,-0.32613494992256165
1.7641217708587646,3.1189963817596436,-0.32072895765304565
1.3493623733520508,2.348428249359131,-0.2360256314277649
1.2911083698272705,2.2118823528289795,-0.2170770913362503
0.949152410030365,1.6006309986114502,-0.15322941541671753
0.9598933458328247,1.5946354866027832,-0.1487673819065094
0.9666303992271423,1.5818543434143066,-0.14365863800048828
0.9841399192810059,1.5852198600769043,-0.13977941870689392
0.9927632808685303,1.5756386518478394,-0.13480648398399353
1.009568691253662,1.5792129039764404,-0.13094481825828552
1.0164200067520142,1.5659319162368774,-0.12545831501483917
1.0270317792892456,1.5593814849853516,-0.1205260157585144
1.0353294610977173,1.5495779514312744,-0.11528274416923523
1.0418020486831665,1.536199688911438,-0.10960933566093445
2.522116184234619,3.666255474090576,-0.2502536177635193
2.559540033340454,3.6696341037750244,-0.23904430866241455
2.5897867679595947,3.65876841545105,-0.22602346539497375
2.6005353927612305,3.623173475265503,-0.21132417023181915
2.6061668395996094,3.581357002258301,-0.19629228115081787
2.6679019927978516,3.6142947673797607,-0.18447710573673248
2.638737916946411,3.7358317375183105,0.427974134683609
2.6088147163391113,3.755246162414551,0.4413090646266937
2.5674047470092773,3.753974676132202,0.4515096843242645
1.0526528358459473,1.563409447669983,0.19215111434459686
1.0617518424987793,1.603446125984192,0.20106831192970276
1.0411837100982666,1.5977704524993896,0.20413203537464142
1.0129904747009277,1.5784361362457275,0.20517650246620178
1.0338554382324219,1.6382181644439697,0.21642103791236877
1.0004621744155884,1.6127310991287231,0.216496542096138
0.9849299192428589,1.6126410961151123,0.21957559883594513
0.9850276112556458,1.639256477355957,0.2262575626373291
0.9724037051200867,1.6462332010269165,0.23017534613609314
1.3553131818771362,2.3335790634155273,0.33035823702812195
1.357675313949585,2.3762147426605225,0.3403695821762085
1.816611409187317,3.2334792613983154,0.46827441453933716
1.7638945579528809,3.1953237056732178,0.46763357520103455
1.7898269891738892,3.2993886470794678,0.4878140091896057
1.7627733945846558,3.304194211959839,0.4932112395763397
2.399928569793701,4.578112602233887,0.6897984147071838
2.3582589626312256,4.581020832061768,0.6962315440177917
2.327188014984131,4.604263782501221,0.7057791948318481
2.2943198680877686,4.619494438171387,0.7138231992721558
2.2582590579986572,4.627388000488281,0.7207080721855164
2.2333219051361084,4.664006233215332,0.7317497134208679
2.1984143257141113,4.6793670654296875,0.7393473982810974
2.1638877391815186,4.694248199462891,0.746837317943573
2.1340017318725586,4.715256214141846,0.7551171183586121
2.1006546020507812,4.729062557220459,0.7622451782226562
2.0625414848327637,4.736294269561768,0.7678394317626953
2.001128673553467,4.6901421546936035,0.7648290395736694
1.7404224872589111,4.161905765533447,0.6825499534606934
1.7139892578125,4.1802897453308105,0.689330518245697
1.6816048622131348,4.184178829193115,0.6937286257743835
1.6592506170272827,4.217132091522217,0.7025015950202942
1.6192951202392578,4.2069478034973145,0.7041870355606079
1.5939446687698364,4.232252597808838,0.7117633819580078
1.566897988319397,4.249731063842773,0.7179413437843323
1.5370638370513916,4.259773254394531,0.7229037880897522
1.5088462829589844,4.2772440910339355,0.7287682294845581
1.4821337461471558,4.302105903625488,0.7358686923980713
1.450772762298584,4.312005519866943,0.7404094338417053
1.4213619232177734,4.325087547302246,0.7454632520675659
1.3909597396850586,4.334204196929932,0.749845564365387
1.3648966550827026,4.357900619506836,0.756658673286438
1.3282123804092407,4.352416515350342,0.7580797076225281
1.3053909540176392,4.3907976150512695,0.767149806022644
1.2757898569107056,4.406826019287109,0.7723645567893982
1.2449288368225098,4.414976596832275,0.7761659622192383
1.2139701843261719,4.422919750213623,0.7799724340438843
1.188495397567749,4.453126430511475,0.7874454855918884
1.1520136594772339,4.446203231811523,0.7881613969802856
1.1237671375274658,4.468722343444824,0.7941043376922607
1.0954915285110474,4.491004467010498,0.8000447154045105
1.0640742778778076,4.497978210449219,0.803263247013092
1.0352396965026855,4.515972137451172,0.808491051197052
1.002661108970642,4.522790431976318,0.8114317059516907
20.75665855407715,96.89217376708984,17.415918350219727
0.9378934502601624,4.5356950759887695,0.8168306350708008
0.7672796845436096,3.847663640975952,0.6942688226699829
0.7382018566131592,3.841196060180664,0.6944550275802612
0.850048303604126,4.598473072052002,0.8330463767051697
0.8216422200202942,4.626644134521484,0.8395065069198608
0.7913355231285095,4.64714241027832,0.8443777561187744
0.7589232325553894,4.656055450439453,0.847191333770752
0.7270667552947998,4.66853141784668,0.8506970405578613
0.6950712203979492,4.680788040161133,0.8542096614837646
0.6646307706832886,4.70035457611084,0.8590806126594543
0.634802520275116,4.727402687072754,0.865136444568634
0.6023563742637634,4.739116191864014,0.86805659532547
0.5716597437858582,4.765862464904785,0.8737775087356567
0.5388395190238953,4.7771382331848145,0.8767122030258179
0.5053254961967468,4.784379959106445,0.8789569735527039
0.47425833344459534,4.810448169708252,0.8846913576126099
0.4421272277832031,4.828670024871826,0.8889842629432678
0.40882688760757446,4.839144229888916,0.8913190364837646
0.3765871822834015,4.864710330963135,0.896480143070221
0.3417915105819702,4.8671040534973145,0.8974267840385437
0.30895525217056274,4.888375282287598,0.9018893837928772
0.27535608410835266,4.897907257080078,0.9042304158210754
0.2420719712972641,4.9148783683776855,0.9079905152320862
0.2091020941734314,4.947057723999023,0.9141619801521301
0.1747044026851654,4.971395015716553,0.9187379479408264
0.1397799253463745,4.964756011962891,0.9176332950592041
0.10552575439214706,4.9847540855407715,0.921497106552124
0.07127543538808823,5.016036033630371,0.9274929761886597
0.036426905542612076,5.031716346740723,0.9306514263153076
0.0007918310002423823,5.031821250915527,0.9307968020439148
-0.03443455323576927,5.062489032745361,0.9361752271652222
-0.06992918252944946,5.081387996673584,0.9394198656082153
-0.10529057681560516,5.080834865570068,0.9391128420829773
-0.1414981484413147,5.110754013061523,0.9444828033447266
-0.1775374710559845,5.125060558319092,0.9470119476318359
-0.2141554355621338,5.13140869140625,0.9481149911880493
-0.24935071170330048,5.122285842895508,0.9458351135253906
-0.2883993685245514,5.185823917388916,0.9569019079208374
-0.27370449900627136,4.374858856201172,0.8067366480827332
-0.2984124422073364,4.292525291442871,0.7910776138305664
-0.33053117990493774,4.313443660736084,0.794482946395874
-0.3624756336212158,4.334161758422852,0.7978925108909607
-0.3890205919742584,4.293471813201904,0.7898157835006714
-0.4130464792251587,4.233566761016846,0.7779303193092346
-0.4374162554740906,4.184999942779541,0.768187403678894
-0.4620676040649414,4.14006233215332,0.7591505646705627
-0.4844339191913605,4.083567142486572,0.7480575442314148
-0.5066075921058655,4.030759811401367,0.7376919388771057
-0.5305524468421936,3.9968953132629395,0.7308403253555298
-0.5536883473396301,3.963026285171509,0.7235399484634399
-0.5740660429000854,3.909942626953125,0.7127691507339478
-0.594434380531311,3.864426851272583,0.7034550905227661
-0.6149836778640747,3.8225815296173096,0.6948567032814026
-0.6365066170692444,3.7881760597229004,0.6876524686813354
-0.6582435965538025,3.7574403285980225,0.6811617016792297
-0.6744393706321716,3.700209856033325,0.6696003675460815
-0.694458544254303,3.6655776500701904,0.662013590335846
-0.7128564715385437,3.6271438598632812,0.6538166999816895
-0.7315669655799866,3.5923852920532227,0.6463330984115601
-0.7462862133979797,3.538630247116089,0.6354684233665466
-0.767672598361969,3.5186684131622314,0.6307247877120972
-0.7821979522705078,3.4685521125793457,0.6204025149345398
-0.8032171130180359,3.4523234367370605,0.615983247756958
-0.8213580846786499,3.424736738204956,0.6095807552337646
-0.8391240239143372,3.3970654010772705,0.6032128930091858
-0.8523727059364319,3.350515127182007,0.5935132503509521
-0.8741756081581116,3.337364912033081,0.5897567272186279
-0.8931782841682434,3.3168258666992188,0.5846081376075745
-0.9095330834388733,3.2888920307159424,0.5779489874839783
-0.921308696269989,3.2460687160491943,0.5687336325645447
-0.9358084201812744,3.21431303024292,0.5615138411521912
-0.9563802480697632,3.200697898864746,0.5574353933334351
-0.9697052836418152,3.1649348735809326,0.5495709180831909
-0.9868627190589905,3.1439688205718994,0.544166088104248
-0.9975126385688782,3.104712724685669,0.5354305505752563
-1.013664722442627,3.083765983581543,0.5299095511436462
-1.0300344228744507,3.062593460083008,0.5243510007858276
-1.0464613437652588,3.04123854637146,0.5187774896621704
-1.0587977170944214,3.0088818073272705,0.5113778710365295
-1.0793547630310059,3.002119779586792,0.5081318616867065
-1.0969465970993042,2.988083839416504,0.5035626888275146
-1.1116886138916016,2.966714859008789,0.49779650568962097
-1.1241368055343628,2.9378154277801514,0.49074071645736694
-1.126457691192627,2.8836867809295654,0.4795398414134979
-1.1293901205062866,2.8332860469818115,0.46901875734329224
-1.13968825340271,2.804758310317993,0.4618968069553375
-1.1540597677230835,2.7869231700897217,0.4565873444080353
-1.1295685768127441,2.6763317584991455,0.4361524283885956
-1.1361074447631836,2.640526056289673,0.42798498272895813
-1.1515092849731445,2.6259799003601074,0.42331570386886597
-1.1724241971969604,2.6257717609405518,0.42075297236442566
-1.1931556463241577,2.62551212310791,0.41812124848365784
-1.2142549753189087,2.6249537467956543,0.41539955139160156
-1.2490410804748535,2.6520168781280518,0.4169583320617676
-1.276039958000183,2.6612300872802734,0.41565659642219543
-1.2856261730194092,2.635758876800537,0.40876704454421997
-1.2791045904159546,2.5792477130889893,0.3970670700073242
-1.286139965057373,2.5504136085510254,0.38967061042785645
-1.3251879215240479,2.58332896232605,0.39160823822021484
-1.3129417896270752,2.5162224769592285,0.37840157747268677
-1.3188873529434204,2.4875094890594482,0.3708699345588684
-1.3280283212661743,2.4657201766967773,0.36438560485839844
-1.3334059715270996,2.437011480331421,0.35690203309059143
-1.3471734523773193,2.4212608337402344,0.3511333167552948
-1.3601573705673218,2.4057729244232178,0.34543299674987793
-1.3702589273452759,2.3873212337493896,0.3391818404197693
-1.3821065425872803,2.372188091278076,0.3334464430809021
-1.390750765800476,2.3498270511627197,0.3265363276004791
-1.4076019525527954,2.340488910675049,0.321353942155838
-1.4107822179794312,2.3120522499084473,0.31345003843307495
-1.4136607646942139,2.2836461067199707,0.30562856793403625
-1.429468035697937,2.2745070457458496,0.3002052307128906
-1.4747549295425415,2.3109004497528076,0.3006109893321991
-1.4415059089660645,2.226837635040283,0.28515389561653137
-1.4836931228637695,2.2603278160095215,0.28491079807281494
-1.4844976663589478,2.227952718734741,0.2759718894958496
-1.469208836555481,2.1734375953674316,0.2643500864505768
-1.505142092704773,2.1967334747314453,0.2621356248855591
-1.52018141746521,2.187126874923706,0.25559675693511963
-1.4997085332870483,2.12627911567688,0.24300159513950348
-1.508723258972168,2.111088514328003,0.2356431633234024
-1.5157972574234009,2.092374801635742,0.2277398556470871
-1.5259617567062378,2.0761146545410156,0.21968379616737366
-1.529725193977356,2.05472993850708,0.21102598309516907
-1.4924918413162231,2.108018636703491,-0.12569059431552887
-1.510035514831543,2.166703939437866,-0.13686873018741608
-1.4989246129989624,2.1833667755126953,-0.14512597024440765
-1.4906362295150757,2.207334041595459,-0.15406596660614014
-1.4832106828689575,2.230546474456787,-0.1625564992427826
-1.4669638872146606,2.240715503692627,-0.16995900869369507
-1.4542149305343628,2.2577145099639893,-0.1779066026210785
-1.440090298652649,2.270800828933716,-0.18523827195167542
-1.4315075874328613,2.294022798538208,-0.19346198439598083
-1.4102197885513306,2.2974326610565186,-0.1999199241399765
-1.4057607650756836,2.3269145488739014,-0.20844204723834991
-1.4088212251663208,2.3698699474334717,-0.21822234988212585
-1.375396490097046,2.3527843952178955,-0.2224767953157425
-1.3619087934494019,2.368966579437256,-0.2297690510749817
-1.3451085090637207,2.377922296524048,-0.23614074289798737
-1.335099458694458,2.4007413387298584,-0.24388530850410461
-1.2950834035873413,2.3688459396362305,-0.24598605930805206
-1.278306007385254,2.3773107528686523,-0.2520112693309784
-1.2535014152526855,2.37225341796875,-0.2566264569759369
-1.2306631803512573,2.3704001903533936,-0.2614327371120453
-1.2295458316802979,2.4096755981445312,-0.27070680260658264
-1.2090144157409668,2.410698890686035,-0.2756750285625458
-1.2016963958740234,2.4397125244140625,-0.283784955739975
-1.1936970949172974,2.4688658714294434,-0.2920931279659271
-1.1862009763717651,2.4976282119750977,-0.3002201020717621
-1.1733266115188599,2.5158815383911133,-0.30711451172828674
-1.1776596307754517,2.5730602741241455,-0.31878605484962463
-1.1526381969451904,2.5666558742523193,-0.3226518929004669
-1.1548484563827515,2.6201858520507812,-0.3340039849281311
-1.1312273740768433,2.6170802116394043,-0.33822348713874817
-1.1138098239898682,2.628051280975342,-0.34409210085868835
-1.1409918069839478,2.746284008026123,-0.36419790983200073
-1.146438479423523,2.814565420150757,-0.3778984248638153
-1.2427598237991333,3.113452196121216,-0.42305004596710205
-1.2495145797729492,3.1974329948425293,-0.43957197666168213
-1.2667208909988403,3.3103792667388916,-0.460267573595047
-1.2406632900238037,3.3110976219177246,-0.46544593572616577
-1.2251899242401123,3.340752601623535,-0.47461602091789246
-1.2038847208023071,3.355867385864258,-0.48160845041275024
-1.1884286403656006,3.389220714569092,-0.4913713037967682
-1.1670538187026978,3.403961658477783,-0.4983524680137634
-1.1552951335906982,3.4479358196258545,-0.5096063613891602
-1.1330907344818115,3.4625961780548096,-0.5163642168045044
-1.0895284414291382,3.4108099937438965,-0.5131755471229553
-1.0570627450942993,3.3918330669403076,-0.5148462653160095
-1.0006229877471924,3.2911055088043213,-0.5038504004478455
-0.9728830456733704,3.282538652420044,-0.5064846277236938
-0.9356422424316406,3.2403457164764404,-0.5038840174674988
-0.8939647078514099,3.179180145263672,-0.4981948733329773
-0.8624635934829712,3.151115655899048,-0.49758046865463257
-0.8229125738143921,3.093106269836426,-0.4919089078903198
-0.7932620644569397,3.0682907104492188,-0.4913005530834198
-0.7584567070007324,3.020740270614624,-0.486972451210022
-0.725409746170044,2.9765918254852295,-0.4830857217311859
-0.6955850124359131,2.9434621334075928,-0.4807264506816864
-0.6684316396713257,2.9214699268341064,-0.4799853265285492
-0.6361480951309204,2.8728225231170654,-0.47476375102996826
-0.6039057374000549,2.8200900554656982,-0.46876710653305054
-0.5825702548027039,2.8161559104919434,-0.47078442573547363
-0.5544409155845642,2.7781178951263428,-0.46672770380973816
-0.5330620408058167,2.773956775665283,-0.46838805079460144
-0.5038309097290039,2.724092483520508,-0.4622479975223541
-0.48345595598220825,2.7194812297821045,-0.46375375986099243
-0.45599669218063354,2.6730141639709473,-0.4577791690826416
-0.4397295415401459,2.690946340560913,-0.4627384841442108
-0.4122474789619446,2.6403329372406006,-0.4559352695941925
-0.39158356189727783,2.6275100708007812,-0.45558983087539673
-0.3727210462093353,2.6259944438934326,-0.45705652236938477
-0.3482053875923157,2.5824341773986816,-0.45092397928237915
-0.33211928606033325,2.59975266456604,-0.45542657375335693
-0.3102757930755615,2.571122169494629,-0.45189300179481506
-0.2911362946033478,2.5652899742126465,-0.45239317417144775
-0.27236834168434143,2.5593626499176025,-0.4524564743041992
-0.2525537312030792,2.5418200492858887,-0.450451523065567
-0.23586603999137878,2.5547680854797363,-0.4538663327693939
-0.21743477880954742,2.54843807220459,-0.45387616753578186
-0.19847632944583893,2.538203001022339,-0.4529963731765747
-0.1816154271364212,2.5508651733398438,-0.455983430147171
-0.16261667013168335,2.5327136516571045,-0.45348209142684937
-0.14605630934238434,2.5528135299682617,-0.45785269141197205
-0.12825846672058105,2.553605556488037,-0.4587668180465698
-0.10931473225355148,2.535156011581421,-0.45580923557281494
-0.0913689061999321,2.528085231781006,-0.45490965247154236
-0.07377076894044876,2.528573513031006,-0.4553907513618469
-0.056722141802310944,2.5519986152648926,-0.46002763509750366
-0.038877300918102264,2.5446035861968994,-0.45886024832725525
-0.021122708916664124,2.571716785430908,-0.4637509882450104
-0.003246450796723366,2.5641064643859863,-0.4624025821685791
0.01467414665967226,2.5794365406036377,-0.4652138948440552
0.03268998861312866,2.5869643688201904,-0.4665776789188385
0.050828538835048676,2.594437599182129,-0.4675416350364685
0.06846042722463608,2.5787250995635986,-0.4643508791923523
0.08720888197422028,2.593623161315918,-0.4666892886161804
0.10711439698934555,2.6391282081604004,-0.4745557904243469
0.1260097175836563,2.6499743461608887,-0.4758850634098053
0.14568741619586945,2.6722309589385986,-0.4791230857372284
0.16615265607833862,2.702019214630127,-0.48371967673301697
0.18869493901729584,2.750816822052002,-0.491707980632782
0.20723436772823334,2.741953134536743,-0.4893075227737427
0.22817160189151764,2.7636959552764893,-0.4920024275779724
0.24873456358909607,2.777620553970337,-0.4933128356933594
0.2702847123146057,2.7990481853485107,-0.4959612488746643
0.2921207845211029,2.8164522647857666,-0.49788209795951843
0.31341418623924255,2.8299660682678223,-0.49877503514289856
0.3349016010761261,2.84334135055542,-0.49953988194465637
0.3618341386318207,2.898564577102661,-0.5076408386230469
0.3890707790851593,2.9497411251068115,-0.5149951577186584
0.41683775186538696,2.9968621730804443,-0.5214236378669739
0.4443169832229614,3.0400471687316895,-0.5268329977989197
0.46774959564208984,3.0525548458099365,-0.5269092917442322
0.499398797750473,3.114305257797241,-0.5354472994804382
0.3843141794204712,2.2944605350494385,-0.3929436504840851
0.5679486393928528,3.2522189617156982,-0.5543527007102966
0.5937075614929199,3.263842821121216,-0.5536264181137085
0.6286122798919678,3.3245487213134766,-0.5612294673919678
0.6681551337242126,3.403843402862549,-0.5718725919723511
0.7003195881843567,3.4412660598754883,-0.5751777291297913
0.7377392053604126,3.501108169555664,-0.5818989872932434
0.7756391167640686,3.556762218475342,-0.5877774953842163
0.8115680813789368,3.600832462310791,-0.5917009115219116
0.8682191967964172,3.731018543243408,-0.6095972657203674
0.9256592988967896,3.856991767883301,-0.626108705997467
0.9700963497161865,3.922440767288208,-0.6326073408126831
1.0398635864257812,4.080867290496826,-0.6538004875183105
1.0860753059387207,4.1415486335754395,-0.6591759920120239
1.141015887260437,4.231740474700928,-0.6687357425689697
1.1848152875900269,4.276775360107422,-0.6708738207817078
1.2209336757659912,4.29166841506958,-0.6682131290435791
1.2493637800216675,4.2764081954956055,-0.660754382610321
1.2747727632522583,4.253747940063477,-0.6521120071411133
1.3042700290679932,4.245808124542236,-0.645490825176239
1.32907235622406,4.222902297973633,-0.6366441249847412
1.3539628982543945,4.199740886688232,-0.6277639865875244
1.1765213012695312,3.562882661819458,-0.527881383895874
1.1751880645751953,3.4785501956939697,-0.510590672492981
1.1929848194122314,3.4528796672821045,-0.5020615458488464
1.220996618270874,3.4562454223632812,-0.49774831533432007
1.2452936172485352,3.448418378829956,-0.4918069839477539
1.265175461769104,3.4296715259552,-0.4840877056121826
1.2865679264068604,3.4143123626708984,-0.4767742156982422
1.3103622198104858,3.4061179161071777,-0.4705435037612915
1.3342987298965454,3.397677421569824,-0.4642593562602997
1.3578448295593262,3.389212131500244,-0.45781922340393066
1.37824285030365,3.3734676837921143,-0.4503636956214905
1.405073642730713,3.3716695308685303,-0.4446481168270111
1.4257797002792358,3.3554115295410156,-0.43706977367401123
1.4490398168563843,3.3463058471679688,-0.4303337335586548
1.4861506223678589,3.3690669536590576,-0.4275802969932556
1.506306767463684,3.3524694442749023,-0.41976985335350037
1.5432498455047607,3.370701789855957,-0.4161083400249481
1.5731130838394165,3.3748912811279297,-0.4106599688529968
1.5928791761398315,3.357888698577881,-0.4025753438472748
1.5975536108016968,3.3091535568237305,-0.39071643352508545
1.6225374937057495,3.3021669387817383,-0.3837752342224121
1.6126328706741333,3.2255423069000244,-0.3686692416667938
2.2934038639068604,4.511098861694336,-0.5069975256919861
2.3354597091674805,4.516913414001465,-0.49883437156677246
1.728406548500061,3.2866337299346924,-0.3564338684082031
1.7232942581176758,3.224156379699707,-0.34313148260116577
1.7489094734191895,3.2200043201446533,-0.33613666892051697
1.7172902822494507,3.1095151901245117,-0.31793737411499023
1.7503457069396973,3.1186208724975586,-0.31220683455467224
1.7926044464111328,3.1446826457977295,-0.3080037534236908
1.3361488580703735,2.3077454566955566,-0.22095578908920288
0.9437041878700256,1.604161024093628,-0.1499304324388504
0.9547663331031799,1.5980018377304077,-0.14560385048389435
0.9654682278633118,1.591942310333252,-0.14135050773620605
0.9786460995674133,1.5888428688049316,-0.1371922791004181
0.9875428080558777,1.5791171789169312,-0.13242864608764648
0.9980617761611938,1.572859287261963,-0.12796692550182343
1.0006377696990967,1.5530825853347778,-0.1222393810749054
1.0156935453414917,1.5529664754867554,-0.11805573105812073
1.0259519815444946,1.5465586185455322,-0.11337815225124359
1.040840983390808,1.5463366508483887,-0.109007827937603
1.0625234842300415,1.555539608001709,-0.10510636121034622
2.538811445236206,3.66513991355896,-0.2366769164800644
2.586256265640259,3.6803908348083496,-0.22621434926986694
2.6157352924346924,3.669858455657959,-0.2137177735567093
2.593674421310425,3.5903525352478027,-0.1974228322505951
2.646348237991333,3.610670566558838,-0.18574601411819458
2.683574676513672,3.6129918098449707,-0.17288248240947723
2.649519443511963,3.722167491912842,0.3953966498374939
2.6028923988342285,3.715602159500122,0.40550005435943604
2.569079637527466,3.7282259464263916,0.41741079092025757
1.0506075620651245,1.5476160049438477,0.17719243466854095
1.0645619630813599,1.5939249992370605,0.18639905750751495
1.0435092449188232,1.5886588096618652,0.18960092961788177
1.0362372398376465,1.602152943611145,0.1947363317012787
1.0033873319625854,1.576548457145691,0.19493047893047333
1.0035226345062256,1.603506326675415,0.20154769718647003
0.9958484768867493,1.6169121265411377,0.20634445548057556
0.9843248128890991,1.6234595775604248,0.21019156277179718
0.9636770486831665,1.6172558069229126,0.21227039396762848
0.9434008598327637,1.610711932182312,0.214220330119133
1.3407424688339233,2.3262088298797607,0.313123881816864
1.8271923065185547,3.2226004600524902,0.4388749897480011
1.7630513906478882,3.1643238067626953,0.43566063046455383
1.7608952522277832,3.217758893966675,0.4478938579559326
1.7728983163833618,3.2941954135894775,0.46311455965042114
1.765761375427246,3.3366687297821045,0.4736826717853546
2.3749589920043945,4.569662570953369,0.6545616388320923
2.344014883041382,4.593132495880127,0.6637812852859497
2.313596725463867,4.616029262542725,0.6728456616401672
2.2809741497039795,4.631107330322266,0.6805723905563354
2.2470815181732178,4.646543979644775,0.688061535358429
2.209094762802124,4.655066967010498,0.6943551898002625
2.177635908126831,4.677311420440674,0.7027342319488525
2.147822141647339,4.698542594909668,0.7107437252998352
2.1141185760498047,4.712732791900635,0.7178077101707458
2.0793042182922363,4.727190971374512,0.7244002223014832
2.0381529331207275,4.727231502532959,0.7287577986717224
1.7730966806411743,4.196077823638916,0.650720477104187
1.7228513956069946,4.15757417678833,0.6484082341194153
1.6930757761001587,4.16892671585083,0.6539260149002075
1.6625235080718994,4.180410861968994,0.6589801907539368
1.6346073150634766,4.198906421661377,0.6651483178138733
1.6037958860397339,4.2099738121032715,0.6701768636703491
1.5769213438034058,4.227593898773193,0.6761488318443298
1.5519647598266602,4.2524824142456055,0.683393657207489
1.5212739706039429,4.262825965881348,0.6879427433013916
1.492673397064209,4.280388355255127,0.6935600638389587
1.461447834968567,4.290430068969727,0.6979968547821045
1.4333919286727905,4.307318210601807,0.7035160660743713
1.4074267148971558,4.33139705657959,0.7102711796760559
1.374433994293213,4.333198547363281,0.7132309675216675
1.346422553062439,4.3534722328186035,0.7188794612884521
1.3171195983886719,4.36985445022583,0.7239296436309814
1.2876931428909302,4.386023044586182,0.7289867997169495
1.2591251134872437,4.401716232299805,0.7339327931404114
1.2298632860183716,4.4173583984375,0.7389554381370544
1.200447916984558,4.432857990264893,0.7436382174491882
1.174443006515503,4.463198184967041,0.750649094581604
1.1404284238815308,4.463504314422607,0.7526535391807556
1.1105053424835205,4.4784417152404785,0.757144033908844
1.0822290182113647,4.500669956207275,0.762915313243866
1.050756812095642,4.50758171081543,0.7660992741584778
1.0204144716262817,4.521973609924316,0.7701713442802429
0.9880459308624268,4.528700351715088,0.7728468775749207
0.9580159187316895,4.546504020690918,0.7774562835693359
0.7740996479988098,3.809122085571289,0.6527191996574402
0.7504966259002686,3.829169750213623,0.6575021743774414
0.7273658514022827,3.852853298187256,0.6629534959793091
0.8349127173423767,4.600292205810547,0.7928252816200256
0.8061450123786926,4.628513813018799,0.7988570928573608
0.7752464413642883,4.6490349769592285,0.8036288619041443
0.7441953420639038,4.665439128875732,0.8077108860015869
0.7139875292778015,4.685375690460205,0.8124337792396545
0.6813238859176636,4.68987512588501,0.814523458480835
0.6493978500366211,4.701870918273926,0.8175956010818481
0.6175342798233032,4.721418857574463,0.8218173384666443
0.5851035118103027,4.733035564422607,0.8246890902519226
0.5552632212638855,4.767362117767334,0.8315643668174744
0.5237675309181213,4.786145210266113,0.8357653021812439
0.4915924370288849,4.800894260406494,0.8393090963363647
0.4587991237640381,4.811639308929443,0.8419743180274963
0.4250267446041107,4.822292804718018,0.8443061709403992
0.39301246404647827,4.848001480102539,0.8493102788925171
0.3594680428504944,4.858149528503418,0.8516343832015991
0.32715317606925964,4.883400917053223,0.8566461801528931
0.2938667833805084,4.896910190582275,0.8596428632736206
0.25959423184394836,4.906384468078613,0.8619463443756104
0.22599351406097412,4.923386096954346,0.8650294542312622
0.19252197444438934,4.947843074798584,0.8694654107093811
0.15866458415985107,4.972072601318359,0.873905599117279
0.12434176355600357,4.988375663757324,0.8769963979721069
0.08903535455465317,4.9929094314575195,0.8780663013458252
0.054464951157569885,5.008727550506592,0.881159782409668
0.01963418908417225,5.032073497772217,0.8851907849311829
-0.015448031015694141,5.04751443862915,0.8876818418502808
-0.050723593682050705,5.05501651763916,0.8888183236122131
-0.08713036775588989,5.089189529418945,0.8946845531463623
-0.1225045844912529,5.088498592376709,0.8944671154022217
-0.15853238105773926,5.110637187957764,0.8983055353164673
-0.1946025937795639,5.124861240386963,0.900611937046051
-0.2300456017255783,5.123536109924316,0.8997940421104431
-0.26752856373786926,5.1603875160217285,0.9057186841964722
-0.3049798011779785,5.177728652954102,0.9082488417625427
-0.2863267660140991,4.3463006019592285,0.7620153427124023
-0.3114975690841675,4.2752485275268555,0.7492116093635559
-0.34370607137680054,4.303782939910889,0.7538989782333374
-0.37538930773735046,4.324514389038086,0.7567674517631531
-0.3999648690223694,4.260685443878174,0.7448156476020813
-0.425131231546402,4.2159104347229,0.7362613081932068
-0.448093980550766,4.155677318572998,0.7250581979751587
-0.4726208746433258,4.114425182342529,0.7172127962112427
-0.4975719749927521,4.080667018890381,0.7107182145118713
-0.5198561549186707,4.027688980102539,0.7006327509880066
-0.5397483110427856,3.967083692550659,0.689075231552124
-0.5626912713050842,3.9330618381500244,0.6821883916854858
-0.581720232963562,3.8760690689086914,0.6713715195655823
-0.6056646108627319,3.8531858921051025,0.6665019392967224
-0.6254462003707886,3.8034796714782715,0.6570238471031189
-0.6458927989006042,3.7651898860931396,0.6494564414024353
-0.6661999225616455,3.7306957244873047,0.6422635316848755
-0.6846597194671631,3.688520669937134,0.6338009238243103
-0.7047996520996094,3.657602071762085,0.6273210048675537
-0.7240653038024902,3.6227471828460693,0.620201051235199
-0.7395884394645691,3.568814516067505,0.6098424792289734
-0.7546600103378296,3.5187156200408936,0.6001882553100586
-0.7719579339027405,3.4837806224823,0.5927901268005371
-0.7931110262870789,3.467550754547119,0.5886192321777344
-0.8078483939170837,3.4249398708343506,0.5800192356109619
-0.8301125764846802,3.412067174911499,0.5764553546905518
-0.8463974595069885,3.376661777496338,0.5691401362419128
-0.8631569743156433,3.344930410385132,0.5624956488609314
-0.8838939666748047,3.331967830657959,0.558655858039856
-0.902465283870697,3.3114330768585205,0.5535827279090881
-0.9149296283721924,3.26841402053833,0.5447756052017212
-0.9321690201759338,3.2439072132110596,0.539107620716095
-0.9482195377349854,3.215557813644409,0.5328329205513
-0.9661082029342651,3.1945385932922363,0.5277929306030273
-0.9740095734596252,3.144169807434082,0.5176239609718323
-0.9979509711265564,3.1452279090881348,0.5159375071525574
-1.0036972761154175,3.0911505222320557,0.5052858591079712
-1.022692084312439,3.077253580093384,0.5012110471725464
-1.0367515087127686,3.0485587120056152,0.4947519898414612
-1.0514971017837524,3.0235512256622314,0.4888331890106201
-1.0693058967590332,3.009613037109375,0.48450273275375366
-1.0873175859451294,2.995450496673584,0.48013368248939514
-1.08613121509552,2.9305527210235596,0.4677254557609558
-1.11483895778656,2.9450643062591553,0.46797314286231995
-1.1326560974121094,2.9304850101470947,0.4636109471321106
-1.1525425910949707,2.9232594966888428,0.46020323038101196
-1.1422324180603027,2.840543031692505,0.44487106800079346
-1.1525089740753174,2.8118631839752197,0.4381410479545593
-1.1525753736495972,2.7579689025878906,0.42749035358428955
-1.1461588144302368,2.689847946166992,0.41471049189567566
-1.1431019306182861,2.6327433586120605,0.4036332666873932
-1.1641658544540405,2.632510185241699,0.4011203944683075
-1.1754238605499268,2.6110751628875732,0.39544618129730225
-1.190102219581604,2.5964503288269043,0.39078137278556824
-1.2312836647033691,2.6376631259918213,0.3944361209869385
-1.2528499364852905,2.6366333961486816,0.3916607201099396
-1.2538987398147583,2.5937891006469727,0.3824709951877594
-1.271167516708374,2.585946559906006,0.37855321168899536
-1.285434365272522,2.570814609527588,0.37351059913635254
-1.2912133932113647,2.5381226539611816,0.3658977746963501
-1.3086296319961548,2.5297863483428955,0.3617309033870697
-1.3145842552185059,2.5010602474212646,0.35455939173698425
-1.3241559267044067,2.4790456295013428,0.3483434319496155
-1.3339688777923584,2.4567606449127197,0.3420505225658417
-1.3474526405334473,2.441148281097412,0.3366977870464325
-1.3560709953308105,2.4192214012145996,0.33032363653182983
-1.3661960363388062,2.400749683380127,0.32443979382514954
-1.3710238933563232,2.3717732429504395,0.3170408010482788
-1.3838757276535034,2.3559396266937256,0.31134599447250366
-1.3998889923095703,2.347100257873535,0.30648282170295715
-1.4032396078109741,2.3185477256774902,0.29899463057518005
-1.414650797843933,2.303128719329834,0.2931942343711853
-1.459982991218567,2.339693784713745,0.293662428855896
-1.4633080959320068,2.3107409477233887,0.2858414947986603
-1.4699441194534302,2.2887344360351562,0.27886492013931274
-1.4853060245513916,2.2794642448425293,0.27334147691726685
-1.484212875366211,2.2436680793762207,0.26448124647140503
-1.4926156997680664,2.224740982055664,0.25747576355934143
-1.5069072246551514,2.2157483100891113,0.25170931220054626
-1.53345787525177,2.2218410968780518,0.24720577895641327
-1.4927349090576172,2.1323962211608887,0.2320927381515503
-1.5018519163131714,2.1171200275421143,0.22518999874591827
-1.5052450895309448,2.0914876461029053,0.21676935255527496
-1.5194483995437622,2.0818967819213867,0.20989283919334412
-1.5279420614242554,2.0666773319244385,0.20240062475204468
-1.5002583265304565,2.102965831756592,-0.11761390417814255
-1.4912433624267578,2.123232841491699,-0.12606753408908844
-1.475862741470337,2.1334967613220215,-0.13356120884418488
-1.494642734527588,2.1958138942718506,-0.14448484778404236
-1.4571914672851562,2.173565149307251,-0.14946922659873962
-1.4669015407562256,2.222808837890625,-0.15930140018463135
-1.4625576734542847,2.253077745437622,-0.16803091764450073
-1.4466147422790527,2.262835741043091,-0.17477893829345703
-1.4443540573120117,2.296041965484619,-0.1833970695734024
-1.4353495836257935,2.3194782733917236,-0.19130924344062805
-1.4108375310897827,2.3157002925872803,-0.19664941728115082
-1.4055675268173218,2.3456270694732666,-0.20495325326919556
-1.3920360803604126,2.3621535301208496,-0.21205243468284607
-1.375169277191162,2.3714466094970703,-0.2182914763689041
-1.3579686880111694,2.3807613849639893,-0.22448977828025818
-1.3478739261627197,2.4037680625915527,-0.23198702931404114
-1.3377162218093872,2.426626443862915,-0.23948021233081818
-1.3020100593566895,2.4012110233306885,-0.24196745455265045
-1.2843667268753052,2.4101035594940186,-0.24778206646442413
-1.2630795240402222,2.4119489192962646,-0.2528628408908844
-1.2424993515014648,2.413282871246338,-0.2576904594898224
-1.2248715162277222,2.421672821044922,-0.2633110284805298
-1.2071738243103027,2.429943323135376,-0.26879453659057617
-1.1998867988586426,2.4589200019836426,-0.2765585780143738
-1.1892468929290771,2.4807255268096924,-0.2835010290145874
-1.1829214096069336,2.51322603225708,-0.29165974259376526
-1.1809141635894775,2.556394338607788,-0.3011499345302582
-1.1783726215362549,2.5996220111846924,-0.3107779026031494
-1.1536940336227417,2.5930399894714355,-0.3143797814846039
-1.176859974861145,2.696730852127075,-0.3313504457473755
-1.1160911321640015,2.6081814765930176,-0.3247029185295105
-1.111072301864624,2.6476023197174072,-0.3338162302970886
-1.0950632095336914,2.662001848220825,-0.33988767862319946
-1.0845900774002075,2.6907591819763184,-0.3476105332374573
-1.0737638473510742,2.719482660293579,-0.3554026484489441
-1.1132216453552246,2.8782365322113037,-0.3804013729095459
-1.2083028554916382,3.1897835731506348,-0.4262526035308838
-1.209294080734253,3.2631514072418213,-0.4406817555427551
-1.2083594799041748,3.332887887954712,-0.45471420884132385
-1.201555848121643,3.3880538940429688,-0.4668847918510437
-1.1802200078964233,3.402959108352661,-0.4735766649246216
-1.1683684587478638,3.4471940994262695,-0.4841834604740143
-1.151763677597046,3.4805517196655273,-0.4933764338493347
-1.1258937120437622,3.4841654300689697,-0.4982866644859314
-1.1072485446929932,3.509657621383667,-0.5063272714614868
-1.0824518203735352,3.516632556915283,-0.5115246176719666
-1.073045253753662,3.575356960296631,-0.5241785049438477
-1.0433423519134521,3.567269802093506,-0.5271016955375671
-1.0029726028442383,3.5218138694763184,-0.5244917273521423
-0.9626393914222717,3.4721853733062744,-0.5209636092185974
-0.9299243092536926,3.4483938217163086,-0.5209695100784302
-0.8887490034103394,3.390681505203247,-0.515783965587616
-0.8506782650947571,3.3399946689605713,-0.511519193649292
-0.8157893419265747,3.300288677215576,-0.5089091062545776
-0.7844168543815613,3.2715606689453125,-0.5074692964553833
-0.7455954551696777,3.208714723587036,-0.5006691217422485
-0.7171446681022644,3.1869211196899414,-0.5001967549324036
-0.6866446137428284,3.153562307357788,-0.49786514043807983
-0.6585485339164734,3.1314070224761963,-0.4970606565475464
-0.6272886991500854,3.0900750160217285,-0.4929676651954651
-0.60259610414505,3.078763961791992,-0.49363720417022705
-0.5760912895202637,3.0558629035949707,-0.4924227297306061
-0.5437185764312744,2.9986047744750977,-0.48554033041000366
-0.5183507204055786,2.979186534881592,-0.4844241440296173
-0.4904608428478241,2.940493106842041,-0.4801208972930908
-0.4686551094055176,2.935831069946289,-0.4813598394393921
-0.4446590542793274,2.9157567024230957,-0.48006993532180786
-0.42423588037490845,2.9184470176696777,-0.48219943046569824
-0.39972108602523804,2.8943283557891846,-0.47982943058013916
-0.37845632433891296,2.8890790939331055,-0.48056209087371826
-0.35450848937034607,2.86072039604187,-0.477447509765625
-0.33095583319664,2.8321995735168457,-0.4741581380367279
-0.3094574213027954,2.8188717365264893,-0.4730986952781677
-0.29131096601486206,2.8360443115234375,-0.47718146443367004
-0.27049413323402405,2.830108404159546,-0.4774177670478821
-0.24979020655155182,2.8201565742492676,-0.47696971893310547
-0.23046059906482697,2.825477123260498,-0.47873955965042114
-0.20991697907447815,2.815314769744873,-0.4778249263763428
-0.19030499458312988,2.8165323734283447,-0.47886157035827637
-0.17035433650016785,2.8176300525665283,-0.4799157679080963
-0.15072010457515717,2.8185980319976807,-0.4807995557785034
-0.13072563707828522,2.811788320541382,-0.4800611138343811
-0.11217933893203735,2.8394663333892822,-0.48523765802383423
-0.0915672779083252,2.8131399154663086,-0.4812071919441223
-0.07237084954977036,2.8405604362487793,-0.4864024817943573
-0.05211971327662468,2.814016342163086,-0.481972336769104
-0.03304031863808632,2.856642246246338,-0.4893306493759155
-0.013104258105158806,2.8413844108581543,-0.4867977499961853
0.0066721015609800816,2.8490889072418213,-0.4882223308086395
0.026791011914610863,2.841278076171875,-0.48685556650161743
0.04705020412802696,2.871884346008301,-0.491758793592453
0.06668071448802948,2.856154680252075,-0.48874932527542114
0.08793824166059494,2.901869058609009,-0.49627530574798584
0.10842369496822357,2.9089467525482178,-0.49721187353134155
0.1265951246023178,2.8620901107788086,-0.4885717034339905
0.1501956284046173,2.926647186279297,-0.498860239982605
0.17279423773288727,2.964123249053955,-0.504543662071228
0.19439288973808289,2.9783713817596436,-0.5062858462333679
0.217599019408226,3.0116934776306152,-0.5111347436904907
0.24335931241512299,3.0717790126800537,-0.5201687216758728
0.26571857929229736,3.0778989791870117,-0.5200427770614624
0.2910594940185547,3.118406057357788,-0.5257520079612732
0.315847247838974,3.1472105979919434,-0.5294862389564514
0.34016627073287964,3.1682353019714355,-0.5315089225769043
0.3643452823162079,3.18526554107666,-0.532761812210083
0.3966435194015503,3.263279914855957,-0.5441601872444153
0.42131343483924866,3.276066780090332,-0.5446875691413879
0.4503028988838196,3.319253921508789,-0.5501117706298828
0.4836726188659668,3.3889822959899902,-0.5595401525497437
0.5071792602539062,3.3859729766845703,-0.5569404363632202
0.5449270606040955,3.4703445434570312,-0.5686412453651428
0.37859219312667847,2.3061892986297607,-0.37647736072540283
0.6069144606590271,3.5431935787200928,-0.5758327841758728
0.6410170197486877,3.592585325241089,-0.5811728835105896
0.6645987033843994,3.5809850692749023,-0.5766372680664062
0.6947073340415955,3.6033122539520264,-0.5775700807571411
0.7262857556343079,3.6291446685791016,-0.578822672367096
0.833755612373352,4.021481513977051,-0.6379289031028748
0.8649128079414368,4.03136682510376,-0.6360418796539307
0.9156354069709778,4.127682685852051,-0.6477028131484985
0.9608439803123474,4.19339656829834,-0.654445230960846
1.0180336236953735,4.3038105964660645,-0.6674420833587646
1.0588815212249756,4.342473983764648,-0.6692196726799011
1.0919424295425415,4.347036361694336,-0.6657055616378784
1.1204129457473755,4.332608222961426,-0.659293532371521
1.1506013870239258,4.325528144836426,-0.653765857219696
1.1800823211669922,4.314452648162842,-0.6473556160926819
1.2058327198028564,4.292123794555664,-0.6393851637840271
1.2380197048187256,4.291861057281494,-0.6347005367279053
1.2482432126998901,4.21720027923584,-0.6190328598022461
1.1010377407073975,3.6281096935272217,-0.5282773971557617
1.088649034500122,3.4991049766540527,-0.5052987337112427
1.1154569387435913,3.499518871307373,-0.5012030601501465
1.1399718523025513,3.492349147796631,-0.4960281252861023
1.1641404628753662,3.485138416290283,-0.4905807673931122
1.1857086420059204,3.4704461097717285,-0.48406583070755005
1.208584189414978,3.4592108726501465,-0.47803714871406555
1.230669379234314,3.443967342376709,-0.47137850522994995
1.2572561502456665,3.4433817863464355,-0.4666512608528137
1.2810213565826416,3.4353983402252197,-0.46082091331481934
1.3020747900009155,3.419962167739868,-0.45400282740592957
1.326080083847046,3.411508083343506,-0.44808393716812134
1.3473873138427734,3.39560604095459,-0.44102877378463745
