X,Y,Z
-1.0748131275177002,3.2978515625,0.2874274253845215
-1.0801661014556885,3.238868236541748,0.28098273277282715
-1.1199862957000732,3.28312611579895,0.2835061848163605
-2.000887870788574,5.734744071960449,0.4928929805755615
-2.0354084968566895,5.706351280212402,0.48813021183013916
-2.0630316734313965,5.66360330581665,0.48186683654785156
-2.0887646675109863,5.617105960845947,0.4753381609916687
-2.1220200061798096,5.588292598724365,0.4702715277671814
-2.146876335144043,5.537367343902588,0.4633671045303345
-2.194054126739502,5.5443034172058105,0.46133413910865784
-2.2560951709747314,5.591152667999268,0.46231940388679504
-2.317213535308838,5.633890151977539,0.46288830041885376
-1.4972753524780273,3.570638656616211,0.29144471883773804
-1.515987753868103,3.546020984649658,0.2875014543533325
-1.5297603607177734,3.510599136352539,0.28271764516830444
-1.5437556505203247,3.4791409969329834,0.2781219184398651
-1.594139814376831,3.52938175201416,0.28002840280532837
-1.6086018085479736,3.497337579727173,0.27532607316970825
-1.6280248165130615,3.475674629211426,0.2714405357837677
-1.6420376300811768,3.443429708480835,0.26674655079841614
-1.6546438932418823,3.411665201187134,0.2619749903678894
-1.6737955808639526,3.3938615322113037,0.25830602645874023
-1.6939105987548828,3.3753976821899414,0.2544924318790436
-1.7068109512329102,3.3429031372070312,0.24964798986911774
-1.7239934206008911,3.3211514949798584,0.24555715918540955
-1.7494913339614868,3.3168556690216064,0.24269655346870422
-1.7604923248291016,3.284764289855957,0.23779796063899994
-1.7946019172668457,3.2931745052337646,0.23571525514125824
-1.1941208839416504,2.1553561687469482,0.1524556577205658
-1.2082265615463257,2.1476497650146484,0.150052011013031
-1.8082804679870605,3.165757894515991,0.21843525767326355
-1.8342361450195312,3.16007137298584,0.21511031687259674
-1.8817559480667114,3.1912620067596436,0.21423913538455963
-1.2658528089523315,2.114894390106201,0.1398773044347763
-1.2553296089172363,2.0667593479156494,0.13465364277362823
-2.672621726989746,4.331986904144287,0.2776319086551666
-2.677156448364258,4.274422645568848,0.2693229019641876
-2.079233169555664,3.272916078567505,0.20258721709251404
-2.1056301593780518,3.2655723094940186,0.19829624891281128
-2.1198339462280273,3.2380239963531494,0.1926853209733963
-2.170989513397217,3.2700083255767822,0.19050686061382294
-2.200603485107422,3.269268274307251,0.18632712960243225
-2.2476460933685303,3.28953218460083,0.18290181457996368
-2.2919254302978516,3.3067362308502197,0.17908090353012085
-2.3240063190460205,3.3084397315979004,0.17441092431545258
-2.3787004947662354,3.336989402770996,0.17058628797531128
-2.400315761566162,3.3217883110046387,0.1643880009651184
-2.8987247943878174,3.9586892127990723,0.18923628330230713
-2.9262986183166504,3.9387407302856445,0.18092037737369537
-2.4748575687408447,3.4912407398223877,-0.12416782975196838
-2.4449105262756348,3.5025012493133545,-0.13102249801158905
-2.8020670413970947,4.07648229598999,-0.15962564945220947
-2.7661054134368896,4.0912275314331055,-0.16736315190792084
-2.2180678844451904,3.330379009246826,-0.14146845042705536
-2.1761951446533203,3.320361614227295,-0.14618811011314392
-1.3074171543121338,2.027273416519165,-0.09230586141347885
-1.3183282613754272,2.0757479667663574,-0.09743499010801315
-1.294384241104126,2.0722169876098633,-0.10019376873970032
-1.27092707157135,2.068225860595703,-0.10279716551303864
-2.0118772983551025,3.3257429599761963,-0.16954943537712097
-2.021406650543213,3.3971340656280518,-0.1774599850177765
-1.962584376335144,3.3545546531677246,-0.1794106364250183
-1.8297277688980103,3.1787683963775635,-0.17376013100147247
-1.1918485164642334,2.1050357818603516,-0.11747713387012482
-1.766394019126892,3.1737875938415527,-0.18068864941596985
-1.7717387676239014,3.237436532974243,-0.18783193826675415
-1.7601436376571655,3.2701187133789062,-0.19318744540214539
-1.903593897819519,3.600081205368042,-0.21644864976406097
-1.898721694946289,3.6552062034606934,-0.22349461913108826
-1.8890529870986938,3.699402332305908,-0.22978746891021729
-2.440255880355835,4.862619400024414,-0.3066995441913605
-2.411661148071289,4.893904685974121,-0.3132129907608032
-2.382361650466919,4.925201416015625,-0.31981754302978516
-1.680198073387146,3.536081314086914,-0.23273780941963196
-1.6518930196762085,3.540534734725952,-0.23610937595367432
-1.6262028217315674,3.5521554946899414,-0.23987539112567902
-1.5974146127700806,3.5563948154449463,-0.24312874674797058
-1.572536826133728,3.567216157913208,-0.2467523217201233
-2.2028462886810303,5.0952653884887695,-0.3565693795681
-2.1660211086273193,5.110679626464844,-0.36154523491859436
-1.6043769121170044,3.8623299598693848,-0.2761659324169159
-1.546515941619873,3.797367811203003,-0.27431532740592957
-1.4895449876785278,3.7318358421325684,-0.27231350541114807
-1.4367091655731201,3.677034378051758,-0.27089372277259827
-1.3712483644485474,3.5851166248321533,-0.26659712195396423
-1.326959490776062,3.5433177947998047,-0.26587310433387756
-1.2968419790267944,3.5376265048980713,-0.2678168714046478
-1.2769008874893188,3.561213493347168,-0.2718384563922882
-1.253523826599121,3.577542304992676,-0.2753300070762634
-1.2357584238052368,3.6082141399383545,-0.2798946797847748
-1.2154620885849,3.631316900253296,-0.2838815152645111
-1.1898561716079712,3.6395702362060547,-0.286655455827713
-0.9732376337051392,3.050311803817749,-0.24191978573799133
-0.9683889150619507,3.112915277481079,-0.24863183498382568
-0.9398964047431946,3.0970473289489746,-0.24903470277786255
-0.8078184127807617,2.7298896312713623,-0.2209865301847458
-0.7852473855018616,2.724165678024292,-0.22185929119586945
-0.7616828083992004,2.7145307064056396,-0.22238214313983917
-0.7404783964157104,2.712177276611328,-0.2234927862882614
-0.7232298254966736,2.7247421741485596,-0.22585156559944153
-0.7129237651824951,2.7635223865509033,-0.23035503923892975
-0.6791560053825378,2.7117183208465576,-0.2271621823310852
-1.4687409400939941,6.045548439025879,-0.5089674592018127
-1.4728337526321411,6.252438545227051,-0.5289838910102844
-1.4414783716201782,6.319352626800537,-0.5373238325119019
-1.402190923690796,6.3518290519714355,-0.5425353050231934
-1.3467106819152832,6.311828136444092,-0.541348934173584
-1.294274926185608,6.282791614532471,-0.5410963892936707
-1.2376365661621094,6.2264885902404785,-0.538453221321106
-1.1876509189605713,6.204257011413574,-0.5387892723083496
-1.1335479021072388,6.154790878295898,-0.5363949537277222
-1.0875606536865234,6.147061347961426,-0.5375006794929504
-0.9570968151092529,5.640196800231934,-0.4948333501815796
-0.7897909283638,4.859091281890869,-0.42773380875587463
-0.7582858204841614,4.883627414703369,-0.4313749372959137
-0.7239912748336792,4.888687610626221,-0.4329773187637329
-0.6961331963539124,4.939755916595459,-0.4386294484138489
-0.6542630791664124,4.890381813049316,-0.43537965416908264
-0.613816499710083,4.8445024490356445,-0.4324309229850769
-0.7104387283325195,5.937990188598633,-0.5314517021179199
-0.5407534837722778,4.809894561767578,-0.43130674958229065
-0.6264662146568298,5.9471821784973145,-0.5342803001403809
-0.5799419283866882,5.900954723358154,-0.531133770942688
-0.5346506237983704,5.858227252960205,-0.5283064246177673
-0.49264562129974365,5.846169948577881,-0.5282583236694336
-0.4483797550201416,5.814532279968262,-0.5260069966316223
-0.24426311254501343,3.485032796859741,-0.31564295291900635
-0.2209463268518448,3.5021331310272217,-0.3175800144672394
-0.3186452388763428,5.67868185043335,-0.5156058073043823
-0.27915406227111816,5.680683135986328,-0.5164514183998108
-0.23733805119991302,5.647504806518555,-0.5136657953262329
-0.1971498280763626,5.625659942626953,-0.5119293928146362
-0.15732650458812714,5.60352897644043,-0.510189414024353
-0.11741040647029877,5.561671733856201,-0.5066745281219482
-0.07840670645236969,5.538982391357422,-0.5049075484275818
-0.03896186873316765,5.5082855224609375,-0.5019940733909607
-0.0005091494531370699,4.465874195098877,-0.4069226384162903
0.028066454455256462,4.10011100769043,-0.3735469579696655
0.053524214774370193,3.8819949626922607,-0.3536469340324402
0.11204318702220917,5.402256965637207,-0.4921073615550995
0.11118505150079727,4.017021179199219,-0.3656022548675537
0.1842370629310608,5.3030571937561035,-0.48224249482154846
0.21683989465236664,5.200636863708496,-0.4725596010684967
0.2084042876958847,4.282024383544922,-0.38880324363708496
0.23773221671581268,4.272741794586182,-0.3876791000366211
0.26393231749534607,4.216701030731201,-0.3820056915283203
0.2931180000305176,4.207040786743164,-0.38055121898651123
0.32081475853919983,4.185576915740967,-0.37806040048599243
0.353488951921463,4.225958347320557,-0.3811696767807007
0.45311951637268066,4.998414516448975,-0.4502052366733551
0.49031323194503784,5.022383689880371,-0.45136559009552
0.523245096206665,4.995704650878906,-0.4479767680168152
0.5539709329605103,4.957271099090576,-0.4435827136039734
0.5865691304206848,4.937960624694824,-0.4409284293651581
0.6208052039146423,4.933889389038086,-0.4396273195743561
0.649707555770874,4.891062259674072,-0.43455344438552856
0.6840255856513977,4.886528491973877,-0.43289101123809814
0.7127559781074524,4.847169399261475,-0.4281899333000183
0.746475338935852,4.842235088348389,-0.4265533685684204
0.7751586437225342,4.806342124938965,-0.4221647083759308
0.8095865249633789,4.808730125427246,-0.4208589792251587
0.8528273701667786,4.86070442199707,-0.4238928258419037
0.8821844458580017,4.827947616577148,-0.41951507329940796
0.9143043756484985,4.8142194747924805,-0.4168422222137451
0.944673478603363,4.792665004730225,-0.4134325385093689
0.9760209321975708,4.778635501861572,-0.41044655442237854
1.0056498050689697,4.756773948669434,-0.4068135917186737
1.0358600616455078,4.734551906585693,-0.4031359851360321
1.066269040107727,4.716022968292236,-0.39982369542121887
1.0936272144317627,4.685978889465332,-0.3954380452632904
1.1221728324890137,4.663430690765381,-0.39153268933296204
1.1522949934005737,4.6482768058776855,-0.3882787823677063
1.1812950372695923,4.625143527984619,-0.38432738184928894
1.209529161453247,4.601957321166992,-0.38043421506881714
1.2361141443252563,4.574954509735107,-0.3760804533958435
1.2632696628570557,4.551605224609375,-0.3719519078731537
1.2944684028625488,4.54306697845459,-0.3690558671951294
1.322270154953003,4.519066333770752,-0.36485618352890015
1.3514487743377686,4.502530574798584,-0.3613295257091522
1.3799422979354858,4.485982894897461,-0.3575802743434906
1.4058462381362915,4.461850643157959,-0.35323670506477356
1.4317688941955566,4.437481880187988,-0.34888455271720886
1.4595624208450317,4.416368007659912,-0.34474655985832214
1.4926025867462158,4.413791656494141,-0.3420504629611969
0.6034563183784485,1.7453118562698364,-0.13420438766479492
0.611441433429718,1.730242371559143,-0.13200610876083374
0.6380082964897156,1.7663683891296387,-0.13368161022663116
0.675941526889801,1.8314399719238281,-0.13748329877853394
0.6763008236885071,1.7939904928207397,-0.13348625600337982
0.6912721395492554,1.7967413663864136,-0.13250325620174408
0.7078455090522766,1.8029565811157227,-0.1317591816186905
0.713160514831543,1.7799991369247437,-0.1288730651140213
0.704786479473114,1.724636435508728,-0.12367037683725357
0.7196531891822815,1.727049469947815,-0.12257400155067444
1.7948155403137207,4.226683616638184,-0.296924352645874
1.8041435480117798,4.167824745178223,-0.28967979550361633
1.8268619775772095,4.141153335571289,-0.28472593426704407
1.854739785194397,4.129021167755127,-0.28064775466918945
1.8830658197402954,4.116461753845215,-0.2764914929866791
1.9115108251571655,4.103610515594482,-0.2723046541213989
1.9334162473678589,4.076357364654541,-0.26715928316116333
1.9574674367904663,4.056484222412109,-0.26241791248321533
1.9812068939208984,4.036531925201416,-0.25767937302589417
2.0059823989868164,4.015844345092773,-0.2527622580528259
2.028658628463745,3.991594076156616,-0.24766658246517181
2.059037208557129,3.985069513320923,-0.24358829855918884
2.0819737911224365,3.964599132537842,-0.23865650594234467
2.1093125343322754,3.9504010677337646,-0.23399212956428528
2.133114814758301,3.9290008544921875,-0.22887906432151794
2.1445775032043457,3.887427806854248,-0.2224738597869873
2.1417744159698486,3.822294235229492,-0.21487587690353394
2.156780958175659,3.787201404571533,-0.2088632583618164
2.1944406032562256,3.792844533920288,-0.20508868992328644
2.2154836654663086,3.771805763244629,-0.19983290135860443
2.245365858078003,3.7634525299072266,-0.19508686661720276
2.275636672973633,3.7546226978302,-0.19024281203746796
2.2800920009613037,3.7064342498779297,-0.18339654803276062
2.3126330375671387,3.7048871517181396,-0.17888373136520386
2.3426005840301514,3.6955204010009766,-0.17369668185710907
2.359402894973755,3.666522264480591,-0.16750237345695496
2.3703958988189697,3.6317343711853027,-0.16115443408489227
2.408292293548584,3.635098934173584,-0.15622204542160034
2.4153640270233154,3.5930800437927246,-0.14928589761257172
2.429677724838257,3.564770460128784,-0.14297202229499817
2.4546141624450684,3.547893762588501,-0.1366877555847168
2.4781320095062256,3.531742811203003,-0.13045406341552734
2.5007879734039307,3.515963554382324,-0.12418445944786072
2.534383773803711,3.511340856552124,-0.11780882626771927
2.5658133029937744,3.508033514022827,-0.11143984645605087
2.1797471046447754,2.939004898071289,-0.08773918449878693
2.737175226211548,3.8349671363830566,0.1750672310590744
2.7381651401519775,3.896110773086548,0.18426541984081268
2.7122318744659424,3.9233524799346924,0.19185569882392883
2.7022712230682373,3.9677281379699707,0.1997174173593521
2.66367244720459,3.974630117416382,0.20563116669654846
2.618441104888916,3.971557855606079,0.2108536958694458
2.6007144451141357,4.006147384643555,0.21775393187999725
2.560196876525879,4.008708953857422,0.2227308452129364
2.5442402362823486,4.050817966461182,0.22985850274562836
2.5199828147888184,4.074822425842285,0.2356279194355011
2.498462438583374,4.106017589569092,0.24177947640419006
2.482851028442383,4.151560306549072,0.24882356822490692
2.4252591133117676,4.121916770935059,0.2510746121406555
2.4237728118896484,4.185713768005371,0.25891634821891785
2.3732731342315674,4.169427871704102,0.2616651654243469
2.3534207344055176,4.2071943283081055,0.2677983045578003
2.261270523071289,4.11083984375,0.26516008377075195
2.2360262870788574,4.133210182189941,0.2700068950653076
2.208873748779297,4.156336307525635,0.27476581931114197
2.185107469558716,4.1861958503723145,0.2800011932849884
2.1557984352111816,4.20109224319458,0.28406357765197754
2.129364013671875,4.2230072021484375,0.2886676788330078
2.1016018390655518,4.245325088500977,0.2930772006511688
2.0736243724823,4.267458438873291,0.2974994480609894
2.046740770339966,4.288794040679932,0.3017714321613312
2.018373727798462,4.306258201599121,0.30575892329216003
1.9872362613677979,4.320457935333252,0.3093806505203247
1.9533188343048096,4.331362247467041,0.3127535879611969
1.975565791130066,4.466306686401367,0.3250854015350342
1.9707517623901367,4.540498733520508,0.3330244719982147
1.9358428716659546,4.546763896942139,0.3360014855861664
1.8891137838363647,4.528151512145996,0.3369089961051941
1.864323616027832,4.563432693481445,0.3418769836425781
1.828987956047058,4.5690741539001465,0.34454962611198425
1.802791953086853,4.595981121063232,0.3488055467605591
1.7745124101638794,4.619262218475342,0.3527400493621826
1.746427297592163,4.646378993988037,0.3568307161331177
0.6585088968276978,1.7918829917907715,0.1384068727493286
1.3048635721206665,3.6294639110565186,0.2818909287452698
1.2795644998550415,3.638287305831909,0.2841120958328247
1.637665033340454,4.763260364532471,0.37389111518859863
1.6082167625427246,4.789515495300293,0.37769871950149536
1.575469970703125,4.808372497558594,0.3809801936149597
1.5319150686264038,4.78951358795166,0.3812216818332672
0.5745513439178467,1.8403866291046143,0.14714734256267548
1.4716508388519287,4.832401752471924,0.3880862593650818
1.445763349533081,4.872533321380615,0.39279866218566895
1.4172124862670898,4.905054092407227,0.39693382382392883
1.39747154712677,4.971231460571289,0.40384992957115173
1.3473557233810425,4.9243268966674805,0.40154266357421875
1.2899963855743408,4.8468546867370605,0.39671647548675537
1.253546953201294,4.848201274871826,0.39811044931411743
1.2292605638504028,4.898427486419678,0.40347909927368164
1.1954567432403564,4.914637565612793,0.40609976649284363
1.1664525270462036,4.945449352264404,0.40990501642227173
1.1372215747833252,4.9760589599609375,0.4137198030948639
1.1040186882019043,4.991352081298828,0.41620686650276184
1.0758531093597412,5.033199310302734,0.42069265246391296
1.0378422737121582,5.033085823059082,0.4217163622379303
1.0022600889205933,5.04015588760376,0.42333754897117615
0.9715290069580078,5.069820404052734,0.42686739563941956
2.130800247192383,11.553814888000488,0.975212037563324
2.024301290512085,11.426429748535156,0.966447651386261
1.9047690629959106,11.221715927124023,0.9508882164955139
1.799621820449829,11.077154159545898,0.9403855204582214
1.6967980861663818,10.927716255187988,0.9294471740722656
1.601379632949829,10.808103561401367,0.9210284948348999
1.5033575296401978,10.656867980957031,0.9099115133285522
1.4069551229476929,10.516711235046387,0.8991605043411255
1.318073034286499,10.41036319732666,0.8911992311477661
1.2340993881225586,10.33033561706543,0.885511040687561
1.1402137279510498,10.145149230957031,0.8708095550537109
1.0614120960235596,10.075267791748047,0.8660125732421875
0.9920084476470947,10.090001106262207,0.868513286113739
0.3916015625,4.2983784675598145,0.3702508509159088
0.35911959409713745,4.273832321166992,0.3684094250202179
0.3284950852394104,4.26844596862793,0.3682355284690857
0.30067339539527893,4.297762870788574,0.37107226252555847
0.27519500255584717,4.3696208000183105,0.37760666012763977
0.24707509577274323,4.421932697296143,0.3824518024921417
0.21218498051166534,4.341902256011963,0.3756158947944641
0.18184411525726318,4.343259811401367,0.3758375644683838
0.11855952441692352,4.248079776763916,0.36785823106765747
0.08852293342351913,4.24879264831543,0.36807748675346375
0.06101423501968384,4.397160053253174,0.3810625672340393
0.030495405197143555,4.413050174713135,0.38234806060791016
-0.0001937408815138042,4.385919570922852,0.37992504239082336
-0.02899475209414959,4.136755466461182,0.35829049348831177
-0.05701884627342224,4.0469512939453125,0.3504791259765625
-0.08626487851142883,4.100934982299805,0.3551383912563324
-0.11574846506118774,4.135257244110107,0.3580622971057892
-0.1418488770723343,4.060485363006592,0.35134389996528625
-0.1702951192855835,4.067209720611572,0.3516983687877655
-0.17781870067119598,3.642258882522583,0.3147633373737335
-0.1990097165107727,3.5593347549438477,0.30742400884628296
-0.2218150645494461,3.5268149375915527,0.3044613003730774
-0.2622796595096588,3.7542810440063477,0.3238968253135681
-0.2956724464893341,3.849437713623047,0.3317122161388397
-0.31479907035827637,3.7581474781036377,0.3234758973121643
-0.3390807509422302,3.7326345443725586,0.32092198729515076
-0.35630762577056885,3.641141653060913,0.3127249479293823
-0.3755268156528473,3.580559015274048,0.30721086263656616
-0.4094375669956207,3.659147024154663,0.3135913610458374
-0.43549883365631104,3.6640408039093018,0.31349751353263855
-0.4558104872703552,3.618485689163208,0.3090973198413849
-0.47763195633888245,3.5921757221221924,0.306373655796051
-0.49825218319892883,3.557996988296509,0.302996426820755
-0.5167210102081299,3.5121524333953857,0.2986496686935425
-0.545131504535675,3.535496711730957,0.3001212477684021
-0.5685160160064697,3.5240087509155273,0.29849207401275635
-0.5868179798126221,3.4855659008026123,0.2946127951145172
-0.6053972840309143,3.4508535861968994,0.2910715937614441
-1.1623512506484985,6.364779472351074,0.5357431173324585
-1.2102469205856323,6.375808238983154,0.535582959651947
-1.26926851272583,6.443864345550537,0.540007472038269
-1.319483995437622,6.461772918701172,0.5400237441062927
-1.3749386072158813,6.506104469299316,0.542279064655304
-1.4355413913726807,6.568928241729736,0.5460630059242249
-1.4597318172454834,6.4640302658081055,0.5359231233596802
-1.495858073234558,6.4159770011901855,0.5305492281913757
-0.6554784178733826,2.7258074283599854,0.22467313706874847
-0.6880342364311218,2.7780749797821045,0.2282261699438095
-0.7001978158950806,2.7470059394836426,0.22493402659893036
-0.7241142392158508,2.7610256671905518,0.2253350019454956
-0.7412669062614441,2.748497724533081,0.2235729694366455
-0.7574833035469055,2.7320480346679688,0.22146299481391907
-0.7897953987121582,2.7756638526916504,0.2241092473268509
-0.8380342721939087,2.871302366256714,0.23091712594032288
-0.998292088508606,3.335773468017578,0.2672100365161896
-1.0214543342590332,3.3288838863372803,0.2655872404575348
-1.0344876050949097,3.288257122039795,0.261276513338089
-1.0592180490493774,3.2886970043182373,0.26013776659965515
-1.0886836051940918,3.303818464279175,0.260109007358551
-1.093549370765686,3.244852066040039,0.2542683482170105
-1.12869393825531,3.2741711139678955,0.25533220171928406
-2.017977237701416,5.724424839019775,0.44425538182258606
-2.050051689147949,5.688437461853027,0.43917232751846313
-2.073425769805908,5.634582042694092,0.4326087236404419
-2.1030185222625732,5.598902225494385,0.427486777305603
-2.135899543762207,5.57002067565918,0.4228629767894745
-2.1662285327911377,5.533465385437012,0.4176556169986725
-2.2253785133361816,5.5690131187438965,0.4177871644496918
-2.281752586364746,5.6011810302734375,0.4174744784832001
-2.3431859016418457,5.643622398376465,0.41789188981056213
-1.4977424144744873,3.538863182067871,0.260284960269928
-1.5022764205932617,3.4820125102996826,0.25434979796409607
-1.5203129053115845,3.457338809967041,0.2507292926311493
-1.5464750528335571,3.454448938369751,0.24861301481723785
-1.5855954885482788,3.4797403812408447,0.24851234257221222
-1.609480381011963,3.4689536094665527,0.24576370418071747
-1.6336272954940796,3.4578447341918945,0.24297599494457245
-1.6439586877822876,3.418572187423706,0.23812207579612732
-1.6597272157669067,3.3937923908233643,0.23427990078926086
-1.682234764099121,3.382889747619629,0.23140986263751984
-1.6952766180038452,3.3503804206848145,0.22697566449642181
-1.7132996320724487,3.3282506465911865,0.22327648103237152
-1.7315815687179565,3.310183048248291,0.21972377598285675
-1.7501046657562256,3.291804790496826,0.21612586081027985
-1.772594690322876,3.279958486557007,0.21292531490325928
-1.7916988134384155,3.260875940322876,0.20922134816646576
-1.1975452899932861,2.145601987838745,0.13598068058490753
-1.8500667810440063,3.2644565105438232,0.20428523421287537
-1.8004484176635742,3.1268069744110107,0.19304393231868744
-2.586418390274048,4.420821666717529,0.26916635036468506
-2.615658760070801,4.403882026672363,0.26425397396087646
-1.2566090822219849,2.084982395172119,0.12323879450559616
-1.2584831714630127,2.056601047515869,0.11962167918682098
-2.6450536251068115,4.254530429840088,0.24322472512722015
-2.0856945514678955,3.3068532943725586,0.18570110201835632
-2.0859720706939697,3.26067852973938,0.17977969348430634
-2.100135326385498,3.2332170009613037,0.17468209564685822
-2.126195192337036,3.225726842880249,0.1706414669752121
-2.1818299293518066,3.2639780044555664,0.16884292662143707
-2.232309579849243,3.2913968563079834,0.16623002290725708
-2.263709306716919,3.2890989780426025,0.16190439462661743
-2.322402000427246,3.329399585723877,0.15953543782234192
-2.3581178188323975,3.3331844806671143,0.1550733596086502
-2.403883457183838,3.348766326904297,0.15077374875545502
-2.8954315185546875,3.981177568435669,0.17326945066452026
-2.9039101600646973,3.9365687370300293,0.16482621431350708
-3.0107390880584717,4.212686061859131,-0.13374632596969604
-2.439394950866699,3.468717336654663,-0.11622761189937592
-2.77752947807312,4.008647441864014,-0.1407252997159958
-2.7601161003112793,4.048786640167236,-0.1485200822353363
-2.7480356693267822,4.094413757324219,-0.15627101063728333
-2.174107074737549,3.289649724960327,-0.13020534813404083
-1.3190439939498901,2.0294525623321533,-0.08320672810077667
-1.2961790561676025,2.025491952896118,-0.08568069338798523
-1.3023933172225952,2.067657947540283,-0.09008278697729111
-1.2663081884384155,2.0440430641174316,-0.09160588681697845
-1.2598767280578613,2.0661942958831787,-0.09502860903739929
-2.007874011993408,3.3469865322113037,-0.15783202648162842
-2.099947452545166,3.5599331855773926,-0.17186635732650757
-1.8686546087265015,3.2202696800231934,-0.15893830358982086
-1.8016103506088257,3.155097484588623,-0.15900862216949463
-1.1842894554138184,2.1097795963287354,-0.10847681015729904
-1.7584599256515503,3.1878650188446045,-0.16716521978378296
-1.7566949129104614,3.2375614643096924,-0.17284637689590454
-1.7593600749969482,3.2979576587677,-0.17914938926696777
-1.894642949104309,3.61460280418396,-0.19964607059955597
-1.888375163078308,3.6660025119781494,-0.20574989914894104
-1.8763538599014282,3.706958532333374,-0.21131521463394165
-2.466156482696533,4.960197925567627,-0.2869367003440857
-2.423085927963257,4.9637227058410645,-0.29126912355422974
-1.6964716911315918,3.538379192352295,-0.21048016846179962
-1.661773681640625,3.528747081756592,-0.21269889175891876
-1.6395978927612305,3.547494649887085,-0.21652740240097046
-1.6101953983306885,3.55216383934021,-0.21952544152736664
-1.588232159614563,3.5703723430633545,-0.22325971722602844
-2.241914749145508,5.135875225067139,-0.3248562514781952
-2.185140609741211,5.104901313781738,-0.3264213800430298
-1.6096457242965698,3.836604118347168,-0.2479362040758133
-1.6042144298553467,3.9019737243652344,-0.2548075020313263
-1.5157389640808105,3.7609710693359375,-0.24806946516036987
-1.4532536268234253,3.6807563304901123,-0.24509572982788086
-1.3888462781906128,3.592714309692383,-0.2414228320121765
-1.342524766921997,3.5476341247558594,-0.24053998291492462
-1.3118622303009033,3.542274236679077,-0.24231600761413574
-1.2922776937484741,3.565871238708496,-0.2460077553987503
-1.2615025043487549,3.5601584911346436,-0.247567817568779
-1.241079330444336,3.583653688430786,-0.25117167830467224
-1.2159833908081055,3.592069387435913,-0.2536936402320862
-1.1978580951690674,3.6226110458374023,-0.2578269839286804
-1.1518062353134155,3.567789316177368,-0.2556898891925812
-0.9753324389457703,3.0962440967559814,-0.2233944535255432
-0.9579920172691345,3.1178205013275146,-0.2264544814825058
-0.8914827704429626,2.9749743938446045,-0.2174985706806183
-0.8007206916809082,2.7416298389434814,-0.20172004401683807
-0.7755373120307922,2.72849440574646,-0.20192590355873108
-0.7519601583480835,2.718804121017456,-0.20236265659332275
-0.7329217195510864,2.7238848209381104,-0.20388375222682953
-0.7139612436294556,2.728802442550659,-0.20539581775665283
-0.7072482705116272,2.7827277183532715,-0.21054252982139587
-1.49001944065094,6.0442986488342285,-0.45956310629844666
-1.4617254734039307,6.115077495574951,-0.4671953618526459
-1.4577968120574951,6.2918524742126465,-0.48299720883369446
-1.4173625707626343,6.316817283630371,-0.4872352182865143
-1.3712025880813599,6.318813323974609,-0.48941299319267273
-1.3209950923919678,6.305413722991943,-0.49035483598709106
-1.2688192129135132,6.276180744171143,-0.49003347754478455
-1.213925838470459,6.227313995361328,-0.48814988136291504
-1.1633150577545166,6.197142124176025,-0.48772794008255005
-1.1106514930725098,6.155184268951416,-0.48597976565361023
-1.0485795736312866,6.059204578399658,-0.47995615005493164
-0.9352939128875732,5.639807224273682,-0.44817137718200684
-0.7763848900794983,4.892197132110596,-0.3900132477283478
-0.7358769178390503,4.855001926422119,-0.3882860541343689
-0.8703041672706604,6.0277276039123535,-0.4832491874694824
-0.6515964865684509,4.752857208251953,-0.38199836015701294
-0.6183448433876038,4.757193088531494,-0.38330063223838806
-0.5914884209632874,4.811506271362305,-0.38865146040916443
-0.5575645565986633,4.811533451080322,-0.38960790634155273
-0.5251931548118591,4.826846122741699,-0.3915157616138458
-0.5926875472068787,5.825827121734619,-0.4733743369579315
-0.5527697801589966,5.845297336578369,-0.47582322359085083
-0.5106574296951294,5.833398342132568,-0.4757259488105774
-0.4677768051624298,5.809561729431152,-0.4746178388595581
-0.25419777631759644,3.4596240520477295,-0.2829243838787079
-0.23125775158405304,3.4807071685791016,-0.2849509119987488
-0.2084193229675293,3.5133142471313477,-0.28794342279434204
-0.29838865995407104,5.699628829956055,-0.4676651954650879
-0.25734859704971313,5.670397758483887,-0.4657774865627289
-0.21712186932563782,5.6525750160217285,-0.46448829770088196
-0.17722852528095245,5.638360500335693,-0.46351727843284607
-0.13638131320476532,5.600528240203857,-0.4606286287307739
-0.09688042849302292,5.566282749176025,-0.4580501616001129
-0.058096326887607574,5.559013366699219,-0.4576839804649353
-0.015600396320223808,4.453661918640137,-0.3665734827518463
0.015006939880549908,4.3563432693481445,-0.3584780991077423
0.056828711181879044,5.399427890777588,-0.44422653317451477
0.09479634463787079,5.422265529632568,-0.4460427165031433
0.13217951357364655,5.405914783477783,-0.4446481466293335
0.1686253845691681,5.369886875152588,-0.44127029180526733
0.20193755626678467,5.26358699798584,-0.4321490526199341
0.19354453682899475,4.270349502563477,-0.3503066301345825
0.2736482322216034,5.221441268920898,-0.4279795289039612
0.254297137260437,4.2828288078308105,-0.3507823348045349
0.27882400155067444,4.203324794769287,-0.34373047947883606
0.3070605993270874,4.189701557159424,-0.3420878052711487
0.3364045023918152,4.191409587860107,-0.34171366691589355
0.37006574869155884,4.235530853271484,-0.34479838609695435
0.474484920501709,5.027554512023926,-0.4086948335170746
0.5084479451179504,5.0165019035339355,-0.4068930149078369
0.5200421810150146,4.800058364868164,-0.388469398021698
0.5224631428718567,4.529538631439209,-0.3657727539539337
0.560624361038208,4.5760650634765625,-0.36871781945228577
0.599946141242981,4.630067348480225,-0.3722773790359497
0.6666929721832275,4.880564212799072,-0.39129531383514404
0.7003661394119263,4.875965595245361,-0.38979730010032654
0.7317705154418945,4.855719089508057,-0.38706764578819275
0.7612510323524475,4.819769382476807,-0.38309094309806824
0.7922589182853699,4.799100875854492,-0.38037577271461487
0.8345900177955627,4.847395420074463,-0.3828331530094147
0.8706938028335571,4.857011795043945,-0.382220596075058
0.8999987840652466,4.828042984008789,-0.3785851299762726
0.9335509538650513,4.821810722351074,-0.3767506182193756
0.9615305662155151,4.784677505493164,-0.37249755859375
0.9911911487579346,4.76287317276001,-0.36919063329696655
1.0222773551940918,4.748493671417236,-0.3664824366569519
1.0507943630218506,4.722477912902832,-0.362896591424942
1.076661467552185,4.684840679168701,-0.3584382236003876
1.107895016670227,4.669713497161865,-0.3556688129901886
1.1380507946014404,4.654616832733154,-0.35271376371383667
1.164207935333252,4.6242218017578125,-0.34862998127937317
1.1961334943771362,4.616246223449707,-0.34624651074409485
1.224220633506775,4.592929840087891,-0.3427220582962036
1.255478858947754,4.580631732940674,-0.3399305045604706
1.2804354429244995,4.549631118774414,-0.3356379270553589
1.309314489364624,4.533485412597656,-0.33247247338294983
1.3363360166549683,4.509533405303955,-0.3287270665168762
1.363234519958496,4.485379695892334,-0.32498663663864136
1.390023112297058,4.46103048324585,-0.32108524441719055
1.4228079319000244,4.459069728851318,-0.318757027387619
1.4484769105911255,4.434606075286865,-0.31483083963394165
1.4731364250183105,4.406137943267822,-0.3106164038181305
0.61564040184021,1.7996959686279297,-0.12597805261611938
0.6304525136947632,1.8029098510742188,-0.12522576749324799
0.6402842402458191,1.7912541627883911,-0.12342482060194016
0.655278205871582,1.7942142486572266,-0.12264134734869003
0.6595814228057861,1.7677812576293945,-0.11985155194997787
0.6869961619377136,1.8033645153045654,-0.12123280763626099
0.7020262479782104,1.806028127670288,-0.12033338844776154
0.7144826054573059,1.801230549812317,-0.11891752481460571
0.7021608352661133,1.7348544597625732,-0.11346882581710815
0.7172341346740723,1.7372075319290161,-0.1125531867146492
0.7471150755882263,1.775540828704834,-0.11387550085783005
1.7994358539581299,4.196966171264648,-0.26642149686813354
1.8225998878479004,4.170170783996582,-0.2618790864944458
1.8452918529510498,4.143333911895752,-0.2573842704296112
1.8702006340026855,4.123814105987549,-0.2532767057418823
1.8946527242660522,4.104273319244385,-0.24914324283599854
1.9160152673721313,4.077338695526123,-0.2445441633462906
1.9414758682250977,4.05686092376709,-0.24025146663188934
1.9639849662780762,4.03322696685791,-0.23577910661697388
1.9926552772521973,4.02371883392334,-0.23209425806999207
2.019969940185547,4.010303020477295,-0.2281404435634613
2.046125650405884,3.9928677082061768,-0.22388812899589539
2.0732953548431396,3.9790549278259277,-0.21981030702590942
2.0965921878814697,3.9582295417785645,-0.2152630090713501
2.1197779178619385,3.9372265338897705,-0.21071802079677582
2.147212505340576,3.9225594997406006,-0.20643949508666992
2.1337838172912598,3.836599826812744,-0.19842414557933807
2.159198045730591,3.822572946548462,-0.19417710602283478
2.1741645336151123,3.7873291969299316,-0.18869896233081818
2.204350233078003,3.7790982723236084,-0.18459676206111908
2.237074375152588,3.7781898975372314,-0.1807853728532791
2.249972105026245,3.7434401512145996,-0.17533892393112183
2.2719714641571045,3.7212047576904297,-0.17030873894691467
2.3015284538269043,3.712402582168579,-0.16580812633037567
2.325763702392578,3.697476625442505,-0.16108863055706024
2.346954822540283,3.6750152111053467,-0.15584339201450348
2.3677306175231934,3.652573585510254,-0.15055438876152039
2.3913745880126953,3.6373414993286133,-0.1455450803041458
2.4077701568603516,3.607959032058716,-0.13970810174942017
2.427983283996582,3.585164785385132,-0.13410811126232147
2.4465081691741943,3.5632760524749756,-0.1285652369260788
2.470731019973755,3.5467231273651123,-0.12293293327093124
2.4944612979888916,3.530268907546997,-0.11718519777059555
2.5081589221954346,3.5015437602996826,-0.11095545440912247
2.5416181087493896,3.4968554973602295,-0.10509831458330154
2.1815805435180664,2.962047815322876,-0.08413329720497131
2.6807351112365723,3.784813642501831,0.15571068227291107
2.671215057373047,3.8294172286987305,0.16306927800178528
2.6788747310638428,3.904538631439209,0.1718032956123352
2.674708604812622,3.9590554237365723,0.1793544888496399
2.645390272140503,3.9784395694732666,0.18515177071094513
2.6318111419677734,4.024524211883545,0.19217455387115479
2.6036734580993652,4.0425310134887695,0.19744743406772614
2.5740976333618164,4.0611677169799805,0.20270878076553345
2.5344226360321045,4.0673956871032715,0.20736825466156006
2.5014266967773438,4.078367233276367,0.211909681558609
2.488503932952881,4.122521877288818,0.21811456978321075
2.457329273223877,4.140926361083984,0.22287778556346893
2.43084716796875,4.165314197540283,0.22787334024906158
2.3973522186279297,4.175439834594727,0.23198261857032776
2.382258653640747,4.2197065353393555,0.237859308719635
2.2882912158966064,4.124514579772949,0.23576463758945465
2.2343945503234863,4.096047878265381,0.23724843561649323
2.2223072052001953,4.142276287078857,0.24298395216464996
2.2022716999053955,4.179205417633057,0.24814553558826447
2.1675992012023926,4.188281536102295,0.2515847682952881
2.141231060028076,4.210354328155518,0.25570201873779297
2.108372688293457,4.2179646492004395,0.2588898241519928
2.0881502628326416,4.253879070281982,0.2637183368206024
2.0562641620635986,4.269162178039551,0.267276406288147
2.0254738330841064,4.283641338348389,0.27070024609565735
1.9988417625427246,4.304523944854736,0.27446693181991577
1.9650506973266602,4.311275482177734,0.27728721499443054
2.0129833221435547,4.503346920013428,0.2919929325580597
4.462391376495361,10.181879043579102,0.6654974222183228
4.412805080413818,10.266685485839844,0.6762617230415344
1.8858015537261963,4.472933769226074,0.296856164932251
1.877394437789917,4.543842315673828,0.3036653399467468
1.8632960319519043,4.604166030883789,0.30977216362953186
1.8328965902328491,4.62454080581665,0.31321462988853455
1.7944329977035522,4.622681140899658,0.31512704491615295
1.7815390825271606,4.685904026031494,0.3214753568172455
0.6577375531196594,1.7683212757110596,0.12200069427490234
1.3218305110931396,3.633845090866089,0.25210806727409363
1.2931828498840332,3.6357240676879883,0.2536298334598541
1.2648028135299683,3.637301206588745,0.2551257014274597
1.5931501388549805,4.686529159545898,0.33048421144485474
1.5766098499298096,4.749481678009033,0.3364819288253784
1.5832053422927856,4.886605262756348,0.34779566526412964
1.5352765321731567,4.856762886047363,0.34726130962371826
1.491612434387207,4.83756685256958,0.34746840596199036
1.4736100435256958,4.89991569519043,0.3535280227661133
1.438649296760559,4.910139560699463,0.35566359758377075
1.406633734703064,4.9314141273498535,0.3585577607154846
1.3754290342330933,4.956233978271484,0.36173537373542786
1.3042535781860352,4.830135822296143,0.353846937417984
1.27200186252594,4.846639156341553,0.3564077615737915
1.2417057752609253,4.870436668395996,0.3593915104866028
1.2116297483444214,4.89794921875,0.3625146448612213
1.1821327209472656,4.9290666580200195,0.3659324049949646
1.147347092628479,4.937151908874512,0.3676515817642212
1.114024043083191,4.952635288238525,0.3699479401111603
1.0877939462661743,4.998212814331055,0.3745006024837494
1.05304753780365,5.009520530700684,0.37625056505203247
1.0236148834228516,5.047311782836914,0.37999385595321655
0.9847322702407837,5.039056301116943,0.38029226660728455
2.1808533668518066,11.596170425415039,0.8773031830787659
2.0696136951446533,11.442154884338379,0.8677703738212585
1.9547755718231201,11.256569862365723,0.8556071519851685
1.858518362045288,11.170014381408691,0.8505072593688965
1.748781442642212,10.990362167358398,0.8383241891860962
1.6472421884536743,10.852224349975586,0.8293200731277466
1.5493717193603516,10.709044456481934,0.8198854923248291
1.4556986093521118,10.580476760864258,0.8115675449371338
1.3608262538909912,10.431920051574707,0.8013591766357422
1.2692806720733643,10.294212341308594,0.7917512655258179
1.184580683708191,10.198312759399414,0.7853754758834839
1.1014184951782227,10.109559059143066,0.7795796394348145
1.025953769683838,10.066478729248047,0.7773048877716064
0.4125123620033264,4.346458435058594,0.33608824014663696
0.37798455357551575,4.302644729614258,0.332969605922699
0.34376683831214905,4.254687309265137,0.32948368787765503
0.31453824043273926,4.272536277770996,0.33111292123794556
0.2847427725791931,4.274592876434326,0.331529825925827
0.2642497718334198,4.431946277618408,0.3440168499946594
0.23220711946487427,4.410307884216309,0.34263476729393005
0.19834624230861664,4.345669746398926,0.3376918137073517
0.16190379858016968,4.20296573638916,0.32667505741119385
0.13348273932933807,4.235123157501221,0.32926249504089355
0.10561215877532959,4.302123546600342,0.33457669615745544
0.07507890462875366,4.267695903778076,0.33201947808265686
0.04457557573914528,4.18632173538208,0.3258211314678192
0.015845833346247673,4.447467803955078,0.34604182839393616
-0.014753756113350391,4.342325687408447,0.337777704000473
-0.042114004492759705,4.0656304359436035,0.31619149446487427
-0.07036973536014557,4.065245628356934,0.3161141276359558
-0.09847516566514969,4.056877136230469,0.3154312074184418
-0.12719032168388367,4.071671009063721,0.31654566526412964
-0.15754136443138123,4.113506317138672,0.3195454180240631
-0.1848486214876175,4.085105895996094,0.3171074688434601
-0.18513472378253937,3.547029972076416,0.27515146136283875
-0.20889607071876526,3.5301263332366943,0.2736656069755554
-0.23290905356407166,3.520838737487793,0.2727847993373871
-0.2797263264656067,3.818214178085327,0.29562464356422424
-0.30483365058898926,3.8007028102874756,0.2939126789569855
-0.33042770624160767,3.790783643722534,0.29280346632003784
-0.3475036919116974,3.691506862640381,0.28481534123420715
-0.36490118503570557,3.6076669692993164,0.278045654296875
-0.38703569769859314,3.5740582942962646,0.2751651108264923
-0.42649680376052856,3.6990203857421875,0.28444042801856995
-0.44906502962112427,3.6728615760803223,0.2819328010082245
-0.4732910394668579,3.6620192527770996,0.2806183993816376
-0.4942714273929596,3.6278555393218994,0.2775343954563141
-0.5182616710662842,3.612757921218872,0.2759150564670563
-0.5375663638114929,3.5706048011779785,0.27225711941719055
-0.5574122667312622,3.5360774993896484,0.2691216766834259
-0.5746768116950989,3.4899613857269287,0.26502203941345215
-0.5959503054618835,3.4706499576568604,0.26297998428344727
-0.6040620803833008,3.378333806991577,0.255433052778244
-1.1866960525512695,6.376606464385986,0.4810822904109955
-1.2383484840393066,6.406581401824951,0.4823298752307892
-1.291481852531433,6.443908214569092,0.4839051067829132
-1.3456920385360718,6.484689235687256,0.48561573028564453
-0.7595335245132446,3.5386762619018555,0.26427167654037476
-0.7843799591064453,3.533336639404297,0.2631353437900543
-1.3036003112792969,5.684844493865967,0.4222031235694885
-1.3413866758346558,5.6681742668151855,0.41982561349868774
-0.6766122579574585,2.7746400833129883,0.2048081010580063
-0.7030874490737915,2.8002758026123047,0.2059944123029709
-0.7127183675765991,2.7576918601989746,0.20216211676597595
-0.7318835854530334,2.7527449131011963,0.20110537111759186
-0.7458774447441101,2.7288706302642822,0.19868028163909912
-0.7741457223892212,2.7575111389160156,0.20002448558807373
-0.813302218914032,2.8234381675720215,0.20396709442138672
-0.979644238948822,3.314901351928711,0.23847468197345734
-1.0046168565750122,3.3156685829162598,0.23754633963108063
-1.0206774473190308,3.286388874053955,0.23446904122829437
-1.0505608320236206,3.3016111850738525,0.23457814753055573
-1.0728176832199097,3.2945618629455566,0.23295128345489502
-1.1015247106552124,3.3057398796081543,0.23259462416172028
-1.12007737159729,3.287264585494995,0.23017479479312897
-1.135233998298645,3.257422924041748,0.22694846987724304
-2.0357744693756104,5.713348388671875,0.39607155323028564
-2.0625479221343994,5.666633129119873,0.39069101214408875
-2.089714288711548,5.623631000518799,0.3855249583721161
-2.114264965057373,5.572990894317627,0.379841685295105
-2.1459381580352783,5.5401930809021,0.37537479400634766
-2.18447208404541,5.525331974029541,0.3721458911895752
-2.2439424991607666,5.564781188964844,0.3724134862422943
-2.31225848197937,5.6256022453308105,0.3739636242389679
-2.353527784347534,5.617156028747559,0.37084463238716125
-1.4872585535049438,3.4817490577697754,0.22825029492378235
-1.5052632093429565,3.4571475982666016,0.22502991557121277
-1.5254552364349365,3.439908504486084,0.22221903502941132
-1.5611809492111206,3.4582536220550537,0.22166141867637634
-1.600978136062622,3.4831340312957764,0.22146230936050415
-1.615323543548584,3.4508466720581055,0.21758730709552765
-1.6359803676605225,3.432621479034424,0.21462659537792206
-1.6485480070114136,3.4007797241210938,0.21069936454296112
-1.660718560218811,3.3689424991607666,0.20680008828639984
-1.6840001344680786,3.3575315475463867,0.20409174263477325
-1.7074068784713745,3.3458549976348877,0.20135940611362457
-1.7175204753875732,3.310107707977295,0.1971471607685089
-1.742966890335083,3.3057680130004883,0.19475921988487244
-1.7575193643569946,3.280527114868164,0.19113889336585999
-1.7766026258468628,3.2615206241607666,0.18779981136322021
-1.1907474994659424,2.1502044200897217,0.12229246646165848
-1.8167203664779663,3.230738878250122,0.18141230940818787
-1.837814450263977,3.218953847885132,0.17841210961341858
-2.5886452198028564,4.461727142333984,0.24382245540618896
-2.6113369464874268,4.4306182861328125,0.23863935470581055
-2.618553638458252,4.376655101776123,0.2321125864982605
-1.2598146200180054,2.074732542037964,0.10832029581069946
-2.6447997093200684,4.288137435913086,0.2201017141342163
-2.075101137161255,3.3144984245300293,0.16714683175086975
-2.088052988052368,3.2880618572235107,0.1627824306488037
-2.0893547534942627,3.241086006164551,0.15726564824581146
-1.308201789855957,1.9986690282821655,0.09495923668146133
-2.726152181625366,4.1075544357299805,0.19088751077651978
-2.7527921199798584,4.089986801147461,0.18571960926055908
-2.77239990234375,4.058072566986084,0.17961111664772034
-2.343266725540161,3.382176160812378,0.14566391706466675
-2.8203141689300537,4.015868186950684,0.16812901198863983
-2.8142831325531006,3.948650360107422,0.16009391844272614
-2.859872817993164,3.9594264030456543,0.15520180761814117
-2.9132397174835205,3.978792190551758,0.15031729638576508
-2.926210641860962,3.9403719902038574,0.14281721413135529
-2.461702585220337,3.472520589828491,-0.10289447009563446
-2.44100284576416,3.4964587688446045,-0.10880061984062195
-2.7516491413116455,4.003122329711914,-0.13024824857711792
-2.7492763996124268,4.0659637451171875,-0.1380317360162735
-2.1883413791656494,3.2854373455047607,-0.11571737378835678
-2.1723225116729736,3.3145718574523926,-0.12089641392230988
-1.2929530143737793,2.004742383956909,-0.07554297894239426
-1.297755479812622,2.043285846710205,-0.07932017743587494
-2.647167921066284,4.238374710083008,-0.16935022175312042
-1.2753335237503052,2.0754940509796143,-0.08517687767744064
-2.0124332904815674,3.3267836570739746,-0.13994412124156952
-2.0038907527923584,3.3681561946868896,-0.14507707953453064
-2.7161176204681396,4.642792224884033,-0.2045869529247284
-1.8341693878173828,3.1867456436157227,-0.14344340562820435
-1.2075169086456299,2.1331026554107666,-0.0979699194431305
-1.7515840530395508,3.147955894470215,-0.14741574227809906
-1.7553644180297852,3.2081191539764404,-0.15300826728343964
-1.7422080039978027,3.2373015880584717,-0.15712960064411163
-1.8585169315338135,3.5156681537628174,-0.17356324195861816
-1.8956867456436157,3.6502130031585693,-0.18316425383090973
-1.8825916051864624,3.687504768371582,-0.18787351250648499
-2.502211570739746,4.987496376037598,-0.25790277123451233
-2.465792179107666,5.005362510681152,-0.2625094950199127
-1.69512939453125,3.505650520324707,-0.18645167350769043
-1.6740115880966187,3.5242602825164795,-0.18990451097488403
-1.6424832344055176,3.521686315536499,-0.19218690693378448
-1.616941213607788,3.533323287963867,-0.1951674520969391
-1.5946660041809082,3.5518224239349365,-0.19852778315544128
-1.5698648691177368,3.562692403793335,-0.20140326023101807
-2.209713935852051,5.113431930541992,-0.2923278212547302
-2.1696813106536865,5.121847152709961,-0.2958776354789734
-1.6047669649124146,3.865450859069824,-0.225607231259346
-2.118964910507202,5.205806732177734,-0.30683717131614685
-2.1693382263183594,5.437582492828369,-0.3236285150051117
-2.1423282623291016,5.485748767852783,-0.3294830024242401
-1.3842806816101074,3.6210291385650635,-0.21942415833473206
-1.3465310335159302,3.597632646560669,-0.21989023685455322
-1.313368558883667,3.584812879562378,-0.2209724485874176
-1.287894368171692,3.5938992500305176,-0.22330552339553833
-1.2591183185577393,3.595674514770508,-0.22517052292823792
-1.2335678339004517,3.6043779850006104,-0.22743329405784607
-1.210890531539917,3.620142936706543,-0.2301255464553833
-1.1927915811538696,3.650625705718994,-0.23374664783477783
-0.9985255599021912,3.1314306259155273,-0.2018236666917801
-0.9734673500061035,3.1310291290283203,-0.20314539968967438
