X,Y,Z
0.7285848259925842,2.43666672706604,-0.1957145631313324
0.7430136203765869,2.424292802810669,-0.19345572590827942
0.7727331519126892,2.460066318511963,-0.19501136243343353
0.8041999340057373,2.499246835708618,-0.19679996371269226
0.8264458775520325,2.5085384845733643,-0.1960696429014206
0.8447871208190918,2.5066792964935303,-0.19447588920593262
0.8697260022163391,2.523022413253784,-0.19426843523979187
0.9028425812721252,2.5611393451690674,-0.19569626450538635
0.9377020597457886,2.602642059326172,-0.19729357957839966
0.9580986499786377,2.6036696434020996,-0.195709690451622
0.9925816059112549,2.6408984661102295,-0.19679312407970428
1.0151610374450684,2.644993543624878,-0.19537188112735748
1.0477968454360962,2.6743016242980957,-0.19579167664051056
1.0818688869476318,2.707096815109253,-0.1963168978691101
1.114909052848816,2.7359671592712402,-0.19650119543075562
1.1400930881500244,2.742642641067505,-0.19499571621418
1.1683236360549927,2.756335973739624,-0.19398757815361023
1.1361453533172607,2.630361318588257,-0.18317168951034546
1.147606611251831,2.6085283756256104,-0.17966842651367188
1.1654255390167236,2.600790500640869,-0.1771296262741089
1.172529935836792,2.5677998065948486,-0.17282314598560333
1.1984224319458008,2.5775084495544434,-0.17140445113182068
1.2190757989883423,2.576610565185547,-0.16921281814575195
1.3211467266082764,2.7441182136535645,-0.17791330814361572
1.5084043741226196,3.078230619430542,-0.19692395627498627
1.5699596405029297,3.148078680038452,-0.19859516620635986
1.5980322360992432,3.1516411304473877,-0.19599799811840057
1.6229203939437866,3.147894859313965,-0.19289958477020264
1.4256285429000854,2.7187302112579346,-0.16404539346694946
1.4295419454574585,2.6815502643585205,-0.15924158692359924
1.4547854661941528,2.6858856678009033,-0.15688380599021912
1.4620708227157593,2.6554276943206787,-0.1524001806974411
1.472947597503662,2.631728172302246,-0.1483267992734909
1.450169324874878,2.5506882667541504,-0.14108480513095856
1.4592430591583252,2.5276784896850586,-0.13712935149669647
1.4391603469848633,2.4537649154663086,-0.13039086759090424
1.354556918144226,2.2727596759796143,-0.11815553158521652
1.3492921590805054,2.230558395385742,-0.11339234560728073
1.356083869934082,2.208292007446289,-0.1096482127904892
1.3714348077774048,2.1989474296569824,-0.1064707338809967
1.3734896183013916,2.1701507568359375,-0.10236546397209167
1.3921502828598022,2.167661190032959,-0.09945451468229294
1.4029903411865234,2.151499032974243,-0.09578866511583328
1.4130659103393555,2.1356873512268066,-0.09214872866868973
1.4116729497909546,2.1039199829101562,-0.08785329014062881
1.4306590557098389,2.1006553173065186,-0.08456547558307648
1.4402865171432495,2.0847249031066895,-0.08071283251047134
1.449312686920166,2.0690691471099854,-0.07688931375741959
1.4501436948776245,2.0399491786956787,-0.07236891984939575
1.4768441915512085,2.0497817993164062,-0.06922896951436996
1.4721237421035767,2.0147435665130615,-0.06437673419713974
1.471588373184204,1.9861762523651123,-0.05966687574982643
2.226295232772827,3.1157479286193848,0.14208009839057922
2.2026615142822266,3.1322221755981445,0.14808803796768188
2.19181227684021,3.1633288860321045,0.15441033244132996
2.593683958053589,3.80558705329895,0.19143520295619965
3.150975465774536,4.695722579956055,0.2427213042974472
2.431109666824341,3.679077625274658,0.19504055380821228
3.1208856105804443,4.803647994995117,0.2609483301639557
3.109292984008789,4.86180305480957,0.26994600892066956
1.6404266357421875,2.6050174236297607,0.14764809608459473
1.6000577211380005,2.5840227603912354,0.1493363380432129
3.0342371463775635,4.981085777282715,0.29319697618484497
3.0087788105010986,5.018880844116211,0.3005931079387665
2.995643138885498,5.08077335357666,0.3092886507511139
2.9652044773101807,5.116255283355713,0.3163827061653137
2.8285794258117676,4.960482120513916,0.3112184405326843
2.7690489292144775,4.935545921325684,0.3140384554862976
2.6938984394073486,4.887732028961182,0.31518253684043884
2.622220516204834,4.842112064361572,0.3162769377231598
2.5718233585357666,4.829014301300049,0.31919363141059875
2.512629270553589,4.798211097717285,0.3208867311477661
2.446658134460449,4.757448673248291,0.3216288685798645
2.386129856109619,4.7267045974731445,0.323044091463089
2.3339617252349854,4.704555511474609,0.3247491121292114
1.2487295866012573,2.561734676361084,0.17858248949050903
1.2198814153671265,2.549532890319824,0.17936637997627258
1.1994059085845947,2.5547657012939453,0.18135064840316772
1.1860986948013306,2.5736992359161377,0.18426522612571716
1.159752368927002,2.5641486644744873,0.18514367938041687
1.1557198762893677,2.6042439937591553,0.18954302370548248
2.0820488929748535,4.785367012023926,0.3509095311164856
2.0563080310821533,4.821643352508545,0.356202095746994
2.037666082382202,4.871557235717773,0.3624388873577118
2.0163304805755615,4.918080806732178,0.3685232996940613
1.99252450466156,4.961124420166016,0.37415245175361633
2.4212069511413574,6.157402992248535,0.46727725863456726
2.365769386291504,6.145209312438965,0.4692178964614868
1.9889057874679565,5.275325775146484,0.4051935374736786
1.9716531038284302,5.343863487243652,0.41293781995773315
1.93584406375885,5.364972114562988,0.4167563319206238
2.081040382385254,5.900257110595703,0.4607057273387909
2.06550669670105,5.992037773132324,0.47026193141937256
2.016228199005127,5.983870029449463,0.47196197509765625
1.9603192806243896,5.957050800323486,0.47223204374313354
1.9129197597503662,5.955827713012695,0.47421157360076904
1.885125994682312,6.017518997192383,0.48115622997283936
1.8601820468902588,6.090217113494873,0.4890316426753998
1.8299418687820435,6.143841743469238,0.4953770041465759
1.791443943977356,6.171153545379639,0.49964338541030884
1.7555136680603027,6.213613033294678,0.505023717880249
1.7305949926376343,6.297142505645752,0.5135869979858398
1.7005490064620972,6.365575313568115,0.5209814310073853
1.6695582866668701,6.429887294769287,0.528059184551239
0.822808027267456,3.2621071338653564,0.26882803440093994
1.546385645866394,6.319950580596924,0.5226243734359741
0.798637330532074,3.368014335632324,0.27928248047828674
1.448933720588684,6.310662269592285,0.5247491598129272
1.4042046070098877,6.320574760437012,0.5270418524742126
1.3463112115859985,6.265291213989258,0.5238825082778931
1.298744559288025,6.259231090545654,0.5248730182647705
1.2478487491607666,6.233678340911865,0.5239992141723633
1.1852127313613892,6.146646976470947,0.517784059047699
1.1359431743621826,6.124119281768799,0.5170058012008667
1.0868581533432007,6.097286701202393,0.5158650875091553
1.0495259761810303,6.139217376708984,0.5205808877944946
1.0016998052597046,6.1154985427856445,0.5197363495826721
0.9518734812736511,6.079996109008789,0.5175520181655884
0.8921677470207214,5.974818706512451,0.5093907713890076
0.8438553810119629,5.9384765625,0.5071030259132385
0.8096305131912231,6.002045154571533,0.5133746862411499
0.7698594331741333,6.022860050201416,0.5160102248191833
0.6131405234336853,5.077398300170898,0.43571826815605164
0.5708523392677307,5.023505687713623,0.4315238296985626
0.5499656200408936,5.162781715393066,0.443951278924942
0.22834131121635437,2.296630382537842,0.1977044939994812
0.21493986248970032,2.3291618824005127,0.2007349729537964
0.203009232878685,2.380983591079712,0.20544220507144928
0.1906404346227646,2.436633825302124,0.2104635238647461
0.298481822013855,4.192551136016846,0.36231890320777893
0.26730918884277344,4.167323589324951,0.36034396290779114
0.2405058741569519,4.21959924697876,0.36509326100349426
0.3895244896411896,7.785390853881836,0.67406165599823
0.334441214799881,7.764519691467285,0.6727303266525269
0.2792637050151825,7.731607437133789,0.6702190041542053
0.22423604130744934,7.6944499015808105,0.6670224666595459
0.1691286712884903,7.672487735748291,0.6651764512062073
0.11508376896381378,7.630660533905029,0.6616390943527222
0.06178731471300125,7.607913017272949,0.6597870588302612
0.008831134997308254,7.600360870361328,0.6592844724655151
-0.04395689442753792,7.584672451019287,0.6579227447509766
-0.09699302166700363,7.5336127281188965,0.6532093286514282
-0.1493796557188034,7.532783031463623,0.6528900265693665
-0.2009257823228836,7.5004682540893555,0.649874210357666
-0.2520296573638916,7.467801570892334,0.6468609571456909
-0.30379718542099,7.462006568908691,0.6462075710296631
-0.35577479004859924,7.463650226593018,0.6460207104682922
-0.29671037197113037,5.42090368270874,0.46877521276474
-0.3337628245353699,5.411001205444336,0.46751531958580017
-0.3702150881290436,5.393076419830322,0.4655858874320984
-0.40643489360809326,5.374906539916992,0.46365976333618164
-0.44375747442245483,5.37200403213501,0.4630735516548157
-0.4735240042209625,5.279659271240234,0.4546375274658203
-0.44731882214546204,4.629401206970215,0.3981019854545593
-0.4771963953971863,4.6069207191467285,0.39564770460128784
-0.5098738074302673,4.611318111419678,0.39552041888237
-0.5373683571815491,4.569075584411621,0.3914119601249695
-0.5687131881713867,4.557504177093506,0.38994675874710083
-0.6001647710800171,4.553550720214844,0.38899537920951843
-0.6282225847244263,4.526278495788574,0.3859536945819855
-0.6581805944442749,4.514243125915527,0.384234219789505
-0.6864206790924072,4.490438461303711,0.38153132796287537
-0.7181644439697266,4.4855637550354,0.38044267892837524
-0.748044490814209,4.472874641418457,0.37872254848480225
-0.7774159908294678,4.460068225860596,0.3768019378185272
-0.8037330508232117,4.431778430938721,0.37351900339126587
-0.8246100544929504,4.3765645027160645,0.3680001199245453
-0.8504761457443237,4.347926139831543,0.36473384499549866
-0.744170069694519,3.6665873527526855,0.30685344338417053
-0.7680677175521851,3.653794288635254,0.3050854802131653
-0.9343501925468445,4.299166202545166,0.35792049765586853
-0.9721857905387878,4.330812931060791,0.3594982922077179
-1.0017515420913696,4.324201583862305,0.3579062521457672
-1.0322424173355103,4.317160129547119,0.35626187920570374
-1.0603150129318237,4.302464485168457,0.3540225327014923
-1.086108684539795,4.280097007751465,0.3510991334915161
-1.1111568212509155,4.257717609405518,0.34802284836769104
-1.135910987854004,4.235204696655273,0.34496214985847473
-1.163406491279602,4.219809532165527,0.3424646258354187
-1.189520239830017,4.200533390045166,0.3396809995174408
-1.2143750190734863,4.1773457527160645,0.33660340309143066
-1.2449979782104492,4.1766133308410645,0.33517754077911377
-1.2686796188354492,4.153360366821289,0.3319021761417389
-1.3018707036972046,4.159573078155518,0.330973744392395
-1.3237004280090332,4.128312587738037,0.32706278562545776
-1.3548405170440674,4.1265668869018555,0.32551315426826477
-1.3832403421401978,4.117309093475342,0.3232981264591217
-1.4033498764038086,4.085975646972656,0.319225937128067
-1.4386193752288818,4.0986552238464355,0.3186047077178955
-1.4647023677825928,4.081318378448486,0.3155953288078308
-1.490393877029419,4.063895225524902,0.3126133382320404
-1.5075777769088745,4.024470329284668,0.30794063210487366
-1.5345747470855713,4.014451026916504,0.3053566813468933
-1.5699639320373535,4.0260443687438965,0.30442294478416443
-1.5979448556900024,4.015223979949951,0.3017309606075287
-1.6228840351104736,3.9970004558563232,0.2985028922557831
-1.6415926218032837,3.9642574787139893,0.29420343041419983
-1.6740360260009766,3.967801094055176,0.29243847727775574
-1.6912100315093994,3.9352798461914062,0.28803205490112305
-1.7138817310333252,3.9129116535186768,0.2843088209629059
-1.7442986965179443,3.9081993103027344,0.2818816304206848
-1.7648011445999146,3.882077693939209,0.2778817117214203
-1.793845295906067,3.8775546550750732,0.2752969563007355
-1.8129754066467285,3.8516392707824707,0.27120688557624817
-1.8265525102615356,3.8108911514282227,0.26598235964775085
-1.8564716577529907,3.805307149887085,0.26326215267181396
-1.8682929277420044,3.764954090118408,0.25806331634521484
-1.9001781940460205,3.7666659355163574,0.2557014226913452
-1.9290032386779785,3.7609803676605225,0.2527954876422882
-1.958766222000122,3.75459885597229,0.24975207448005676
-1.9704346656799316,3.7134451866149902,0.24435193836688995
-1.9947880506515503,3.7006540298461914,0.24077841639518738
-2.0377864837646484,3.721909761428833,0.23940514028072357
-1.718521237373352,3.08758282661438,0.19616298377513885
-1.7361903190612793,3.0689241886138916,0.19254547357559204
-0.847194254398346,1.47464120388031,0.09127013385295868
-0.8568081855773926,1.469172477722168,0.08970383554697037
-0.8590907454490662,1.449831485748291,0.08722182363271713
-0.8771936297416687,1.4572954177856445,0.08634939789772034
-0.886645495891571,1.4516644477844238,0.08464586734771729
-0.9004657864570618,1.4524238109588623,0.08326923847198486
-0.8939300179481506,1.4198054075241089,0.07994715869426727
-0.8992509245872498,1.4072898626327515,0.07777722179889679
-0.8955252766609192,1.3819440603256226,0.07490916550159454
-0.889889657497406,1.3531016111373901,0.07181315124034882
-0.918933093547821,1.3760921955108643,0.07138969004154205
-2.4045279026031494,3.5518205165863037,0.17998778820037842
-1.5243719816207886,2.187074899673462,0.10512044280767441
-1.2319049835205078,1.7439459562301636,0.08142022788524628
-1.3894528150558472,1.9730128049850464,-0.0658738911151886
-1.2724522352218628,1.8355275392532349,-0.06430920958518982
-1.2925002574920654,1.8927115201950073,-0.06922163814306259
-1.3237881660461426,1.9704256057739258,-0.07504985481500626
-1.2731165885925293,1.9243190288543701,-0.07599785178899765
-1.2888011932373047,1.9792780876159668,-0.0809190645813942
-1.442297339439392,2.25178599357605,-0.09509491175413132
-1.1432888507843018,1.8126487731933594,-0.07880150526762009
-1.3361157178878784,2.1523375511169434,-0.09620237350463867
-2.1221611499786377,3.6507434844970703,-0.17981858551502228
-0.7845374345779419,1.372064232826233,-0.06901951879262924
-0.922243058681488,1.6393206119537354,-0.08413422852754593
-1.714277744293213,3.1008448600769043,-0.1622774600982666
-1.9914588928222656,3.665114164352417,-0.1953931599855423
-1.9768809080123901,3.699340343475342,-0.20064902305603027
-1.9397718906402588,3.692284107208252,-0.20364819467067719
-1.837591290473938,3.5605220794677734,-0.1995668113231659
-1.7798700332641602,3.5109519958496094,-0.19990575313568115
-1.7657917737960815,3.5440125465393066,-0.20478974282741547
-1.5827409029006958,3.2339465618133545,-0.18953858315944672
-1.5102211236953735,3.1432032585144043,-0.18675656616687775
-1.4629181623458862,3.100740432739258,-0.18667054176330566
-1.4445102214813232,3.117776393890381,-0.1901012808084488
-1.4557162523269653,3.202563524246216,-0.197709321975708
-1.4086641073226929,3.159407377243042,-0.19736385345458984
-1.3612490892410278,3.1119577884674072,-0.1966290920972824
-1.3287523984909058,3.0961127281188965,-0.197808176279068
-1.2855818271636963,3.0549702644348145,-0.19725961983203888
-1.249787449836731,3.0316925048828125,-0.19779495894908905
-1.2253265380859375,3.0330862998962402,-0.19985902309417725
-1.1812020540237427,2.983384609222412,-0.19848893582820892
-1.1531509160995483,2.973280429840088,-0.1996721774339676
-1.1207319498062134,2.952160120010376,-0.20000316202640533
-1.0829524993896484,2.9162206649780273,-0.19932150840759277
-1.0426504611968994,2.8685855865478516,-0.1977180689573288
-1.0278574228286743,2.890324354171753,-0.20088458061218262
-0.9944323897361755,2.860619306564331,-0.20033928751945496
-0.9501794576644897,2.79738187789917,-0.19739305973052979
-0.9350606203079224,2.818763017654419,-0.20040196180343628
-0.8985558152198792,2.773176431655884,-0.19860398769378662
-0.8731025457382202,2.760735034942627,-0.19908039271831512
-0.8579630255699158,2.7816684246063232,-0.20189574360847473
-0.8135079145431519,2.7054662704467773,-0.19763228297233582
-0.7946762442588806,2.7109367847442627,-0.1992802768945694
-0.7701295614242554,2.697633981704712,-0.19957105815410614
-0.748927652835846,2.6953980922698975,-0.2005208283662796
-0.7135546207427979,2.640345335006714,-0.1975080966949463
-0.6969689726829529,2.6527206897735596,-0.19951871037483215
-0.6736301183700562,2.638535737991333,-0.19952909648418427
-0.6492164134979248,2.620466947555542,-0.1992180049419403
-0.6269935965538025,2.6097545623779297,-0.19931654632091522
-0.599656343460083,2.576096296310425,-0.19765396416187286
-0.5774092078208923,2.561119556427002,-0.19739945232868195
-0.5595939755439758,2.564978837966919,-0.1985974758863449
-0.536493182182312,2.545942544937134,-0.19796307384967804
-0.5169863700866699,2.5419464111328125,-0.19839642941951752
-0.5005816221237183,2.553086042404175,-0.20002011954784393
-0.4755898416042328,2.518155574798584,-0.19802604615688324
-0.45182546973228455,2.486832618713379,-0.19630281627178192
-0.4354408383369446,2.497588872909546,-0.197813481092453
-0.41275519132614136,2.4697914123535156,-0.19620338082313538
-0.39294132590293884,2.457181930541992,-0.19579851627349854
-0.3758034110069275,2.459796905517578,-0.19660820066928864
-0.3575465977191925,2.454582452774048,-0.19679896533489227
-0.3400008976459503,2.4570183753967285,-0.19749337434768677
-0.31817981600761414,2.4245471954345703,-0.19533054530620575
-0.2963728606700897,2.3880274295806885,-0.19283688068389893
-0.2779320776462555,2.374514102935791,-0.19219692051410675
-0.2681872844696045,2.4382681846618652,-0.19783006608486176
-0.24952511489391327,2.424553155899048,-0.19705823063850403
-0.23149405419826508,2.4184815883636475,-0.19688549637794495
-0.213210791349411,2.4044909477233887,-0.19606846570968628
-0.19711923599243164,2.4136404991149902,-0.19714517891407013
-0.17859135568141937,2.3916213512420654,-0.19568338990211487
-0.1629714071750641,2.408320903778076,-0.19725154340267181
-0.1444440633058548,2.3860793113708496,-0.19561167061328888
-0.12655134499073029,2.3636810779571533,-0.19396163523197174
-0.10992453992366791,2.3605940341949463,-0.19390299916267395
-0.09352151304483414,2.361279249191284,-0.19416305422782898
-0.07718710601329803,2.365755081176758,-0.1946018487215042
-0.05992082878947258,2.346776247024536,-0.19308947026729584
-0.04422501474618912,2.3821616172790527,-0.19605913758277893
-0.027267631143331528,2.3473684787750244,-0.19326214492321014
-0.011086622253060341,2.3747453689575195,-0.19559288024902344
0.005350381135940552,2.347517967224121,-0.19329708814620972
0.0218757726252079,2.3396430015563965,-0.19256751239299774
0.03825748711824417,2.347226858139038,-0.19312115013599396
0.054585251957178116,2.3469109535217285,-0.1930338442325592
0.07116631418466568,2.3542637825012207,-0.19358637928962708
0.08723174780607224,2.345949411392212,-0.1927313655614853
0.10386533290147781,2.3530867099761963,-0.1931152641773224
0.12089161574840546,2.3600914478302,-0.19349296391010284
0.13637487590312958,2.3436691761016846,-0.19196340441703796
0.1536611020565033,2.3582265377044678,-0.19298061728477478
0.1702711582183838,2.361020088195801,-0.1929175704717636
0.1850699782371521,2.3404135704040527,-0.19090937077999115
0.20290391147136688,2.3546018600463867,-0.19174322485923767
0.21855223178863525,2.3454151153564453,-0.1906862109899521
0.23565588891506195,2.351619243621826,-0.190889373421669
0.25235050916671753,2.353846549987793,-0.19065922498703003
0.27126964926719666,2.375304698944092,-0.191945880651474
0.28377360105514526,2.338594675064087,-0.1885351538658142
0.2990659773349762,2.3288846015930176,-0.18732327222824097
0.3163081109523773,2.3345117568969727,-0.18735471367835999
0.3341151177883148,2.3438878059387207,-0.18756961822509766
0.3502841293811798,2.3415863513946533,-0.18681427836418152
0.36796578764915466,2.346818447113037,-0.18665580451488495
0.38301610946655273,2.3365774154663086,-0.18528279662132263
0.4032154083251953,2.3569464683532715,-0.18634171783924103
0.42358002066612244,2.377180814743042,-0.18726930022239685
0.43567171692848206,2.3513052463531494,-0.18454326689243317
0.4592629373073578,2.3865578174591064,-0.18661673367023468
0.47616374492645264,2.3833179473876953,-0.1856604665517807
0.49747544527053833,2.402904510498047,-0.1864975541830063
0.5180774927139282,2.4185519218444824,-0.1868882030248642
0.5481773614883423,2.4758667945861816,-0.1904616504907608
0.5696024894714355,2.4910969734191895,-0.19077597558498383
0.5872513055801392,2.4870858192443848,-0.18959663808345795
0.6063694357872009,2.4906020164489746,-0.18900826573371887
0.6272225379943848,2.5015997886657715,-0.1888483315706253
0.6521481871604919,2.5275180339813232,-0.18980565667152405
0.6846234798431396,2.579528570175171,-0.19268743693828583
0.6988101005554199,2.559674024581909,-0.19016844034194946
0.7228500247001648,2.5773825645446777,-0.19042640924453735
0.7491088509559631,2.6024396419525146,-0.19110384583473206
0.7668952345848083,2.5973663330078125,-0.18956558406352997
0.7973658442497253,2.6331093311309814,-0.19097718596458435
0.822938084602356,2.649840831756592,-0.19096797704696655
0.8553063273429871,2.6888086795806885,-0.1924847811460495
0.8772402405738831,2.694157361984253,-0.19151699542999268
0.9030900001525879,2.7103891372680664,-0.1913071572780609
0.9320445656776428,2.7336626052856445,-0.1915535181760788
0.9600833058357239,2.752983808517456,-0.19150400161743164
0.9896181225776672,2.775773286819458,-0.1915348470211029
1.019164800643921,2.7984113693237305,-0.1915520429611206
1.0507309436798096,2.824317455291748,-0.1917426437139511
1.0814735889434814,2.8462188243865967,-0.1916232705116272
1.106680989265442,2.853390693664551,-0.19043871760368347
1.1407150030136108,2.8820810317993164,-0.19056624174118042
1.1880688667297363,2.943082571029663,-0.19279807806015015
1.2218902111053467,2.9673447608947754,-0.19253192842006683
1.2606092691421509,3.0020766258239746,-0.19289657473564148
1.2041306495666504,2.8144071102142334,-0.1789684146642685
1.1454883813858032,2.6274912357330322,-0.1653043031692505
1.147886872291565,2.583970069885254,-0.16079255938529968
1.1658916473388672,2.5760374069213867,-0.1585201919078827
1.1832959651947021,2.5682313442230225,-0.15619909763336182
1.2104853391647339,2.5815420150756836,-0.1551375538110733
1.2352956533432007,2.587210178375244,-0.15351739525794983
1.5704784393310547,3.2312376499176025,-0.1892913430929184
1.62863028049469,3.294147253036499,-0.19041511416435242
1.680448293685913,3.3426027297973633,-0.1905774474143982
1.8099368810653687,3.539588212966919,-0.19893388450145721
1.4060410261154175,2.7033133506774902,-0.1497012972831726
1.4245076179504395,2.6937849521636963,-0.14685359597206116
1.4423747062683105,2.684412956237793,-0.14404457807540894
1.4496655464172363,2.6539909839630127,-0.14003901183605194
1.4321472644805908,2.5791494846343994,-0.1337513029575348
1.393645167350769,2.471158266067505,-0.12586194276809692
1.3599120378494263,2.373762369155884,-0.1186380460858345
1.3528614044189453,2.3238914012908936,-0.11385328322649002
1.3389036655426025,2.264338493347168,-0.10867662727832794
1.3417211771011353,2.2355294227600098,-0.1050206646323204
1.3487528562545776,2.2131597995758057,-0.10163207352161407
1.3684797286987305,2.210334539413452,-0.09905655682086945
1.366301417350769,2.1750144958496094,-0.09507410228252411
1.3764835596084595,2.159454822540283,-0.09195277094841003
1.3809335231781006,2.1335225105285645,-0.08828666806221008
1.401497483253479,2.1342179775238037,-0.08571632951498032
1.4092161655426025,2.115190267562866,-0.08227739483118057
1.4195208549499512,2.098989963531494,-0.0788595899939537
1.442070722579956,2.102644443511963,-0.07618460059165955
1.4468835592269897,2.080453872680664,-0.07250825315713882
1.456893801689148,2.064021587371826,-0.06886523216962814
1.4521069526672363,2.0292105674743652,-0.06460396945476532
1.465704321861267,2.0195209980010986,-0.06106278672814369
1.4651743173599243,1.9909942150115967,-0.056877460330724716
2.2172298431396484,3.12758207321167,0.12859871983528137
2.199674367904663,3.1492671966552734,0.1340261846780777
2.5486879348754883,3.7098193168640137,0.16310234367847443
3.173081398010254,4.691725730895996,0.21244606375694275
2.4166948795318604,3.628955125808716,0.1687992960214615
3.135159492492676,4.786660671234131,0.22840988636016846
3.0883800983428955,4.788828372955322,0.23381361365318298
1.63377845287323,2.5732369422912598,0.1283976435661316
1.6303859949111938,2.612095355987549,0.13310064375400543
1.5910911560058594,2.590364456176758,0.13453485071659088
3.0288119316101074,5.008833408355713,0.2648753523826599
3.0072503089904785,5.0578532218933105,0.27208012342453003
2.993199110031128,5.120181560516357,0.28001144528388977
2.8886196613311768,5.0226616859436035,0.27895426750183105
2.7930712699890137,4.937626838684082,0.2782829999923706
2.727665901184082,4.906922817230225,0.2804270088672638
2.6601898670196533,4.868106365203857,0.28192582726478577
2.6114258766174316,4.858768463134766,0.2849351763725281
2.541337251663208,4.811859607696533,0.2856593132019043
2.47514271736145,4.771398067474365,0.286533385515213
2.4123339653015137,4.733262538909912,0.28740304708480835
2.3529953956604004,4.697446346282959,0.288259893655777
2.30572509765625,4.685834884643555,0.2904956638813019
1.2293764352798462,2.5462961196899414,0.15940795838832855
1.210792899131775,2.555055618286133,0.1614675670862198
1.1962395906448364,2.5703821182250977,0.16388946771621704
1.17502760887146,2.571449041366577,0.16541177034378052
1.156205177307129,2.579845428466797,0.167295441031456
1.1498620510101318,2.616665840148926,0.17104485630989075
2.0660855770111084,4.794717311859131,0.3158727288246155
2.044738292694092,4.837522506713867,0.3210964798927307
2.0222833156585693,4.8805155754089355,0.32627514004707336
1.9999407529830933,4.927391529083252,0.3316088020801544
1.9784616231918335,4.977817058563232,0.33722957968711853
2.020897150039673,5.191315650939941,0.3539637625217438
2.0097057819366455,5.27060604095459,0.36163878440856934
1.9843640327453613,5.317450523376465,0.36698296666145325
1.961867094039917,5.375404357910156,0.37304237484931946
1.9283947944641113,5.403850555419922,0.37708309292793274
1.9066524505615234,5.46504545211792,0.3834264278411865
1.8760168552398682,5.500143527984619,0.38794782757759094
1.9193170070648193,5.760914325714111,0.4083194136619568
1.9307451248168945,5.937482833862305,0.4227701425552368
1.885568618774414,5.943599224090576,0.4251541495323181
1.8721668720245361,6.049690246582031,0.4347091019153595
1.8390004634857178,6.092221736907959,0.4397223889827728
1.8146636486053467,6.168402194976807,0.44706130027770996
1.7821699380874634,6.2222795486450195,0.45265766978263855
1.750101089477539,6.279739856719971,0.4585592448711395
1.7295351028442383,6.378150463104248,0.4674709737300873
1.6882555484771729,6.405126571655273,0.47121894359588623
1.645333170890808,6.424142360687256,0.4743354022502899
1.586284875869751,6.382618427276611,0.4726763069629669
1.538866400718689,6.386035442352295,0.47435617446899414
1.4768520593643188,6.324504375457764,0.47120413184165955
1.4191608428955078,6.2776360511779785,0.469140887260437
1.3787505626678467,6.302427291870117,0.4724229872226715
1.3173404932022095,6.231809616088867,0.4683361351490021
1.2590899467468262,6.172155857086182,0.4649467170238495
1.2137166261672974,6.1731648445129395,0.46613848209381104
1.1589151620864868,6.124093532562256,0.4635617733001709
1.113447904586792,6.116556167602539,0.46411484479904175
1.0593854188919067,6.058808326721191,0.46084803342819214
1.0126160383224487,6.043001651763916,0.46044501662254333
0.9796875715255737,6.111451148986816,0.4664902985095978
0.9263744950294495,6.056614398956299,0.46316027641296387
0.8701658844947815,5.966453552246094,0.4571032226085663
0.8318511843681335,5.995410442352295,0.4601840674877167
0.7900077104568481,6.000976085662842,0.46137186884880066
0.29735851287841797,2.3886125087738037,0.18386226892471313
0.2796218693256378,2.3828814029693604,0.18364833295345306
0.2643457055091858,2.4002685546875,0.1852288395166397
0.2416640967130661,2.343905448913574,0.18111690878868103
0.2260877639055252,2.3532562255859375,0.18208681046962738
0.20686236023902893,2.3237218856811523,0.17998167872428894
0.1934327334165573,2.3600311279296875,0.1829259991645813
0.1794753223657608,2.4001712799072266,0.18618330359458923
0.16166804730892181,2.385803699493408,0.1852196455001831
0.14553627371788025,2.3946268558502197,0.18606440722942352
0.4166091978549957,7.742796897888184,0.6021659970283508
0.3640114665031433,7.776603698730469,0.6050335168838501
0.3071446120738983,7.740057468414307,0.6023163795471191
0.2521493136882782,7.714745044708252,0.60049968957901
0.1976601928472519,7.68514347076416,0.598376452922821
0.14323006570339203,7.635690212249756,0.5947343111038208
0.08989774435758591,7.613112449645996,0.5932118892669678
0.0358755849301815,7.5824079513549805,0.5907224416732788
-0.016946878284215927,7.590273857116699,0.5911877155303955
-0.06951268017292023,7.566617965698242,0.5892268419265747
-0.12168746441602707,7.538704872131348,0.5869637131690979
-0.17331016063690186,7.506541728973389,0.5843986868858337
-0.22456909716129303,7.474024295806885,0.581834614276886
-0.276516854763031,7.452840328216553,0.5797615051269531
-0.3288651406764984,7.466353416442871,0.5803800821304321
-0.2750466763973236,5.394731044769287,0.4190550744533539
-0.3147498071193695,5.431605339050293,0.4216444492340088
-0.3515016436576843,5.413773536682129,0.42000582814216614
-0.388681024312973,5.3956475257873535,0.41835615038871765
-0.42465925216674805,5.3773651123046875,0.4164147973060608
-0.4604584574699402,5.35883903503418,0.41447657346725464
-0.4362257122993469,4.696319103240967,0.36280983686447144
-0.4614432454109192,4.619594573974609,0.35647982358932495
-0.49160876870155334,4.5930304527282715,0.354038804769516
-0.5225803852081299,4.581820964813232,0.3527708351612091
-0.5521970391273499,4.562722206115723,0.3506911098957062
-0.5825648307800293,4.551158905029297,0.349210262298584
-0.6107611656188965,4.523947715759277,0.34654828906059265
-0.6427178978919983,4.519587993621826,0.34564176201820374
-0.6712661981582642,4.495813369750977,0.3432786166667938
-0.7011361122131348,4.48344087600708,0.3417261242866516
-0.7293550968170166,4.463235855102539,0.33942168951034546
-0.7585949301719666,4.450542449951172,0.3377094268798828
-0.785148024559021,4.4222846031188965,0.33483293652534485
-0.8163834810256958,4.416712284088135,0.3336752951145172
-0.8455831408500671,4.40336799621582,0.33196040987968445
-0.7312666773796082,3.6716248989105225,0.2761022448539734
-0.7562977075576782,3.6666367053985596,0.2749553322792053
-0.781294584274292,3.661478042602539,0.27380841970443726
-0.9522846937179565,4.314138889312744,0.32170549035072327
-0.984017550945282,4.315106391906738,0.32088980078697205
-1.0157675743103027,4.31585168838501,0.3200712203979492
-1.041514277458191,4.293792247772217,0.3173769414424896
-1.070680022239685,4.286729335784912,0.31578966975212097
-1.0965300798416138,4.264218807220459,0.3130606710910797
-1.1261460781097412,4.256612300872803,0.3114432990550995
-1.1556687355041504,4.248809814453125,0.30982810258865356
-1.1807045936584473,4.225862979888916,0.30704450607299805
-1.2060565948486328,4.206668853759766,0.3044094145298004
-1.2360697984695435,4.202143669128418,0.3028317093849182
-1.2593636512756348,4.17500638961792,0.29964160919189453
-1.286067008972168,4.1588335037231445,0.29724881052970886
-1.3149604797363281,4.14992094039917,0.2953915297985077
-1.3430126905441284,4.141072750091553,0.2933570444583893
-1.3738621473312378,4.139301300048828,0.2918013632297516
-1.3919599056243896,4.100480556488037,0.2876680791378021
-1.420371174812317,4.090872287750244,0.2855800986289978
-1.4461445808410645,4.073706150054932,0.2829790711402893
-1.4683918952941895,4.049310684204102,0.2797653377056122
-1.5036423206329346,4.061459064483643,0.27902260422706604
-1.5258702039718628,4.0366530418396,0.2757203280925751
-1.5539687871932983,4.026079177856445,0.2733785808086395
-1.5819936990737915,4.015308380126953,0.2710367739200592
-1.6034488677978516,3.9901504516601562,0.26763683557510376
-1.6197999715805054,3.9542298316955566,0.26346907019615173
-1.6542975902557373,3.9612247943878174,0.2621407210826874
-1.6788051128387451,3.942596673965454,0.2590891718864441
-1.7015800476074219,3.920240640640259,0.25581347942352295
-1.7280453443527222,3.908820629119873,0.25314632058143616
-1.744439959526062,3.8760623931884766,0.24907054007053375
-1.767743706703186,3.8570895195007324,0.24584759771823883
-1.7912994623184204,3.8377795219421387,0.2425895780324936
-1.8213229179382324,3.8324368000030518,0.24022696912288666
-1.8466804027557373,3.8204660415649414,0.23729932308197021
-1.8581936359405518,3.780323028564453,0.23264823853969574
-1.8880168199539185,3.7744295597076416,0.23001322150230408
-1.9071458578109741,3.7474870681762695,0.2261182814836502
-1.950340747833252,3.769350290298462,0.22509530186653137
-1.9678078889846802,3.742828845977783,0.2211204469203949
-1.981842279434204,3.7090883255004883,0.21670125424861908
-2.011418342590332,3.7022085189819336,0.21377117931842804
-1.7127747535705566,3.1008782386779785,0.17685799300670624
-1.725461483001709,3.076117992401123,0.17322681844234467
-0.8420343995094299,1.478128433227539,0.08215480297803879
-0.8562490940093994,1.479045033454895,0.08106125891208649
-0.8663634061813354,1.4732236862182617,0.07958436757326126
-0.872108519077301,1.460829496383667,0.07770859450101852
-0.8777910470962524,1.448384165763855,0.07583659887313843
-0.8878543376922607,1.442319393157959,0.07425496727228165
-0.8933392763137817,1.4298145771026611,0.07232785224914551
-0.9108867645263672,1.4372972249984741,0.07139170914888382
-0.8955003023147583,1.3916373252868652,0.0677432119846344
-0.8944433927536011,1.369145154953003,0.0652746707201004
-0.905333936214447,1.366732120513916,0.06375173479318619
-0.9622463583946228,1.4320757389068604,0.06526366621255875
-2.3975412845611572,3.515162706375122,0.1561892032623291
-1.330127477645874,1.923203706741333,0.08317197859287262
-1.304577350616455,1.8602375984191895,0.0781814306974411
-1.396189570426941,1.9970555305480957,-0.061893049627542496
-1.2240560054779053,1.7789417505264282,-0.05769120901823044
-1.3903340101242065,2.053016424179077,-0.06942438334226608
-1.1808109283447266,1.7703291177749634,-0.062144916504621506
-1.3451752662658691,2.0500648021698,-0.07456887513399124
-1.1949284076690674,1.8496160507202148,-0.06947553157806396
-1.2676016092300415,1.9930707216262817,-0.07716140151023865
-1.262700080871582,2.019134521484375,-0.08049701899290085
-0.8228791952133179,1.42692232131958,-0.06409716606140137
-2.138814687728882,3.772243022918701,-0.1729138046503067
-1.721690058708191,3.0886735916137695,-0.14437033236026764
-2.0453293323516846,3.730156421661377,-0.17756786942481995
-2.0501327514648438,3.802877187728882,-0.1842517852783203
-1.9979329109191895,3.7730553150177,-0.1859797090291977
-1.9800342321395874,3.804304361343384,-0.19055549800395966
-1.937463641166687,3.7865684032440186,-0.19261455535888672
-1.885637640953064,3.7514166831970215,-0.19366130232810974
-1.8219788074493408,3.6914002895355225,-0.1933184564113617
-1.8261730670928955,3.7673544883728027,-0.20004577934741974
-1.4962782859802246,3.1422016620635986,-0.16907688975334167
-1.4967352151870728,3.2022337913513184,-0.17448559403419495
-1.501129150390625,3.2731354236602783,-0.18055815994739532
-1.497357726097107,3.3261191844940186,-0.1856476217508316
-1.4347028732299805,3.247124433517456,-0.1833386868238449
-1.4140541553497314,3.2645249366760254,-0.18636754155158997
-1.3874157667160034,3.2673141956329346,-0.18851298093795776
-1.3613944053649902,3.2696492671966553,-0.1905839592218399
-1.3356276750564575,3.271690607070923,-0.19262030720710754
-1.3152413368225098,3.288201332092285,-0.1954374760389328
-1.2712621688842773,3.2467408180236816,-0.19477859139442444
-1.2328870296478271,3.2154653072357178,-0.1946341097354889
-1.1858134269714355,3.158111572265625,-0.19283431768417358
-1.1541882753372192,3.140608310699463,-0.19338996708393097
-1.121152639389038,3.1192967891693115,-0.19359885156154633
-1.0933080911636353,3.1125102043151855,-0.19472123682498932
-1.0741275548934937,3.1273062229156494,-0.19713780283927917
-1.038661241531372,3.0939297676086426,-0.19651134312152863
-1.0069252252578735,3.0714783668518066,-0.19643621146678925
-0.9647930264472961,3.0153391361236572,-0.19415543973445892
-0.9338715672492981,2.9922869205474854,-0.1939806044101715
-0.9175324440002441,3.0135326385498047,-0.19664502143859863
-0.8752999305725098,2.9487743377685547,-0.19363915920257568
-0.84996497631073,2.939847946166992,-0.19416598975658417
-0.8269137144088745,2.9382164478302,-0.1951759308576584
-0.8002686500549316,2.921243667602539,-0.19514049589633942
-0.7755714654922485,2.911665201187134,-0.1956126093864441
-0.7502049803733826,2.898084878921509,-0.19569888710975647
-0.7220765352249146,2.8729913234710693,-0.19494226574897766
-0.7018002271652222,2.877924680709839,-0.1962195634841919
-0.6700946092605591,2.8333442211151123,-0.19410216808319092
-0.6508749723434448,2.841732978820801,-0.19562506675720215
-0.6232415437698364,2.811927556991577,-0.19436940550804138
-0.6033650636672974,2.8161847591400146,-0.19544485211372375
-0.5740796327590942,2.7744855880737305,-0.19332405924797058
-0.5532039403915405,2.770703077316284,-0.19383326172828674
-0.5335245132446289,2.7744853496551514,-0.19489148259162903
-0.5103978514671326,2.7589588165283203,-0.1944141983985901
-0.49228978157043457,2.7701022624969482,-0.19582344591617584
-0.46371424198150635,2.71964168548584,-0.19287237524986267
-0.44854921102523804,2.745816707611084,-0.1953548640012741
-0.4242977499961853,2.71806263923645,-0.19400154054164886
-0.3988747298717499,2.6785342693328857,-0.19164913892745972
-0.3800668716430664,2.6812198162078857,-0.19231855869293213
-0.358238160610199,2.660588264465332,-0.19131778180599213
-0.33579856157302856,2.6320462226867676,-0.18974578380584717
-0.31657618284225464,2.626533031463623,-0.18981608748435974
-0.29655614495277405,2.617070198059082,-0.1894664317369461
-0.2749493718147278,2.5880513191223145,-0.1876991093158722
-0.25688454508781433,2.5898725986480713,-0.18817275762557983
-0.23744556307792664,2.576042890548706,-0.1875150501728058
-0.22415319085121155,2.631946086883545,-0.19193048775196075
-0.20301181077957153,2.602376937866211,-0.18997713923454285
-0.18703381717205048,2.634798288345337,-0.19255506992340088
-0.1676512211561203,2.62046480178833,-0.19172638654708862
-0.1498306542634964,2.6293258666992188,-0.19260317087173462
-0.13074669241905212,2.6147196292877197,-0.19175928831100464
-0.11146868765354156,2.6000044345855713,-0.19076316058635712
-0.09272713214159012,2.585136651992798,-0.18976283073425293
-0.07451507449150085,2.577920436859131,-0.1893320381641388
-0.056943681091070175,2.593945026397705,-0.19061748683452606
-0.03847463056445122,2.5631048679351807,-0.1884673833847046
-0.02053956687450409,2.58668851852417,-0.19015836715698242
-0.002542791422456503,2.578979253768921,-0.18955793976783752
0.015345768071711063,2.5711450576782227,-0.18895764648914337
0.03324870765209198,2.5709781646728516,-0.18893003463745117
0.05130506679415703,2.5784764289855957,-0.18947486579418182
0.06923975050449371,2.5780701637268066,-0.18929435312747955
0.08722469955682755,2.5697429180145264,-0.18852581083774567
0.10571043938398361,2.5846595764160156,-0.18947425484657288
0.12256787717342377,2.5605275630950928,-0.1875694841146469
0.1412053406238556,2.575188398361206,-0.18851616978645325
0.15855519473552704,2.5663962364196777,-0.18761469423770905
0.1771889328956604,2.5730140209198,-0.1878179907798767
0.1950163096189499,2.5717504024505615,-0.18745918571949005
0.21159371733665466,2.5548288822174072,-0.18596895039081573
0.23005928099155426,2.561081647872925,-0.18617510795593262
0.2485513836145401,2.5672173500061035,-0.18625542521476746
0.26741307973861694,2.5731937885284424,-0.18628941476345062
0.2860770523548126,2.579063653945923,-0.18632881343364716
0.3049030303955078,2.5847902297973633,-0.1863630712032318
0.3228330910205841,2.5826499462127686,-0.18583844602108002
0.3406670093536377,2.580404043197632,-0.1851986199617386
0.3533914387226105,2.53940749168396,-0.1817433387041092
0.35681942105293274,2.4405667781829834,-0.17419187724590302
0.3885916769504547,2.534356117248535,-0.18039286136627197
0.41119253635406494,2.562412977218628,-0.18189918994903564
0.4314960837364197,2.574934720993042,-0.18219104409217834
0.45060279965400696,2.5796313285827637,-0.18189099431037903
0.47640663385391235,2.618633270263672,-0.1839945912361145
0.5018505454063416,2.6536083221435547,-0.18581168353557587
0.523298978805542,2.6654114723205566,-0.18600229918956757
0.5470864176750183,2.6885457038879395,-0.18686634302139282
0.5631520748138428,2.6733510494232178,-0.18503549695014954
0.5893576145172119,2.7036807537078857,-0.1863425374031067
0.6133296489715576,2.722393035888672,-0.18684616684913635
0.6358014941215515,2.7333154678344727,-0.18681418895721436
0.6582260131835938,2.744119644165039,-0.18664878606796265
0.6779617667198181,2.743408441543579,-0.18568465113639832
0.701063334941864,2.753772735595703,-0.18545036017894745
0.7281333208084106,2.7790722846984863,-0.18622349202632904
0.7535491585731506,2.7966039180755615,-0.1864626258611679
0.7747223377227783,2.798996925354004,-0.18555240333080292
0.8034453392028809,2.8274741172790527,-0.18636301159858704
0.8233070373535156,2.8218514919281006,-0.18489237129688263
0.8641850352287292,2.8871071338653564,-0.18805783987045288
0.8841589689254761,2.881152391433716,-0.1865295022726059
0.9108036756515503,2.8974764347076416,-0.18634621798992157
0.9377115964889526,2.9135711193084717,-0.18613775074481964
0.9607298374176025,2.9143831729888916,-0.18490363657474518
0.9810309410095215,2.907719135284424,-0.1832185983657837
1.0035067796707153,2.908400535583496,-0.18192961812019348
1.018069863319397,2.8869118690490723,-0.1792200356721878
1.0325223207473755,2.8653109073638916,-0.17651624977588654
1.0807746648788452,2.9350059032440186,-0.17938995361328125
1.156439185142517,3.073411703109741,-0.18633347749710083
1.1828194856643677,3.0801985263824463,-0.1851367950439453
1.2150585651397705,3.1012847423553467,-0.18478348851203918
1.2480911016464233,3.121896266937256,-0.18434514105319977
1.2830597162246704,3.1457622051239014,-0.18406565487384796
1.325893759727478,3.1873128414154053,-0.18468305468559265
1.3763171434402466,3.246657609939575,-0.18625958263874054
1.1339423656463623,2.6249444484710693,-0.1490667760372162
1.1521886587142944,2.6170997619628906,-0.1470704823732376
1.1638247966766357,2.5949654579162598,-0.14426200091838837
1.1750437021255493,2.572873830795288,-0.14139950275421143
1.1874767541885376,2.5543696880340576,-0.13877356052398682
1.2202708721160889,2.577885627746582,-0.13837364315986633
1.2482565641403198,2.5905768871307373,-0.13735754787921906
1.76869535446167,3.6088900566101074,-0.18889060616493225
1.793271541595459,3.5969042778015137,-0.18575604259967804
1.890686273574829,3.727161407470703,-0.18981851637363434
1.9612250328063965,3.8008265495300293,-0.19083274900913239
1.3974392414093018,2.66462779045105,-0.1318046599626541
1.3803874254226685,2.589887857437134,-0.126162588596344
1.3630577325820923,2.5151383876800537,-0.1205499917268753
1.3297361135482788,2.413378953933716,-0.11372900009155273
1.3170666694641113,2.353557825088501,-0.10901059210300446
1.3078372478485107,2.300615072250366,-0.10465403646230698
1.3160029649734497,2.2780473232269287,-0.10167238116264343
1.327352523803711,2.2625114917755127,-0.09900419414043427
1.3384685516357422,2.2469754219055176,-0.09630303829908371
1.3458267450332642,2.22445011138916,-0.09326642006635666
1.352961540222168,2.201914072036743,-0.09023365378379822
1.363158106803894,2.186520576477051,-0.08749236911535263
1.3778049945831299,2.177421808242798,-0.08495049178600311
1.3784260749816895,2.144714832305908,-0.08139397948980331
1.3881388902664185,2.129222869873047,-0.07855028659105301
1.4086427688598633,2.129868507385254,-0.07625087350606918
1.4321547746658325,2.1330678462982178,-0.07389406114816666
1.42622709274292,2.094749689102173,-0.07012256979942322
1.4402685165405273,2.0852155685424805,-0.06723253428936005
1.4637250900268555,2.088017702102661,-0.06462889909744263
1.4678916931152344,2.066049337387085,-0.06125037372112274
1.463510513305664,2.03085994720459,-0.05736615136265755
1.4516466856002808,1.9864802360534668,-0.053216803818941116
1.466593861579895,1.980416178703308,-0.05008411407470703
2.238184928894043,3.1325502395629883,0.11041384935379028
2.2049248218536377,3.132035255432129,0.11455638706684113
2.200460195541382,3.1778337955474854,0.12036208063364029
2.498751640319824,3.664308786392212,0.14313490688800812
2.41351056098938,3.5945212841033936,0.1444915235042572
3.123788356781006,4.730109214782715,0.19540157914161682
3.0897674560546875,4.752159118652344,0.20122021436691284
3.0889976024627686,4.8267388343811035,0.20914699137210846
1.6362800598144531,2.6000277996063232,0.11516702175140381
1.6136789321899414,2.6048099994659424,0.11770345270633698
3.038177013397217,4.982028484344482,0.22944848239421844
3.0000126361846924,5.004855155944824,0.23478353023529053
3.001102924346924,5.090236186981201,0.2429215908050537
2.9732778072357178,5.124358654022217,0.24851815402507782
2.823676109313965,4.949049472808838,0.24371711909770966
2.7312474250793457,4.8710761070251465,0.24343690276145935
2.679136276245117,4.859643459320068,0.24627190828323364
2.6266307830810547,4.843662261962891,0.2487311214208603
2.570878505706787,4.824687957763672,0.25086885690689087
2.5061705112457275,4.788046360015869,0.2520173490047455
2.4527618885040283,4.767205238342285,0.25380560755729675
2.397700071334839,4.74252462387085,0.2553804814815521
2.330042600631714,4.693312644958496,0.25538370013237
1.2493788003921509,2.563765287399292,0.14093390107154846
1.2278213500976562,2.5654091835021973,0.1423945426940918
1.201619267463684,2.556147575378418,0.14322160184383392
1.1882129907608032,2.575202226638794,0.1455855667591095
1.1722347736358643,2.590980291366577,0.14775635302066803
1.1567167043685913,2.6063854694366455,0.14987915754318237
1.1291682720184326,2.59283447265625,0.15029892325401306
2.064173460006714,4.831684589385986,0.28230714797973633
2.0349507331848145,4.860813617706299,0.28605136275291443
2.0121517181396484,4.908080577850342,0.290936142206192
1.9920499324798584,4.958163738250732,0.29592663049697876
1.9818060398101807,5.03342342376709,0.3024474084377289
2.0136003494262695,5.22177791595459,0.31580060720443726
1.9992091655731201,5.298059463500977,0.32232865691185
1.9682639837265015,5.334408760070801,0.32650965452194214
1.9467618465423584,5.39190673828125,0.3319295048713684
1.911705732345581,5.412539482116699,0.33510705828666687
1.8975337743759155,5.4958038330078125,0.342095285654068
1.8690544366836548,5.542446136474609,0.34670722484588623
1.83807373046875,5.585483551025391,0.35116174817085266
1.9111409187316895,5.94698429107666,0.3756859600543976
1.8743176460266113,5.9748735427856445,0.37925851345062256
1.856157660484314,6.066057205200195,0.3867928087711334
1.8269942998886108,6.127661228179932,0.3923037052154541
1.7960104942321777,6.185392379760742,0.39760905504226685
1.7677048444747925,6.254179000854492,0.4036634862422943
1.7406600713729858,6.3263258934021,0.4099442958831787
1.7115776538848877,6.394658088684082,0.4159983992576599
1.6737347841262817,6.436757564544678,0.4201151728630066
0.8243677020072937,3.265778064727783,0.2138587087392807
1.5581307411193848,6.365139961242676,0.41822609305381775
0.801450788974762,3.375595808029175,0.22252650558948517
1.464056134223938,6.363163471221924,0.42086637020111084
1.4012333154678345,6.293332099914551,0.4174115061759949
