X,Y,Z
-0.19334441423416138,7.500829219818115,0.2596752941608429
-0.244751438498497,7.479800701141357,0.2589065432548523
-0.29603075981140137,7.462321758270264,0.25827327370643616
-0.34774720668792725,7.46009635925293,0.2581217288970947
-0.29098382592201233,5.4225568771362305,0.18746885657310486
-0.32845553755760193,5.42042350769043,0.18725328147411346
-0.36391323804855347,5.386864185333252,0.18596141040325165
-0.379923939704895,5.096115589141846,0.1758068948984146
-0.40555086731910706,4.9727325439453125,0.17144392430782318
-0.439935564994812,4.96198034286499,0.17088213562965393
-0.4433613121509552,4.636277198791504,0.15944911539554596
-0.47418707609176636,4.621463298797607,0.15873131155967712
-0.5053898096084595,4.610311508178711,0.15814687311649323
-0.5319373607635498,4.560172080993652,0.1562349796295166
-0.5622184872627258,4.54081392288208,0.15538230538368225
-0.5964257717132568,4.56008768081665,0.15574494004249573
-0.623507559299469,4.5249528884887695,0.15425674617290497
-0.6557295918464661,4.5283002853393555,0.15408916771411896
-0.6854022741317749,4.512073040008545,0.15326038002967834
-0.7160165309906006,4.499424457550049,0.15255728363990784
-0.7444906830787659,4.478987693786621,0.15155029296875
-0.7737540602684021,4.466119766235352,0.15073935687541962
-0.8001477718353271,4.437685012817383,0.1494121253490448
-0.8307986259460449,4.432067394256592,0.14885853230953217
-0.8489392399787903,4.361049652099609,0.14611834287643433
-0.7414190173149109,3.6699411869049072,0.12266381829977036
-0.7665319442749023,3.6647963523864746,0.12212544679641724
-0.7965278625488281,3.682382822036743,0.12234149128198624
-0.965633749961853,4.320786952972412,0.14312216639518738
-0.999114990234375,4.32921838760376,0.1429709792137146
-1.029628038406372,4.322084903717041,0.14230430126190186
-1.0517973899841309,4.28461217880249,0.14059515297412872
-1.0751359462738037,4.254683017730713,0.1390843689441681
-1.0970954895019531,4.220865726470947,0.13745971024036407
-1.13737154006958,4.254688262939453,0.13803189992904663
-1.16745126247406,4.246559143066406,0.13723281025886536
-1.1914923191070557,4.219620704650879,0.13582731783390045
-1.2157398462295532,4.196469783782959,0.1344740390777588
-1.2485854625701904,4.203136920928955,0.13408327102661133
-1.2728534936904907,4.179556369781494,0.13272587954998016
-1.299964189529419,4.163051605224609,0.13158641755580902
-1.3288029432296753,4.153964996337891,0.130699023604393
-1.3543102741241455,4.137533187866211,0.12949560582637787
-1.3771976232528687,4.113535404205322,0.12806221842765808
-1.4001425504684448,4.0893073081970215,0.12662456929683685
-1.4310578107833862,4.086897373199463,0.12585757672786713
-1.454605221748352,4.062021255493164,0.12439406663179398
-1.4819509983062744,4.052156448364258,0.12332729995250702
-1.5009254217147827,4.020201206207275,0.12159134447574615
-1.5213308334350586,3.9916701316833496,0.11996076256036758
-1.5589743852615356,4.006495475769043,0.11962130665779114
-1.5872951745986938,3.995393753051758,0.11849299818277359
-1.609628677368164,3.9738476276397705,0.11699432134628296
-1.6332666873931885,3.955777645111084,0.11560613662004471
-1.6573084592819214,3.937328815460205,0.1141967624425888
-1.6877776384353638,3.932899236679077,0.11318506300449371
-1.7090139389038086,3.9067111015319824,0.1115160882472992
-1.7255241870880127,3.8738486766815186,0.10963128507137299
-1.7481226921081543,3.8551652431488037,0.108159638941288
-1.7780792713165283,3.8500821590423584,0.10703834146261215
-1.7981672286987305,3.8235232830047607,0.1053236797451973
-1.8343478441238403,3.8323287963867188,0.10451521724462509
-1.8426095247268677,3.78501558303833,0.1021849513053894
-1.8752243518829346,3.786440372467041,0.10115408897399902
-1.8909296989440918,3.7524406909942627,0.09916042536497116
-1.9235315322875977,3.7534327507019043,0.09807004034519196
-1.9482284784317017,3.7407126426696777,0.09657767415046692
-1.9699701070785522,3.720512628555298,0.09486167132854462
-2.0032060146331787,3.7205145359039307,0.09363579005002975
-1.7099276781082153,3.124345302581787,0.0775858610868454
-1.7189981937408447,3.092616081237793,0.07572881132364273
-1.7318495512008667,3.0675442218780518,0.07403488457202911
-0.7795433402061462,1.3582706451416016,0.03227122128009796
-0.7671046257019043,1.3158516883850098,0.03076699562370777
-0.787577748298645,1.331017255783081,0.030603371560573578
-0.8809716701507568,1.466321587562561,0.03312186524271965
-0.887096107006073,1.4534982442855835,0.03221926465630531
-0.8927702307701111,1.4408559799194336,0.031307823956012726
-0.8896074891090393,1.4152231216430664,0.030134933069348335
-0.8636430501937866,1.3530913591384888,0.028179336339235306
-1.2396806478500366,1.8067563772201538,0.032934896647930145
-1.34994375705719,1.939479112625122,0.03420669957995415
-1.4269455671310425,2.057177782058716,-0.03731377050280571
-1.2353248596191406,1.8097152709960938,-0.034118808805942535
-1.224828839302063,1.821518063545227,-0.03554482385516167
-1.2412034273147583,1.8762948513031006,-0.03783759847283363
-1.1783088445663452,1.8100956678390503,-0.03763725236058235
-0.8836660981178284,1.446412205696106,-0.033319246023893356
-0.8767286539077759,1.4597257375717163,-0.034392375499010086
-0.8124558329582214,1.3752548694610596,-0.033091090619564056
-0.783216118812561,1.347105860710144,-0.03305706009268761
-0.7928010821342468,1.3866395950317383,-0.03467737138271332
-0.8590400815010071,1.528633713722229,-0.03893774002790451
-1.6603989601135254,3.0044264793395996,-0.07786181569099426
-1.6504549980163574,3.0365543365478516,-0.07999953627586365
-1.602346658706665,3.0003302097320557,-0.08029656112194061
-1.5987913608551025,3.0463573932647705,-0.08277157694101334
-1.6187180280685425,3.1371963024139404,-0.08647000044584274
-1.5995168685913086,3.155745029449463,-0.08821319043636322
-1.5590416193008423,3.132333993911743,-0.08872605115175247
-1.5538405179977417,3.1784002780914307,-0.09118326008319855
-1.5283390283584595,3.182037830352783,-0.09240962564945221
-1.512404203414917,3.2068793773651123,-0.0942365974187851
-1.482569694519043,3.2035367488861084,-0.0952182337641716
-1.4593437910079956,3.214142084121704,-0.09661359339952469
-1.4432975053787231,3.2384462356567383,-0.0983886867761612
-1.4266780614852905,3.2628157138824463,-0.10015293955802917
-1.399985671043396,3.265822410583496,-0.10122765600681305
-1.3795992136001587,3.28291916847229,-0.10273502767086029
-1.3577780723571777,3.296187162399292,-0.10412167012691498
-1.3347188234329224,3.3055524826049805,-0.10536753386259079
-1.3036717176437378,3.2968969345092773,-0.10599001497030258
-1.5477116107940674,3.9979798793792725,-0.12961746752262115
-1.5142555236816406,3.9940273761749268,-0.13054315745830536
-1.4914196729660034,4.019226551055908,-0.132442444562912
-1.4722050428390503,4.0553483963012695,-0.1346426010131836
-1.4509658813476562,4.087817668914795,-0.13671188056468964
-1.4245508909225464,4.105319499969482,-0.1382834017276764
-1.405920386314392,4.144688129425049,-0.14059239625930786
-1.3764009475708008,4.154539585113525,-0.1419205516576767
-1.3502322435379028,4.175387859344482,-0.14352059364318848
-1.3167872428894043,4.173733711242676,-0.14435447752475739
-1.2955454587936401,4.208937168121338,-0.1464548110961914
-1.2729640007019043,4.240243434906006,-0.14843054115772247
-1.2431693077087402,4.249033451080322,-0.1495898962020874
-1.2145229578018188,4.265389442443848,-0.15097329020500183
-1.1862151622772217,4.281412124633789,-0.15234211087226868
-1.1584358215332031,4.297060489654541,-0.15368972718715668
-1.1304961442947388,4.31252908706665,-0.15504111349582672
-1.1020692586898804,4.327901363372803,-0.15633109211921692
-1.0726948976516724,4.343282699584961,-0.15758976340293884
-1.0428520441055298,4.354523181915283,-0.15869450569152832
-1.0116307735443115,4.357840538024902,-0.1595071256160736
-0.9795575737953186,4.357124328613281,-0.1601780503988266
-0.9547263979911804,4.390569686889648,-0.16203385591506958
-0.9214824438095093,4.389658451080322,-0.1625969409942627
-0.8904709219932556,4.396023750305176,-0.1634250283241272
-0.8599202632904053,4.402071475982666,-0.16423963010311127
-0.8227940797805786,4.373387336730957,-0.1637624353170395
-0.786590039730072,4.348283767700195,-0.1633373200893402
-0.7527123093605042,4.338403701782227,-0.1634461134672165
-0.7164350152015686,4.308906078338623,-0.16280895471572876
-0.6815295815467834,4.282922267913818,-0.16230037808418274
-0.6481937766075134,4.26438045501709,-0.1620757281780243
-0.6144211292266846,4.2417473793029785,-0.16162796318531036
-0.5808433294296265,4.222815036773682,-0.16126778721809387
-0.5566800832748413,4.269353866577148,-0.16341125965118408
-0.5178706049919128,4.199498653411865,-0.16110114753246307
-0.4931715130805969,4.241750717163086,-0.163096085190773
-0.4644317924976349,4.252829551696777,-0.16385506093502045
-0.4330344796180725,4.240431785583496,-0.16363391280174255
-0.3983820080757141,4.1967644691467285,-0.1622147560119629
-0.3691186010837555,4.199424743652344,-0.1625855267047882
-0.3370434641838074,4.166862487792969,-0.1615978479385376
-0.3019627630710602,4.087349891662598,-0.1587674468755722
-0.27521106600761414,4.116613388061523,-0.160058856010437
-0.24423883855342865,4.0911865234375,-0.15923483669757843
-0.21242719888687134,4.03041410446167,-0.1570357233285904
-0.17459237575531006,3.817328453063965,-0.14889739453792572
-0.15182918310165405,3.9159505367279053,-0.15291981399059296
-0.12179706990718842,3.8310811519622803,-0.14966243505477905
-0.09462324529886246,3.831845283508301,-0.149748757481575
-0.07139677554368973,4.027540683746338,-0.15746250748634338
-0.04280294105410576,3.9771971702575684,-0.15556690096855164
-0.015113270841538906,3.9695887565612793,-0.1553492397069931
0.012563535943627357,3.9930174350738525,-0.1562657207250595
0.04032550007104874,3.945993661880493,-0.15438996255397797
0.06816385686397552,3.9690358638763428,-0.1552639752626419
0.09598445147275925,3.976270914077759,-0.15552693605422974
0.12318092584609985,3.95990252494812,-0.15487420558929443
0.14819353818893433,3.892646074295044,-0.1521846204996109
0.1748683899641037,3.8837311267852783,-0.15170693397521973
0.20737187564373016,3.979856014251709,-0.1553347408771515
0.23108923435211182,3.9120867252349854,-0.15257428586483002
0.25953441858291626,3.929868459701538,-0.15315915644168854
0.28683188557624817,3.927978277206421,-0.15296350419521332
0.31116580963134766,3.8908963203430176,-0.15129324793815613
0.3391813337802887,3.8964028358459473,-0.1512840986251831
0.363243967294693,3.862881660461426,-0.14977139234542847
0.39085260033607483,3.868044137954712,-0.1497664749622345
0.42026346921920776,3.88852858543396,-0.15036019682884216
0.4479711353778839,3.893308639526367,-0.15024666488170624
0.4733642339706421,3.8745901584625244,-0.14921827614307404
0.5021693706512451,3.8867223262786865,-0.14938923716545105
0.5349958539009094,3.9256958961486816,-0.1505931168794632
0.5600786805152893,3.9064395427703857,-0.14956848323345184
0.5806908011436462,3.860032558441162,-0.14742478728294373
0.6077339053153992,3.855889081954956,-0.14686104655265808
0.6463507413864136,3.9248101711273193,-0.14908647537231445
0.665041983127594,3.8702280521392822,-0.1466216892004013
0.6954210996627808,3.8847360610961914,-0.14678409695625305
0.7372377514839172,3.960454225540161,-0.1491931676864624
0.748893141746521,3.8748321533203125,-0.14547879993915558
0.7836349010467529,3.9078028202056885,-0.14622114598751068
0.8242583870887756,3.9672658443450928,-0.14795203506946564
0.8501883745193481,3.9538307189941406,-0.1469636708498001
0.8791603446006775,3.9555163383483887,-0.14649087190628052
0.9184281826019287,4.002706050872803,-0.14763562381267548
0.9318899512290955,3.935464382171631,-0.14455726742744446
0.9647625088691711,3.9516806602478027,-0.14455877244472504
0.9979737997055054,3.967611789703369,-0.14454853534698486
1.0341627597808838,3.994668960571289,-0.14489245414733887
1.0654470920562744,4.0026350021362305,-0.14447614550590515
1.1035493612289429,4.032822132110596,-0.144847109913826
1.1611047983169556,4.130329608917236,-0.14761857688426971
1.1778802871704102,4.080935955047607,-0.1451345533132553
1.2014816999435425,4.057803630828857,-0.14354775846004486
1.2381165027618408,4.079464912414551,-0.14349418878555298
1.2732950448989868,4.093200206756592,-0.1431429386138916
1.3147873878479004,4.125197887420654,-0.14342032372951508
1.3737459182739258,4.208775997161865,-0.14547067880630493
0.6455987095832825,1.933021068572998,-0.06638864427804947
1.4548914432525635,4.259969711303711,-0.14533986151218414
1.494248390197754,4.279465675354004,-0.14502805471420288
1.535022497177124,4.2982378005981445,-0.14464899897575378
1.559580683708191,4.272812366485596,-0.142802432179451
1.60077965259552,4.295117378234863,-0.14245900511741638
1.6700674295425415,4.390063285827637,-0.14449037611484528
1.71855890750885,4.425852298736572,-0.14452524483203888
1.761376142501831,4.442656993865967,-0.14389179646968842
1.794775366783142,4.437745571136475,-0.14253802597522736
1.0745182037353516,2.606278657913208,-0.08297043293714523
1.1026397943496704,2.6242096424102783,-0.08279310166835785
1.1208934783935547,2.616497039794922,-0.08177795261144638
1.1425179243087769,2.6156833171844482,-0.08096761256456375
1.1458020210266113,2.5758628845214844,-0.07893135398626328
1.171093463897705,2.5859432220458984,-0.07842767983675003
1.1839466094970703,2.5672218799591064,-0.07703051716089249
1.1951253414154053,2.5448238849639893,-0.0755259171128273
1.2059400081634521,2.5224480628967285,-0.07398922741413116
1.202231764793396,2.4722468852996826,-0.07165621221065521
1.2224922180175781,2.4710400104522705,-0.07074049115180969
1.2308491468429565,2.4450807571411133,-0.06910508126020432
1.236764907836914,2.415832996368408,-0.06737546622753143
1.2455543279647827,2.3937504291534424,-0.06583961844444275
1.2546958923339844,2.3713459968566895,-0.06427422165870667
1.2674466371536255,2.355722665786743,-0.06289472430944443
1.279605507850647,2.3402740955352783,-0.061512742191553116
1.2855066061019897,2.3147592544555664,-0.05986524745821953
1.3012052774429321,2.3060028553009033,-0.05862976983189583
1.3097158670425415,2.2832205295562744,-0.05700492486357689
1.324873685836792,2.2744901180267334,-0.05573871731758118
1.3238426446914673,2.2388997077941895,-0.053824253380298615
1.3392715454101562,2.229736089706421,-0.05250348523259163
1.3504478931427002,2.2138712406158447,-0.051020458340644836
1.3691498041152954,2.211577892303467,-0.049809567630290985
1.3756351470947266,2.1891515254974365,-0.048133209347724915
1.390834093093872,2.1795575618743896,-0.04670395329594612
1.4050372838974,2.170459270477295,-0.045277051627635956
1.406385064125061,2.141634941101074,-0.04343022406101227
1.421476125717163,2.1316795349121094,-0.041883956640958786
1.424426794052124,2.10620379447937,-0.040053024888038635
1.438106894493103,2.0969154834747314,-0.03851214796304703
1.43923020362854,2.0676844120025635,-0.03653023764491081
1.4434221982955933,2.045696973800659,-0.03468924015760422
1.4435112476348877,2.0169122219085693,-0.03265928104519844
1.4663516283035278,2.019735097885132,-0.031091710552573204
1.4789140224456787,2.0105812549591064,-0.029324227944016457
2.22867751121521,3.140519618988037,0.06832924485206604
2.195219039916992,3.1448984146118164,0.07102750986814499
2.610976457595825,3.797537088394165,0.08860519528388977
3.158367395401001,4.667407989501953,0.11233174800872803
3.127244472503662,4.697608947753906,0.1163705512881279
3.1137802600860596,4.748542785644531,0.12068124860525131
3.095766305923462,4.7974395751953125,0.12494844198226929
1.6344594955444336,2.5750913619995117,0.06865466386079788
1.6285616159439087,2.606447219848633,0.07099752873182297
1.5973464250564575,2.5981791019439697,0.07222379744052887
2.94541597366333,4.872579097747803,0.13812313973903656
2.785240650177002,4.6816840171813965,0.13510479032993317
2.78587007522583,4.758311748504639,0.13969950377941132
2.6971471309661865,4.687814712524414,0.13993744552135468
2.4725873470306396,4.370774745941162,0.13253043591976166
2.426940441131592,4.360492706298828,0.13416904211044312
2.420069932937622,4.422188758850098,0.13799989223480225
2.426161289215088,4.512094020843506,0.1427302360534668
2.3731958866119385,4.491576194763184,0.14396096765995026
2.476801872253418,4.767823219299316,0.15472128987312317
2.428212881088257,4.757629871368408,0.1562270075082779
2.359889030456543,4.708972930908203,0.15640181303024292
2.302067995071411,4.676582336425781,0.15702909231185913
1.2270748615264893,2.5379185676574707,0.08613210171461105
1.2056200504302979,2.539499521255493,0.08705747127532959
1.1903151273727417,2.5552866458892822,0.08844758570194244
1.1767656803131104,2.574399471282959,0.08994980901479721
1.1572121381759644,2.578930616378784,0.09092222899198532
1.1501351594924927,2.611945629119873,0.09290171414613724
1.116845726966858,2.5880887508392334,0.0928191989660263
2.0484704971313477,4.8434271812438965,0.17511354386806488
2.0264909267425537,4.886425971984863,0.17803634703159332
2.0055994987487793,4.932918548583984,0.1811075061559677
1.9761518239974976,4.96153450012207,0.18347159028053284
2.0430400371551514,5.241419792175293,0.19518400728702545
2.0026440620422363,5.248560428619385,0.19677965342998505
1.9865394830703735,5.317165374755859,0.20066365599632263
1.9655979871749878,5.374780178070068,0.20416542887687683
1.9375394582748413,5.418070316314697,0.2070215344429016
1.8823238611221313,5.387836933135986,0.207078218460083
1.8831537961959839,5.515511989593506,0.2131909281015396
1.8533488512039185,5.554346561431885,0.21588851511478424
1.9429113864898682,5.960439682006836,0.23296038806438446
1.8977700471878052,5.966707706451416,0.2343517392873764
1.866869330406189,6.021350860595703,0.23767633736133575
1.842282772064209,6.094128608703613,0.24171215295791626
1.8185821771621704,6.170388698577881,0.2459021359682083
1.7820006608963013,6.205356121063232,0.24847623705863953
1.755605936050415,6.281741142272949,0.2525675594806671
1.7260477542877197,6.350559711456299,0.25636839866638184
1.694184422492981,6.41560697555542,0.2600574493408203
1.6514413356781006,6.43474006652832,0.2618715763092041
0.8155845403671265,3.272242546081543,0.13370159268379211
1.5482490062713623,6.404023170471191,0.26257461309432983
0.7922647595405579,3.382225275039673,0.1391296237707138
1.4199808835983276,6.265593528747559,0.258602112531662
1.3730140924453735,6.260019302368164,0.25921234488487244
1.326193928718567,6.254095077514648,0.2598165273666382
1.2800297737121582,6.251706123352051,0.26050999760627747
1.222102165222168,6.191650867462158,0.25867772102355957
1.1635969877243042,6.127402305603027,0.25667983293533325
1.1248363256454468,6.158400535583496,0.25865983963012695
1.0731205940246582,6.1160736083984375,0.25756600499153137
1.0324126482009888,6.1349077224731445,0.259056031703949
0.9822375774383545,6.099625110626221,0.258096307516098
0.935929000377655,6.091073036193848,0.25826504826545715
0.8833315968513489,6.031841278076172,0.25628000497817993
0.8327373266220093,5.975959300994873,0.2544313967227936
0.7896161675453186,5.969966411590576,0.25471270084381104
0.7450574040412903,5.952062606811523,0.25442537665367126
0.6153383255004883,5.212973594665527,0.22315241396427155
0.5625722408294678,5.077575206756592,0.21768376231193542
0.5375680327415466,5.182287693023682,0.2225097119808197
0.3985839784145355,4.121511459350586,0.17723847925662994
0.367124080657959,4.093070030212402,0.17629653215408325
0.34363433718681335,4.157755374908447,0.1792699545621872
0.31664013862609863,4.195111274719238,0.18104323744773865
0.2853716313838959,4.169960975646973,0.18012550473213196
0.2568311393260956,4.179625034332275,0.18071840703487396
0.2309713363647461,4.239749908447266,0.18350450694561005
0.37051627039909363,7.800302028656006,0.3379537761211395
0.31327924132347107,7.755931377410889,0.3361484110355377
0.25792646408081055,7.722817420959473,0.33484435081481934
0.20351417362689972,7.701010227203369,0.3340453803539276
0.14934271574020386,7.671014308929443,0.3329060971736908
0.09582110494375229,7.652346611022949,0.33227303624153137
0.04149521142244339,7.621607303619385,0.3310387134552002
-0.011536701582372189,7.606103420257568,0.330322265625
-0.06410981714725494,7.570718765258789,0.3287586569786072
-0.11613142490386963,7.531071186065674,0.3270259499549866
-0.16822829842567444,7.522282123565674,0.32664912939071655
-0.2195974439382553,7.489725112915039,0.3252558708190918
-0.2713823616504669,7.4607014656066895,0.32385507225990295
-0.3230101764202118,7.458657741546631,0.3235490024089813
-0.2687318027019501,5.3476104736328125,0.23182891309261322
-0.3105769753456116,5.427443981170654,0.23515348136425018
-0.34779393672943115,5.417374134063721,0.23459236323833466
-0.38502976298332214,5.399214744567871,0.2336907535791397
-0.42024895548820496,5.369204044342041,0.23212113976478577
-0.4540114104747772,5.327304363250732,0.2300424575805664
-0.4345996677875519,4.713924884796143,0.2033282369375229
-0.4592452645301819,4.6292524337768555,0.19946104288101196
-0.49029067158699036,4.6103835105896,0.19843988120555878
-0.5204238295555115,4.591385364532471,0.1973893642425537
-0.5501349568367004,4.572218418121338,0.19623064994812012
-0.5786213874816895,4.5451178550720215,0.19474351406097412
-0.6099668145179749,4.5410380363464355,0.19425275921821594
-0.6393039226531982,4.51731538772583,0.19292500615119934
-0.670677125453949,4.512784481048584,0.19243286550045013
-0.6981651186943054,4.484941482543945,0.19086971879005432
-0.7289027571678162,4.480075836181641,0.19023935496807098
-0.7583001255989075,4.4673027992248535,0.18928292393684387
-0.7892603874206543,4.461964130401611,0.18864654004573822
-0.8151299953460693,4.42559289932251,0.18670234084129333
-0.8414669632911682,4.396847724914551,0.18509575724601746
-0.7286239266395569,3.6713178157806396,0.15411262214183807
-0.7537034153938293,3.66627836227417,0.1534668654203415
-0.7788175940513611,3.661052942276001,0.15281927585601807
-0.9465011358261108,4.299668312072754,0.17896394431591034
-0.9832849502563477,4.323464870452881,0.1794554740190506
-1.0147615671157837,4.324240207672119,0.17891934514045715
-1.0441737174987793,4.317270278930664,0.17800429463386536
-1.0593878030776978,4.253288269042969,0.1747550368309021
-1.0834444761276245,4.22308874130249,0.1728937327861786
-1.1256661415100098,4.2645697593688965,0.17397992312908173
-1.1551254987716675,4.256722927093506,0.17303773760795593
-1.1776387691497803,4.226284980773926,0.17108355462551117
-1.203050971031189,4.2069854736328125,0.16959291696548462
-1.23015296459198,4.191047668457031,0.1682291477918625
-1.2637295722961426,4.197397232055664,0.1677696704864502
-1.288243293762207,4.173643112182617,0.16611503064632416
-1.3141412734985352,4.1574201583862305,0.16466191411018372
-1.3397687673568726,4.141074180603027,0.16319707036018372
-1.3634721040725708,4.116932392120361,0.16141684353351593
-1.3971107006072998,4.122176170349121,0.16079124808311462
-1.4181007146835327,4.090268135070801,0.15872575342655182
-1.4432646036148071,4.07322359085083,0.1571664810180664
-1.4679839611053467,4.05612850189209,0.15558595955371857
-1.5008655786514282,4.060778617858887,0.1548379808664322
-1.521230936050415,4.028217792510986,0.15264196693897247
-1.552004337310791,4.024881362915039,0.1515793353319168
-1.5706045627593994,3.9925522804260254,0.14936085045337677
-1.6001874208450317,3.9892544746398926,0.14821577072143555
-1.6241796016693115,3.971165418624878,0.14651653170585632
-1.6507397890090942,3.956023693084717,0.14488844573497772
-1.6781764030456543,3.944516658782959,0.1434215009212494
-1.69520103931427,3.9117696285247803,0.14109915494918823
-1.7275334596633911,3.9147300720214844,0.14006896317005157
-1.7510261535644531,3.89577579498291,0.13823071122169495
-1.7785407304763794,3.883349657058716,0.13659130036830902
-1.785310983657837,3.8286654949188232,0.13347437977790833
-1.8240420818328857,3.8450233936309814,0.13278089463710785
-1.8359766006469727,3.8047451972961426,0.13013452291488647
-1.8727741241455078,3.8129453659057617,0.12909306585788727
-1.877030611038208,3.7542471885681152,0.12578029930591583
-1.9178457260131836,3.7730844020843506,0.12502577900886536
-1.931981086730957,3.7395763397216797,0.12253057211637497
-1.6870055198669434,3.2112553119659424,0.10398168861865997
-1.9908190965652466,3.7264270782470703,0.11920087039470673
-2.0343189239501953,3.7474122047424316,0.11833866685628891
-1.7085063457489014,3.0978469848632812,0.09651006758213043
-1.7295600175857544,3.0861949920654297,0.09480252861976624
-0.7943231463432312,1.3945603370666504,0.04221494495868683
-0.7957581877708435,1.3757508993148804,0.04100935161113739
-0.8007575273513794,1.3638215065002441,0.0400124117732048
-0.8402250409126282,1.4085532426834106,0.040615107864141464
-0.8864041566848755,1.462831974029541,0.041440486907958984
-0.8835843801498413,1.4371281862258911,0.03996468707919121
-0.8846593499183655,1.4181139469146729,0.03868650645017624
-0.8819856643676758,1.392143964767456,0.03718572109937668
-2.378574848175049,3.539855480194092,0.08580130338668823
-1.43582022190094,2.1077089309692383,0.04967370256781578
-1.6279520988464355,2.354837417602539,0.05378123000264168
-1.3522893190383911,1.9281420707702637,0.04259946569800377
-2.5551698207855225,3.449132204055786,0.0646137222647667
-1.3964258432388306,1.997392177581787,-0.042725399136543274
-1.3304951190948486,1.9337564706802368,-0.04310968518257141
-1.2846786975860596,1.9269683361053467,-0.04616934433579445
-1.444316029548645,2.2006113529205322,-0.05442744866013527
-1.1997711658477783,1.8564906120300293,-0.047293584793806076
-1.2716405391693115,2.0005667209625244,-0.052428968250751495
-0.8576937913894653,1.4163079261779785,-0.03997040167450905
-0.8295177817344666,1.3922041654586792,-0.0401575081050396
-0.8277022242546082,1.4113930463790894,-0.04155926778912544
-0.851016640663147,1.5015573501586914,-0.04597863182425499
-0.9755898118019104,1.7495404481887817,-0.05452550947666168
-1.6464868783950806,3.0026650428771973,-0.09519311040639877
-1.6244224309921265,3.0145959854125977,-0.097159743309021
-1.5989354848861694,3.019294500350952,-0.09887208789587021
-1.6373974084854126,3.1445705890655518,-0.10453279316425323
-1.6075196266174316,3.1423521041870117,-0.10597094893455505
-1.588015079498291,3.160931348800659,-0.1080998033285141
-1.5657907724380493,3.171936273574829,-0.10991889983415604
-1.546676754951477,3.1899166107177734,-0.11200259625911713
-1.5268698930740356,3.2080321311950684,-0.11402902007102966
-1.506780982017517,3.2260732650756836,-0.11605937033891678
-1.7738697528839111,3.8681442737579346,-0.14075398445129395
-1.737282156944275,3.8589658737182617,-0.1420021802186966
-1.725253939628601,3.9070005416870117,-0.1453004628419876
-1.710396409034729,3.9517672061920166,-0.14852546155452728
-1.6916851997375488,3.985198736190796,-0.1512846201658249
-1.6698583364486694,4.011239528656006,-0.15376970171928406
-1.6382938623428345,4.015730857849121,-0.15537594258785248
-1.617955207824707,4.049130439758301,-0.15807859599590302
-1.5829964876174927,4.0460896492004395,-0.1593693643808365
-1.5603448152542114,4.071533203125,-0.16174151003360748
-1.5289819240570068,4.07500696182251,-0.1632201224565506
-1.494288444519043,4.071159839630127,-0.16432884335517883
-1.4755858182907104,4.111100196838379,-0.16721665859222412
-1.451647162437439,4.136096477508545,-0.1695001870393753
-1.4241598844528198,4.149699687957764,-0.17130786180496216
-1.393490195274353,4.155917644500732,-0.1727256178855896
-1.3674416542053223,4.176819801330566,-0.1747359335422516
-1.3355687856674194,4.178861618041992,-0.17595387995243073
-1.302436113357544,4.17697811126709,-0.17701558768749237
-1.2686975002288818,4.170970439910889,-0.17786982655525208
-1.232284665107727,4.1573944091796875,-0.1782887578010559
-1.1917998790740967,4.128514289855957,-0.17804595828056335
-1.15547513961792,4.110398292541504,-0.17824332416057587
-1.1227593421936035,4.103214740753174,-0.17890654504299164
-1.0794481039047241,4.058252334594727,-0.17788510024547577
-1.034053087234497,4.001514911651611,-0.17622756958007812
-1.0256038904190063,4.088185787200928,-0.18089796602725983
-0.9693587422370911,3.981435537338257,-0.17699818313121796
-0.9290356040000916,3.9348702430725098,-0.17574696242809296
-0.9096196293830872,3.979398012161255,-0.17851528525352478
-0.8763406276702881,3.9628374576568604,-0.17847269773483276
-0.8344045877456665,3.904020309448242,-0.17651954293251038
-0.8040728569030762,3.894399642944336,-0.17677320539951324
-0.7578702569007874,3.8041837215423584,-0.17335811257362366
-0.6829424500465393,3.560342311859131,-0.16282793879508972
-0.6606509685516357,3.580386161804199,-0.16426554322242737
-0.6387917995452881,3.6041338443756104,-0.1658862978219986
-0.6241798996925354,3.6700069904327393,-0.16945861279964447
-0.6080545783042908,3.7319955825805664,-0.17287743091583252
-0.577874481678009,3.7130627632141113,-0.1724957674741745
-0.5465623140335083,3.682272434234619,-0.17148490250110626
-0.5173825025558472,3.662813901901245,-0.1710030734539032
-0.49294766783714294,3.674029588699341,-0.1719549596309662
-0.46542978286743164,3.661855936050415,-0.1718195676803589
-0.43197116255760193,3.5991270542144775,-0.16925568878650665
-0.4054303765296936,3.5943386554718018,-0.1693422645330429
-0.3777596950531006,3.5737898349761963,-0.1686868518590927
-0.35285598039627075,3.5763137340545654,-0.16912467777729034
-0.32871219515800476,3.5864295959472656,-0.16992956399917603
-0.3010832369327545,3.5575098991394043,-0.16885563731193542
-0.2788070738315582,3.598447561264038,-0.17100705206394196
-0.2500537633895874,3.5496973991394043,-0.1689007729291916
-0.22653859853744507,3.570810079574585,-0.17012432217597961
-0.19840702414512634,3.513850450515747,-0.16763339936733246
-0.17470471560955048,3.530721664428711,-0.16865816712379456
-0.14995215833187103,3.539663314819336,-0.16917318105697632
-0.12439758330583572,3.517221450805664,-0.16819466650485992
-0.09989190846681595,3.517996072769165,-0.16833367943763733
-0.075079046189785,3.5029959678649902,-0.16772542893886566
-0.05085049569606781,3.5112290382385254,-0.1682373285293579
-0.025610707700252533,3.4607789516448975,-0.16581732034683228
-0.0014940137043595314,3.4218556880950928,-0.16394028067588806
0.02230287529528141,3.421783924102783,-0.1639326810836792
0.046203821897506714,3.429349422454834,-0.1642988920211792
0.07002046704292297,3.428946018218994,-0.16429130733013153
0.09405411034822464,3.4361822605133057,-0.16456417739391327
0.11778005957603455,3.419842004776001,-0.16366581618785858
0.1434282660484314,3.465731382369995,-0.1657547503709793
0.16601356863975525,3.4334797859191895,-0.1641135960817337
0.18901953101158142,3.416666269302368,-0.1632196009159088
0.21321436762809753,3.4230706691741943,-0.16338232159614563
0.2368098348379135,3.413710594177246,-0.16272032260894775
0.25985240936279297,3.404221296310425,-0.16206485033035278
0.28607624769210815,3.433455467224121,-0.16325882077217102
0.30713367462158203,3.400308609008789,-0.161494180560112
0.33151689171791077,3.4058737754821777,-0.16154466569423676
0.3562404215335846,3.411243200302124,-0.16148631274700165
0.3789585530757904,3.4009621143341064,-0.16069960594177246
0.4016125202178955,3.3905229568481445,-0.15991374850273132
0.42617493867874146,3.3954081535339355,-0.15985727310180664
0.4528615474700928,3.415590763092041,-0.1605166494846344
0.47789254784584045,3.4200851917266846,-0.16031238436698914
0.5014787316322327,3.4167327880859375,-0.1597539186477661
0.5275061130523682,3.4286303520202637,-0.15991277992725372
0.5488529205322266,3.4094958305358887,-0.15863046050071716
0.5809573531150818,3.4556491374969482,-0.16038954257965088
0.6073948740959167,3.466980457305908,-0.16040697693824768
0.6316258907318115,3.4626810550689697,-0.15968939661979675
0.6584287881851196,3.4736053943634033,-0.1596858650445938
0.685627281665802,3.4842822551727295,-0.1596696674823761
0.711446225643158,3.4871013164520264,-0.15929776430130005
0.7289711236953735,3.451616048812866,-0.15708182752132416
0.7564070820808411,3.461725950241089,-0.1569237858057022
0.7819995880126953,3.4640743732452393,-0.15642505884170532
0.80781090259552,3.4661993980407715,-0.15591730177402496
0.8418984413146973,3.5022823810577393,-0.15693604946136475
0.8602486252784729,3.473745584487915,-0.15495237708091736
0.8978583812713623,3.5206735134124756,-0.15630541741847992
0.9369075894355774,3.5710835456848145,-0.15780490636825562
0.9658178687095642,3.579590320587158,-0.15743626654148102
0.988634467124939,3.5653018951416016,-0.15607111155986786
1.0151078701019287,3.566021203994751,-0.15525580942630768
1.0562448501586914,3.6151373386383057,-0.1565152108669281
1.0766710042953491,3.592862844467163,-0.15468651056289673
1.108543038368225,3.6077144145965576,-0.15445347130298615
1.1453101634979248,3.6372036933898926,-0.15482984483242035
1.1784316301345825,3.6553807258605957,-0.15460854768753052
1.2208361625671387,3.699082851409912,-0.15543605387210846
0.6543994545936584,1.937760353088379,-0.08089292794466019
0.6602153778076172,1.9110558032989502,-0.07925105094909668
1.3376290798187256,3.787222146987915,-0.15597523748874664
1.3579334020614624,3.7634570598602295,-0.15385758876800537
1.3887742757797241,3.768892288208008,-0.1529407650232315
1.4360506534576416,3.8138277530670166,-0.15356037020683289
1.4807697534561157,3.851170301437378,-0.15387004613876343
1.5212146043777466,3.8774049282073975,-0.1536317616701126
1.5922973155975342,3.979473114013672,-0.15632793307304382
1.6047290563583374,3.9324162006378174,-0.15312890708446503
1.652000069618225,3.967893123626709,-0.1531013697385788
1.7143902778625488,4.039134502410889,-0.15441296994686127
1.1294867992401123,2.6122071743011475,-0.0988859087228775
1.1501761674880981,2.611745595932007,-0.09788960218429565
1.1507349014282227,2.5645499229431152,-0.09512520581483841
1.1834802627563477,2.58833909034729,-0.09498297423124313
1.1925735473632812,2.5626964569091797,-0.0929923951625824
1.1896312236785889,2.5123703479766846,-0.09013105928897858
1.2001593112945557,2.490081787109375,-0.08826996386051178
1.2105952501296997,2.4676895141601562,-0.08641158044338226
1.2187755107879639,2.4419097900390625,-0.0843973159790039
1.224401593208313,2.412899971008301,-0.08230032026767731
1.2444937229156494,2.411437749862671,-0.08112027496099472
1.264853596687317,2.4096922874450684,-0.07991217821836472
1.2736175060272217,2.387432336807251,-0.07800087332725525
1.2819241285324097,2.3652796745300293,-0.07609857618808746
1.2871092557907104,2.3357961177825928,-0.07391418516635895
1.299487829208374,2.3200325965881348,-0.07218895107507706
1.3090050220489502,2.301255702972412,-0.07034780085086823
1.308481216430664,2.2655951976776123,-0.06801026314496994
1.3242084980010986,2.256486415863037,-0.06641517579555511
1.3358811140060425,2.2405550479888916,-0.06459633260965347
1.35454261302948,2.238502264022827,-0.06318171322345734
1.3573334217071533,2.209404468536377,-0.06097285822033882
1.3602732419967651,2.1800718307495117,-0.0587405189871788
1.3787415027618408,2.177734136581421,-0.05722671002149582
1.393268346786499,2.1685142517089844,-0.05548245087265968
1.4125713109970093,2.165367603302002,-0.053831759840250015
1.4096299409866333,2.129960298538208,-0.0513884499669075
1.436406135559082,2.1403181552886963,-0.05004545673727989
1.435849905014038,2.1077373027801514,-0.047582097351551056
1.4454461336135864,2.091723680496216,-0.04547818750143051
1.4544836282730103,2.075960636138916,-0.043382324278354645
1.4507285356521606,2.0404093265533447,-0.04078070446848869
1.4590249061584473,2.02490496635437,-0.03860724717378616
1.463271141052246,2.002561330795288,-0.03619977831840515
1.4719270467758179,1.986533522605896,-0.03382669761776924
2.2300312519073486,3.120061159133911,0.08121447265148163
2.2113845348358154,3.142765760421753,0.08493786305189133
2.6026110649108887,3.755415916442871,0.10499341040849686
2.599893093109131,3.814032793045044,0.1101362481713295
3.1323907375335693,4.665363788604736,0.13859347999095917
3.1198525428771973,4.7205023765563965,0.144044429063797
3.1065773963928223,4.7804179191589355,0.14971870183944702
3.117403268814087,4.870880603790283,0.15604844689369202
1.6419824361801147,2.606822967529297,0.08535575121641159
1.6181621551513672,2.6124207973480225,0.0873488336801529
1.5671628713607788,2.5703651905059814,0.08759833872318268
2.8241190910339355,4.707627296447754,0.16345293819904327
2.774879217147827,4.704989910125732,0.16622862219810486
2.7406387329101562,4.724893093109131,0.16970707476139069
2.7560741901397705,4.828502655029297,0.1761329025030136
2.4630515575408936,4.388596534729004,0.16248169541358948
2.4599740505218506,4.461673736572266,0.16761890053749084
2.4320554733276367,4.485726356506348,0.17080236971378326
2.397066116333008,4.4955644607543945,0.17341776192188263
2.4891622066497803,4.751456260681152,0.18555891513824463
2.454010009765625,4.769590854644775,0.18851757049560547
2.391659736633301,4.731162071228027,0.18915435671806335
2.3360822200775146,4.702139854431152,0.1900743693113327
1.2579572200775146,2.5786874294281006,0.10532837361097336
1.2221590280532837,2.5525741577148438,0.10532639175653458
1.207339882850647,2.5681886672973633,0.10700548440217972
1.184496283531189,2.565855026245117,0.10792282968759537
1.1706609725952148,2.5850000381469727,0.10972689837217331
1.164424180984497,2.6219642162323,0.11225079745054245
1.1299326419830322,2.594437837600708,0.11200359463691711
2.0626375675201416,4.827517032623291,0.21008387207984924
2.0410096645355225,4.870473861694336,0.21364378929138184
2.015406608581543,4.910571098327637,0.21699385344982147
1.9942680597305298,4.961185455322266,0.22081473469734192
1.9835569858551025,5.036757469177246,0.2257428765296936
2.018662452697754,5.232415676116943,0.2361207902431488
1.9982647895812988,5.2902326583862305,0.2403036206960678
1.9742071628570557,5.344947338104248,0.24429257214069366
1.946130394935608,5.388343334197998,0.2477717399597168
1.9032925367355347,5.386974811553955,0.24915711581707
1.8734060525894165,5.422125339508057,0.2522420287132263
1.8688228130340576,5.534939289093018,0.2589021623134613
1.8515139818191528,5.618781089782715,0.2641904950141907
1.916276216506958,5.958744525909424,0.2816057503223419
1.8839911222457886,6.001663684844971,0.2850429117679596
1.8592524528503418,6.07051944732666,0.2897442579269409
1.8286752700805664,6.124516010284424,0.2936853766441345
1.7977979183197021,6.1823410987854,0.297718346118927
1.7568836212158203,6.210221767425537,0.3003600239753723
1.745579719543457,6.338872909545898,0.30786147713661194
1.7125462293624878,6.3922319412231445,0.31174802780151367
1.6737004518508911,6.4266180992126465,0.31468555331230164
0.8244553208351135,3.2607598304748535,0.16021740436553955
1.5737333297729492,6.419528007507324,0.31653961539268494
0.45568105578422546,1.9169586896896362,0.09485000371932983
1.4635952711105347,6.35331392288208,0.3154434263706207
1.4065721035003662,6.306152820587158,0.31419071555137634
1.365172028541565,6.331142425537109,0.3163219690322876
1.3082207441329956,6.287304878234863,0.31501293182373047
1.2521685361862183,6.238962173461914,0.31345993280410767
1.204310417175293,6.224470138549805,0.3135964274406433
1.1445096731185913,6.1444244384765625,0.31043100357055664
1.092519998550415,6.1023030281066895,0.30907946825027466
1.0472702980041504,6.102261066436768,0.30975088477134705
1.0085475444793701,6.1364054679870605,0.31216341257095337
0.9540074467658997,6.070044040679932,0.30946773290634155
0.9076876640319824,6.049478054046631,0.30910584330558777
0.8577777743339539,6.001537322998047,0.30735185742378235
0.8068910241127014,5.949499607086182,0.30518901348114014
0.7589795589447021,5.908566474914551,0.3035641312599182
0.7182620167732239,5.921475887298584,0.304717481136322
0.5751988887786865,5.034828186035156,0.2595142722129822
0.5530434846878052,5.158921241760254,0.26635655760765076
0.5163308382034302,5.154852867126465,0.266554594039917
0.38310185074806213,4.121269702911377,0.21332404017448425
0.351487934589386,4.092745780944824,0.21206818521022797
0.3305336833000183,4.1923089027404785,0.21746252477169037
0.30054739117622375,4.18281364440918,0.2172137349843979
0.2714667320251465,4.184782981872559,0.21757015585899353
0.24426285922527313,4.229427814483643,0.22006957232952118
0.39513644576072693,7.788043975830078,0.4054361581802368
0.3396947681903839,7.767212390899658,0.4045718014240265
0.28494009375572205,7.749877452850342,0.40390700101852417
0.23009446263313293,7.720459938049316,0.40263035893440247
0.17421382665634155,7.6672773361206055,0.40013575553894043
0.12067276239395142,7.656597137451172,0.39962372183799744
0.06694993376731873,7.6182427406311035,0.3976292908191681
0.01390097476541996,7.610719680786133,0.3972633183002472
-0.0388072170317173,7.587225914001465,0.3960825800895691
-0.0919400081038475,7.543851852416992,0.3938840627670288
-0.14355064928531647,7.504028797149658,0.3918747901916504
-0.19512595236301422,7.487269878387451,0.39079776406288147
-0.2463473379611969,7.466257572174072,0.3895184397697449
-0.2978287935256958,7.4565863609313965,0.3888498842716217
-0.35079991817474365,7.477727890014648,0.38980618119239807
-0.29348117113113403,5.433936595916748,0.2831714153289795
-0.33080610632896423,5.423989295959473,0.28251421451568604
-0.3678080141544342,5.413805961608887,0.28170332312583923
-0.4041021764278412,5.395591735839844,0.28048911690711975
-0.43957895040512085,5.369354248046875,0.2788728177547455
-0.47505950927734375,5.338938236236572,0.27705082297325134
-0.44427189230918884,4.628788471221924,0.24000436067581177
-0.4729999303817749,4.594592094421387,0.23795226216316223
-0.5046040415763855,4.5912556648254395,0.23742574453353882
-0.535278856754303,4.579952716827393,0.23649908602237701
-0.5655855536460876,4.560612678527832,0.2351628541946411
-0.5952420234680176,4.541126728057861,0.23383700847625732
-0.6246100664138794,4.521454811096191,0.23251548409461975
-0.6551452279090881,4.513224124908447,0.23164083063602448
-0.6848961710929871,4.500949382781982,0.23053748905658722
-0.7138526439666748,4.480683326721191,0.22902962565422058
-0.7462283968925476,4.483352184295654,0.22870858013629913
-0.776050329208374,4.470403671264648,0.2276012897491455
-0.8028659224510193,4.441917896270752,0.2256869673728943
-0.8253089785575867,4.39418888092041,0.22266890108585358
-0.8553470373153687,4.388484954833984,0.22179649770259857
-0.7429891228675842,3.674978017807007,0.1852436363697052
-0.766899049282074,3.662128448486328,0.18411678075790405
-0.9402489066123962,4.339283466339111,0.2176017463207245
-0.9700162410736084,4.332775592803955,0.21663466095924377
-0.9942407608032227,4.303308963775635,0.2144741714000702
-1.027679681777954,4.311542987823486,0.21419167518615723
-1.057475209236145,4.304383754730225,0.2131541669368744
-1.0729451179504395,4.240258693695068,0.20931300520896912
-1.0983408689498901,4.217677593231201,0.20752157270908356
-1.1379752159118652,4.251661777496338,0.20838068425655365
-1.1651806831359863,4.236252784729004,0.20680786669254303
-1.1963143348693848,4.235733985900879,0.20597612857818604
-1.2181450128555298,4.201135158538818,0.20348866283893585
-1.2496052980422974,4.20008659362793,0.2026386857032776
-1.2736161947250366,4.176616191864014,0.20060178637504578
-1.3023720979690552,4.167804718017578,0.19923198223114014
-1.3258999586105347,4.1440582275390625,0.19717437028884888
-1.3546528816223145,4.134814262390137,0.19579876959323883
-1.3858225345611572,4.132769584655762,0.1947718858718872
-1.408916711807251,4.108523368835449,0.19262871146202087
-1.42620050907135,4.069558620452881,0.18975518643856049
-1.461936354637146,4.0818095207214355,0.18926140666007996
-1.4902490377426147,4.071629047393799,0.1877160221338272
-1.5130586624145508,4.046617031097412,0.1854984015226364
-1.5350847244262695,4.02168083190918,0.1832347810268402
-1.556325912475586,3.996835708618164,0.18093045055866241
-1.5864806175231934,3.9934380054473877,0.17958401143550873
-1.6112645864486694,3.9751579761505127,0.17755641043186188
-1.6313973665237427,3.9459049701690674,0.17505493760108948
-1.6641570329666138,3.949226140975952,0.17392683029174805
-1.6566174030303955,3.8592007160186768,0.16866633296012878
-1.6861258745193481,3.8550007343292236,0.167155921459198
-1.731976866722107,3.886037588119507,0.1671420931816101
-1.7654304504394531,3.888188362121582,0.16587400436401367
-1.7815394401550293,3.8551318645477295,0.16301187872886658
-1.8004837036132812,3.8291566371917725,0.16046278178691864
-1.8405252695083618,3.844808340072632,0.1595943123102188
-1.8637713193893433,3.824995994567871,0.15725308656692505
-1.886272668838501,3.805323362350464,0.15488682687282562
-1.9078223705291748,3.7859103679656982,0.15248319506645203
-1.9152050018310547,3.738457202911377,0.14895878732204437
-1.944819688796997,3.7320311069488525,0.14701373875141144
-1.9710489511489868,3.718334436416626,0.14474377036094666
-2.002872943878174,3.7191245555877686,0.14298629760742188
-1.701323390007019,3.1099650859832764,0.1180625706911087
-1.7153080701828003,3.084493637084961,0.1155170276761055
-1.7327834367752075,3.06581974029541,0.11323841661214828
-0.8396217226982117,1.4628252983093262,0.05323224887251854
-0.8452609181404114,1.4505791664123535,0.05200134962797165
-0.8672643899917603,1.4648610353469849,0.05166776850819588
-0.8732478022575378,1.4522345066070557,0.0503716804087162
-0.8907639384269714,1.4599215984344482,0.04975607246160507
-0.9006490111351013,1.4538824558258057,0.04862404987215996
-0.8941444158554077,1.4211561679840088,0.04659209027886391
-0.899330198764801,1.4086610078811646,0.04522918164730072
-0.8558737635612488,1.301959753036499,0.03994230180978775
-2.367326021194458,3.4998855590820312,0.1019725427031517
-1.3105123043060303,1.9092869758605957,0.05402998626232147
-1.332306146621704,1.913262963294983,0.052487242966890335
-1.3796253204345703,1.9898602962493896,-0.050681449472904205
-1.2930411100387573,1.8929439783096313,-0.05013548582792282
-1.4964258670806885,2.2268002033233643,-0.06120764836668968
-1.2907841205596924,1.9508129358291626,-0.05544837936758995
-1.2680737972259521,1.9469767808914185,-0.057124558836221695
-1.1648942232131958,1.8183165788650513,-0.054966364055871964
-0.8304557204246521,1.3823474645614624,-0.046202417463064194
-0.7829714417457581,1.324244499206543,-0.045230522751808167
-0.8996562361717224,1.5993520021438599,-0.05795137211680412
-1.6245579719543457,2.9384443759918213,-0.10842657834291458
-2.055783271789551,3.7838540077209473,-0.14206597208976746
-2.016392946243286,3.7739269733428955,-0.1439978927373886
-2.006253719329834,3.8189525604248047,-0.1480245590209961
-1.9478377103805542,3.774437427520752,-0.1484970599412918
-1.9199774265289307,3.7885754108428955,-0.15126730501651764
-1.896997332572937,3.8087527751922607,-0.15417173504829407
-1.883810043334961,3.8499834537506104,-0.15793348848819733
-1.8574117422103882,3.8670122623443604,-0.16068027913570404
-1.814631462097168,3.8483591079711914,-0.16190814971923828
-1.8124245405197144,3.913912773132324,-0.1666356325149536
-1.7633674144744873,3.8804826736450195,-0.1671653687953949
-1.5366319417953491,3.4473965167999268,-0.15015016496181488
-1.5540859699249268,3.5547935962677,-0.15650390088558197
-1.5831159353256226,3.6909914016723633,-0.16418962180614471
-1.6631664037704468,3.953718900680542,-0.17766936123371124
-1.3694545030593872,3.323399782180786,-0.15079067647457123
-1.3819751739501953,3.423578977584839,-0.15680032968521118
-1.3466078042984009,3.404005527496338,-0.15731008350849152
-1.380712628364563,3.5624001026153564,-0.1660999059677124
