X,Y,Z
1.0615688562393188,4.705574989318848,-0.5179760456085205
1.088680624961853,4.6758341789245605,-0.5119982361793518
1.1190221309661865,4.661055564880371,-0.5077036619186401
1.1457431316375732,4.6309309005737305,-0.5017570853233337
1.1785674095153809,4.62307071685791,-0.49820154905319214
1.2026890516281128,4.585121154785156,-0.4913119673728943
1.2341872453689575,4.577155590057373,-0.48745205998420715
1.262519359588623,4.557735919952393,-0.4824026823043823
1.290050983428955,4.534272193908691,-0.47692060470581055
1.3178573846817017,4.5104899406433105,-0.4713971018791199
1.346657395362854,4.494293689727783,-0.4664636552333832
1.372930884361267,4.470509052276611,-0.4607241749763489
1.4014489650726318,4.4539337158203125,-0.45574715733528137
1.4277316331863403,4.429675102233887,-0.4499887526035309
1.4589627981185913,4.419933319091797,-0.4455842971801758
1.4804853200912476,4.384505271911621,-0.4384583532810211
1.502859354019165,4.352658271789551,-0.43174976110458374
1.265123724937439,3.5833184719085693,-0.35248762369155884
1.2875187397003174,3.567434787750244,-0.3479820191860199
1.3119815587997437,3.5588951110839844,-0.34403085708618164
1.6054025888442993,4.263734817504883,-0.40832313895225525
1.6376402378082275,4.260257244110107,-0.40417152643203735
1.6773337125778198,4.274525165557861,-0.4016517698764801
1.696694016456604,4.238017559051514,-0.39426499605178833
1.7196444272994995,4.212420463562012,-0.3878194987773895
1.7519466876983643,4.208001136779785,-0.383256733417511
1.7782458066940308,4.188973426818848,-0.37737324833869934
1.8041809797286987,4.169858455657959,-0.37146908044815063
1.8292665481567383,4.150885105133057,-0.3654419481754303
1.8573932647705078,4.138848304748535,-0.36004525423049927
1.8802881240844727,4.1118645668029785,-0.3531752824783325
1.9023535251617432,4.084997177124023,-0.34642383456230164
1.9299556016921997,4.072507858276367,-0.34075284004211426
1.9506771564483643,4.045802593231201,-0.3339286148548126
1.9788213968276978,4.032590389251709,-0.3281087875366211
2.0074143409729004,4.018914699554443,-0.322154700756073
2.034419536590576,4.005785942077637,-0.31620973348617554
2.048820972442627,3.968229293823242,-0.3083806037902832
2.0764822959899902,3.954298734664917,-0.3022487163543701
2.1038811206817627,3.9402568340301514,-0.29609090089797974
2.1339328289031982,3.9333994388580322,-0.2903769612312317
2.1458089351654053,3.891824245452881,-0.2820126414299011
2.1329705715179443,3.805751323699951,-0.2704660892486572
2.170503854751587,3.8118655681610107,-0.2655164897441864
2.1724047660827637,3.7572684288024902,-0.2563308775424957
2.198042631149292,3.742769241333008,-0.24980339407920837
2.2406070232391357,3.754276990890503,-0.2447560876607895
2.2492880821228027,3.713080883026123,-0.23631839454174042
2.2780027389526367,3.705120086669922,-0.22999751567840576
2.308037519454956,3.6961238384246826,-0.22328512370586395
2.3204472064971924,3.6610846519470215,-0.21500518918037415
2.3617706298828125,3.6721510887145996,-0.20929843187332153
2.382915496826172,3.649571180343628,-0.20141440629959106
2.3904635906219482,3.6076505184173584,-0.19244897365570068
2.422619581222534,3.605354070663452,-0.18561401963233948
2.442992687225342,3.5825388431549072,-0.17733271420001984
2.4675240516662598,3.5660855770111084,-0.1691303253173828
2.4814627170562744,3.537717580795288,-0.16051054000854492
2.5195703506469727,3.5398542881011963,-0.15268267691135406
2.5288891792297363,3.5047214031219482,-0.1432306468486786
2.5609796047210693,3.501063823699951,-0.13482904434204102
2.2335751056671143,3.0103023052215576,-0.10826612263917923
2.789245843887329,3.912517786026001,0.2691940367221832
2.7509827613830566,3.919780731201172,0.2782480716705322
2.718170642852783,3.932457447052002,0.2871343791484833
2.6917150020599365,3.9593567848205566,0.2969403862953186
2.6760153770446777,3.997507095336914,0.307067334651947
2.6255528926849365,3.9835779666900635,0.3129391372203827
2.5984010696411133,4.009960174560547,0.32194551825523376
2.590191602706909,4.0609307289123535,0.3324766755104065
2.557262420654297,4.0719170570373535,0.33957639336586
2.526127338409424,4.090672016143799,0.3471212387084961
2.48335599899292,4.088825702667236,0.3527873158454895
2.4700803756713867,4.132594108581543,0.36215829849243164
2.4516472816467285,4.170080184936523,0.3708280622959137
2.4161672592163086,4.181132793426514,0.37707042694091797
2.3992624282836914,4.221641540527344,0.3857962191104889
2.365774631500244,4.230992794036865,0.3915535509586334
2.274052858352661,4.138802528381348,0.3876928389072418
2.2355918884277344,4.141448974609375,0.3924422860145569
2.2166364192962646,4.177529811859131,0.40021735429763794
2.190859794616699,4.199341297149658,0.4065612554550171
2.1602678298950195,4.2146196365356445,0.41212716698646545
2.1282808780670166,4.230313777923584,0.41771870851516724
2.102593183517456,4.2556304931640625,0.42413604259490967
2.072704315185547,4.269749641418457,0.42932364344596863
2.0490639209747314,4.2978715896606445,0.43587419390678406
2.02056884765625,4.319426536560059,0.44155779480934143
1.988620638847351,4.333718776702881,0.44652870297431946
1.951019287109375,4.333223342895508,0.44989699125289917
1.9913362264633179,4.506349563598633,0.47133880853652954
4.449500560760498,10.267394065856934,1.0813664197921753
1.9255955219268799,4.533850193023682,0.48068296909332275
4.314986705780029,10.368759155273438,1.106558084487915
1.8614572286605835,4.563788890838623,0.49016061425209045
1.8525973558425903,4.633958339691162,0.5008088946342468
1.8163002729415894,4.639500617980957,0.5042527318000793
1.7879549264907837,4.666696548461914,0.5099859237670898
1.7689837217330933,4.719141483306885,0.5185274481773376
1.3247032165527344,3.6112570762634277,0.3989016115665436
1.3099762201309204,3.6493260860443115,0.40521109104156494
1.2684705257415771,3.614267349243164,0.4032208323478699
1.6252957582473755,4.740084171295166,0.5311955809593201
1.6045622825622559,4.791811943054199,0.5394062995910645
1.5774965286254883,4.8249030113220215,0.5455530285835266
1.5520018339157104,4.861303806304932,0.5520704984664917
1.5291708707809448,4.9088263511657715,0.5597774386405945
1.4813553094863892,4.878472328186035,0.5583661198616028
1.4494284391403198,4.899830341339111,0.5628927946090698
1.4210237264633179,4.9320220947265625,0.5686760544776917
1.3922336101531982,4.964051246643066,0.5744882822036743
1.3452932834625244,4.928338527679443,0.5724416971206665
1.2842360734939575,4.839930057525635,0.563884437084198
1.2582200765609741,4.882526874542236,0.5705333352088928
1.2326000928878784,4.928757190704346,0.5776609778404236
1.197482943534851,4.937088489532471,0.5803771615028381
1.1674963235855103,4.963887691497803,0.5852628350257874
1.136185884475708,4.986763000488281,0.5896477103233337
1.1039574146270752,5.009622573852539,0.5937192440032959
1.0730762481689453,5.039862632751465,0.5987061262130737
1.0381770133972168,5.054812908172607,0.6019364595413208
1.002962350845337,5.061650276184082,0.6041790246963501
0.9771090149879456,5.117790699005127,0.6123522520065308
2.0863709449768066,11.358844757080078,1.3620414733886719
2.005004644393921,11.369065284729004,1.365630865097046
1.8938589096069336,11.210620880126953,1.3490312099456787
1.8029354810714722,11.15047550201416,1.3442223072052002
1.6956324577331543,10.970630645751953,1.324958324432373
1.5999746322631836,10.851247787475586,1.312989354133606
1.501279592514038,10.700470924377441,1.2968000173568726
1.4095007181167603,10.599149703979492,1.286126971244812
1.3133304119110107,10.43919563293457,1.2683322429656982
1.223016381263733,10.305350303649902,1.2537163496017456
1.1366945505142212,10.182247161865234,1.2404067516326904
1.0665602684020996,10.197311401367188,1.2439711093902588
0.9874367713928223,10.123186111450195,1.236329197883606
0.3917619287967682,4.336916923522949,0.5300694704055786
0.35680118203163147,4.285371780395508,0.5241913199424744
0.3249404728412628,4.26448392868042,0.5220813155174255
0.2979462742805481,4.305234432220459,0.5275405645370483
0.2720862627029419,4.372900485992432,0.5363352298736572
0.30781257152557373,5.586383819580078,0.6856871843338013
0.2718952000141144,5.654183387756348,0.6942052841186523
0.23265722393989563,5.663640022277832,0.6955968737602234
0.19409246742725372,5.69607400894165,0.6998462080955505
0.1554369479417801,5.732112407684326,0.704573929309845
0.11521853506565094,5.748517990112305,0.7069312930107117
0.07585537433624268,5.795656681060791,0.7130095362663269
0.03571997955441475,5.8193135261535645,0.7158051133155823
-0.004825832787901163,5.869831562042236,0.7219380736351013
-0.06876271218061447,8.83551025390625,1.0866215229034424
-0.13032564520835876,8.768912315368652,1.0784146785736084
-0.18897859752178192,8.663152694702148,1.0654442310333252
-0.24538755416870117,8.529876708984375,1.049139380455017
-0.3029440641403198,8.481575012207031,1.04258131980896
-0.25812140107154846,6.0506086349487305,0.7433528900146484
-0.17849959433078766,3.5974926948547363,0.44175222516059875
-0.20104533433914185,3.545863628387451,0.4352123737335205
-0.22594493627548218,3.548292398452759,0.43533438444137573
-0.26068711280822754,3.689786672592163,0.45253288745880127
-0.3005876839160919,3.8735337257385254,0.4746242165565491
-0.32401615381240845,3.8328230381011963,0.4691546559333801
-0.3470296859741211,3.788069248199463,0.46321412920951843
-0.3694918155670166,3.747070074081421,0.4577704668045044
-0.3910737633705139,3.7020771503448486,0.45186883211135864
-0.4150870144367218,3.6839399337768555,0.44927316904067993
-0.4368707239627838,3.65028977394104,0.4445939064025879
-0.4604514539241791,3.631880283355713,0.4416859447956085
-0.47981470823287964,3.5864601135253906,0.4355345666408539
-0.5023969411849976,3.5678224563598633,0.4326653778553009
-0.523759663105011,3.541348934173584,0.42886945605278015
-0.5471553802490234,3.530081033706665,0.42694076895713806
-0.5675019025802612,3.4995083808898926,0.42250901460647583
-0.5888420939445496,3.480401039123535,0.4193781316280365
-1.1202566623687744,6.356927871704102,0.7645187973976135
-1.1716835498809814,6.391322612762451,0.7671986818313599
-1.224830150604248,6.429035663604736,0.7702786326408386
-1.2778050899505615,6.462514400482178,0.7728689908981323
-1.3378221988677979,6.525959014892578,0.778689980506897
-1.3919589519500732,6.562589645385742,0.7811024188995361
-1.4383472204208374,6.560883522033691,0.7789725065231323
-1.4731800556182861,6.505777835845947,0.7705327868461609
-1.5105644464492798,6.461701393127441,0.7634342908859253
-0.6689432859420776,2.772885322570801,0.326804518699646
-0.6879270076751709,2.768409013748169,0.3253401815891266
-0.7106127738952637,2.778881311416626,0.32556769251823425
-0.7235735058784485,2.751640558242798,0.32139599323272705
-0.7506225109100342,2.776747941970825,0.32333821058273315
-0.7744235396385193,2.7865118980407715,0.32346636056900024
-1.7516957521438599,6.137388229370117,0.7102880477905273
-1.781290054321289,6.0848307609558105,0.7016309499740601
-1.8089721202850342,6.028481960296631,0.6925641298294067
-1.8440194129943848,5.9979939460754395,0.6865231394767761
-1.8724138736724854,5.9408159255981445,0.6773717403411865
-1.9066805839538574,5.905880928039551,0.6708546280860901
-1.9341208934783936,5.852438926696777,0.6621513962745667
-1.9636310338974,5.810308456420898,0.6544507741928101
-1.9952504634857178,5.775364875793457,0.6476113200187683
-2.025569438934326,5.736462116241455,0.640353798866272
-2.0530917644500732,5.685888290405273,0.6317378282546997
-2.0819478034973145,5.642759323120117,0.6240688562393188
-2.1255431175231934,5.643618583679199,0.6209191679954529
-1.5375092029571533,4.001040458679199,0.4378620386123657
-1.5629560947418213,3.9873688220977783,0.4340406656265259
-1.5926079750061035,3.9801974296569824,0.4308229684829712
-1.6188676357269287,3.965775489807129,0.42687883973121643
-1.5875290632247925,3.815110921859741,0.40821322798728943
-1.58108389377594,3.729658603668213,0.39656779170036316
-1.5998015403747559,3.7051146030426025,0.3914732038974762
-1.6180603504180908,3.6763429641723633,0.38583463430404663
-1.640545129776001,3.6582322120666504,0.3813737630844116
-1.658940076828003,3.633229970932007,0.3760925829410553
-1.679826259613037,3.6154470443725586,0.3714704215526581
-1.7038426399230957,3.6045897006988525,0.3675851821899414
-1.729383111000061,3.592827796936035,0.36344021558761597
-1.754516363143921,3.5810344219207764,0.35934770107269287
-1.7854914665222168,3.5835111141204834,0.3565090298652649
-1.7845919132232666,3.5234241485595703,0.3474201560020447
-1.7886139154434204,3.4737253189086914,0.3394080698490143
-1.812949538230896,3.4615190029144287,0.3349687159061432
-1.841036319732666,3.4559245109558105,0.3310815393924713
-1.8563867807388306,3.430447578430176,0.3251797556877136
-1.1888954639434814,2.163039445877075,0.20285087823867798
-2.494980812072754,4.466468334197998,0.41411861777305603
-2.5415008068084717,4.4766082763671875,0.410232812166214
-2.553959608078003,4.429707050323486,0.4008304178714752
-2.596599817276001,4.437053203582764,0.3964095413684845
-1.241795539855957,2.0893635749816895,0.18414728343486786
-1.2443257570266724,2.0608932971954346,0.17908088862895966
-2.660233736038208,4.34175443649292,0.3716665804386139
-2.6723783016204834,4.298242092132568,0.36221998929977417
-2.9806880950927734,4.721877098083496,0.3913167715072632
-3.0030767917633057,4.685235500335693,0.3815447986125946
-3.0374972820281982,4.672981262207031,0.37356698513031006
-3.042245864868164,4.614650249481201,0.3618767559528351
-3.062112808227539,4.574096202850342,0.3510398864746094
-3.0768957138061523,4.531912803649902,0.3401656746864319
-3.0880022048950195,4.487216949462891,0.32911649346351624
-3.1235036849975586,4.472814083099365,0.3196474611759186
-2.828674077987671,3.994302272796631,0.2777184247970581
-2.858703851699829,3.9831035137176514,0.26894643902778625
-2.895456552505493,3.976452350616455,0.25976765155792236
-2.9026074409484863,3.93316388130188,0.2480526715517044
-2.9903056621551514,4.18667459487915,-0.19035768508911133
-2.4531452655792236,3.48563814163208,-0.16721802949905396
-2.515536308288574,3.6320059299468994,-0.1832699179649353
-1.3587439060211182,1.99259614944458,-0.10523118823766708
-2.738882064819336,4.07854700088501,-0.22449050843715668
-2.1873362064361572,3.310835123062134,-0.1895463466644287
-2.1632843017578125,3.3261454105377197,-0.19737374782562256
-2.63134503364563,4.110045909881592,-0.25212231278419495
-2.13061261177063,3.383171796798706,-0.2142503261566162
-2.1024975776672363,3.3910775184631348,-0.2210475653409958
-1.2797143459320068,2.097330331802368,-0.14053666591644287
-2.0280110836029053,3.3807294368743896,-0.23273997008800507
-2.0019192695617676,3.3912482261657715,-0.23925817012786865
-1.9738903045654297,3.398151159286499,-0.2454221099615097
-1.966101050376892,3.442640781402588,-0.25430068373680115
-1.1948397159576416,2.1274709701538086,-0.16055762767791748
-2.035133123397827,3.6844961643218994,-0.2838512659072876
-1.8483296632766724,3.4041738510131836,-0.26741549372673035
-1.8085806369781494,3.389679431915283,-0.2713730037212372
-1.7792621850967407,3.391495704650879,-0.276374876499176
-1.755258321762085,3.403505563735962,-0.28216612339019775
-1.738749623298645,3.4333276748657227,-0.2894572913646698
-1.774585247039795,3.5673813819885254,-0.30561983585357666
-1.7854225635528564,3.652726411819458,-0.31774264574050903
-1.755932331085205,3.657849073410034,-0.3229324519634247
-1.7359117269515991,3.6841065883636475,-0.32993072271347046
-1.7159615755081177,3.7100932598114014,-0.3368946313858032
-2.288026809692383,5.04026460647583,-0.4639204442501068
-2.2615668773651123,5.077081203460693,-0.47332850098609924
-2.2185990810394287,5.078332424163818,-0.4793374538421631
-2.15317964553833,5.025391578674316,-0.4800911843776703
-2.2128427028656006,5.2656755447387695,-0.5089591145515442
-2.1806023120880127,5.295228958129883,-0.5177085995674133
-1.8687855005264282,4.6319074630737305,-0.4577866792678833
-1.8270760774612427,4.622823715209961,-0.46176549792289734
-1.3340883255004883,3.4453399181365967,-0.34770578145980835
-1.327688455581665,3.501483201980591,-0.35691115260124207
-1.7700108289718628,4.771950721740723,-0.49111494421958923
-2.020981788635254,5.569609642028809,-0.5785962343215942
-1.9260212182998657,5.4254021644592285,-0.5687609910964966
-1.616416096687317,4.6559739112854,-0.49249550700187683
-1.5743778944015503,4.641082763671875,-0.49498674273490906
-1.8680379390716553,5.640485763549805,-0.6066123843193054
-1.8654321432113647,5.767409801483154,-0.6252503991127014
-0.9698724150657654,3.071347713470459,-0.33561426401138306
-0.9549823999404907,3.10005784034729,-0.3412615656852722
-0.8625251650810242,2.8720459938049316,-0.31842777132987976
-0.756031334400177,2.583261013031006,-0.2884407937526703
-0.762147068977356,2.674175262451172,-0.3007130026817322
-0.7434065341949463,2.679152727127075,-0.3033088445663452
-0.7345209717750549,2.721565008163452,-0.31000760197639465
-0.718196451663971,2.737680673599243,-0.31375834345817566
-0.7028369903564453,2.757411003112793,-0.3179377317428589
-0.6785582304000854,2.743208169937134,-0.3182459771633148
-0.6591983437538147,2.7476625442504883,-0.3205026686191559
-1.4622634649276733,6.290291786193848,-0.7375748157501221
-1.396623134613037,6.205200672149658,-0.7313926815986633
-1.3434340953826904,6.168713569641113,-0.730850338935852
-1.2892228364944458,6.128163814544678,-0.7297930121421814
-1.2074495553970337,5.946484088897705,-0.7112347483634949
-1.1551762819290161,5.901042461395264,-0.7088767886161804
-1.1073861122131348,5.874194622039795,-0.708727240562439
-1.0553275346755981,5.820230960845947,-0.7052798867225647
-0.9845947623252869,5.659023761749268,-0.6885189414024353
-0.9447892904281616,5.6654133796691895,-0.6917353272438049
-0.9532140493392944,5.974053382873535,-0.7320218086242676
-0.9115943312644958,5.980134010314941,-0.7353775501251221
-0.8805311322212219,6.058828353881836,-0.7477303743362427
-0.838424026966095,6.072262763977051,-0.7516265511512756
-0.6347713470458984,4.847510814666748,-0.6016858220100403
-0.7371025681495667,5.9519171714782715,-0.7408353090286255
-0.697928786277771,5.975820064544678,-0.7459070682525635
-0.6507892608642578,5.930112838745117,-0.7422930598258972
-0.6053628921508789,5.895709037780762,-0.7394428849220276
-0.559299647808075,5.857175827026367,-0.736119270324707
-0.517762303352356,5.852965831756592,-0.7371008992195129
-0.46980035305023193,5.767333507537842,-0.7278351187705994
-0.25723719596862793,3.4551923274993896,-0.4368625283241272
-0.23312494158744812,3.456808090209961,-0.4376130998134613
-0.20597442984580994,3.415729522705078,-0.43298420310020447
-0.18343521654605865,3.4402050971984863,-0.4366708993911743
-0.26067182421684265,5.624537944793701,-0.7149208784103394
-0.1403946727514267,3.566168785095215,-0.4537181854248047
-0.11791708320379257,3.640603542327881,-0.4634300470352173
-0.0924728736281395,3.6567978858947754,-0.4657617211341858
-0.06671848148107529,3.6379356384277344,-0.4636448919773102
-0.04229001700878143,3.7118844985961914,-0.4733836352825165
-0.016405509784817696,3.6965839862823486,-0.4714501202106476
0.009352052584290504,3.727618455886841,-0.47531744837760925
0.03627174347639084,3.7855911254882812,-0.4826396703720093
0.06269682198762894,3.7930076122283936,-0.48354005813598633
0.08959050476551056,3.815734624862671,-0.48641523718833923
0.11855056881904602,3.896421194076538,-0.49627721309661865
0.1474751979112625,3.9459149837493896,-0.5021327137947083
0.17657774686813354,3.9835803508758545,-0.5064974427223206
0.20774322748184204,4.040355205535889,-0.5132984519004822
0.23581068217754364,4.038893699645996,-0.5126743316650391
0.2686045467853546,4.1107707023620605,-0.5209372043609619
0.2959778308868408,4.093482971191406,-0.5179135203361511
0.32503047585487366,4.099189281463623,-0.5178235173225403
0.3553919494152069,4.112367153167725,-0.5186830759048462
0.38183149695396423,4.086795330047607,-0.5145410299301147
0.40898391604423523,4.072673797607422,-0.5115532279014587
0.43637293577194214,4.062225341796875,-0.5090569853782654
0.46370407938957214,4.051584243774414,-0.5065628290176392
0.48957353830337524,4.025304317474365,-0.502125084400177
0.5174497961997986,4.022035121917725,-0.5003641247749329
0.6864398717880249,4.809529781341553,-0.5946946144104004
0.7199100255966187,4.804925441741943,-0.5923340320587158
0.7527014017105103,4.792342662811279,-0.5889922976493835
0.7776862382888794,4.73760986328125,-0.5801258683204651
0.8149930834770203,4.759228706359863,-0.5805417895317078
0.8547177910804749,4.792008399963379,-0.5823137164115906
0.8923811912536621,4.809164047241211,-0.5821685194969177
0.9170492887496948,4.757480144500732,-0.5736970901489258
0.9489625692367554,4.743719100952148,-0.5693474411964417
0.9817243218421936,4.737451076507568,-0.5659756660461426
1.0145983695983887,4.730923652648926,-0.5625877380371094
1.039945125579834,4.690053939819336,-0.5551556944847107
1.0672286748886108,4.66045618057251,-0.548936128616333
1.0980249643325806,4.645773887634277,-0.544190526008606
1.1263080835342407,4.6234636306762695,-0.5386403799057007
1.1604498624801636,4.6234636306762695,-0.5356789231300354
1.1907976865768433,4.608166217803955,-0.5309678912162781
1.213681936264038,4.566521167755127,-0.5229566097259521
1.243651032447815,4.55088996887207,-0.5178233981132507
1.2709282636642456,4.5276947021484375,-0.5119163393974304
1.3003085851669312,4.5117387771606445,-0.5068463087081909
1.3294665813446045,4.495614528656006,-0.5017156600952148
1.3557757139205933,4.4720258712768555,-0.49549421668052673
1.3846852779388428,4.455536365509033,-0.490035742521286
1.4109327793121338,4.431493282318115,-0.4838046133518219
1.4406633377075195,4.418333530426025,-0.4787840247154236
1.468623399734497,4.4014482498168945,-0.4731602966785431
1.496276617050171,4.384439945220947,-0.46744805574417114
1.516248106956482,4.345178127288818,-0.4593963325023651
1.2713873386383057,3.5623180866241455,-0.37336698174476624
1.2987653017044067,3.5611393451690674,-0.36997655034065247
1.3312538862228394,3.5744760036468506,-0.367895245552063
1.6223762035369873,4.267251968383789,-0.43506383895874023
1.6521598100662231,4.256350040435791,-0.42973828315734863
1.6824110746383667,4.245029449462891,-0.42431461811065674
1.7041008472442627,4.215948581695557,-0.41699159145355225
1.7357944250106812,4.211961269378662,-0.41216328740119934
1.7649893760681152,4.200360298156738,-0.406525582075119
1.7913157939910889,4.181283950805664,-0.40014904737472534
1.8142813444137573,4.154952526092529,-0.39289042353630066
1.833035945892334,4.12171745300293,-0.3850537836551666
1.8646174669265747,4.116622447967529,-0.379821240901947
1.890128493309021,4.096948623657227,-0.3731880486011505
1.9149292707443237,4.07736349105835,-0.3664904534816742
1.9396189451217651,4.057603359222412,-0.3596419394016266
1.9674187898635864,4.044742584228516,-0.353451132774353
1.9887464046478271,4.017470836639404,-0.34593918919563293
2.0144853591918945,4.000810146331787,-0.33928513526916504
2.0378403663635254,3.9807534217834473,-0.33230939507484436
2.065109968185425,3.967214584350586,-0.32580330967903137
2.0933356285095215,3.9529449939727783,-0.3190445899963379
2.109055519104004,3.918583393096924,-0.31072819232940674
2.1427688598632812,3.9185521602630615,-0.305125892162323
2.1546733379364014,3.8769171237945557,-0.29614314436912537
2.145376205444336,3.7977566719055176,-0.2843667268753052
2.1750314235687256,3.790362596511841,-0.2778637409210205
2.2043046951293945,3.7829442024230957,-0.27143487334251404
2.2069036960601807,3.7276673316955566,-0.2613734006881714
2.2443454265594482,3.7330703735351562,-0.2555827498435974
2.269038200378418,3.718602418899536,-0.24836428463459015
2.2785110473632812,3.6766483783721924,-0.23903357982635498
2.3248000144958496,3.694214344024658,-0.23355069756507874
2.3406238555908203,3.666184902191162,-0.22511450946331024
2.352536678314209,3.6311628818511963,-0.21615004539489746
2.386563777923584,3.6280605792999268,-0.20881228148937225
2.4280858039855957,3.6384613513946533,-0.20203141868114471
2.4260916709899902,3.583831787109375,-0.1916341632604599
2.4466819763183594,3.5607924461364746,-0.18268021941184998
2.4785399436950684,3.558166027069092,-0.1747484654188156
2.497812509536743,3.535538673400879,-0.16551446914672852
2.5315146446228027,3.5311505794525146,-0.1565977931022644
2.5447797775268555,3.5027201175689697,-0.14677508175373077
2.5827696323394775,3.5043554306030273,-0.13748714327812195
2.772761344909668,3.922131299972534,0.29805389046669006
2.7317347526550293,3.9215784072875977,0.30654069781303406
2.7015247344970703,3.941666841506958,0.31646475195884705
2.692934989929199,3.9938366413116455,0.3288784623146057
2.647461175918579,3.9860076904296875,0.33570799231529236
2.616856813430786,4.005411148071289,0.34459978342056274
2.5822272300720215,4.017810821533203,0.35272812843322754
2.570544481277466,4.061506271362305,0.3631557524204254
2.53977370262146,4.080080509185791,0.371359258890152
2.528808832168579,4.131872653961182,0.38246458768844604
2.499293804168701,4.14909029006958,0.39000508189201355
2.4659361839294434,4.159252166748047,0.3967830538749695
2.4265897274017334,4.16362190246582,0.40274807810783386
2.3869895935058594,4.1678080558776855,0.40873950719833374
2.3690989017486572,4.204164981842041,0.4174717664718628
2.316378116607666,4.179466724395752,0.4200699031352997
2.2532904148101807,4.138001441955566,0.4206690490245819
2.2223358154296875,4.154057025909424,0.4270441234111786
2.203447103500366,4.189864635467529,0.4352940022945404
2.182752847671509,4.22196102142334,0.4431016743183136
2.1459505558013916,4.227092266082764,0.447832316160202
2.1195969581604004,4.2527875900268555,0.45476657152175903
2.0996460914611816,4.28806734085083,0.462576299905777
2.062276601791382,4.288309097290039,0.46665897965431213
2.0310542583465576,4.302603721618652,0.4719848930835724
2.002501964569092,4.3239569664001465,0.47801992297172546
1.9709300994873047,4.337862968444824,0.48321694135665894
1.9863711595535278,4.453935146331787,0.49976328015327454
1.9644646644592285,4.488525867462158,0.507282555103302
1.950758457183838,4.548947811126709,0.5174859166145325
1.935321569442749,4.605585098266602,0.5272970199584961
1.89627206325531,4.604448318481445,0.5304653644561768
1.877134919166565,4.649460315704346,0.5388998985290527
1.8401750326156616,4.651142597198486,0.5423153042793274
1.7888184785842896,4.620682239532471,0.5416836738586426
1.7661160230636597,4.662127494812012,0.5494506359100342
1.3521312475204468,3.6475868225097656,0.43213126063346863
1.321244716644287,3.6419849395751953,0.43367379903793335
1.298325777053833,3.6580677032470703,0.4378124475479126
1.2534894943237305,3.6158454418182373,0.43469396233558655
1.634209156036377,4.826531410217285,0.5827787518501282
1.6030229330062866,4.848770618438721,0.5880146026611328
1.5631790161132812,4.8409199714660645,0.5895458459854126
1.5270215272903442,4.843852519989014,0.5924057364463806
1.4976290464401245,4.872879981994629,0.5982577800750732
1.4624745845794678,4.8831305503845215,0.601637601852417
1.4544532299041748,4.986207485198975,0.6165234446525574
1.4192770719528198,4.995917320251465,0.6198915839195251
1.3730084896087646,4.964166164398193,0.6181065440177917
1.3050237894058228,4.8496503829956055,0.6059473156929016
1.273513913154602,4.87369441986084,0.610707700252533
1.244274377822876,4.904891014099121,0.6163780093193054
1.2165557146072388,4.943431854248047,0.623019278049469
1.1847054958343506,4.962768077850342,0.6272427439689636
1.1535685062408447,4.985662460327148,0.6319534778594971
1.1178247928619385,4.99345588684082,0.6346492171287537
1.0870494842529297,5.02374267578125,0.6399170756340027
1.0614471435546875,5.080399036407471,0.6485971212387085
1.0185089111328125,5.0532965660095215,0.6466103196144104
0.9803824424743652,5.044742107391357,0.6469861268997192
2.0581345558166504,11.005330085754395,1.4147557020187378
1.9766104221343994,10.996053695678711,1.4163752794265747
0.9062133431434631,5.254500865936279,0.6779544353485107
1.8112313747406006,10.964544296264648,1.417117953300476
1.7363221645355225,10.991826057434082,1.4231376647949219
1.64275324344635,10.89988899230957,1.4137874841690063
1.5519437789916992,10.807005882263184,1.4042894840240479
1.4499194622039795,10.625253677368164,1.3827049732208252
1.3578747510910034,10.504236221313477,1.368549108505249
1.2691341638565063,10.393985748291016,1.3558235168457031
1.1792508363723755,10.2560453414917,1.3395028114318848
1.1032856702804565,10.232965469360352,1.3382341861724854
1.0195854902267456,10.116717338562012,1.3247911930084229
0.4059683680534363,4.330841064453125,0.5677217245101929
0.3748565912246704,4.325772285461426,0.5674464106559753
0.3401950001716614,4.274145126342773,0.5610851645469666
0.31081077456474304,4.291819095611572,0.5638529658317566
0.2857758402824402,4.367211818695068,0.5742295384407043
0.3290378451347351,5.629436016082764,0.7408390641212463
0.2888469994068146,5.612146377563477,0.7390872836112976
0.2515154182910919,5.656533241271973,0.7451028227806091
0.21297970414161682,5.704566478729248,0.7516421675682068
0.173699751496315,5.725215911865234,0.7546090483665466
0.13378548622131348,5.7223591804504395,0.7545138001441956
0.09499950706958771,5.781177997589111,0.7625899910926819
0.05486052483320236,5.789393901824951,0.763990581035614
0.013974245637655258,5.805145740509033,0.7658974528312683
-0.04959709197282791,10.893798828125,1.437017560005188
-0.06948617845773697,6.041033744812012,0.7967835068702698
-0.1599309891462326,8.661812782287598,1.1423654556274414
-0.21933194994926453,8.629546165466309,1.1380794048309326
-0.2782602310180664,8.593000411987305,1.1332839727401733
-0.2396971434354782,6.0755743980407715,0.8008313775062561
-0.2765825390815735,5.961668491363525,0.785342276096344
-0.19002602994441986,3.5618958473205566,0.46895360946655273
-0.21427395939826965,3.552814483642578,0.467519074678421
-0.24204476177692413,3.597668409347534,0.4732021391391754
-0.5789044499397278,7.78279972076416,1.0232404470443726
-0.3158516585826874,3.883607864379883,0.5101683139801025
-0.33650660514831543,3.811995029449463,0.500231146812439
-0.3601873517036438,3.782701015472412,0.4958850145339966
-0.38399538397789,3.7571027278900146,0.49205127358436584
-0.40722569823265076,3.723590850830078,0.4872012138366699
-0.4282206892967224,3.678443670272827,0.480868935585022
-0.44894617795944214,3.6370656490325928,0.4749058485031128
-0.4709603190422058,3.6109867095947266,0.47078338265419006
-0.49105438590049744,3.5732617378234863,0.46517613530158997
-0.5138739943504333,3.554539680480957,0.4620620906352997
-0.5374295711517334,3.543360948562622,0.45996060967445374
-0.5645002722740173,3.554986000061035,0.46084022521972656
-0.5827160477638245,3.5129308700561523,0.4546820819377899
-1.0946720838546753,6.330783367156982,0.8177607655525208
-1.1496670246124268,6.388304710388184,0.8235722780227661
-1.199892520904541,6.410943031311035,0.8248726725578308
-1.2570093870162964,6.4674577713012695,0.830552875995636
-1.3111401796340942,6.504493713378906,0.8337449431419373
-1.3663831949234009,6.54495906829834,0.8372254967689514
-1.4191235303878784,6.5738043785095215,0.8387929201126099
-1.4596240520477295,6.541528701782227,0.8325583338737488
-1.4972712993621826,6.501610279083252,0.8254413604736328
-1.5326794385910034,6.449951171875,0.8168531060218811
-0.6891283988952637,2.813066005706787,0.35539090633392334
-0.6914780139923096,2.7407569885253906,0.345335453748703
-0.7201648354530334,2.773651599884033,0.3483738899230957
-0.7330026030540466,2.7464206218719482,0.34388962388038635
-0.764045000076294,2.7864420413970947,0.34782904386520386
-0.7750310301780701,2.751399517059326,0.34238728880882263
-1.7662369012832642,6.107079029083252,0.7576273083686829
-1.8021728992462158,6.072809219360352,0.7507352232933044
-1.829679012298584,6.016463756561279,0.7409825921058655
-1.8645811080932617,5.985945224761963,0.7344737648963928
-1.8915350437164307,5.929154396057129,0.7247613668441772
-1.925595998764038,5.894219398498535,0.7177475690841675
-1.9563071727752686,5.847813606262207,0.7093489766120911
-1.9857863187789917,5.805632591247559,0.7011092901229858
-2.0107760429382324,5.752382755279541,0.6915655732154846
-2.0416648387908936,5.717328071594238,0.6842743754386902
-2.068180799484253,5.667056560516357,0.6751194596290588
-2.0995728969573975,5.6312174797058105,0.6677446365356445
-1.529553771018982,4.016808032989502,0.4739103317260742
-1.5536664724349976,3.999647617340088,0.46936577558517456
-1.577616810798645,3.982340097427368,0.46483418345451355
-1.5977180004119873,3.9538211822509766,0.45896777510643005
-1.5853595733642578,3.846036195755005,0.44395682215690613
-1.5898833274841309,3.7814788818359375,0.43395087122917175
-1.606002688407898,3.749764919281006,0.42758744955062866
-1.612414836883545,3.696643590927124,0.4188520610332489
-1.6297342777252197,3.6682345867156982,0.4129248857498169
-1.6552858352661133,3.657224416732788,0.40893083810806274
-1.6777766942977905,3.6388614177703857,0.40404269099235535
-1.6985931396484375,3.6210732460021973,0.39905115962028503
-1.7192457914352417,3.603163480758667,0.39407551288604736
-1.7472314834594727,3.5987937450408936,0.39050939679145813
-1.7724688053131104,3.5869133472442627,0.38605576753616333
-1.7975410223007202,3.5749075412750244,0.38146117329597473
-1.7876089811325073,3.497591733932495,0.36985957622528076
-1.8000088930130005,3.4654300212860107,0.3631361424922943
-1.8240243196487427,3.4533445835113525,0.3583976924419403
-1.8591606616973877,3.46156907081604,0.35574018955230713
-1.1628382205963135,2.1312527656555176,0.21673940122127533
-1.1770236492156982,2.1237666606903076,0.21362701058387756
-2.4953954219818115,4.432209491729736,0.44083327054977417
-2.563197374343872,4.479435443878174,0.4402724504470825
-2.564178228378296,4.41215705871582,0.4283198118209839
-2.5929787158966064,4.3959736824035645,0.42127591371536255
-1.2324044704437256,2.0575199127197266,0.19449761509895325
-2.645416259765625,4.347808837890625,0.40514183044433594
-2.6624107360839844,4.31068754196167,0.3957071304321289
-2.9673640727996826,4.736328601837158,0.42804497480392456
-2.9908251762390137,4.7038798332214355,0.418122261762619
-3.0223066806793213,4.679898738861084,0.4085537791252136
-3.031594753265381,4.628173828125,0.3965606689453125
-3.0441067218780518,4.583354473114014,0.38522228598594666
-3.071596145629883,4.556400299072266,0.3748480975627899
-3.0869195461273193,4.513824939727783,0.36311185359954834
-3.1204147338867188,4.501028537750244,0.353532999753952
-2.848238468170166,4.049985885620117,0.3099229335784912
-2.860036611557007,4.008936405181885,0.2982766330242157
-2.885232448577881,3.991570472717285,0.28834620118141174
-2.889326810836792,3.9411144256591797,0.27539271116256714
-2.901291608810425,3.9039485454559326,0.26315048336982727
-2.4645309448242188,3.477412223815918,-0.1710178703069687
-2.440046787261963,3.494136095046997,-0.18095040321350098
-2.774003744125366,4.0360541343688965,-0.21941564977169037
-2.752415895462036,4.0690388679504395,-0.23140157759189606
-1.3130005598068237,1.9709140062332153,-0.1166749894618988
-1.325806736946106,2.0229265689849854,-0.12443028390407562
-2.637296438217163,4.087111949920654,-0.2602671682834625
-2.1395106315612793,3.3678157329559326,-0.22153209149837494
-2.122051477432251,3.39670467376709,-0.23061436414718628
-1.2663747072219849,2.0593864917755127,-0.14387892186641693
-2.049086809158325,3.3855814933776855,-0.24303407967090607
-2.0138208866119385,3.3834686279296875,-0.2493092566728592
-1.981466293334961,3.3839237689971924,-0.2555267810821533
-1.982519268989563,3.4413607120513916,-0.2660539746284485
-1.2022839784622192,2.122713565826416,-0.16779032349586487
-1.1506880521774292,2.0664355754852295,-0.16687528789043427
-2.0438904762268066,3.7314276695251465,-0.3074306547641754
-1.828554630279541,3.3956093788146973,-0.2852397859096527
-1.793986439704895,3.391422986984253,-0.2903818190097809
-1.7697560787200928,3.4035890102386475,-0.2966534495353699
-1.747612714767456,3.41884446144104,-0.3031283915042877
-1.7437219619750977,3.472648859024048,-0.31298327445983887
-1.8010084629058838,3.6523098945617676,-0.3344958424568176
-1.7713911533355713,3.6575329303741455,-0.34019431471824646
-1.7455073595046997,3.6693758964538574,-0.3463951349258423
-1.7253737449645996,3.6954939365386963,-0.3538350462913513
-2.304703712463379,5.030345916748047,-0.48837727308273315
-2.2726168632507324,5.052677154541016,-0.4970630407333374
-2.246391534805298,5.089128017425537,-0.5071475505828857
-2.0900115966796875,4.829823017120361,-0.48737701773643494
-2.0020558834075928,4.718675136566162,-0.4819589853286743
-1.9524582624435425,4.6923980712890625,-0.4848931133747101
-1.9046962261199951,4.66930627822876,-0.4880402684211731
-1.8522731065750122,4.635271072387695,-0.4897346794605255
-1.8211320638656616,4.655232906341553,-0.4972017705440521
-1.3350688219070435,3.4840705394744873,-0.37595751881599426
-1.302409052848816,3.470998764038086,-0.3783732056617737
-2.0354108810424805,5.544254779815674,-0.6101214289665222
-1.9772650003433228,5.506699562072754,-0.6116873621940613
-1.8836909532546997,5.365991115570068,-0.6016199588775635
-1.5901259183883667,4.632512092590332,-0.5240733623504639
-1.5683103799819946,4.67618465423584,-0.5334812998771667
-1.8757702112197876,5.727254867553711,-0.6587421298027039
-0.97318434715271,3.0436153411865234,-0.35289958119392395
-0.9561176300048828,3.064871072769165,-0.35823485255241394
-0.8237835764884949,2.707188129425049,-0.3188396990299225
-0.7647879719734192,2.578674077987671,-0.30587202310562134
-0.7529213428497314,2.6060791015625,-0.31131836771965027
-0.7462688088417053,2.652031183242798,-0.31901219487190247
-0.7420635223388672,2.7092337608337402,-0.32815518975257874
-0.7225479483604431,2.714179039001465,-0.3308296501636505
-0.7081802487373352,2.737682580947876,-0.33573922514915466
-0.6823070645332336,2.71593976020813,-0.33509716391563416
-0.6559625267982483,2.6901822090148926,-0.3339226245880127
-0.6495553851127625,2.747249126434326,-0.34294912219047546
-1.3729249238967896,5.998229026794434,-0.7527549862861633
-1.3606992959976196,6.1434102058410645,-0.7750032544136047
-1.3259340524673462,6.190011978149414,-0.7849172353744507
-1.2748737335205078,6.160499095916748,-0.7852174043655396
-1.2246559858322144,6.134529113769531,-0.7854002714157104
-1.1748398542404175,6.112118244171143,-0.7859907746315002
-1.130525827407837,6.112022399902344,-0.789398193359375
-1.0736814737319946,6.039071083068848,-0.7833613753318787
-0.9578881859779358,5.6143012046813965,-0.7312936782836914
-0.9697028398513794,5.933966636657715,-0.7756443023681641
-0.929703950881958,5.9555745124816895,-0.7812719941139221
-0.4657086730003357,3.126319646835327,-0.4115794897079468
-0.4395655691623688,3.098564386367798,-0.40938302874565125
-0.4158092141151428,3.085994243621826,-0.4089830219745636
-0.39906299114227295,3.1270546913146973,-0.41555845737457275
-0.3743482828140259,3.1065099239349365,-0.4139728844165802
-0.35887011885643005,3.166599750518799,-0.42317870259284973
-0.34252095222473145,3.2227280139923096,-0.43189874291419983
-0.31999751925468445,3.224886417388916,-0.43306416273117065
-0.300620973110199,3.261593818664551,-0.4388521611690521
-0.2798425257205963,3.286604166030884,-0.4430997967720032
-0.2590042054653168,3.3192217350006104,-0.44842252135276794
-0.23812298476696014,3.3516879081726074,-0.453677237033844
-0.2169693261384964,3.3879356384277344,-0.45912396907806396
-0.1951294094324112,3.4201807975769043,-0.4640606939792633
-0.1724921017885208,3.444549560546875,-0.46795961260795593
-0.1496221423149109,3.4803833961486816,-0.473459392786026
-0.12706293165683746,3.527679920196533,-0.48035022616386414
-0.10329802334308624,3.5555171966552734,-0.48436135053634644
-0.07903668284416199,3.5793232917785645,-0.4878503978252411
-0.05450830236077309,3.602961778640747,-0.49134284257888794
-0.029547367244958878,3.669006109237671,-0.5006547570228577
-0.0040735239163041115,3.6923439502716064,-0.50383460521698
0.021790504455566406,3.7271347045898438,-0.5084475874900818
0.048088379204273224,3.757873296737671,-0.5125300884246826
0.0752730444073677,3.811643362045288,-0.5197764039039612
0.1027226448059082,3.8458685874938965,-0.5243807435035706
0.1319957971572876,3.9070231914520264,-0.5322028994560242
0.15959592163562775,3.9177026748657227,-0.5331336259841919
0.1897808313369751,3.978447914123535,-0.5408931374549866
0.21972818672657013,4.01963996887207,-0.5460078120231628
0.25048279762268066,4.06448221206665,-0.5515459179878235
0.2796333134174347,4.070505619049072,-0.551384687423706
0.3066575229167938,4.0531907081604,-0.5481066107749939
0.3361063301563263,4.066554069519043,-0.5490002632141113
0.3616405129432678,4.03342866897583,-0.5436465740203857
0.39674460887908936,4.1042280197143555,-0.5520924925804138
0.42331188917160034,4.078453063964844,-0.5472388863563538
0.4486083984375,4.048708438873291,-0.5419201254844666
0.47403189539909363,4.02264404296875,-0.5371334552764893
0.5039138793945312,4.034848213195801,-0.5374850034713745
0.535406231880188,4.058406829833984,-0.5390182137489319
0.5549024939537048,3.989616632461548,-0.5281572937965393
0.5836495757102966,3.993626594543457,-0.5270124673843384
0.6049812436103821,3.9476349353790283,-0.519301176071167
0.6343203783035278,3.95508074760437,-0.5186527371406555
0.6629350781440735,3.9585835933685303,-0.5170398354530334
0.6856634020805359,3.9275224208831787,-0.5109445452690125
0.7133851051330566,3.922926664352417,-0.5082906484603882
0.7306157946586609,3.8648922443389893,-0.4987933039665222
0.7787187099456787,3.8285417556762695,-0.48966357111930847
0.8051825165748596,3.8234448432922363,-0.4866773784160614
0.8289573788642883,3.8028805255889893,-0.481698602437973
0.8571346402168274,3.8049564361572266,-0.479656457901001
0.8799456357955933,3.784235954284668,-0.4744897186756134
0.9114695191383362,3.8011200428009033,-0.47393691539764404
1.1368316411972046,4.600861549377441,-0.5704299211502075
1.1627840995788574,4.566883563995361,-0.5629520416259766
1.1985387802124023,4.574187278747559,-0.5606042146682739
1.226027250289917,4.551387310028076,-0.5541993975639343
1.2532570362091064,4.528417587280273,-0.5478241443634033
1.2847198247909546,4.520146369934082,-0.543236494064331
1.3146288394927979,4.504015922546387,-0.5376598834991455
1.3413063287734985,4.480512619018555,-0.5310839414596558
1.3697999715805054,4.464349269866943,-0.5252556800842285
1.4005651473999023,4.455375671386719,-0.5202915668487549
1.42695951461792,4.431265354156494,-0.5135408043861389
1.454755425453186,4.410546779632568,-0.5071271657943726
1.4800907373428345,4.3863301277160645,-0.500101625919342
1.5025930404663086,4.3546319007873535,-0.49228692054748535
1.2472412586212158,3.5350801944732666,-0.3961854577064514
1.2798445224761963,3.5486886501312256,-0.394233375787735
1.3069663047790527,3.547579765319824,-0.39045554399490356
1.6067551374435425,4.269961833953857,-0.46539101004600525
1.6418018341064453,4.27388334274292,-0.4612819254398346
1.666008472442627,4.248429298400879,-0.4539656341075897
1.6882199048995972,4.219344615936279,-0.4462159276008606
1.7229259014129639,4.22272253036499,-0.44175559282302856
1.746358871459961,4.1968793869018555,-0.43416690826416016
1.7787479162216187,4.19233512878418,-0.42879071831703186
1.8017503023147583,4.166182041168213,-0.42119309306144714
1.8175638914108276,4.125957012176514,-0.4120475947856903
1.8392508029937744,4.099905490875244,-0.4043947458267212
1.8684080839157104,4.087340354919434,-0.3978768587112427
1.9035165309906006,4.0889081954956055,-0.3928065896034241
1.9279015064239502,4.069485187530518,-0.38554543256759644
1.948725938796997,4.042897701263428,-0.37765124440193176
1.9769346714019775,4.029806137084961,-0.3708960711956024
2.0055103302001953,4.016292572021484,-0.36399731040000916
2.027285099029541,3.9928674697875977,-0.35619378089904785
2.050642728805542,3.972766637802124,-0.3487222194671631
2.0748395919799805,3.952007293701172,-0.341011643409729
2.102274179458618,3.9380929470062256,-0.333884060382843
2.117591619491577,3.90390944480896,-0.3249889612197876
2.1445155143737793,3.8897907733917236,-0.3176519274711609
2.1317527294158936,3.803863763809204,-0.30448493361473083
2.153843402862549,3.7830140590667725,-0.29662197828292847
2.1829779148101807,3.775855302810669,-0.28980135917663574
2.2128372192382812,3.7680537700653076,-0.2827397584915161
2.2356667518615723,3.746060609817505,-0.2743814289569855
2.2564358711242676,3.725032091140747,-0.2661876678466797
2.2690603733062744,3.69046688079834,-0.257028728723526
2.303147315979004,3.688253164291382,-0.24982376396656036
2.3154549598693848,3.6534056663513184,-0.2403954416513443
2.3483424186706543,3.6514530181884766,-0.23301120102405548
2.365201234817505,3.6224727630615234,-0.22362712025642395
2.3897132873535156,3.606870651245117,-0.21505537629127502
2.4175479412078857,3.5981807708740234,-0.20688049495220184
2.4380807876586914,3.5753724575042725,-0.19740715622901917
2.458143711090088,3.552626609802246,-0.18772777915000916
2.494551658630371,3.556273937225342,-0.17955957353115082
2.5238873958587646,3.5455918312072754,-0.1699429303407669
2.5378575325012207,3.5168302059173584,-0.1594589799642563
2.588639259338379,3.5382883548736572,-0.15087828040122986
2.18701171875,2.9471890926361084,-0.11714258044958115
2.7727649211883545,3.8919990062713623,0.3150206506252289
2.7711997032165527,3.949483871459961,0.32912200689315796
2.72418212890625,3.9433350563049316,0.3375837802886963
2.684417963027954,3.9507720470428467,0.3470141887664795
2.651892900466919,3.9624600410461426,0.3559867739677429
2.6611106395721436,4.039636135101318,0.3707958161830902
2.5995092391967773,4.013854503631592,0.3762114346027374
2.5915462970733643,4.064427852630615,0.3880757689476013
2.5664544105529785,4.088685989379883,0.3973267674446106
2.5309505462646484,4.100780010223389,0.40519559383392334
2.5125136375427246,4.138623237609863,0.4154510796070099
2.482802152633667,4.155709266662598,0.42343947291374207
2.4480843544006348,4.16643762588501,0.4305106997489929
2.4261457920074463,4.200928211212158,0.43996596336364746
2.4033145904541016,4.231157302856445,0.44878122210502625
2.3621044158935547,4.22682523727417,0.45377910137176514
2.270280122756958,4.134667873382568,0.449064701795578
2.2354016304016113,4.144057273864746,0.4550865888595581
2.2126972675323486,4.1731181144714355,0.4630991220474243
2.186922311782837,4.194746971130371,0.4702019691467285
2.1616663932800293,4.220223426818848,0.4775907099246979
2.1330530643463135,4.242749214172363,0.48463451862335205
2.108794927597046,4.271505832672119,0.4922809898853302
2.0821893215179443,4.292505741119385,0.49889227747917175
2.0451016426086426,4.292420864105225,0.5030260682106018
2.019880533218384,4.3208537101745605,0.510210394859314
1.9911099672317505,4.342077255249023,0.5165901184082031
1.9659510850906372,4.369915008544922,0.5237271785736084
2.0042707920074463,4.5392374992370605,0.5478664636611938
1.9748626947402954,4.559927463531494,0.5540562272071838
1.926164984703064,4.537944793701172,0.5548394918441772
1.8957797288894653,4.558504104614258,0.5608325600624084
1.8805354833602905,4.614523887634277,0.5711835026741028
1.8481425046920776,4.626980781555176,0.5761173367500305
1.824946641921997,4.664761066436768,0.5840451121330261
1.8102222681045532,4.728121280670166,0.5950331687927246
1.7552083730697632,4.6861491203308105,0.5927941799163818
1.3397871255874634,3.656493902206421,0.4648939073085785
1.31157386302948,3.658033847808838,0.4673857092857361
