X,Y,Z
-1.225701093673706,2.401616096496582,-0.28120842576026917
-1.204993724822998,2.4026732444763184,-0.2864190340042114
-1.201690673828125,2.4382948875427246,-0.2957451641559601
-1.183577537536621,2.446401357650757,-0.30178025364875793
-1.185687780380249,2.4963040351867676,-0.31298962235450745
-1.1728811264038086,2.5144574642181396,-0.32019922137260437
-1.2082542181015015,2.6383955478668213,-0.34109342098236084
-1.1652042865753174,2.593252658843994,-0.3401751220226288
-1.1573491096496582,2.6256792545318604,-0.34937769174575806
-1.1276897192001343,2.6082265377044678,-0.35192349553108215
-1.169634222984314,2.758134126663208,-0.37712201476097107
-1.2672053575515747,3.048340082168579,-0.4221726357936859
-1.2803477048873901,3.142561912536621,-0.44072914123535156
-1.2868189811706543,3.2225441932678223,-0.457498162984848
-1.2690682411193848,3.245251178741455,-0.46629244089126587
-1.2664238214492798,3.307591438293457,-0.48067644238471985
-1.2426682710647583,3.3156282901763916,-0.48726049065589905
-1.233949899673462,3.363295316696167,-0.49965864419937134
-1.2061636447906494,3.3600728511810303,-0.5044650435447693
-1.185534119606018,3.3787457942962646,-0.5124763250350952
-1.1475595235824585,3.3459551334381104,-0.5125747323036194
-1.0957362651824951,3.2687265872955322,-0.5056262612342834
-1.060597538948059,3.238752841949463,-0.5057573914527893
-1.0198605060577393,3.19016170501709,-0.5026088356971741
-0.9725486636161804,3.1191725730895996,-0.4958544075489044
-0.9314712882041931,3.0623037815093994,-0.4910416603088379
-0.8923739194869995,3.008734703063965,-0.4865899384021759
-0.8484932780265808,2.9363715648651123,-0.4786139130592346
-0.8161338567733765,2.90071439743042,-0.47649437189102173
-0.7793787121772766,2.8461248874664307,-0.471133828163147
-0.7481203079223633,2.8098840713500977,-0.4687563180923462
-0.7147512435913086,2.762160301208496,-0.4640190303325653
-0.6811022758483887,2.7104127407073975,-0.4584372937679291
-0.6601712107658386,2.707007884979248,-0.4609690010547638
-0.6296274065971375,2.662184953689575,-0.4563956558704376
-0.5985307693481445,2.6134350299835205,-0.45090943574905396
-0.5817581415176392,2.6245434284210205,-0.4554919898509979
-0.5527535080909729,2.579061269760132,-0.450233519077301
-0.5237535834312439,2.5295310020446777,-0.4441696107387543
-0.49774104356765747,2.4910778999328613,-0.4399009048938751
-0.47845643758773804,2.486527919769287,-0.44132134318351746
-0.45816415548324585,2.4742157459259033,-0.4413279592990875
-0.4327508509159088,2.4314351081848145,-0.4358583390712738
-0.41511866450309753,2.4301350116729736,-0.43779727816581726
-0.3943553864955902,2.4098005294799805,-0.4359707832336426
-0.3759901821613312,2.4045441150665283,-0.43683886528015137
-0.3557624816894531,2.383901596069336,-0.4348772168159485
-0.334255188703537,2.3516805171966553,-0.4307776987552643
-0.3147392272949219,2.330749034881592,-0.42852768301963806
-0.21992729604244232,1.7189394235610962,-0.3170679807662964
-0.2775163948535919,2.296142101287842,-0.42492616176605225
-0.2594970464706421,2.2824649810791016,-0.42381542921066284
-0.2407224327325821,2.257178783416748,-0.42047810554504395
-0.22762347757816315,2.2853195667266846,-0.4267392158508301
-0.20991314947605133,2.26749324798584,-0.42443975806236267
-0.1940990388393402,2.2686638832092285,-0.42570820450782776
-0.17861776053905487,2.277395248413086,-0.42843765020370483
-0.16219866275787354,2.270742893218994,-0.427967369556427
-0.1458592414855957,2.2639968395233154,-0.4273737668991089
-0.13009680807590485,2.2647972106933594,-0.42822161316871643
-0.11357374489307404,2.2501535415649414,-0.4261644184589386
-0.0976480171084404,2.2507636547088623,-0.4268883466720581
-0.08170930296182632,2.2436366081237793,-0.4258599579334259
-0.06610047072172165,2.244069814682007,-0.4262860417366028
-0.050489556044340134,2.244394302368164,-0.4267120957374573
-0.03499655798077583,2.252284049987793,-0.42859843373298645
-0.0189895611256361,2.244793176651001,-0.42717933654785156
-0.0033885869197547436,2.2525460720062256,-0.4286380112171173
0.012319307774305344,2.26019024848938,-0.43009665608406067
0.028055524453520775,2.260049819946289,-0.4300948679447174
0.043937016278505325,2.2675137519836426,-0.43134230375289917
0.059904519468545914,2.274906635284424,-0.43237584829330444
0.07638566941022873,2.286015033721924,-0.4341273903846741
0.09258978813886642,2.2931792736053467,-0.43515440821647644
0.10887914896011353,2.3002376556396484,-0.43613752722740173
0.1256839483976364,2.314919948577881,-0.4381774961948395
0.14316728711128235,2.337143659591675,-0.44165390729904175
0.15917903184890747,2.328580617904663,-0.4393159747123718
0.17825275659561157,2.3658652305603027,-0.44565266370773315
0.19500552117824554,2.368619203567505,-0.4451843202114105
0.21489307284355164,2.405700445175171,-0.45103058218955994
0.2323598563671112,2.4120445251464844,-0.45111456513404846
0.2510501742362976,2.4258735179901123,-0.4525884687900543
0.2709084153175354,2.4510672092437744,-0.4560723602771759
0.28977030515670776,2.4647181034088135,-0.4570940434932709
0.30978551506996155,2.4858524799346924,-0.45950251817703247
0.3311123549938202,2.514451026916504,-0.4632807970046997
0.35580822825431824,2.5618746280670166,-0.4704759418964386
0.3769474923610687,2.5825793743133545,-0.4723576605319977
0.3983877897262573,2.603126287460327,-0.4741581678390503
0.4220162034034729,2.6348860263824463,-0.4779750406742096
0.448030948638916,2.677826166152954,-0.48378196358680725
0.4713497459888458,2.7016384601593018,-0.4858753979206085
0.4973689913749695,2.7366106510162354,-0.4896914064884186
0.5257322788238525,2.7827537059783936,-0.4954928159713745
0.5540434122085571,2.8248672485351562,-0.5005149841308594
0.5814204216003418,2.8592031002044678,-0.504042387008667
0.6132189631462097,2.912217855453491,-0.5104097723960876
0.649401068687439,2.979933023452759,-0.5191982984542847
0.6862927079200745,3.047358989715576,-0.5278554558753967
0.7180731892585754,3.0881667137145996,-0.5318063497543335
0.7620550990104675,3.1774826049804688,-0.5436290502548218
0.7998903393745422,3.2364580631256104,-0.5500214099884033
0.8409335017204285,3.3024537563323975,-0.5574068427085876
0.8846011161804199,3.3755836486816406,-0.5659013986587524
0.9312772154808044,3.4557907581329346,-0.5752021670341492
0.9769348502159119,3.528174877166748,-0.5828043818473816
1.0426654815673828,3.6669182777404785,-0.601111114025116
1.1055948734283447,3.786289691925049,-0.6158187389373779
1.1641854047775269,3.8866705894470215,-0.6271675825119019
1.228572964668274,4.001339435577393,-0.6401761770248413
1.2853341102600098,4.085875034332275,-0.6481009125709534
1.3471282720565796,4.18080997467041,-0.6573902368545532
1.391602873802185,4.216210842132568,-0.6570183634757996
1.4134705066680908,4.185634136199951,-0.6460623741149902
1.4400073289871216,4.169559955596924,-0.6373986601829529
1.474324345588684,4.175114631652832,-0.6320156455039978
1.4931799173355103,4.136678695678711,-0.6199938058853149
1.5125819444656372,4.101943492889404,-0.6083612442016602
1.2877719402313232,3.4187419414520264,-0.5015004277229309
1.3143870830535889,3.417865514755249,-0.4958997368812561
1.32997727394104,3.3878560066223145,-0.48606303334236145
1.3564379215240479,3.3866701126098633,-0.4802526831626892
1.3769311904907227,3.371002674102783,-0.4722989797592163
1.4037538766860962,3.3693079948425293,-0.4661959409713745
1.4275131225585938,3.3602867126464844,-0.45910772681236267
1.4416675567626953,3.3298821449279785,-0.44904667139053345
1.470897912979126,3.3350040912628174,-0.44370314478874207
1.4971990585327148,3.332752227783203,-0.4373307526111603
1.5114046335220337,3.3017373085021973,-0.42702534794807434
1.5408883094787598,3.3061747550964355,-0.4213515520095825
1.5702307224273682,3.3104910850524902,-0.4155498743057251
1.6083385944366455,3.3319449424743652,-0.411774605512619
1.6249842643737793,3.307528495788574,-0.40219640731811523
1.6152639389038086,3.230954170227051,-0.38624370098114014
1.6303151845932007,3.2068867683410645,-0.3768215775489807
1.6400865316390991,3.172227621078491,-0.3661505877971649
1.6588430404663086,3.154589891433716,-0.35742083191871643
1.7225658893585205,3.222907066345215,-0.3581933081150055
1.7445026636123657,3.2119905948638916,-0.34999048709869385
1.7241140604019165,3.122091054916382,-0.3330575227737427
1.7383368015289307,3.0972397327423096,-0.32333454489707947
1.7804783582687378,3.123430013656616,-0.3188575804233551
1.33963942527771,2.3138232231140137,-0.230790376663208
1.294780969619751,2.200927257537842,-0.21416760981082916
0.9545965194702148,1.5975598096847534,-0.15145127475261688
0.9714062809944153,1.601499319076538,-0.1478462815284729
0.978474497795105,1.588478446006775,-0.14253383874893188
0.9832620024681091,1.5721710920333862,-0.1369270533323288
0.9937324523925781,1.5659784078598022,-0.1322236955165863
1.0109773874282837,1.5692377090454102,-0.12810108065605164
1.0155717134475708,1.5527173280715942,-0.12230688333511353
1.032334327697754,1.5560641288757324,-0.11807706207036972
1.0428956747055054,1.5493875741958618,-0.11295536160469055
1.0537089109420776,1.542433738708496,-0.10764698684215546
2.5433249473571777,3.6710190773010254,-0.24447718262672424
2.5726847648620605,3.6608965396881104,-0.23179812729358673
2.6068973541259766,3.6566383838653564,-0.21895678341388702
2.630547046661377,3.6404531002044678,-0.20538724958896637
2.6118061542510986,3.563171863555908,-0.18775475025177002
2.6840784549713135,3.612440347671509,-0.17654164135456085
2.6455352306365967,3.718961238861084,0.44865673780441284
2.6200313568115234,3.744758129119873,0.4634231925010681
2.5829386711120605,3.7499475479125977,0.47492116689682007
1.0531282424926758,1.5525130033493042,0.2008299082517624
1.0537467002868652,1.5795118808746338,0.20846383273601532
1.037551999092102,1.5802680253982544,0.21248610317707062
1.0302625894546509,1.5936436653137207,0.21807323396205902
1.0344747304916382,1.6271811723709106,0.2262781411409378
1.0053715705871582,1.608202576637268,0.22717705368995667
0.9938907623291016,1.6147313117980957,0.23134487867355347
0.9819837808609009,1.6214059591293335,0.23547233641147614
0.9692507386207581,1.6284443140029907,0.23962175846099854
0.9687263369560242,1.6551578044891357,0.24659036099910736
1.3339064121246338,2.315938711166382,0.3490430414676666
1.8339437246322632,3.238057851791382,0.4934003949165344
1.7621140480041504,3.166293144226074,0.4875500798225403
1.7620630264282227,3.222703695297241,0.5013949275016785
1.7776917219161987,3.3056371212005615,0.5192022919654846
2.4136040210723877,4.565672874450684,0.7237023115158081
2.3755619525909424,4.575455188751221,0.7314984202384949
2.348001480102539,4.605600833892822,0.742607831954956
2.310993194580078,4.614249229431152,0.7500739693641663
2.2816436290740967,4.6360859870910645,0.7595704793930054
2.2471182346343994,4.651597499847412,0.7676210403442383
2.212190628051758,4.666987895965576,0.7756118178367615
2.1808199882507324,4.688934326171875,0.7846797108650208
2.1445131301879883,4.695901393890381,0.7910195589065552
2.1137890815734863,4.716986656188965,0.7998321652412415
2.0849592685699463,4.745466232299805,0.8093181848526001
2.0436527729034424,4.74539041519165,0.8139730095863342
1.7703481912612915,4.1939005851745605,0.7234652042388916
1.7230911254882812,4.162467002868652,0.7219626903533936
1.6932061910629272,4.173678874969482,0.7279164791107178
1.662475347518921,4.1850666999816895,0.7333487272262573
1.6344197988510132,4.203421115875244,0.7400520443916321
1.6035617589950562,4.214334011077881,0.7454773187637329
1.5793070793151855,4.239014148712158,0.753240704536438
1.551571249961853,4.256501197814941,0.7598464488983154
1.5207650661468506,4.26672887802124,0.7647468447685242
1.4946529865264893,4.291407108306885,0.772122859954834
1.464496374130249,4.30499792098999,0.7775617241859436
1.4362082481384277,4.321788787841797,0.7835526466369629
1.405334234237671,4.331077575683594,0.7882325053215027
1.374742865562439,4.340061664581299,0.7927505373954773
1.3455525636672974,4.356504440307617,0.7982070446014404
1.308388352394104,4.346970081329346,0.7989431619644165
1.2822529077529907,4.374041557312012,0.8064494132995605
1.2578907012939453,4.404376983642578,0.8145384788513184
1.232616901397705,4.434713840484619,0.8227381706237793
1.2011717557907104,4.442629814147949,0.8265348076820374
1.1691057682037354,4.450525283813477,0.8300279378890991
1.1436365842819214,4.484258651733398,0.8383949398994446
1.1114225387573242,4.491696834564209,0.8418921232223511
1.0794934034347534,4.498828411102295,0.8453527092933655
1.0497838258743286,4.513103485107422,0.8501659035682678
1.0212558507919312,4.534804344177246,0.8561415672302246
0.9904941320419312,4.548944473266602,0.8604252338409424
0.9579518437385559,4.555365085601807,0.8632978200912476
0.7844641208648682,3.8691163063049316,0.7347092032432556
0.7530011534690857,3.851437568664551,0.7327876687049866
0.7232859134674072,3.841052293777466,0.7322731018066406
0.8344154953956604,4.608709812164307,0.8801847696304321
0.8055983781814575,4.636786460876465,0.8867608904838562
0.7726579308509827,4.645842552185059,0.8897750973701477
0.7432070374488831,4.673531532287598,0.8963894248008728
0.7117177844047546,4.685767650604248,0.9000680446624756
0.6812971234321594,4.705371379852295,0.9052078127861023
0.6484336853027344,4.709598541259766,0.9073596596717834
0.6185271739959717,4.744256019592285,0.9148849248886108
0.5868666768074036,4.76342248916626,0.9194628596305847
0.5536928772926331,4.770937919616699,0.9218396544456482
0.5219024419784546,4.789639472961426,0.9264214038848877
0.4893140196800232,4.800475120544434,0.9295251369476318
0.4587740898132324,4.83399772644043,0.9370750784873962
0.42425864934921265,4.8369221687316895,0.9382469058036804
0.3914860785007477,4.854878902435303,0.9422265887260437
0.3587634861469269,4.876436233520508,0.9469554424285889
0.3250487446784973,4.886289119720459,0.9494600296020508
0.2920006513595581,4.903544902801514,0.9534465670585632
0.25806236267089844,4.92060661315918,0.9574590921401978
0.22415561974048615,4.9297919273376465,0.9597353935241699
0.19055695831775665,4.954155445098877,0.9645851850509644
0.15638725459575653,4.970623016357422,0.9679459929466248
0.12233450263738632,4.998352527618408,0.973548173904419
0.08705613762140274,5.006686210632324,0.9754256010055542
0.05237101390957832,5.022433280944824,0.9787917733192444
0.017554720863699913,5.045605659484863,0.9836544990539551
-0.017563596367836,5.060980796813965,0.9864494204521179
-0.05299371853470802,5.079959392547607,0.9899068474769592
-0.08879716694355011,5.071845054626465,0.9881294369697571
-0.12504002451896667,5.1094889640808105,0.9953173995018005
-0.160789355635643,5.11621618270874,0.9965299963951111
-0.19669631123542786,5.122690677642822,0.9977412819862366
-0.2336869090795517,5.151946544647217,1.003178358078003
-0.2715400457382202,5.192513465881348,1.010424017906189
-0.30817484855651855,5.190658092498779,1.0094465017318726
-0.2895362973213196,4.365912914276123,0.8485872149467468
-0.31625163555145264,4.314230442047119,0.8381173014640808
-0.3456387221813202,4.304436206817627,0.8358310461044312
-0.3782403767108917,4.332648754119873,0.8409636616706848
-0.4029008150100708,4.269046306610107,0.8277930021286011
-0.4280719459056854,4.224450588226318,0.8183159828186035
-0.44975635409355164,4.153011798858643,0.803699254989624
-0.4744758903980255,4.115762710571289,0.7957549691200256
-0.49520379304885864,4.047876834869385,0.7819370627403259
-0.5208759307861328,4.021696090698242,0.7762179970741272
-0.5445462465286255,3.987875461578369,0.7688336372375488
-0.5648418068885803,3.935009002685547,0.7575323581695557
-0.586107611656189,3.89343523979187,0.7484667301177979
-0.6062750816345215,3.847951650619507,0.7387046217918396
-0.6284737586975098,3.813615322113037,0.7311082482337952
-0.6458970308303833,3.756521224975586,0.7192216515541077
-0.6686134338378906,3.733382225036621,0.7138540744781494
-0.687093198299408,3.691394805908203,0.7044817805290222
-0.7013884782791138,3.6304714679718018,0.6915624737739563
-0.7261945605278015,3.6259937286376953,0.689447820186615
-0.7352492213249207,3.542250394821167,0.6722885966300964
-0.7534632682800293,3.5073986053466797,0.664488673210144
-0.7695240378379822,3.464966058731079,0.6553092002868652
-0.7932259440422058,3.4600703716278076,0.6529113054275513
-0.8158979415893555,3.451315402984619,0.6497215628623962
-0.8288804888725281,3.4012506008148193,0.6387813687324524
-0.8465719223022461,3.3735835552215576,0.6321237087249756
-0.8652747869491577,3.3494553565979004,0.626152515411377
-0.882729709148407,3.321500778198242,0.6195118427276611
-0.8994318842887878,3.2936153411865234,0.6126561760902405
-0.9159380793571472,3.2656426429748535,0.6056509613990784
-0.9338259696960449,3.245088815689087,0.6001023650169373
-0.9440212845802307,3.1985666751861572,0.589795708656311
-0.9641435146331787,3.1850459575653076,0.5855898857116699
-0.9772801995277405,3.1493470668792725,0.5773545503616333
-0.994544506072998,3.128356695175171,0.5715749263763428
-1.0097535848617554,3.1038239002227783,0.5650936365127563
-1.023459553718567,3.0755674839019775,0.5579860210418701
-1.0370421409606934,3.0471906661987305,0.5508903861045837
-1.0507664680480957,3.0186071395874023,0.543766438961029
-1.0718891620635986,3.011741876602173,0.5405957102775574
-1.0926802158355713,3.0048904418945312,0.5370885133743286
-1.0874507427215576,2.929443597793579,0.5213801264762878
-1.1126526594161987,2.9370615482330322,0.5205205678939819
-1.1148840188980103,2.883178234100342,0.5087539553642273
-1.1478601694107056,2.9081640243530273,0.5109061598777771
-1.1438928842544556,2.839824676513672,0.49658307433128357
-1.1512420177459717,2.804185390472412,0.48785969614982605
-1.1254369020462036,2.690260887145996,0.46565550565719604
-1.1315494775772095,2.654798746109009,0.457157164812088
-1.1378849744796753,2.6191000938415527,0.4486045837402344
-1.1628631353378296,2.625638961791992,0.4472779333591461
-1.183699131011963,2.625448703765869,0.44456249475479126
-1.2077070474624634,2.6321630477905273,0.4429801404476166
-1.2383904457092285,2.6526730060577393,0.44369593262672424
-1.2752448320388794,2.6829843521118164,0.44586896896362305
-1.2591222524642944,2.6014482975006104,0.4294545352458954
-1.2698849439620972,2.5797054767608643,0.42284899950027466
-1.2767094373703003,2.551135778427124,0.4151231050491333
-1.31826651096344,2.591496467590332,0.418599396944046
-1.3080413341522217,2.527944326400757,0.40515613555908203
-1.3132381439208984,2.4954164028167725,0.3967973291873932
-1.3228447437286377,2.473554849624634,0.3898831903934479
-1.3392105102539062,2.465467691421509,0.38520944118499756
-1.3371294736862183,2.423218011856079,0.37519872188568115
-1.3581039905548096,2.4211716651916504,0.37129080295562744
-1.3672184944152832,2.3989877700805664,0.36423632502555847
-1.3736720085144043,2.373728036880493,0.35654154419898987
-1.3815302848815918,2.3519608974456787,0.3495030403137207
-1.394029140472412,2.3363399505615234,0.343206524848938
-1.406420350074768,2.3206238746643066,0.3368862569332123
-1.409393072128296,2.292340040206909,0.3285876512527466
-1.4451549053192139,2.316596031188965,0.32773569226264954
-1.4654477834701538,2.3138277530670166,0.3227900266647339
-1.4607475996017456,2.2716262340545654,0.31230053305625916
-1.4713103771209717,2.2563586235046387,0.3054081201553345
-1.4817146062850952,2.2410426139831543,0.2985544204711914
-1.4654176235198975,2.1827802658081055,0.2855994999408722
-1.5021226406097412,2.205683946609497,0.28330332040786743
-1.5163270235061646,2.196777820587158,0.27675914764404297
-1.4955915212631226,2.136322259902954,0.2635645866394043
-1.5016063451766968,2.1139190196990967,0.25493520498275757
-1.50397527217865,2.089181423187256,0.24587030708789825
-1.5225279331207275,2.086197853088379,0.23922006785869598
-1.5278561115264893,2.0638606548309326,0.22991985082626343
-1.5204706192016602,2.130929946899414,-0.13206395506858826
-1.5179564952850342,2.1608121395111084,-0.1422829031944275
-1.5015227794647217,2.1716623306274414,-0.15118837356567383
-1.4948722124099731,2.1945505142211914,-0.16042588651180267
-1.4520806074142456,2.166377067565918,-0.16586585342884064
-1.4790574312210083,2.2414286136627197,-0.17903749644756317
-1.462562918663025,2.2515692710876465,-0.18711711466312408
-1.4413214921951294,2.2553117275238037,-0.19451943039894104
-1.4352452754974365,2.2815537452697754,-0.20364035665988922
-1.422850489616394,2.29778790473938,-0.21177880465984344
-1.4055589437484741,2.3076980113983154,-0.21935461461544037
-1.4004606008529663,2.3373446464538574,-0.2287725806236267
-1.3719432353973389,2.326418876647949,-0.23394152522087097
-1.3624812364578247,2.3492543697357178,-0.2424701601266861
-1.3163021802902222,2.3077619075775146,-0.2442145198583603
-1.3131918907165527,2.3400776386260986,-0.25352057814598083
-1.2712663412094116,2.3048062324523926,-0.2555312514305115
-1.257869005203247,2.3202457427978516,-0.2629694938659668
-1.2559254169464111,2.3558499813079834,-0.2725733518600464
-1.235439419746399,2.3571372032165527,-0.27820655703544617
-1.230556607246399,2.389549970626831,-0.28751635551452637
-1.2128605842590332,2.3977909088134766,-0.29402780532836914
-1.2062147855758667,2.4264087677001953,-0.3028688430786133
-1.1920584440231323,2.441251039505005,-0.30999547243118286
-1.190972924232483,2.4840807914733887,-0.32075151801109314
-1.1780946254730225,2.502274990081787,-0.3283415138721466
-1.1831339597702026,2.5590195655822754,-0.3410659432411194
-1.201045274734497,2.648045539855957,-0.3583499491214752
-1.1550014019012451,2.5956308841705322,-0.35644301772117615
-1.1504617929458618,2.6349005699157715,-0.3669832646846771
-1.313357949256897,3.0658328533172607,-0.4329192638397217
-1.3167153596878052,3.1349380016326904,-0.448530375957489
-1.3084138631820679,3.179283618927002,-0.4609073996543884
-1.2886978387832642,3.1946499347686768,-0.4689956605434418
-1.2716772556304932,3.2170770168304443,-0.47814831137657166
-1.2582101821899414,3.2504005432128906,-0.48877787590026855
-1.242952585220337,3.280050754547119,-0.4989624619483948
-1.219285488128662,3.2878646850585938,-0.5058832168579102
-1.1789263486862183,3.248106002807617,-0.5052850246429443
-1.13756263256073,3.204477310180664,-0.5036681294441223
-1.0829477310180664,3.1203019618988037,-0.4954747259616852
-1.0347778797149658,3.050123453140259,-0.48920753598213196
-0.994656503200531,3.0015311241149902,-0.4862814247608185
-0.9435299038887024,2.9158437252044678,-0.4767564833164215
-0.9052835702896118,2.8664324283599854,-0.47295355796813965
-0.8690908551216125,2.82029390335083,-0.46952009201049805
-0.8281458616256714,2.7553179264068604,-0.4627721309661865
-0.7945256233215332,2.7122225761413574,-0.45930105447769165
-0.7601391673088074,2.6652064323425293,-0.4550396203994751
-0.7319977283477783,2.636338949203491,-0.45370933413505554
-0.6953544616699219,2.5737249851226807,-0.4464382529258728
-0.6683662533760071,2.5443379878997803,-0.44462156295776367
-0.6427052021026611,2.5184872150421143,-0.4432136118412018
-0.6088526248931885,2.458836078643799,-0.435809463262558
-0.5897911190986633,2.4549105167388916,-0.4381406307220459
-0.5620571970939636,2.41338849067688,-0.43360939621925354
-0.5391044616699219,2.390437602996826,-0.4321095645427704
-0.5156825184822083,2.363535165786743,-0.42985501885414124
-0.4885067343711853,2.3176558017730713,-0.4241134226322174
-0.47228536009788513,2.3204519748687744,-0.4271860122680664
-0.44857028126716614,2.2854955196380615,-0.42293107509613037
-0.4282241463661194,2.2654387950897217,-0.4213964343070984
-0.41233888268470764,2.267890691757202,-0.4240429699420929
-0.38890156149864197,2.2286462783813477,-0.41891124844551086
-0.3720000684261322,2.223304510116577,-0.4198076128959656
-0.35155433416366577,2.19510817527771,-0.4162699580192566
-0.3350054919719696,2.1895134449005127,-0.4170078635215759
-0.31860169768333435,2.1837897300720215,-0.41772326827049255
-0.3004400432109833,2.16660213470459,-0.4161156713962555
-0.225729301571846,1.7156283855438232,-0.3306335210800171
-0.2672866880893707,2.147071123123169,-0.4152146577835083
-0.24961043894290924,2.1256909370422363,-0.4125162363052368
-0.23226085305213928,2.1041784286499023,-0.4097588360309601
-0.21913594007492065,2.120751142501831,-0.41404691338539124
-0.2011266052722931,2.0914599895477295,-0.4094117283821106
-0.18554450571537018,2.0810999870300293,-0.4084585905075073
-0.17168565094470978,2.0897281169891357,-0.4112502634525299
-0.15485259890556335,2.0600967407226562,-0.40622758865356445
-0.14156599342823029,2.0762455463409424,-0.41012510657310486
-0.1245211586356163,2.0387675762176514,-0.4034547805786133
-0.10951502621173859,2.0241072177886963,-0.40128690004348755
-0.09614544361829758,2.039987564086914,-0.4050455391407013
-0.08380338549613953,2.086454391479492,-0.41464030742645264
-0.06953233480453491,2.0945510864257812,-0.41663968563079834
-0.054712917655706406,2.09489369392395,-0.41712525486946106
-0.040000058710575104,2.087468385696411,-0.4160742163658142
-0.025563020259141922,2.0953450202941895,-0.41766372323036194
-0.010953852906823158,2.0877978801727295,-0.4161989092826843
0.003562202677130699,2.087811231613159,-0.416261225938797
0.018399005755782127,2.0953824520111084,-0.4178524315357208
0.03339003771543503,2.122058391571045,-0.42298972606658936
0.04797163978219032,2.1141858100891113,-0.4211070239543915
0.0626724511384964,2.1138720512390137,-0.42075130343437195
0.07849252969026566,2.144085645675659,-0.4264882504940033
0.09306682646274567,2.135927677154541,-0.4244871139526367
0.10817541927099228,2.1353743076324463,-0.42368900775909424
0.12215549498796463,2.119422435760498,-0.41987213492393494
0.13789571821689606,2.133972406387329,-0.4221183657646179
0.15548688173294067,2.171344041824341,-0.42888370156288147
0.17121297121047974,2.1780855655670166,-0.42919662594795227
0.18761654198169708,2.1885223388671875,-0.4302009642124176
0.2042630910873413,2.2026753425598145,-0.4319623112678528
0.2196100503206253,2.201441764831543,-0.4307190477848053
0.23818233609199524,2.23065447807312,-0.43518781661987305
0.2536967098712921,2.2292706966400146,-0.43350857496261597
0.27454105019569397,2.269639730453491,-0.43991899490356445
0.2923133373260498,2.2832231521606445,-0.4411449432373047
0.31439340114593506,2.327110528945923,-0.4481082558631897
0.3316824436187744,2.332880973815918,-0.44738665223121643
0.3519001603126526,2.3575055599212646,-0.4502757489681244
0.375752329826355,2.4008917808532715,-0.4566804766654968
0.39746037125587463,2.4289541244506836,-0.46016624569892883
0.4201885461807251,2.4607012271881104,-0.4639279842376709
0.44271960854530334,2.488483190536499,-0.4668578803539276
0.469172865152359,2.534965753555298,-0.47324299812316895
0.4956093430519104,2.577434778213501,-0.4788101315498352
0.5184326767921448,2.5970513820648193,-0.4798119068145752
0.543553352355957,2.6278669834136963,-0.4827081263065338
0.5755884051322937,2.688546895980835,-0.49100667238235474
0.6043608784675598,2.730149269104004,-0.4957267940044403
0.6380082368850708,2.790269613265991,-0.5036166906356812
0.6798927783966064,2.8800368309020996,-0.5163193345069885
0.7035862803459167,2.89093017578125,-0.5148386359214783
0.7397676706314087,2.950152635574341,-0.5218744277954102
0.780685544013977,3.0239431858062744,-0.5313405990600586
0.8195769190788269,3.086270570755005,-0.5382312536239624
0.8658351898193359,3.1704471111297607,-0.5486598610877991
0.9109278917312622,3.2468152046203613,-0.5575953722000122
0.9604059457778931,3.333834171295166,-0.5681439638137817
1.0066349506378174,3.405654191970825,-0.5756173729896545
1.0661518573760986,3.5176663398742676,-0.5895034670829773
1.1106131076812744,3.5736663341522217,-0.5936687588691711
1.190777063369751,3.739623546600342,-0.6158437132835388
1.262394905090332,3.8717644214630127,-0.6318333745002747
1.335782527923584,4.003232955932617,-0.6470751762390137
1.3948379755020142,4.086415767669678,-0.65418541431427
1.4477787017822266,4.147029399871826,-0.6573973894119263
1.4877326488494873,4.166991710662842,-0.6538265943527222
1.5140126943588257,4.150589466094971,-0.6443633437156677
1.5428308248519897,4.1412506103515625,-0.6360399127006531
1.569225788116455,4.1243367195129395,-0.6265028715133667
1.5828497409820557,4.074789524078369,-0.6120644211769104
1.3434592485427856,3.3885579109191895,-0.5028845071792603
1.3669663667678833,3.38021183013916,-0.4956517219543457
1.384824514389038,3.357257843017578,-0.48624664545059204
1.411503553390503,3.3555917739868164,-0.47992607951164246
1.437774419784546,3.3539254665374756,-0.47338059544563293
1.4582772254943848,3.337686777114868,-0.4646931290626526
1.4817450046539307,3.3283979892730713,-0.4570162892341614
1.5019837617874146,3.311854600906372,-0.4483499825000763
1.5280567407608032,3.309507131576538,-0.44144076108932495
1.544262170791626,3.2858831882476807,-0.4317285418510437
1.574499487876892,3.289780855178833,-0.4253922700881958
1.6010487079620361,3.28661847114563,-0.41818952560424805
1.627068281173706,3.2835192680358887,-0.4108586609363556
1.6251529455184937,3.2247262001037598,-0.39666658639907837
1.624880075454712,3.169241428375244,-0.3829103410243988
1.6434106826782227,3.151899576187134,-0.37385764718055725
1.681707501411438,3.172264575958252,-0.36903348565101624
1.7367247343063354,3.2231547832489014,-0.36764127016067505
1.759480357170105,3.2117857933044434,-0.35883408784866333
1.734325647354126,3.115602731704712,-0.34070882201194763
1.7631298303604126,3.1182122230529785,-0.3335510492324829
1.79875910282135,3.1302013397216797,-0.3270026743412018
1.343992829322815,2.301828384399414,-0.23468099534511566
0.9705252051353455,1.6371591091156006,-0.16275033354759216
0.9394830465316772,1.5609498023986816,-0.15115638077259064
0.9626746773719788,1.5746630430221558,-0.14824751019477844
0.9776982665061951,1.5750131607055664,-0.14392635226249695
0.9923882484436035,1.5754525661468506,-0.13965734839439392
1.0034070014953613,1.5689032077789307,-0.1345587968826294
1.0205702781677246,1.572184443473816,-0.13023434579372406
1.026733160018921,1.5592612028121948,-0.12455982714891434
1.0377042293548584,1.552408218383789,-0.11912146210670471
1.0462044477462769,1.542393445968628,-0.11343732476234436
1.0585682392120361,1.5390605926513672,-0.1082489937543869
2.560267686843872,3.6686954498291016,-0.24556834995746613
2.5941953659057617,3.664827346801758,-0.2324868142604828
2.627556800842285,3.6610846519470215,-0.21911387145519257
2.6003353595733643,3.5708844661712646,-0.20004557073116302
2.6537463665008545,3.595433235168457,-0.18747074902057648
2.632067918777466,3.7338011264801025,0.48320358991622925
2.6092872619628906,3.7574539184570312,0.4975327253341675
2.549949884414673,3.730562448501587,0.5047111511230469
1.0585261583328247,1.5750762224197388,0.21760915219783783
1.0427725315093994,1.5755583047866821,0.22170472145080566
1.0479774475097656,1.608566164970398,0.2303115427494049
1.0185977220535278,1.5899076461791992,0.23143920302391052
1.0273059606552124,1.6296181678771973,0.24092651903629303
1.011326789855957,1.6297876834869385,0.24453015625476837
0.9866377711296082,1.6170240640640259,0.24591809511184692
0.9820109009742737,1.637262225151062,0.2523103356361389
0.974080502986908,1.6503586769104004,0.25742626190185547
1.3413540124893188,2.3092563152313232,0.3644353151321411
1.3789628744125366,2.4161994457244873,0.3855401575565338
1.8032212257385254,3.2152249813079834,0.5185475945472717
1.763134241104126,3.196542263031006,0.5207030177116394
1.7882490158081055,3.296239137649536,0.5421885848045349
1.7542412281036377,3.29144287109375,0.5462669134140015
2.39516282081604,4.577313423156738,0.7665094137191772
2.361450672149658,4.593254089355469,0.7756945490837097
2.3253562450408936,4.601482391357422,0.7833747267723083
2.291858196258545,4.616783142089844,0.7920184135437012
2.260511875152588,4.639352798461914,0.8016407489776611
2.2283802032470703,4.661943435668945,0.8114234805107117
2.2048728466033936,4.69728946685791,0.8231276273727417
2.1684226989746094,4.704334259033203,0.8298693299293518
2.1307239532470703,4.711711883544922,0.8362893462181091
2.09877872467041,4.733129024505615,0.8450554013252258
2.0635111331939697,4.747264862060547,0.852581799030304
2.0020391941070557,4.696897983551025,0.8483497500419617
1.74445378780365,4.1729207038879395,0.7579135894775391
1.7111629247665405,4.177278995513916,0.7625560164451599
1.6831213235855103,4.195897102355957,0.7696561813354492
1.65212082862854,4.207137107849121,0.775446355342865
1.6243319511413574,4.225142478942871,0.7824680805206299
1.5945491790771484,4.235445976257324,0.7880017161369324
1.5669546127319336,4.2529377937316895,0.794701874256134
1.5384107828140259,4.270578861236572,0.8011161088943481
1.5109678506851196,4.2916483879089355,0.8082296848297119
1.4843319654464722,4.3162384033203125,0.8160903453826904
1.4515365362167358,4.3183417320251465,0.819597601890564
1.4211816787719727,4.327498912811279,0.8244789838790894
1.3922231197357178,4.344120979309082,0.8303539156913757
1.3652056455612183,4.367951393127441,0.8375662565231323
1.3306100368499756,4.369720935821533,0.8406470417976379
1.2973695993423462,4.370863437652588,0.8435307741165161
1.277390718460083,4.415916919708252,0.8549138307571411
1.2442306280136108,4.416576385498047,0.8577181100845337
1.2123401165008545,4.424714088439941,0.8614354729652405
1.1862757205963135,4.454885959625244,0.8695015907287598
1.155471682548523,4.470161437988281,0.8747567534446716
1.1267741918563843,4.488636493682861,0.8805996775627136
1.0971561670303345,4.503152370452881,0.8857049345970154
1.0672907829284668,4.517504692077637,0.8907484412193298
1.034929633140564,4.5244245529174805,0.8938121199607849
1.005244255065918,4.546208381652832,0.8998962044715881
0.9710350632667542,4.545186519622803,0.9014861583709717
0.9390341639518738,4.551307201385498,0.9045024514198303
0.7680123448371887,3.857790470123291,0.768225908279419
0.7396235466003418,3.855023145675659,0.7692556381225586
0.8506514430046082,4.613752365112305,0.9219751954078674
0.8198025822639465,4.630524635314941,0.9266695380210876
0.7893475294113159,4.650873184204102,0.9321365356445312
0.7602871060371399,4.678522109985352,0.9391069412231445
0.7276597023010254,4.683225154876709,0.9415110349655151
0.6966776251792908,4.7029337882995605,0.9470092058181763
0.6667236089706421,4.730093479156494,0.953545331954956
0.6352812647819519,4.749513626098633,0.9584136009216309
0.6021544337272644,4.757322788238525,0.9609907269477844
0.5704184174537659,4.776296138763428,0.9658718109130859
0.5380205512046814,4.7873992919921875,0.9692002534866333
0.505703866481781,4.8059539794921875,0.9741098880767822
0.47206881642341614,4.809057235717773,0.9756730794906616
0.4403313100337982,4.834901332855225,0.9814707636833191
0.40697187185287476,4.845272541046143,0.9841795563697815
0.3740755319595337,4.863046646118164,0.9884436726570129
0.3419494330883026,4.899710655212402,0.9966102242469788
0.30735495686531067,4.894094944000244,0.9962159991264343
0.27456191182136536,4.918810844421387,1.002046823501587
0.24127627909183502,4.943437576293945,1.0072755813598633
0.20668090879917145,4.944905757904053,1.0077601671218872
0.17238400876522064,4.972929000854492,1.013711929321289
0.13764214515686035,4.973913192749023,1.0141983032226562
0.10354097932577133,4.997610569000244,1.0193654298782349
0.0691649541258812,5.0287275314331055,1.026099681854248
0.034352511167526245,5.052001953125,1.0310235023498535
-0.0014369963901117444,5.055985927581787,1.0316078662872314
-0.03678640350699425,5.071202278137207,1.0345373153686523
-0.07239865511655807,5.093825340270996,1.039027214050293
-0.1080034151673317,5.10089111328125,1.0403934717178345
-0.14359329640865326,5.107711315155029,1.041759729385376
-0.1793413758277893,5.114280700683594,1.0431251525878906
-0.21679432690143585,5.147467613220215,1.0493662357330322
-0.2535474896430969,5.1689653396606445,1.0531455278396606
-0.29018059372901917,5.182556629180908,1.0553603172302246
-0.274836003780365,4.3668389320373535,0.8888251185417175
-0.30414289236068726,4.349700927734375,0.8849539160728455
-0.333473265171051,4.328510284423828,0.8802981376647949
-0.365113765001297,4.345353603363037,0.8832553625106812
-0.3905804455280304,4.29343318939209,0.8718549013137817
-0.4164675772190094,4.252796173095703,0.8628041744232178
-0.43901628255844116,4.185344219207764,0.8483731746673584
-0.4634369909763336,4.136740207672119,0.8378067016601562
-0.4872305989265442,4.091844081878662,0.8280569314956665
-0.5099884271621704,4.043008327484131,0.8175626993179321
-0.5322698354721069,3.997973680496216,0.8074520826339722
-0.5544090270996094,3.9566454887390137,0.7980260848999023
-0.5770439505577087,3.91892147064209,0.7893659472465515
-0.5993730425834656,3.884911060333252,0.7815235257148743
-0.6172446012496948,3.8242571353912354,0.7683712244033813
-0.6387590169906616,3.789985179901123,0.7605780959129333
-0.6583408713340759,3.7481064796447754,0.751130998134613
-0.6818945407867432,3.7326431274414062,0.7466820478439331
-0.6978906393051147,3.675520181655884,0.7339325547218323
-0.7133882641792297,3.6221911907196045,0.7220361232757568
-0.7339093685150146,3.5950422286987305,0.7153993248939514
-0.7502010464668274,3.549003839492798,0.7050558924674988
-0.7683814167976379,3.514136552810669,0.6969859600067139
-0.7859789133071899,3.479306936264038,0.6884670853614807
-0.8044650554656982,3.451951265335083,0.6815106868743896
-0.823510468006134,3.4282281398773193,0.6753214001655579
-0.8378797173500061,3.3857271671295166,0.665475070476532
-0.8557801842689514,3.357987403869629,0.6585698127746582
-0.8747372031211853,3.3337645530700684,0.6523779630661011
-0.8934641480445862,3.3134469985961914,0.64665687084198
-0.9097859263420105,3.285670280456543,0.6394428610801697
-0.9257713556289673,3.2578158378601074,0.6322672367095947
-0.941656231880188,3.2298238277435303,0.6250994205474854
-0.9591038823127747,3.205218553543091,0.61857670545578
-0.9702154994010925,3.16226863861084,0.6086048483848572
-0.9814061522483826,3.1231863498687744,0.5991361141204834
-1.0084097385406494,3.1353769302368164,0.5994365215301514
-1.01636803150177,3.0889382362365723,0.5885721445083618
-1.0330402851104736,3.0678045749664307,0.582524836063385
-1.0445178747177124,3.0320191383361816,0.5737467408180237
-1.060624599456787,3.0107293128967285,0.5677712559700012
-1.0771352052688599,2.9932641983032227,0.5622075200080872
-1.0999945402145386,2.9938056468963623,0.5600045919418335
-1.1120986938476562,2.9653491973876953,0.5524140000343323
-1.1109601259231567,2.9006097316741943,0.5380549430847168
-1.1397494077682495,2.9149036407470703,0.5384182929992676
-1.1414912939071655,2.861078977584839,0.526164710521698
-1.1462372541427612,2.8183579444885254,0.5157611966133118
-1.1371833086013794,2.74365496635437,0.4996216297149658
-1.1305718421936035,2.6761116981506348,0.484870582818985
-1.1371923685073853,2.6404592990875244,0.4759499728679657
-1.1619564294815063,2.647183656692505,0.4747048020362854
-1.1704273223876953,2.6188466548919678,0.4669386148452759
-1.1911566257476807,2.618675470352173,0.46416062116622925
-1.230063796043396,2.656717538833618,0.46807387471199036
-1.2486120462417603,2.6488037109375,0.4637940526008606
-1.2555840015411377,2.616328239440918,0.4552374482154846
-1.2666468620300293,2.594586133956909,0.4484213888645172
-1.3097306489944458,2.638700485229492,0.4528352916240692
-1.2876298427581787,2.551231861114502,0.43467047810554504
-1.3054295778274536,2.542958974838257,0.4300317168235779
-1.3108680248260498,2.5104780197143555,0.4213123321533203
-1.3133540153503418,2.4750311374664307,0.41197293996810913
-1.329796552658081,2.467034339904785,0.4071653485298157
-1.3387396335601807,2.445364236831665,0.4001423418521881
-1.3564361333847046,2.4364428520202637,0.39493122696876526
-1.3622304201126099,2.4074010848999023,0.3865518271923065
-1.3724162578582764,2.3890693187713623,0.3797028362751007
-1.3804638385772705,2.367349147796631,0.3723706603050232
-1.392831563949585,2.3519446849823,0.3659309148788452
-1.4017791748046875,2.3294332027435303,0.3582577109336853
-1.4092388153076172,2.307647943496704,0.3506433367729187
-1.4243491888046265,2.2991998195648193,0.34503886103630066
-1.427558422088623,2.2706501483917236,0.33631786704063416
-1.4728851318359375,2.3070738315582275,0.33697062730789185
-1.4716675281524658,2.2718911170959473,0.3268771767616272
-1.450251817703247,2.20801043510437,0.31287524104118347
-1.497713327407837,2.247295618057251,0.31324052810668945
-1.4984480142593384,2.215013265609741,0.30337652564048767
-1.486422061920166,2.167755126953125,0.2914331257343292
-1.5185608863830566,2.1842305660247803,0.28794729709625244
-1.4983468055725098,2.1234776973724365,0.27393144369125366
-1.5078786611557007,2.108107089996338,0.26580923795700073
-1.5145211219787598,2.0898678302764893,0.2573277950286865
-1.5247344970703125,2.0737671852111816,0.24849137663841248
-1.5290576219558716,2.052172899246216,0.23890487849712372
-1.4923315048217773,2.1073355674743652,-0.1384074091911316
-1.4804383516311646,2.1245951652526855,-0.148108571767807
-1.498171329498291,2.1828229427337646,-0.16029371321201324
-1.4640791416168213,2.167635440826416,-0.1672125607728958
-1.447648525238037,2.1779680252075195,-0.17578603327274323
-1.4663535356521606,2.2396581172943115,-0.18818499147891998
-1.4326598644256592,2.2236716747283936,-0.19415956735610962
-1.4473602771759033,2.282895565032959,-0.20668411254882812
-1.4225614070892334,2.2793567180633545,-0.2134488821029663
-1.4136345386505127,2.3024494647979736,-0.22259052097797394
-1.4125733375549316,2.338783025741577,-0.2330731898546219
-1.3760448694229126,2.3145453929901123,-0.23720161616802216
-1.3491677045822144,2.3070383071899414,-0.2428911179304123
-1.3277828693389893,2.309643030166626,-0.24969448149204254
-1.2959964275360107,2.291189193725586,-0.2537514567375183
-1.2794466018676758,2.2996959686279297,-0.26069214940071106
-1.258689284324646,2.301473617553711,-0.266845166683197
-1.2567031383514404,2.3371126651763916,-0.2768727242946625
-1.2434114217758179,2.3521831035614014,-0.28454864025115967
-1.235088586807251,2.3776450157165527,-0.2933777868747711
-1.2246595621109009,2.3996400833129883,-0.3018588125705719
-1.2179712057113647,2.4282848834991455,-0.31110358238220215
-1.2039794921875,2.4430553913116455,-0.31860071420669556
-1.199265718460083,2.479008436203003,-0.32898950576782227
-1.1779148578643799,2.479762554168701,-0.33462828397750854
-1.1783688068389893,2.5258076190948486,-0.3463250398635864
-1.1795769929885864,2.5755906105041504,-0.35865435004234314
-1.1576805114746094,2.576103925704956,-0.36415863037109375
-1.1844334602355957,2.6862223148345947,-0.3853285312652588
-1.1696529388427734,2.7043845653533936,-0.3935745358467102
-1.3224695920944214,3.118009090423584,-0.4600057601928711
-1.3013825416564941,3.129960775375366,-0.4679506719112396
-1.2876852750778198,3.159592866897583,-0.4785577058792114
-1.2795878648757935,3.203444480895996,-0.49139299988746643
-1.2589635848999023,3.218775510787964,-0.4998681843280792
-1.213596224784851,3.1689038276672363,-0.4979857802391052
-1.1651873588562012,3.1076407432556152,-0.4940422475337982
-1.1232532262802124,3.0603208541870117,-0.4920589327812195
-1.0739792585372925,2.990901231765747,-0.48610472679138184
-1.02789306640625,2.928403377532959,-0.48105567693710327
-0.9819989204406738,2.8616411685943604,-0.47496816515922546
-0.9360188841819763,2.7907185554504395,-0.4679245352745056
-0.8933252692222595,2.7267467975616455,-0.4616391956806183
-0.8609274625778198,2.6917617321014404,-0.460001677274704
-0.8127458691596985,2.6050286293029785,-0.4493892788887024
-0.7809498310089111,2.56558895111084,-0.44662415981292725
-0.7529445290565491,2.536984443664551,-0.44548845291137695
-0.7178230881690979,2.4822778701782227,-0.439497709274292
-0.6845752000808716,2.4309356212615967,-0.43395373225212097
-0.6613163948059082,2.4126672744750977,-0.4342072904109955
-0.6310759782791138,2.368269681930542,-0.4296334385871887
-0.6084798574447632,2.3496479988098145,-0.4293730556964874
-0.5796130299568176,2.3047280311584473,-0.4242343604564667
-0.5561400651931763,2.2781822681427,-0.42236244678497314
-0.5348487496376038,2.2589170932769775,-0.42175915837287903
-0.5092096328735352,2.220874786376953,-0.4173227548599243
-0.48858219385147095,2.201300859451294,-0.4162541627883911
-0.46989914774894714,2.1890594959259033,-0.41654258966445923
-0.4514111578464508,2.176669120788574,-0.416787326335907
-0.4315755069255829,2.156667470932007,-0.4152480959892273
-0.4095998704433441,2.1252520084381104,-0.41145047545433044
-0.3918774127960205,2.112466335296631,-0.4111859202384949
-0.3743855059146881,2.0995371341705322,-0.41087719798088074
-0.3557838201522827,2.0789551734924316,-0.4088360369205475
-0.33933767676353455,2.0696072578430176,-0.4088301360607147
-0.3210117518901825,2.04880428314209,-0.40658271312713623
-0.30440768599510193,2.0354018211364746,-0.405754417181015
-0.28909987211227417,2.0294792652130127,-0.406302273273468
-0.2543562054634094,1.8792331218719482,-0.37758558988571167
-0.24852918088436127,1.9376192092895508,-0.39073872566223145
-0.2437564730644226,2.011197090148926,-0.40706828236579895
-0.22468911111354828,1.9706642627716064,-0.40037062764167786
-0.21011753380298615,1.964296579360962,-0.40016692876815796
-0.19640697538852692,1.9654412269592285,-0.4015088975429535
-0.1805955022573471,1.9436208009719849,-0.3981635272502899
-0.16576696932315826,1.9293071031570435,-0.39635205268859863
-0.1506098359823227,1.9111391305923462,-0.39349088072776794
-0.1375732570886612,1.9157681465148926,-0.39519909024238586
-0.1235039085149765,1.9050350189208984,-0.3937535583972931
-0.11025332659482956,1.9056583642959595,-0.39466968178749084
-0.09622440487146378,1.890939712524414,-0.3922659158706665
-0.08183388411998749,1.8685376644134521,-0.38802966475486755
-0.06969060748815536,1.8918875455856323,-0.393306165933609
-0.05672697350382805,1.8998651504516602,-0.3954143524169922
-0.043144602328538895,1.8848201036453247,-0.3927152454853058
-0.030002020299434662,1.8850511312484741,-0.3928300440311432
-0.016699157655239105,1.892840027809143,-0.394540935754776
-0.0035443000961095095,1.8928864002227783,-0.39465582370758057
0.009712493047118187,1.9157850742340088,-0.39955568313598633
0.023150717839598656,1.9271833896636963,-0.401752233505249
0.036385830491781235,1.919388771057129,-0.3998728096485138
0.050320643931627274,1.9420870542526245,-0.4043632447719574
0.06509077548980713,1.9723217487335205,-0.41043198108673096
0.0788128674030304,1.9719223976135254,-0.4099448323249817
0.09181413799524307,1.9561901092529297,-0.4060669541358948
0.10626234859228134,1.9709268808364868,-0.4085330069065094
0.12299794703722,2.0199248790740967,-0.4181021451950073
0.137814462184906,2.026804208755493,-0.4188741445541382
0.15250594913959503,2.0336618423461914,-0.4193040132522583
0.1691603809595108,2.063297986984253,-0.4244336783885956
0.18216396868228912,2.0470614433288574,-0.4201400876045227
0.1985916644334793,2.0688416957855225,-0.42366722226142883
0.2124549150466919,2.0600838661193848,-0.4205646216869354
0.2292950451374054,2.081711769104004,-0.42363566160202026
0.24512486159801483,2.0917983055114746,-0.42435503005981445
0.2606496810913086,2.0979647636413574,-0.4242863357067108
0.27528735995292664,2.096464157104492,-0.4224558472633362
0.2890990078449249,2.0872795581817627,-0.41889020800590515
0.3069606125354767,2.108365774154663,-0.42143723368644714
0.3349978029727936,2.193715810775757,-0.43675944209098816
0.35514453053474426,2.2220468521118164,-0.4405522644519806
0.3744407594203949,2.242708921432495,-0.4424794614315033
