X,Y,Z
2.5851035118103027,3.606600761413574,-0.03282511234283447
2.60418438911438,3.583209753036499,-0.03100668452680111
2.6405603885650635,3.5856518745422363,-0.029383966699242592
2.580199956893921,3.63873553276062,0.04619941487908363
2.5474002361297607,3.652225971221924,0.04816436395049095
2.5123605728149414,3.6574528217315674,0.049873676151037216
2.4807145595550537,3.669539213180542,0.05164477229118347
2.452702283859253,3.688295602798462,0.05346272885799408
2.4141364097595215,3.6856448650360107,0.05483243614435196
2.3954076766967773,3.716421365737915,0.05668476223945618
2.3673601150512695,3.7343249320983887,0.05833368003368378
2.344991683959961,3.757598638534546,0.059990447014570236
2.305365562438965,3.7545418739318848,0.06118899956345558
2.293264150619507,3.7984678745269775,0.06314811110496521
2.270395517349243,3.8212461471557617,0.06469526886940002
2.251253366470337,3.8506386280059814,0.06634381413459778
2.222015619277954,3.8675591945648193,0.06778479367494583
2.2053415775299072,3.9040048122406006,0.0695321336388588
2.178154230117798,3.9192144870758057,0.07086098939180374
2.1854135990142822,3.999919891357422,0.07337663322687149
2.172461748123169,4.0468854904174805,0.0752880722284317
2.1685562133789062,4.110878944396973,0.07752292603254318
2.159654140472412,4.16399621963501,0.0795363187789917
2.1400632858276367,4.2003912925720215,0.08121153712272644
2.102185010910034,4.201989650726318,0.08220819383859634
2.0791611671447754,4.230819225311279,0.08371109515428543
2.059353828430176,4.266507625579834,0.08535781502723694
2.025247573852539,4.274136066436768,0.08639838546514511
1.9939428567886353,4.288805961608887,0.08756883442401886
1.9632575511932373,4.302916049957275,0.08871228247880936
1.9301061630249023,4.30930757522583,0.08967670798301697
1.9089765548706055,4.344294548034668,0.09121929854154587
1.879935383796692,4.365423202514648,0.09245557337999344
1.8513171672821045,4.3860931396484375,0.09367421269416809
1.8207446336746216,4.398850440979004,0.09469963610172272
1.7944896221160889,4.422251224517822,0.09596065431833267
1.7683035135269165,4.44957971572876,0.09726638346910477
1.7383629083633423,4.469722270965576,0.09843045473098755
1.703818917274475,4.474625587463379,0.09923873841762543
1.6753830909729004,4.49366569519043,0.1003514900803566
1.315854549407959,3.6064319610595703,0.08107922971248627
1.289870262145996,3.615790843963623,0.08179225027561188
1.2659223079681396,3.6325008869171143,0.0826859399676323
1.5728641748428345,4.617211818695068,0.10573067516088486
1.5407145023345947,4.628018856048584,0.10660631209611893
1.5250343084335327,4.690715789794922,0.10865531116724014
1.4996954202651978,4.727546691894531,0.1100727990269661
1.4882724285125732,4.812952041625977,0.11264973878860474
1.447754979133606,4.800806522369385,0.1129327118396759
1.4209108352661133,4.8332295417785645,0.11426601558923721
1.386911392211914,4.843077182769775,0.11503740400075912
1.352285385131836,4.852841377258301,0.11576304584741592
1.3032909631729126,4.809589385986328,0.1152244508266449
1.2669613361358643,4.811193943023682,0.11575956642627716
1.2392511367797852,4.842578411102295,0.11700641363859177
1.2147209644317627,4.889021873474121,0.11860407143831253
1.1799067258834839,4.897525310516357,0.1192270815372467
1.1476960182189941,4.917189598083496,0.1201288253068924
1.1125000715255737,4.925256252288818,0.12075654417276382
1.0865486860275269,4.971012592315674,0.12230579555034637
1.0535426139831543,4.986079692840576,0.12310822308063507
1.0213053226470947,5.008712291717529,0.12402500957250595
0.9857877492904663,5.015810012817383,0.12456445395946503
0.9787186980247498,5.176238536834717,0.12893494963645935
0.9357136487960815,5.1444854736328125,0.1285206377506256
0.8999186158180237,5.150853633880615,0.12906213104724884
1.8609925508499146,11.111307144165039,0.279102623462677
1.7615249156951904,10.993040084838867,0.27675294876098633
1.6565616130828857,10.835536003112793,0.2734231948852539
1.557692527770996,10.688394546508789,0.27033233642578125
1.4629759788513184,10.551957130432129,0.2675040364265442
1.3745607137680054,10.449606895446777,0.26549622416496277
1.280720829963684,10.29625129699707,0.26201391220092773
1.2041152715682983,10.270090103149414,0.26177331805229187
1.1124275922775269,10.11149787902832,0.25816771388053894
1.0320055484771729,10.021869659423828,0.2563134729862213
0.525165855884552,5.473073959350586,0.1402193158864975
0.37900957465171814,4.263038158416748,0.10935724526643753
0.34717315435409546,4.242236614227295,0.10893856734037399
0.3175191879272461,4.252386093139648,0.10932152718305588
0.2889328598976135,4.270074844360352,0.10990169644355774
0.26063039898872375,4.2953643798828125,0.11068379133939743
0.23076573014259338,4.297067642211914,0.11085793375968933
0.2000303864479065,4.282968997955322,0.11054947227239609
0.16833974421024323,4.25306510925293,0.10983896255493164
0.13622517883777618,4.179980278015137,0.10801594704389572
0.10616113245487213,4.141787052154541,0.10709778964519501
0.07736392319202423,4.142422676086426,0.1071881651878357
0.02414040081202984,2.0616681575775146,0.053368013352155685
0.01939973421394825,4.197767734527588,0.10866344720125198
-0.010160735808312893,4.346188068389893,0.11251166462898254
-0.037429530173540115,4.025820732116699,0.10422895848751068
-0.03510294854640961,2.159147262573242,0.055909063667058945
-0.0935991033911705,4.032718658447266,0.10444430261850357
-0.11867320537567139,3.9343929290771484,0.10185547918081284
-0.14166508615016937,3.804684638977051,0.09844467043876648
-0.16877628862857819,3.8192155361175537,0.09877326339483261
-0.185288205742836,3.622962713241577,0.09365731477737427
-0.20523646473884583,3.5319273471832275,0.09126889705657959
-0.22720491886138916,3.491453170776367,0.09018081426620483
-0.25762757658958435,3.571566104888916,0.09214723855257034
-0.2853723466396332,3.608633041381836,0.09300580620765686
-0.30597737431526184,3.5559988021850586,0.09155706316232681
-0.32850322127342224,3.5304617881774902,0.09081190824508667
-0.349168062210083,3.489238977432251,0.08966904878616333
-0.3720617890357971,3.471168041229248,0.08908788859844208
-0.39112091064453125,3.425847053527832,0.08778522908687592
-0.41000980138778687,3.384310722351074,0.08658718317747116
-0.43343979120254517,3.3813953399658203,0.08638216555118561
-0.4532831907272339,3.3512158393859863,0.0854852944612503
-0.4670555591583252,3.2783446311950684,0.08350513875484467
-0.4895412027835846,3.275068998336792,0.08324114233255386
-0.5132357478141785,3.2793514728546143,0.0831708088517189
-0.5313396453857422,3.2487783432006836,0.08222141116857529
-0.5624351501464844,3.295057773590088,0.08321782946586609
-0.5826060175895691,3.275693893432617,0.08255833387374878
-0.6041731238365173,3.2638497352600098,0.08206010609865189
-0.6265113353729248,3.2596442699432373,0.08172348141670227
-0.6503164172172546,3.262951135635376,0.0815788209438324
-0.6696423292160034,3.2430999279022217,0.08085767924785614
-0.6798991560935974,3.181098461151123,0.07909298688173294
-0.6779055595397949,3.0656471252441406,0.07601096481084824
-0.6970281600952148,3.0533547401428223,0.07543841004371643
-0.7267544269561768,3.0865585803985596,0.0759906992316246
-0.7229198217391968,2.9790756702423096,0.07308798283338547
-0.6962643265724182,2.784557580947876,0.06807354837656021
-0.7071629166603088,2.745539665222168,0.06687958538532257
-0.7309513092041016,2.7595160007476807,0.066956527531147
-0.7476555705070496,2.746953248977661,0.06637503951787949
-0.7663004398345947,2.7418200969696045,0.06597727537155151
-0.7852314710617065,2.7364680767059326,0.06557262688875198
-0.9149354100227356,3.1054580211639404,0.07409652322530746
-0.9520480632781982,3.151451349258423,0.07485678046941757
-0.9710338711738586,3.1374902725219727,0.074155792593956
-1.0323481559753418,3.2574374675750732,0.07660920917987823
-1.0595804452896118,3.2651212215423584,0.07640241831541061
-1.0826736688613892,3.2575502395629883,0.07582975924015045
-1.1076680421829224,3.2574005126953125,0.07542427629232407
-1.1270663738250732,3.242486000061035,0.07464255392551422
-1.1489557027816772,3.2348084449768066,0.0740312710404396
-1.181809425354004,3.2562217712402344,0.07407808303833008
-1.2193365097045898,3.288227081298828,0.07435490936040878
-1.2533917427062988,3.3088436126708984,0.0743403434753418
-1.2868398427963257,3.32951283454895,0.07428545504808426
-1.3191887140274048,3.346247911453247,0.0741376206278801
-1.3509445190429688,3.3588407039642334,0.07388056814670563
-2.29789662361145,5.600353717803955,0.12228208035230637
-2.348820924758911,5.613100051879883,0.121599480509758
-2.3710532188415527,5.561342239379883,0.11950020492076874
-2.400432586669922,5.527469635009766,0.1178012490272522
-2.4687016010284424,5.578591346740723,0.11787545680999756
-2.5410478115081787,5.6361308097839355,0.11806376278400421
-2.528841972351074,5.508701801300049,0.11431186646223068
-2.5686256885528564,5.498916149139404,0.1130368709564209
-3.1206204891204834,6.564293384552002,0.13362756371498108
-3.1338930130004883,6.475662708282471,0.13049450516700745
-2.6414408683776855,5.364452838897705,0.1069679781794548
-2.6512672901153564,5.294193744659424,0.10437749326229095
-2.3709757328033447,4.6569504737854,0.09077821671962738
-2.403381586074829,4.640336513519287,0.08936875313520432
-2.435398578643799,4.623641014099121,0.08795161545276642
-2.4474053382873535,4.573072910308838,0.08584661036729813
-2.4625823497772217,4.5294108390808105,0.08389052003622055
-1.1867280006408691,2.1466166973114014,0.039180938154459
-2.5081357955932617,4.46412467956543,0.08028877526521683
-2.529458999633789,4.434126853942871,0.07852263003587723
-2.5466392040252686,4.3972487449646,0.07664497196674347
-2.565234899520874,4.359284400939941,0.0746864527463913
-2.481112003326416,4.15036153793335,0.06982675194740295
-1.260056495666504,2.0771284103393555,0.034296948462724686
-2.0398199558258057,3.3125853538513184,0.05362634360790253
-2.0421531200408936,3.2651901245117188,0.05174822360277176
-2.6223886013031006,4.1322407722473145,0.06404943019151688
-2.6536989212036133,4.121524333953857,0.062403224408626556
-2.1692216396331787,3.3184432983398438,0.048980336636304855
-2.713808536529541,4.091628074645996,0.058804161846637726
-2.7528700828552246,4.093749046325684,0.05721862614154816
-2.767435073852539,4.055603504180908,0.05496205389499664
-2.786057233810425,4.023871421813965,0.05273204296827316
-2.793377637863159,3.9807040691375732,0.05038871616125107
-2.548701763153076,3.5796825885772705,0.04355967417359352
-2.601604461669922,3.604259967803955,0.04203750565648079
-2.7005627155303955,3.691713333129883,0.041119616478681564
-1.9204747676849365,2.587768077850342,0.02732062339782715
-2.818279504776001,3.9726510047912598,-0.053812362253665924
-2.4365012645721436,3.4914162158966064,-0.04938741400837898
-1.3543227910995483,1.9697871208190918,-0.028917482122778893
-2.737722396850586,4.047357559204102,-0.06159992143511772
-2.733755350112915,4.106428623199463,-0.06458602845668793
-2.1738715171813965,3.3153252601623535,-0.05372079834342003
-2.1699414253234863,3.3644423484802246,-0.056093115359544754
-1.2893588542938232,2.0313501358032227,-0.03477601334452629
-1.256223440170288,2.0106570720672607,-0.03529312089085579
-1.251350998878479,2.0366318225860596,-0.03659402206540108
-1.2486129999160767,2.065725803375244,-0.037944260984659195
-2.0011110305786133,3.3632519245147705,-0.06305668503046036
-2.499069929122925,4.271152496337891,-0.0816725566983223
-2.472738027572632,4.2999348640441895,-0.08383533358573914
-2.469722032546997,4.364569664001465,-0.08660060167312622
-1.1927260160446167,2.143211603164673,-0.04325396940112114
-2.383791923522949,4.358671188354492,-0.08942209929227829
-2.3524794578552246,4.375614643096924,-0.09118559211492538
-2.321423053741455,4.392133712768555,-0.09292801469564438
-2.3039939403533936,4.436501979827881,-0.09521512687206268
-2.278501033782959,4.467155456542969,-0.09721270203590393
-2.239837169647217,4.469162940979004,-0.09854526817798615
-2.215590476989746,4.498617649078369,-0.10046639293432236
-2.19256329536438,4.535889625549316,-0.10255838185548782
-2.149395227432251,4.530546188354492,-0.10366307944059372
-2.1240296363830566,4.559697151184082,-0.1055188998579979
-2.088979721069336,4.567238807678223,-0.1068682000041008
-2.0672595500946045,4.6070556640625,-0.10892568528652191
-2.0133776664733887,4.575409412384033,-0.10927852243185043
-1.989630937576294,4.611281394958496,-0.11123792082071304
-1.9514442682266235,4.610579490661621,-0.11228310316801071
-1.6028633117675781,3.863194465637207,-0.09494367986917496
-1.57200026512146,3.867398500442505,-0.09588737040758133
-1.5471813678741455,3.8857743740081787,-0.0971800833940506
-1.528161644935608,3.918426513671875,-0.09883177280426025
-1.504905343055725,3.9399333000183105,-0.10018952935934067
-1.4847378730773926,3.972574472427368,-0.10178351402282715
-1.4588476419448853,3.9904448986053467,-0.10300907492637634
-1.4386863708496094,4.022624492645264,-0.10459743440151215
-1.4101481437683105,4.032690525054932,-0.10562712699174881
-1.384070873260498,4.049943447113037,-0.1067957952618599
-1.357489824295044,4.067140102386475,-0.10794205963611603
-1.3308353424072266,4.084129333496094,-0.1090884581208229
-1.308345079421997,4.11185884475708,-0.11051280796527863
-0.9689716100692749,3.1215062141418457,-0.08442563563585281
-0.9399904012680054,3.1058664321899414,-0.08446904271841049
-0.8350135684013367,2.831555128097534,-0.07743028551340103
-0.7902058959007263,2.751042366027832,-0.0756368488073349
-0.7657623887062073,2.7376623153686523,-0.07567188888788223
-0.7405214905738831,2.720308303833008,-0.07559178024530411
-0.7267911434173584,2.7482357025146484,-0.07673293352127075
-0.7101197838783264,2.7646729946136475,-0.07755552977323532
-0.688745379447937,2.7620131969451904,-0.07784277200698853
-1.4593544006347656,6.030619144439697,-0.17074885964393616
-1.4378703832626343,6.128032684326172,-0.17429415881633759
-1.431742787361145,6.305745601654053,-0.1800396591424942
-1.3887543678283691,6.323319911956787,-0.18122930824756622
-1.3442490100860596,6.332902908325195,-0.18219539523124695
-1.2937989234924316,6.311490535736084,-0.18226923048496246
-1.243666410446167,6.289693832397461,-0.1823248565196991
-1.191712498664856,6.263951301574707,-0.18215706944465637
-1.137525200843811,6.218430042266846,-0.18140436708927155
-1.0822933912277222,6.160872936248779,-0.1802949458360672
-0.9590475559234619,5.690773010253906,-0.16706393659114838
-0.932593822479248,5.778219699859619,-0.1701723337173462
-0.9353210926055908,6.070281505584717,-0.1792134940624237
-0.6860486268997192,4.670515537261963,-0.13822141289710999
-0.6554697751998901,4.690661430358887,-0.139157235622406
-0.6366661787033081,4.7996039390563965,-0.14274071156978607
-0.5882036089897156,4.683801651000977,-0.13964539766311646
-0.40928924083709717,3.4547786712646484,-0.10320224612951279
-0.3876210153102875,3.4847700595855713,-0.10428619384765625
-0.36316704750061035,3.4873952865600586,-0.1045544221997261
-0.3441714644432068,3.5442376136779785,-0.10645470023155212
-0.32615363597869873,3.62042498588562,-0.10894838720560074
-0.3050742447376251,3.6731908321380615,-0.110704205930233
-0.27565452456474304,3.6324384212493896,-0.10960403084754944
-0.24136343598365784,3.505730628967285,-0.1059073731303215
-0.21835388243198395,3.530705451965332,-0.10679390281438828
-0.19831544160842896,3.614001989364624,-0.10945319384336472
-0.18249256908893585,3.8102893829345703,-0.11552932858467102
-0.1575275957584381,3.86220121383667,-0.11715865880250931
-0.13055747747421265,3.863204002380371,-0.11724931001663208
-0.10627041012048721,3.9615931510925293,-0.12030283361673355
-0.07891018688678741,3.9700400829315186,-0.12063249945640564
-0.05200604721903801,4.025147438049316,-0.12238714843988419
-0.023666242137551308,4.044936656951904,-0.12299055606126785
0.004546168725937605,4.107474327087402,-0.12488877028226852
0.033305805176496506,4.134674072265625,-0.12571851909160614
0.08235242962837219,5.485128402709961,-0.16679200530052185
0.09224671125411987,4.196265697479248,-0.12761537730693817
0.1560858190059662,5.393688201904297,-0.1639830321073532
0.1954605132341385,5.427572250366211,-0.16490964591503143
0.22896364331245422,5.328566551208496,-0.16180941462516785
0.20891979336738586,4.184269428253174,-0.1269949972629547
0.24396567046642303,4.287970542907715,-0.13008075952529907
0.2711849510669708,4.24721622467041,-0.1287650465965271
0.30050113797187805,4.237421035766602,-0.12830552458763123
0.32853972911834717,4.2196807861328125,-0.12761548161506653
0.35976481437683105,4.240651607513428,-0.1281014084815979
0.47141170501708984,5.13231897354126,-0.15486396849155426
0.507843017578125,5.136697769165039,-0.15483053028583527
0.47935691475868225,4.5234174728393555,-0.13609986007213593
0.5145416259765625,4.55492639541626,-0.1368008553981781
0.5534398555755615,4.6133012771606445,-0.13831008970737457
0.5948593616485596,4.682945251464844,-0.1401551365852356
0.6699678897857666,4.99603796005249,-0.14927321672439575
0.7050695419311523,4.9912190437316895,-0.14879994094371796
0.7394174337387085,4.986261367797852,-0.1482895165681839
0.7706887125968933,4.961783409118652,-0.14720740914344788
0.8000943064689636,4.925498008728027,-0.14578236639499664
0.832994818687439,4.912135601043701,-0.14504507184028625
0.8642602562904358,4.89088773727417,-0.14404016733169556
0.8948163986206055,4.865559101104736,-0.14285030961036682
0.9252299666404724,4.843985080718994,-0.14178799092769623
0.9556924104690552,4.8221635818481445,-0.14072398841381073
0.9844979643821716,4.792469024658203,-0.13943812251091003
1.014410138130188,4.770278453826904,-0.1383567601442337
1.0442841053009033,4.747858047485352,-0.13717642426490784
1.075864315032959,4.736818790435791,-0.1363435685634613
1.1067012548446655,4.72170877456665,-0.135397270321846
1.1340019702911377,4.691148281097412,-0.1340131312608719
1.1627123355865479,4.668041229248047,-0.13284100592136383
1.195053219795227,4.659891128540039,-0.13199026882648468
1.220798373222351,4.629010200500488,-0.1305156797170639
1.2485004663467407,4.6054582595825195,-0.12925341725349426
1.2752856016159058,4.5778727531433105,-0.1278810352087021
1.3070918321609497,4.568916320800781,-0.12702839076519012
1.3365031480789185,4.5522871017456055,-0.12587513029575348
1.36070716381073,4.520674705505371,-0.12432976812124252
1.3894517421722412,4.5037760734558105,-0.1231926754117012
1.4136618375778198,4.4716949462890625,-0.12164323031902313
1.4445667266845703,4.4618330001831055,-0.12068913877010345
1.4703645706176758,4.436973571777344,-0.11924353241920471
1.4966322183609009,4.415842533111572,-0.11792109906673431
1.5193523168563843,4.38331413269043,-0.11629272997379303
1.274549126625061,3.596039295196533,-0.09477804601192474
1.2939335107803345,3.572523832321167,-0.09351196885108948
1.3342901468276978,3.607677936553955,-0.09374210983514786
1.619834542274475,4.288907051086426,-0.11060931533575058
1.6551414728164673,4.292181015014648,-0.1098533421754837
1.6878482103347778,4.287848472595215,-0.10889983177185059
1.6980010271072388,4.22921085357666,-0.10652662068605423
1.7397208213806152,4.2502522468566895,-0.10614775121212006
1.7660466432571411,4.230949401855469,-0.10473571717739105
1.7954105138778687,4.218603134155273,-0.10349729657173157
1.8135885000228882,4.181069850921631,-0.10163716226816177
1.8415417671203613,4.168864727020264,-0.10034800320863724
1.8694126605987549,4.156472206115723,-0.0990588441491127
1.8953073024749756,4.136170387268066,-0.09753899276256561
1.9173985719680786,4.1087751388549805,-0.0958729237318039
1.941565990447998,4.088797569274902,-0.09433090686798096
1.9687618017196655,4.075804233551025,-0.09294489771127701
1.9965100288391113,4.062315940856934,-0.09152612835168839
2.021742820739746,4.041118144989014,-0.08989686518907547
2.041910171508789,4.0134782791137695,-0.08812359720468521
2.0685200691223145,3.999861001968384,-0.08664941042661667
2.0919482707977295,3.978867769241333,-0.08499720692634583
2.1232550144195557,3.971142292022705,-0.08360099792480469
2.146183490753174,3.9499425888061523,-0.08190665394067764
2.1669819355010986,3.925225257873535,-0.08011306822299957
2.1782689094543457,3.88321852684021,-0.07796904444694519
2.212970733642578,3.8815741539001465,-0.07661030441522598
2.242568016052246,3.8736109733581543,-0.07508398592472076
2.256026268005371,3.838663339614868,-0.0730329304933548
2.286813497543335,3.8295369148254395,-0.07138887047767639
2.31300950050354,3.8138039112091064,-0.06962655484676361
2.333620071411133,3.79209041595459,-0.06773680448532104
2.3629038333892822,3.783158540725708,-0.06604266166687012
2.384965658187866,3.7600743770599365,-0.06403322517871857
2.4057843685150146,3.737534284591675,-0.06198638677597046
2.4384937286376953,3.7349801063537598,-0.060287006199359894
2.4557461738586426,3.704962730407715,-0.05802781879901886
2.475743055343628,3.6822521686553955,-0.05588424578309059
2.5080113410949707,3.679304599761963,-0.05403141304850578
2.520639181137085,3.642232656478882,-0.051488928496837616
2.5487327575683594,3.6322076320648193,-0.049356430768966675
2.5721263885498047,3.6157097816467285,-0.04708251357078552
2.58799409866333,3.5851480960845947,-0.0444755032658577
2.6241366863250732,3.587885856628418,-0.04226766899228096
2.196716070175171,2.961589813232422,-0.0328802652657032
2.569916248321533,3.597893714904785,0.060598280280828476
2.538398504257202,3.610607385635376,0.06321074813604355
2.506864309310913,3.6230309009552,0.06571968644857407
2.4814000129699707,3.6404736042022705,0.06815794855356216
2.466503143310547,3.6787843704223633,0.07099609076976776
2.439845085144043,3.696472644805908,0.07333329319953918
2.4172556400299072,3.7205564975738525,0.0757569745182991
2.397327184677124,3.7519350051879883,0.07827948778867722
2.370333671569824,3.7690019607543945,0.08041038364171982
2.364363670349121,3.818718671798706,0.08319852501153946
2.3702123165130615,3.892991304397583,0.08653737604618073
2.379382371902466,3.974088191986084,0.0900685265660286
2.351592779159546,3.9905498027801514,0.09206458181142807
2.3418126106262207,4.041452407836914,0.09482994675636292
2.3077330589294434,4.051975727081299,0.09665010869503021
2.275463581085205,4.061189651489258,0.0983438566327095
2.253971815109253,4.0909552574157715,0.10054907947778702
2.225564956665039,4.110875129699707,0.1024518683552742
2.202719211578369,4.1408185958862305,0.10460522025823593
2.173823595046997,4.156017303466797,0.10632668435573578
2.144399642944336,4.171231269836426,0.1080363541841507
2.1201751232147217,4.201056480407715,0.1101064532995224
2.0929336547851562,4.223369121551514,0.11196019500494003
2.0600457191467285,4.230780124664307,0.11336720734834671
2.040350914001465,4.266258239746094,0.11552656441926956
2.0024726390838623,4.266876697540283,0.11669836938381195
1.9777601957321167,4.295546531677246,0.11864364147186279
1.9471712112426758,4.309456825256348,0.12015936523675919
1.9202508926391602,4.330022811889648,0.12184636294841766
1.8826661109924316,4.3294291496276855,0.1228737086057663
1.857230305671692,4.357344150543213,0.12470769882202148
1.8518015146255493,4.431647777557373,0.12786924839019775
1.8322701454162598,4.473493576049805,0.13011585175991058
1.8196110725402832,4.533363342285156,0.13285748660564423
1.8096665143966675,4.604498386383057,0.1358949840068817
1.7735514640808105,4.610123157501221,0.1370166391134262
1.7330653667449951,4.600430011749268,0.13765183091163635
1.3317514657974243,3.6123578548431396,0.10882329195737839
1.3047014474868774,3.6180360317230225,0.10967466235160828
1.276065468788147,3.619926929473877,0.11038906872272491
1.6150118112564087,4.688491344451904,0.14382785558700562
1.5822888612747192,4.699599266052246,0.14500200748443604
1.5818891525268555,4.810801029205322,0.14930324256420135
1.5475218296051025,4.8219313621521,0.15042252838611603
1.5291715860366821,4.885056972503662,0.15315382182598114
1.485052227973938,4.865965843200684,0.1533159613609314
1.4445081949234009,4.853684902191162,0.1536703109741211
1.4129085540771484,4.87107515335083,0.1549692153930664
1.3756232261657715,4.873589515686035,0.15574218332767487
1.3470218181610107,4.905838966369629,0.15743550658226013
1.2827887535095215,4.805895805358887,0.1548827737569809
1.2532316446304321,4.829794883728027,0.15629993379116058
1.2252678871154785,4.861096382141113,0.15797021985054016
1.1959673166275024,4.892477989196777,0.15959769487380981
1.1620246171951294,4.904636383056641,0.16054195165634155
1.1322883367538452,4.935596466064453,0.1621135175228119
1.1011285781860352,4.958613395690918,0.16342619061470032
1.0715285539627075,4.989029407501221,0.16499197483062744
1.0344462394714355,4.98884916305542,0.16553381085395813
1.0036708116531372,5.019000053405762,0.16698430478572845
0.9666122794151306,5.018294334411621,0.16741794347763062
2.1399049758911133,11.547037124633789,0.38628923892974854
2.0253586769104004,11.369400024414062,0.38139429688453674
1.914520502090454,11.20638656616211,0.3769945800304413
1.8028439283370972,11.01918888092041,0.37151530385017395
1.7159167528152466,10.973750114440918,0.3707687556743622
1.6084147691726685,10.784765243530273,0.3651719093322754
1.5146807432174683,10.664236068725586,0.361874520778656
1.418346643447876,10.519882202148438,0.3577783405780792
1.3275521993637085,10.393953323364258,0.3541991412639618
1.2446764707565308,10.321600914001465,0.3522506654262543
1.1566214561462402,10.194305419921875,0.3484341502189636
1.0736064910888672,10.093433380126953,0.34552285075187683
1.0003687143325806,10.069541931152344,0.3452516496181488
0.3953705132007599,4.287887096405029,0.1472616195678711
0.3637026846408844,4.271090984344482,0.14684800803661346
0.3313150107860565,4.242391109466553,0.1459999978542328
0.30215635895729065,4.252387523651123,0.1464899182319641
0.27524614334106445,4.297238826751709,0.14818884432315826
0.2432582527399063,4.271788597106934,0.14747372269630432
0.21607480943202972,4.324057579040527,0.14943671226501465
0.18202121555805206,4.2357497215271,0.14644747972488403
0.15089595317840576,4.19399881362915,0.1450730264186859
0.12353018671274185,4.261284828186035,0.14747782051563263
0.048897333443164825,2.232501745223999,0.07730904966592789
0.03127339854836464,2.0922608375549316,0.07249750941991806
0.016657453030347824,2.0846188068389893,0.07225719839334488
0.003957005683332682,3.8375372886657715,0.13300742208957672
-0.02629050984978676,4.434759140014648,0.1537032574415207
-0.052704937756061554,4.051912307739258,0.14043785631656647
-0.08117347210645676,4.067060470581055,0.14097334444522858
-0.11027517914772034,4.097618579864502,0.14204993844032288
-0.14019420742988586,4.139674663543701,0.14344757795333862
-0.24704992771148682,6.053834915161133,0.20965179800987244
-0.2826845049858093,5.919400691986084,0.2048836499452591
-0.19455192983150482,3.5472376346588135,0.1227150410413742
-0.21921101212501526,3.545802593231201,0.1226096898317337
-0.24331814050674438,3.536407709121704,0.12223151326179504
-0.4588358700275421,6.057173252105713,0.20911671221256256
-0.506096363067627,6.1200151443481445,0.2110520601272583
-0.5774415135383606,6.431266784667969,0.2215452641248703
-0.34491607546806335,3.563277244567871,0.12262257933616638
-0.3720930814743042,3.584099531173706,0.12321845442056656
-0.3844735622406006,3.468914270401001,0.11911330372095108
-0.40515610575675964,3.439054012298584,0.11789310723543167
-0.42055457830429077,3.366407871246338,0.1152137964963913
-0.4412726163864136,3.344076156616211,0.11426962167024612
-0.8623119592666626,6.202394485473633,0.21161502599716187
-0.4809061884880066,3.291287422180176,0.1121254414319992
-0.49466580152511597,3.2300283908843994,0.10980668663978577
-0.522729218006134,3.2612082958221436,0.1106085553765297
-0.5405619740486145,3.230607271194458,0.10932387411594391
-0.5589174032211304,3.203719139099121,0.10817109793424606
-0.5783827900886536,3.1844043731689453,0.10728145390748978
-0.5960936546325684,3.157313585281372,0.10612458735704422
-0.6124243140220642,3.1263577938079834,0.10478825122117996
-0.6341514587402344,3.122037887573242,0.1043473407626152
-0.6491550207138062,3.0870578289031982,0.10289308428764343
-0.6689190864562988,3.074859380722046,0.10220348089933395
-0.6970798373222351,3.1006338596343994,0.10277926176786423
-0.7147649526596069,3.0805914402008057,0.10178066045045853
-0.7287853956222534,3.045215129852295,0.10025421530008316
-0.6924857497215271,2.808964490890503,0.0921551063656807
-0.7023163437843323,2.7662746906280518,0.09043573588132858
-0.7185999751091003,2.750000238418579,0.08958830684423447
-0.737591028213501,2.744983673095703,0.08909192681312561
-0.7524080872535706,2.724778652191162,0.08805593103170395
-0.7847388386726379,2.768455982208252,0.08909096568822861
-0.8310131430625916,2.8567397594451904,0.09154166281223297
-0.9278519749641418,3.109079122543335,0.0992019847035408
-0.9539666175842285,3.1175224781036377,0.09904332458972931
-0.9823434948921204,3.1332802772521973,0.09903534501791
-1.0118411779403687,3.152618408203125,0.09914517402648926
-1.0430309772491455,3.1753549575805664,0.09935364127159119
-1.0725675821304321,3.190249443054199,0.09930194914340973
-1.106171727180481,3.2159616947174072,0.09958284348249435
-1.1382267475128174,3.2379114627838135,0.09968092292547226
-1.1709848642349243,3.259445905685425,0.09974304586648941
-1.1931066513061523,3.251439094543457,0.09890636056661606
-1.4993752241134644,3.999939441680908,0.12093289941549301
-1.5299614667892456,3.9967358112335205,0.12009543925523758
-1.5596176385879517,3.993675470352173,0.11918701231479645
-1.5810556411743164,3.968463182449341,0.11760348081588745
-2.270855665206909,5.589210510253906,0.16447001695632935
-2.326219081878662,5.612968921661377,0.1639707386493683
-2.3620753288269043,5.589546203613281,0.16207915544509888
-2.3886308670043945,5.548553943634033,0.15958261489868164
-2.4231958389282227,5.5250701904296875,0.15758293867111206
-2.4976346492767334,5.590388774871826,0.158096045255661
-2.529942512512207,5.5587382316589355,0.15583927929401398
-2.5545215606689453,5.513127326965332,0.1531616449356079
-2.5877161026000977,5.489043712615967,0.15104852616786957
-2.6029086112976074,5.425658226013184,0.14784355461597443
-2.6200473308563232,5.365355014801025,0.14471445977687836
-2.6502463817596436,5.333117961883545,0.142361581325531
-2.3578908443450928,4.6672234535217285,0.1231999546289444
-2.392277479171753,4.658520698547363,0.12158115208148956
-2.4241714477539062,4.64205265045166,0.1197117492556572
-2.4478201866149902,4.6075758934021,0.1173424944281578
-2.467191457748413,4.570671558380127,0.11490332335233688
-1.16032075881958,2.116269588470459,0.05249932408332825
-1.1861162185668945,2.12880802154541,0.05207410082221031
-2.5558083057403564,4.512888431549072,0.1087891012430191
-2.5491232872009277,4.4313154220581055,0.10516171157360077
-2.570155620574951,4.401117324829102,0.1028018444776535
-2.580225706100464,4.3499226570129395,0.09990065544843674
-1.2618129253387451,2.0940747261047363,0.04725244641304016
-2.0372395515441895,3.332115888595581,0.07379880547523499
-2.0427751541137695,3.292048454284668,0.07149618119001389
-2.0947577953338623,3.3240694999694824,0.07068181037902832
-2.6451172828674316,4.135890483856201,0.0860227718949318
-2.1530048847198486,3.31935453414917,0.06746607273817062
-2.723112106323242,4.136590957641602,0.08198796957731247
-2.7365541458129883,4.094918251037598,0.07897978276014328
-2.753758430480957,4.064558982849121,0.07622209191322327
-2.7853100299835205,4.052534580230713,0.07370003312826157
-2.7860069274902344,3.9950947761535645,0.07027634233236313
-2.6036553382873535,3.684110164642334,0.0625726655125618
-2.6470694541931152,3.6916067600250244,0.06023665517568588
-2.7148749828338623,3.73422908782959,0.05837177112698555
-1.9065511226654053,2.5882019996643066,0.03863154724240303
-2.91115665435791,4.074151515960693,-0.06815493851900101
-2.4550325870513916,3.4877853393554688,-0.061016689985990524
-2.768329381942749,3.9978158473968506,-0.07297874987125397
-2.75331449508667,4.0365118980407715,-0.07646907866001129
-2.7451796531677246,4.089117050170898,-0.08021491020917892
-2.1699142456054688,3.2849576473236084,-0.06658075004816055
-2.169973611831665,3.3362393379211426,-0.06966850906610489
-2.6248929500579834,4.102405071258545,-0.08811302483081818
-2.6196393966674805,4.161187648773193,-0.09177093207836151
-2.629737377166748,4.242314338684082,-0.09585438668727875
-1.2686995267868042,2.0807430744171143,-0.048120882362127304
-2.0000836849212646,3.3362250328063965,-0.07892723381519318
-1.996643304824829,3.383664131164551,-0.0817081555724144
-2.5622076988220215,4.41464376449585,-0.1087321788072586
-2.558452606201172,4.4843268394470215,-0.11258133500814438
-1.2002815008163452,2.138728380203247,-0.05465847998857498
-2.502063035964966,4.533755779266357,-0.1179017648100853
-2.4462649822235107,4.510802268981934,-0.11923260986804962
-2.417011260986328,4.535333633422852,-0.12178958207368851
-2.3998873233795166,4.579656600952148,-0.12481319159269333
-2.367280960083008,4.596533298492432,-0.1270829439163208
-2.3435630798339844,4.634877681732178,-0.12996071577072144
-2.324181318283081,4.679471492767334,-0.13297139108181
-2.3035552501678467,4.720033168792725,-0.13584226369857788
-2.276627779006958,4.750344753265381,-0.13839547336101532
-2.25203800201416,4.787893295288086,-0.14113850891590118
-2.224276065826416,4.818000316619873,-0.14365680515766144
-2.198127031326294,4.8513665199279785,-0.1462753713130951
-2.1763265132904053,4.895329475402832,-0.14917133748531342
-2.1470603942871094,4.925217628479004,-0.1516125649213791
-2.108567714691162,4.933266639709473,-0.15337882936000824
-2.0862510204315186,4.976573467254639,-0.15620890259742737
-1.5892424583435059,3.8680412769317627,-0.12256776541471481
-1.5584049224853516,3.8721060752868652,-0.1237700954079628
-1.5361812114715576,3.8977224826812744,-0.12566977739334106
-1.5173734426498413,3.9301602840423584,-0.12777148187160492
-1.4913760423660278,3.944227695465088,-0.12928545475006104
-1.4735769033432007,3.984187126159668,-0.131619393825531
-1.4449490308761597,3.994614362716675,-0.13295859098434448
-1.4217790365219116,4.019445419311523,-0.13477632403373718
-1.3963326215744019,4.036574840545654,-0.13632872700691223
-1.370509386062622,4.053615570068359,-0.13786724209785461
-1.3458912372589111,4.078261375427246,-0.1396152824163437
-1.316676378250122,4.087745189666748,-0.14084020256996155
-0.9753730297088623,3.1024158000946045,-0.10756264626979828
-0.95829838514328,3.1240391731262207,-0.10898739099502563
-0.9340031743049622,3.123209238052368,-0.10959222912788391
-0.7981576323509216,2.739945650100708,-0.09667009115219116
-0.7761229276657104,2.7381277084350586,-0.09714427590370178
-0.7539330720901489,2.732147216796875,-0.09744994342327118
-0.7369486689567566,2.744837522506714,-0.09842489659786224
-0.717543363571167,2.749950647354126,-0.09907924383878708
-0.702813446521759,2.773869514465332,-0.10039778798818588
-1.2743240594863892,5.186154842376709,-0.1885824203491211
-1.2527097463607788,5.2556071281433105,-0.19196917116641998
-1.2222360372543335,5.2907843589782715,-0.19412869215011597
-1.1950727701187134,5.3449578285217285,-0.19689005613327026
-1.1605277061462402,5.368502140045166,-0.19851289689540863
-1.135455846786499,5.441630840301514,-0.20200315117835999
-1.102179765701294,5.472322463989258,-0.20391559600830078
-1.0863896608352661,5.594783306121826,-0.20927712321281433
-1.151644229888916,6.162487983703613,-0.2312495857477188
-1.0881272554397583,6.0590009689331055,-0.22806072235107422
-1.010199785232544,5.866570472717285,-0.22151075303554535
-0.9401232600212097,5.696255207061768,-0.21574175357818604
-0.9418742656707764,5.964812755584717,-0.22661550343036652
-0.9145057797431946,6.067745685577393,-0.23111559450626373
-0.6693636775016785,4.663689136505127,-0.1780529022216797
-0.6570093035697937,4.8230509757995605,-0.18458420038223267
-0.6150314807891846,4.761658191680908,-0.1826702207326889
-0.5720024704933167,4.684425354003906,-0.1801443248987198
-0.536664605140686,4.665011882781982,-0.17976270616054535
-0.5064859390258789,4.691924571990967,-0.18110954761505127
-0.4728653132915497,4.687568187713623,-0.181258887052536
-0.5477555394172668,5.845025539398193,-0.22642771899700165
-0.503302812576294,5.805902481079102,-0.22532479465007782
-0.4621358811855316,5.801474094390869,-0.22551091015338898
-0.25556862354278564,3.5193262100219727,-0.13694418966770172
-0.22936490178108215,3.497653007507324,-0.13625001907348633
-0.20543594658374786,3.5147714614868164,-0.13707546889781952
-0.294964462518692,5.730240345001221,-0.2237422913312912
-0.2541150450706482,5.708741188049316,-0.22316065430641174
-0.2131260186433792,5.679164409637451,-0.22210101783275604
-0.17315781116485596,5.668801784515381,-0.22180287539958954
-0.13134607672691345,5.599640846252441,-0.21921516954898834
-0.09186703711748123,5.565287113189697,-0.21799622476100922
-0.021322092041373253,2.2325592041015625,-0.08750570565462112
-0.005749368574470282,2.209233522415161,-0.08659011870622635
0.009859161451458931,2.2638659477233887,-0.08871959894895554
0.04778990149497986,4.180112838745117,-0.16380219161510468
0.07665082067251205,4.171875953674316,-0.16347363591194153
0.13765257596969604,5.4354939460754395,-0.21299082040786743
0.17420104146003723,5.399302005767822,-0.21149854362010956
0.21134503185749054,5.390170574188232,-0.2109963446855545
0.2462109923362732,5.3339948654174805,-0.20866431295871735
0.28197652101516724,5.297052383422852,-0.20709490776062012
0.25660571455955505,4.2624735832214355,-0.16655634343624115
0.28408193588256836,4.2294416427612305,-0.16514959931373596
0.31331557035446167,4.227388381958008,-0.16484855115413666
0.3425343334674835,4.225133419036865,-0.16454750299453735
0.37304139137268066,4.230397701263428,-0.164542555809021
0.4898216128349304,5.144747257232666,-0.19986383616924286
0.5149415135383606,5.036379337310791,-0.19542567431926727
0.49635836482048035,4.543802261352539,-0.1759667545557022
0.5336294770240784,4.590683937072754,-0.1774369478225708
0.572162389755249,4.637193202972412,-0.17888754606246948
0.6180198788642883,4.73762845993042,-0.18242032825946808
0.6897643208503723,5.015529632568359,-0.19276773929595947
0.7210096716880798,4.987495422363281,-0.19122998416423798
0.7523552775382996,4.9631500244140625,-0.18980741500854492
0.7834550142288208,4.934649467468262,-0.1882297694683075
0.8138390779495239,4.906016826629639,-0.18666566908359528
0.8439076542854309,4.87719202041626,-0.18510709702968597
0.8775261044502258,4.871284008026123,-0.18434391915798187
0.907274603843689,4.846007823944092,-0.18279120326042175
0.9375056028366089,4.824375629425049,-0.1813880354166031
0.9715505838394165,4.817666530609131,-0.18053920567035675
1.000245213508606,4.787897109985352,-0.1788468062877655
1.0283541679382324,4.758011817932129,-0.1771029829978943
1.0592080354690552,4.743274688720703,-0.17585289478302002
1.0890315771102905,4.7245354652404785,-0.17446540296077728
1.116883635520935,4.693991661071777,-0.17263531684875488
1.147589921951294,4.6785759925842285,-0.17138497531414032
1.1760430335998535,4.655438423156738,-0.16981229186058044
1.205780029296875,4.639798641204834,-0.16844028234481812
1.2313677072525024,4.608872890472412,-0.16652533411979675
1.261669397354126,4.59261417388916,-0.16512975096702576
1.2925493717193604,4.580003261566162,-0.16388320922851562
1.3219149112701416,4.563526153564453,-0.16246408224105835
1.3462938070297241,4.53200626373291,-0.1604536473751068
1.3725416660308838,4.507847785949707,-0.15871967375278473
1.4019417762756348,4.490655422210693,-0.15721163153648376
1.4283761978149414,4.465967178344727,-0.15546512603759766
1.4614547491073608,4.4635138511657715,-0.15443672239780426
1.4842497110366821,4.431334495544434,-0.15233516693115234
1.5079405307769775,4.402745246887207,-0.15037313103675842
1.5359363555908203,4.384830474853516,-0.1487637460231781
1.2864594459533691,3.591007947921753,-0.12100239843130112
1.3162128925323486,3.596883535385132,-0.12031465768814087
1.6124341487884521,4.315769195556641,-0.14327365159988403
1.6334402561187744,4.282847881317139,-0.14109495282173157
1.6660490036010742,4.278698444366455,-0.1398504227399826
1.699048399925232,4.274156093597412,-0.13856369256973267
1.7249101400375366,4.255410671234131,-0.13676291704177856
1.7505637407302856,4.236523628234863,-0.13496923446655273
1.775141954421997,4.213626384735107,-0.13303342461585999
1.8013195991516113,4.194055080413818,-0.13120199739933014
1.8333885669708252,4.188714504241943,-0.12974685430526733
1.8518458604812622,4.155001640319824,-0.12741857767105103
1.8831799030303955,4.149523735046387,-0.1259506493806839
1.9021856784820557,4.115101337432861,-0.12357912212610245
1.9271305799484253,4.0949015617370605,-0.12162399291992188
1.9548953771591187,4.081773281097412,-0.11980937421321869
1.982164740562439,4.068652629852295,-0.11802136152982712
2.006916046142578,4.047839164733887,-0.11596440523862839
2.0348167419433594,4.033938884735107,-0.11410387605428696
2.0543997287750244,4.0065083503723145,-0.1118101179599762
2.0755136013031006,3.9824583530426025,-0.10962483286857605
2.1054093837738037,3.97121000289917,-0.10770175606012344
2.130911350250244,3.953202486038208,-0.10561763495206833
2.153200626373291,3.932257652282715,-0.10341775417327881
2.13934063911438,3.846289873123169,-0.0995388850569725
2.158371686935425,3.8177616596221924,-0.09710529446601868
2.188704013824463,3.8095176219940186,-0.09514787048101425
2.2175800800323486,3.8018786907196045,-0.0931977927684784
2.2430458068847656,3.7869629859924316,-0.09102940559387207
2.26125168800354,3.7579538822174072,-0.08846919983625412
2.2901976108551025,3.7495920658111572,-0.08637833595275879
2.298544406890869,3.70782208442688,-0.08349062502384186
2.324066400527954,3.6919314861297607,-0.08112525939941406
2.37217378616333,3.7123453617095947,-0.07951337099075317
2.389712333679199,3.687175989151001,-0.07689515501260757
2.4060025215148926,3.6579337120056152,-0.07410942763090134
2.4509658813476562,3.6703572273254395,-0.07205083221197128
2.4678633213043213,3.644926071166992,-0.06925804913043976
2.479011058807373,3.6090087890625,-0.06617767363786697
2.5279488563537598,3.6274447441101074,-0.0640001967549324
2.535020112991333,3.5891339778900146,-0.06080269068479538
2.571199655532837,3.5874106884002686,-0.05798399820923805
2.603721857070923,3.583256959915161,-0.05508648604154587
2.6312592029571533,3.57283878326416,-0.05199356749653816
2.5612010955810547,3.613332509994507,0.07879380136728287
2.5196080207824707,3.613851547241211,0.0818127989768982
2.503004550933838,3.6442675590515137,0.08521582931280136
2.4972128868103027,3.695394992828369,0.08913847804069519
2.497466564178467,3.7562713623046875,0.09323855489492416
2.5161800384521484,3.842108964920044,0.09784315526485443
2.5085830688476562,3.893538236618042,0.10160667449235916
2.483649730682373,3.9186642169952393,0.10466790944337845
2.45578670501709,3.9361116886138916,0.10741626471281052
2.4348926544189453,3.9673359394073486,0.11048214882612228
2.408994197845459,3.992163896560669,0.11337015777826309
2.373046636581421,3.9954075813293457,0.11549212783575058
2.3524622917175293,4.025591850280762,0.11837165057659149
2.317949056625366,4.036484718322754,0.12068845331668854
2.2925004959106445,4.059891700744629,0.12329423427581787
2.2698605060577393,4.085927963256836,0.12592114508152008
2.2401554584503174,4.102218151092529,0.1282123625278473
2.217085123062134,4.132394313812256,0.13092875480651855
2.1944193840026855,4.162068843841553,0.13360609114170074
2.1618027687072754,4.170238971710205,0.1355372816324234
2.142037868499756,4.206663608551025,0.13832849264144897
2.107558250427246,4.215245246887207,0.14019526541233063
2.0775742530822754,4.230037212371826,0.14221909642219543
2.054365634918213,4.2586350440979,0.1447145789861679
2.0237081050872803,4.273221969604492,0.1466662734746933
2.002283811569214,4.309081554412842,0.149338036775589
1.9681257009506226,4.316143035888672,0.15099525451660156
1.992266297340393,4.450832843780518,0.15712127089500427
1.9702228307724,4.486164569854736,0.15975752472877502
1.9369533061981201,4.500563144683838,0.16160842776298523
1.895061731338501,4.492884635925293,0.16264551877975464
1.8561890125274658,4.487904071807861,0.16372433304786682
1.84102201461792,4.540457248687744,0.16691318154335022
1.8141518831253052,4.568005084991455,0.16911879181861877
1.8016554117202759,4.635767936706543,0.17283381521701813
1.7712061405181885,4.6557793617248535,0.17475908994674683
1.7155804634094238,4.605748653411865,0.17401836812496185
1.318403720855713,3.6162734031677246,0.13752557337284088
1.290998101234436,3.6219587326049805,0.13855040073394775
1.2618513107299805,3.6239047050476074,0.13945075869560242
1.6146219968795776,4.745078086853027,0.183645099401474
1.5667693614959717,4.711696624755859,0.18338119983673096
1.5459213256835938,4.759581565856934,0.1862710416316986
1.4999401569366455,4.733287334442139,0.1861451417207718
1.4769057035446167,4.781341552734375,0.18896789848804474
1.4520429372787476,4.821520805358887,0.1914743185043335
1.4261987209320068,4.857659816741943,0.1938239485025406
1.3987810611724854,4.889937877655029,0.19603542983531952
1.365909457206726,4.907278060913086,0.19752000272274017
1.3094512224197388,4.837728023529053,0.19550462067127228
1.2685476541519165,4.824354648590088,0.19576217234134674
1.2407475709915161,4.855709075927734,0.1978156566619873
1.2126176357269287,4.88689661026001,0.19987821578979492
1.1788864135742188,4.899115562438965,0.20106135308742523
1.1493149995803833,4.930145740509033,0.20299965143203735
1.1153168678283691,4.945908546447754,0.20433546602725983
1.085840106010437,4.9763946533203125,0.2062678337097168
1.052770733833313,4.9914326667785645,0.2075740098953247
1.0208662748336792,5.013950347900391,0.20913682878017426
0.9837749004364014,5.013369083404541,0.2096627801656723
2.1832315921783447,11.567025184631348,0.48505470156669617
2.0790293216705322,11.45525074005127,0.481652170419693
1.9671062231063843,11.28480339050293,0.4757603704929352
1.8615180253982544,11.13646125793457,0.4707842767238617
1.7581099271774292,10.995123863220215,0.4657224118709564
1.6584300994873047,10.8723783493042,0.4614516794681549
1.558044672012329,10.72154426574707,0.45596998929977417
1.4700947999954224,10.635409355163574,0.4532259404659271
1.3737766742706299,10.475053787231445,0.4473173916339874
1.2856760025024414,10.364277839660645,0.4433898329734802
1.1937350034713745,10.210213661193848,0.4374232590198517
1.1117664575576782,10.13697624206543,0.4349370002746582
1.0308061838150024,10.047412872314453,0.4317466914653778
0.9609300494194031,10.05429458618164,0.4327108561992645
0.38039177656173706,4.295623302459717,0.18516705930233002
0.34431779384613037,4.2242608070373535,0.18227045238018036
0.3159051239490509,4.249949932098389,0.18353654444217682
0.28822121024131775,4.283198356628418,0.18513736128807068
0.2619031071662903,4.34352445602417,0.1879202276468277
0.11490768939256668,2.1550779342651367,0.09332959353923798
0.19873680174350739,4.288249492645264,0.18588915467262268
0.16735386848449707,4.26615047454834,0.18498869240283966
0.1394449770450592,4.325718879699707,0.18763819336891174
0.056954625993967056,2.254971981048584,0.09785407036542892
0.040703024715185165,2.224095344543457,0.09655756503343582
0.023643817752599716,2.083838701248169,0.09051342308521271
0.01857498101890087,4.359129428863525,0.1893933117389679
-0.011752038262784481,4.35915470123291,0.18936128914356232
-0.038688115775585175,4.007753372192383,0.1740744560956955
