X,Y,Z
-0.32506632804870605,4.256518363952637,0.0726424977183342
-0.35776054859161377,4.2930908203125,0.07319080829620361
-0.38596948981285095,4.267119884490967,0.07267460227012634
-0.41068950295448303,4.213801860809326,0.07169860601425171
-0.43496131896972656,4.164247512817383,0.07077085971832275
-0.4571588635444641,4.10292911529541,0.06961449980735779
-0.481747031211853,4.068655490875244,0.06892278790473938
-0.5059350728988647,4.030296325683594,0.0681648775935173
-0.5278022885322571,3.980219841003418,0.06721526384353638
-0.5495378971099854,3.9339046478271484,0.06633468717336655
-0.5720312595367432,3.899122953414917,0.06560780107975006
-0.5917026996612549,3.8487770557403564,0.06461957842111588
-0.611793577671051,3.802129030227661,0.06369731575250626
-0.6316612958908081,3.7592830657958984,0.06284605711698532
-0.6530563235282898,3.7278757095336914,0.06219099834561348
-0.6717343330383301,3.6848649978637695,0.06132933497428894
-0.6926009654998779,3.657155752182007,0.060707129538059235
-0.713085949420929,3.6293411254882812,0.06008824706077576
-0.7283641695976257,3.5745065212249756,0.059024274349212646
-0.746713399887085,3.538794755935669,0.05828385055065155
-0.7637167572975159,3.499197006225586,0.05747855082154274
-0.7806714177131653,3.463435411453247,0.056693241000175476
-0.7989441156387329,3.4352149963378906,0.056037042289972305
-0.8200665712356567,3.4181900024414062,0.05556420609354973
-0.8401151895523071,3.397230863571167,0.05503110960125923
-0.8540971875190735,3.353457450866699,0.054134346544742584
-0.8710522055625916,3.324878454208374,0.053458321839571
-0.8896438479423523,3.3037803173065186,0.052901849150657654
-0.9073259830474854,3.278714418411255,0.052282921969890594
-0.9193360209465027,3.2347865104675293,0.051369719207286835
-0.9395601153373718,3.220838785171509,0.05093778297305107
-0.9570063352584839,3.199399948120117,0.050359226763248444
-0.9682788252830505,3.1592636108398438,0.04947828873991966
-0.9806293845176697,3.1227219104766846,0.048656195402145386
-0.999832808971405,3.1084272861480713,0.04818447306752205
-1.023853063583374,3.1088294982910156,0.047941964119672775
-1.0238643884658813,3.0388450622558594,0.04659983515739441
-1.0520144701004028,3.054018259048462,0.04655759781599045
-1.0622578859329224,3.017369270324707,0.045728132128715515
-1.070211410522461,2.9730842113494873,0.04478040710091591
-1.0881109237670898,2.958263635635376,0.044286392629146576
-1.1067646741867065,2.9471700191497803,0.04382599890232086
-1.1181268692016602,2.9178004264831543,0.04308968409895897
-1.1263245344161987,2.8811278343200684,0.042252324521541595
-1.1307789087295532,2.833179235458374,0.0412428081035614
-1.141636610031128,2.803539752960205,0.04051375761628151
-1.1544557809829712,2.7813832759857178,0.039869215339422226
-1.1730750799179077,2.773587942123413,0.03943362832069397
-1.1470495462417603,2.6615424156188965,0.03752579912543297
-1.1595587730407715,2.639066219329834,0.0368836373090744
-1.183974266052246,2.6453359127044678,0.036641839891672134
-1.2112830877304077,2.658724546432495,0.03648252412676811
-1.2076246738433838,2.6045286655426025,0.03540026769042015
-1.2405962944030762,2.6279191970825195,0.035363685339689255
-1.265904426574707,2.6331748962402344,0.03507043048739433
-1.2764784097671509,2.6106913089752197,0.034391067922115326
-1.2972217798233032,2.609180212020874,0.033989861607551575
-1.297316312789917,2.565443992614746,0.03303402289748192
-1.2883400917053223,2.504258155822754,0.031859390437603
-1.3014476299285889,2.4886655807495117,0.031257182359695435
-1.3144572973251343,2.4729816913604736,0.03064362332224846
-1.3218293190002441,2.446880578994751,0.02990434132516384
-1.3350443840026855,2.430793046951294,0.029280373826622963
-1.3435916900634766,2.408210039138794,0.028576862066984177
-1.3728152513504028,2.4231534004211426,0.028315464034676552
-1.3602169752120972,2.3628828525543213,0.02715984918177128
-1.3924096822738647,2.380336284637451,0.026897931471467018
-1.4119422435760498,2.377899169921875,0.026381604373455048
-1.4072390794754028,2.3352034091949463,0.025422735139727592
-1.4192203283309937,2.318793773651123,0.024731380864977837
-1.431086540222168,2.302302360534668,0.024026110768318176
-1.4355608224868774,2.2764649391174316,0.02323300391435623
-1.4506902694702148,2.266860246658325,0.022595908492803574
-1.4684706926345825,2.2600488662719727,0.021965473890304565
-1.480690598487854,2.247391939163208,0.021253686398267746
-1.473802089691162,2.2050907611846924,0.020250270143151283
-1.4935379028320312,2.2012252807617188,0.01957389898598194
-1.4943370819091797,2.1723012924194336,0.018679145723581314
-1.503969430923462,2.1561317443847656,0.01788785494863987
-1.5097191333770752,2.133002281188965,0.017002850770950317
-1.4981728792190552,2.088475465774536,0.015940489247441292
-1.5074337720870972,2.0721542835235596,0.015073766931891441
-1.5070708990097046,2.0433740615844727,0.014086824841797352
-1.527397871017456,2.139573812484741,-0.02070501260459423
-1.5075186491012573,2.144073724746704,-0.02162042446434498
-1.4760162830352783,2.1327016353607178,-0.022338343784213066
-1.4886045455932617,2.1856439113616943,-0.023719120770692825
-1.4819458723068237,2.208994150161743,-0.024743370711803436
-1.478025197982788,2.2397429943084717,-0.025866754353046417
-1.4614737033843994,2.250567674636841,-0.026745066046714783
-1.449629306793213,2.2674827575683594,-0.027654467150568962
-1.4346044063568115,2.281623601913452,-0.02852637507021427
-1.426382303237915,2.3051564693450928,-0.029491156339645386
-1.4181767702102661,2.328516960144043,-0.030440449714660645
-1.4084701538085938,2.352619171142578,-0.0314139798283577
-1.399315357208252,2.3762154579162598,-0.032359372824430466
-1.3866621255874634,2.3926444053649902,-0.03318921849131584
-1.3690170049667358,2.4027740955352783,-0.03392326831817627
-1.3435838222503662,2.399186372756958,-0.03446122258901596
-1.3378666639328003,2.4291584491729736,-0.03545980900526047
-1.3261135816574097,2.448918104171753,-0.03629915788769722
-1.311768889427185,2.4654736518859863,-0.03708290308713913
-1.3012043237686157,2.488699197769165,-0.037963587790727615
-1.291011929512024,2.5115716457366943,-0.03882785141468048
-1.2954564094543457,2.566281795501709,-0.04020116105675697
-1.2905256748199463,2.603675603866577,-0.041308172047138214
-1.2753794193267822,2.6198084354400635,-0.042072951793670654
-1.243680477142334,2.60040020942688,-0.042252495884895325
-1.2200156450271606,2.598637819290161,-0.042691268026828766
-1.2387148141860962,2.6890039443969727,-0.04465153068304062
-1.1822168827056885,2.61603045463562,-0.04390084743499756
-1.1813374757766724,2.663487195968628,-0.045149289071559906
-1.1809132099151611,2.7148547172546387,-0.046468336135149
-1.1458567380905151,2.6874167919158936,-0.04643528535962105
-1.16116464138031,2.7784526348114014,-0.04845461621880531
-1.1474425792694092,2.801027536392212,-0.04929045960307121
-1.158290982246399,2.8851263523101807,-0.051203351467847824
-1.1375257968902588,2.8933663368225098,-0.05175962299108505
-1.1026958227157593,2.8649978637695312,-0.05165805295109749
-1.1074156761169434,2.9384191036224365,-0.05338805913925171
-1.0959851741790771,2.971848249435425,-0.05441276729106903
-1.079955816268921,2.994313955307007,-0.05520959571003914
-1.060986042022705,3.00936222076416,-0.05587339401245117
-1.0523062944412231,3.053738594055176,-0.057085372507572174
-1.034827709197998,3.0720627307891846,-0.05781029164791107
-1.020236849784851,3.1016077995300293,-0.05874649062752724
-0.9980944395065308,3.108794927597046,-0.05922962725162506
-0.9805709719657898,3.1307318210601807,-0.059998463839292526
-0.9654110670089722,3.1599414348602295,-0.06090846285223961
-0.9556520581245422,3.2077505588531494,-0.06218402832746506
-0.9351384043693542,3.2219161987304688,-0.06279410421848297
-0.9223419427871704,3.266195297241211,-0.0639876276254654
-0.9011015892028809,3.2802116870880127,-0.06459024548530579
-0.8832136988639832,3.305281162261963,-0.0654095932841301
-0.8660873770713806,3.334017753601074,-0.06630758941173553
-0.8520818948745728,3.3779096603393555,-0.06747926771640778
-0.8294901847839355,3.391561508178711,-0.06804512441158295
-0.810796856880188,3.4201579093933105,-0.06891155242919922
-0.793066680431366,3.4523606300354004,-0.06985282152891159
-0.7707180976867676,3.4654123783111572,-0.0704125240445137
-0.7577691078186035,3.5242056846618652,-0.07186587154865265
-0.7394799590110779,3.563986301422119,-0.07293184101581573
-0.7234370708465576,3.615077495574951,-0.07423393428325653
-0.7034339904785156,3.6468610763549805,-0.07514414936304092
-0.6823431253433228,3.674694776535034,-0.0759798139333725
-0.6619802117347717,3.7101521492004395,-0.07694122195243835
-0.6412574052810669,3.7494473457336426,-0.07797636836767197
-0.62111496925354,3.792410373687744,-0.0790921002626419
-0.5995017290115356,3.827507734298706,-0.08004917949438095
-0.580421507358551,3.8817834854125977,-0.08141513913869858
-0.5587664246559143,3.924405574798584,-0.08250993490219116
-0.5364636182785034,3.97086501121521,-0.0836673155426979
-0.5135066509246826,4.013268947601318,-0.08474410325288773
-0.4887595474720001,4.043890476226807,-0.08557809144258499
-0.4641258120536804,4.078232288360596,-0.08649717271327972
-0.44268372654914856,4.147385120391846,-0.08813982456922531
-0.4189755618572235,4.204792499542236,-0.08949778974056244
-0.39285480976104736,4.250453472137451,-0.09061603993177414
-0.36312076449394226,4.253091812133789,-0.09081986546516418
-0.33177295327186584,4.232143878936768,-0.0905224084854126
-0.3051307499408722,4.273298263549805,-0.09155122935771942
-0.3254677355289459,5.054779052734375,-0.10839137434959412
-0.289773166179657,5.060859680175781,-0.10862655937671661
-0.2523130476474762,5.01984977722168,-0.10785359144210815
-0.2163296937942505,4.998071670532227,-0.10749749094247818
-0.18094539642333984,4.9838433265686035,-0.10730808228254318
-0.1464352309703827,4.992789268493652,-0.10754813253879547
-0.11062118411064148,4.978084564208984,-0.10726574808359146
-0.07568199932575226,4.967020034790039,-0.10706628113985062
-0.04107311740517616,4.959614276885986,-0.1069505587220192
-0.006560531444847584,4.944157600402832,-0.10666617006063461
0.027732960879802704,4.928462028503418,-0.10634265840053558
0.062352873384952545,4.9125237464904785,-0.10597749799489975
0.09605008363723755,4.88854455947876,-0.1054445207118988
0.12972842156887054,4.876047134399414,-0.10516440868377686
0.16306151449680328,4.859416961669922,-0.1048002764582634
0.1961987316608429,4.84255838394165,-0.10442224144935608
0.22865410149097443,4.817678451538086,-0.10380224138498306
0.2617759704589844,4.800350666046143,-0.10334929078817368
0.29408931732177734,4.782831192016602,-0.10289908200502396
0.327327698469162,4.780673980712891,-0.10278438776731491
0.35853731632232666,4.751021862030029,-0.10208381712436676
0.3920367956161499,4.756216526031494,-0.1020704135298729
0.42620915174484253,4.761122226715088,-0.10204039514064789
0.20706741511821747,2.1457929611206055,-0.04593085125088692
0.22034414112567902,2.128767728805542,-0.04551105201244354
0.23128792643547058,2.0922493934631348,-0.044677842408418655
0.2507675588130951,2.133267879486084,-0.045478131622076035
0.2695958614349365,2.162461280822754,-0.04600399360060692
0.279388964176178,2.121835708618164,-0.04504876956343651
0.2903212904930115,2.0927743911743164,-0.04434353485703468
0.3003575801849365,2.0597918033599854,-0.04355942830443382
0.7018570899963379,4.59017276763916,-0.09686453640460968
0.7327421307563782,4.577441215515137,-0.09634028375148773
0.7571125626564026,4.52993106842041,-0.09509598463773727
0.789700984954834,4.532299995422363,-0.09490422159433365
0.8184207677841187,4.511333465576172,-0.0942269042134285
0.7136356234550476,3.7840511798858643,-0.07883479446172714
0.736569881439209,3.763744354248047,-0.07815806567668915
0.7659063935279846,3.7738332748413086,-0.07811201363801956
0.9299666285514832,4.425868034362793,-0.09131608158349991
0.9599006772041321,4.41548490524292,-0.09081070125102997
0.9914476275444031,4.412520408630371,-0.09046230465173721
1.0251487493515015,4.420860767364502,-0.09027685970067978
1.0513458251953125,4.3946380615234375,-0.08937975019216537
1.0795354843139648,4.379765033721924,-0.0887257531285286
1.1119108200073242,4.379726886749268,-0.08837073296308517
1.1384137868881226,4.356778621673584,-0.0875583067536354
1.1641077995300293,4.333820819854736,-0.08668757230043411
1.1941102743148804,4.325662136077881,-0.0861034169793129
1.223649024963379,4.317410945892334,-0.0855271965265274
1.251465082168579,4.301307201385498,-0.08479302376508713
1.2813507318496704,4.292510986328125,-0.08420771360397339
1.3059544563293457,4.268767356872559,-0.08328165113925934
1.3354474306106567,4.259645462036133,-0.08263342827558517
1.3596751689910889,4.23558235168457,-0.0817076563835144
1.3866748809814453,4.2186102867126465,-0.08091545850038528
1.4159419536590576,4.208889961242676,-0.08026290684938431
1.4469125270843506,4.206618309020996,-0.07969819754362106
1.4727699756622314,4.189370155334473,-0.07885274291038513
1.495278239250183,4.16065788269043,-0.07778416574001312
1.5214643478393555,4.14284610748291,-0.07692702114582062
1.549960970878601,4.132282733917236,-0.07619161903858185
1.574971318244934,4.114466667175293,-0.07529359310865402
1.6083693504333496,4.118316650390625,-0.07479383051395416
1.6415172815322876,4.117847919464111,-0.0741935670375824
1.6701278686523438,4.106341361999512,-0.07340047508478165
1.6964399814605713,4.091327667236328,-0.07251042127609253
1.720839500427246,4.072661399841309,-0.07154645025730133
1.9876965284347534,4.617010593414307,-0.08038704097270966
2.040715217590332,4.649344444274902,-0.08018769323825836
2.072640895843506,4.635217666625977,-0.0791807696223259
2.0987181663513184,4.6106157302856445,-0.07795997709035873
2.131126642227173,4.600048065185547,-0.07698123157024384
2.166128158569336,4.592326641082764,-0.07602632790803909
2.195131301879883,4.569887638092041,-0.07481133192777634
2.2254762649536133,4.55520486831665,-0.07369645684957504
2.2557058334350586,4.540329456329346,-0.07258113473653793
2.2866597175598145,4.524837493896484,-0.07143525034189224
2.3216474056243896,4.51578950881958,-0.07037647813558578
2.358921527862549,4.514085292816162,-0.06938239187002182
1.753472089767456,3.3011484146118164,-0.05000976473093033
1.755534291267395,3.251319646835327,-0.048524145036935806
1.7668238878250122,3.218502998352051,-0.047293663024902344
1.7443037033081055,3.128307342529297,-0.0452294647693634
1.768700122833252,3.12357234954834,-0.04441855847835541
1.8567136526107788,3.226260185241699,-0.04506082087755203
1.3347035646438599,2.282790422439575,-0.031300365924835205
0.9528936743736267,1.6055891513824463,-0.02159149758517742
0.9654813408851624,1.6026201248168945,-0.021122664213180542
0.9765828847885132,1.5958865880966187,-0.020581847056746483
0.9873390197753906,1.589261531829834,-0.02002747356891632
0.997626006603241,1.5828312635421753,-0.019480504095554352
1.0084208250045776,1.5759828090667725,-0.018904104828834534
1.0169293880462646,1.5658574104309082,-0.018279673531651497
1.0183912515640259,1.5462391376495361,-0.01754620112478733
1.0376348495483398,1.5522279739379883,-0.01707158051431179
1.0503228902816772,1.5484000444412231,-0.016473285853862762
1.0645886659622192,1.5481237173080444,-0.015903787687420845
2.5544650554656982,3.6617250442504883,-0.03619040921330452
2.5922322273254395,3.6638495922088623,-0.03472205623984337
2.629223346710205,3.6662909984588623,-0.0332072377204895
2.6613731384277344,3.657538652420044,-0.03145359456539154
2.6843714714050293,3.6407086849212646,-0.02960558980703354
2.599043369293213,3.6684670448303223,0.0467001236975193
2.5707991123199463,3.688288927078247,0.04873323440551758
1.0674571990966797,1.555567741394043,0.021257203072309494
1.0559959411621094,1.5633599758148193,0.022040750831365585
1.0396990776062012,1.5648638010025024,0.022717876359820366
1.02861750125885,1.5721596479415894,0.023428475484251976
1.0213353633880615,1.5861886739730835,0.024231646209955215
1.0051195621490479,1.5872637033462524,0.02483629435300827
0.9937565922737122,1.59439218044281,0.025501498952507973
0.9781401753425598,1.5948526859283447,0.02603844925761223
0.9661675691604614,1.6021236181259155,0.026680205017328262
0.9587111473083496,1.6156765222549438,0.027404803782701492
1.366827130317688,2.3407976627349854,0.04040277376770973
1.8350571393966675,3.1979787349700928,0.056141652166843414
1.7712572813034058,3.1398909091949463,0.056015342473983765
1.7455545663833618,3.1453020572662354,0.056957878172397614
1.7695481777191162,3.2435295581817627,0.05958777666091919
1.7510695457458496,3.2668228149414062,0.06085624173283577
2.3805856704711914,4.520092964172363,0.08534625917673111
2.345489740371704,4.529582500457764,0.08661452680826187
2.3089990615844727,4.539503574371338,0.08785971999168396
2.2756433486938477,4.556289196014404,0.08923298865556717
2.243189811706543,4.572328090667725,0.0905643180012703
2.214146375656128,4.595108985900879,0.09203115850687027
2.1775412559509277,4.603903293609619,0.09315523505210876
2.1438798904418945,4.619648456573486,0.09441006183624268
2.107570171356201,4.627719402313232,0.09549214690923691
2.0849194526672363,4.663623809814453,0.09713075309991837
2.045374631881714,4.664024829864502,0.09800509363412857
1.9846857786178589,4.61796760559082,0.09788159281015396
1.713219165802002,4.06709623336792,0.08693385124206543
1.6878522634506226,4.08612060546875,0.08804522454738617
1.6665327548980713,4.1159162521362305,0.08939190208911896
1.636704683303833,4.127848148345947,0.09031371772289276
1.609106183052063,4.147043704986572,0.09141173958778381
1.5797373056411743,4.158299446105957,0.09231419861316681
1.5534578561782837,4.176502704620361,0.09336668252944946
1.521173119544983,4.180039882659912,0.09405609965324402
1.4910203218460083,4.190871715545654,0.09487821161746979
1.467983365058899,4.22379207611084,0.09621808677911758
1.4359397888183594,4.226526737213135,0.0968497097492218
1.4138816595077515,4.258634567260742,0.0981590524315834
1.3835558891296387,4.268566131591797,0.09892107546329498
1.3506170511245728,4.2708940505981445,0.09949543327093124
1.3194555044174194,4.280605792999268,0.10025566816329956
1.2918614149093628,4.297153472900391,0.10115820914506912
1.268493890762329,4.328514575958252,0.1024179756641388
1.2377198934555054,4.337399005889893,0.10308968275785446
1.2067006826400757,4.3461151123046875,0.10374897718429565
1.175620198249817,4.354609489440918,0.10440826416015625
1.1477274894714355,4.374141216278076,0.10533463209867477
1.1173137426376343,4.381993293762207,0.105977363884449
1.0919249057769775,4.412516117095947,0.10711664706468582
1.0568737983703613,4.404966354370117,0.10731755197048187
1.030826449394226,4.435179233551025,0.10844460129737854
1.0027294158935547,4.457613945007324,0.10938980430364609
0.9683789610862732,4.449203968048096,0.10957522690296173
0.9370906949043274,4.455885887145996,0.11009329557418823
0.7703717350959778,3.796485424041748,0.09407659620046616
0.738957941532135,3.7788426876068115,0.09391739219427109
0.7257096171379089,3.856923818588257,0.09614762663841248
0.8226085305213928,4.5458664894104,0.11366003006696701
0.7934897541999817,4.566883087158203,0.11450616270303726
0.7611991167068481,4.572366237640381,0.1148996353149414
0.7288272380828857,4.577628135681152,0.11529363691806793
0.7007188200950623,4.613605976104736,0.11647211015224457
0.6685823798179626,4.618362903594971,0.11686238646507263
0.6412509083747864,4.657706260681152,0.11813519150018692
0.6105049252510071,4.6775803565979,0.11884567141532898
0.5765913128852844,4.674005508422852,0.11895449459552765
0.5436599254608154,4.677942276000977,0.11926007270812988
0.5122151970863342,4.697194576263428,0.11996389925479889
0.48111337423324585,4.716175556182861,0.12066429853439331
0.44897156953811646,4.727182388305664,0.12113025039434433
0.4179065227508545,4.75354528427124,0.12194113433361053
0.3858647346496582,4.771918773651123,0.12255419790744781
0.3527892827987671,4.786219120025635,0.12307176738977432
0.31949296593666077,4.7885518074035645,0.123284712433815
0.2880440950393677,4.821836471557617,0.12430154532194138
0.25476208329200745,4.831526756286621,0.12463366985321045
0.2220507264137268,4.856591701507568,0.12535713613033295
0.18808315694332123,4.873654365539551,0.1258823722600937
0.15452125668525696,4.886551380157471,0.12630482017993927
0.12074024975299835,4.8953118324279785,0.12662670016288757
0.08696690946817398,4.911648273468018,0.1271199733018875
0.05297286435961723,4.935563087463379,0.12774883210659027
0.01814691163599491,4.967052936553955,0.12858042120933533
-0.016460664570331573,4.974868297576904,0.12880529463291168
-0.051216285675764084,4.98634672164917,0.12913136184215546
-0.08593066036701202,4.98586893081665,0.12915411591529846
-0.12112253904342651,5.008575439453125,0.129705548286438
-0.15618392825126648,5.015421390533447,0.12982472777366638
-0.19282709062099457,5.045410633087158,0.13054805994033813
-0.22789976000785828,5.043950080871582,0.13046453893184662
-0.2639783024787903,5.06174373626709,0.13088518381118774
-0.3013894855976105,5.098775386810303,0.13179132342338562
-0.2844047546386719,4.305591106414795,0.11117228120565414
-0.31183359026908875,4.264543056488037,0.10999976098537445
-0.3407025933265686,4.25450325012207,0.10963544994592667
-0.37299975752830505,4.283156871795654,0.11027239263057709
-0.3983951210975647,4.233808994293213,0.1089068055152893
-0.42337265610694885,4.188218116760254,0.10759817808866501
-0.4464796185493469,4.126912593841553,0.10586005449295044
-0.4713670015335083,4.092705726623535,0.10482849180698395
-0.4930400252342224,4.035086154937744,0.10320499539375305
-0.5175568461418152,4.004459857940674,0.10227921605110168
-0.5410856008529663,3.9698281288146973,0.1012527197599411
-0.5616168975830078,3.915705919265747,0.09965560585260391
-0.5826847553253174,3.8731489181518555,0.09836625307798386
-0.6025512218475342,3.826636791229248,0.09698563069105148
-0.6240326762199402,3.7915432453155518,0.09590036422014236
-0.6410906314849854,3.7332448959350586,0.09423711895942688
-0.6647527813911438,3.717212200164795,0.09361157566308975
-0.683488130569458,3.6741085052490234,0.09228194504976273
-0.7026952505111694,3.6386797428131104,0.09115822613239288
-0.7224185466766357,3.606949806213379,0.09013326466083527
-0.7411115169525146,3.5712640285491943,0.08901586383581161
-0.7535250186920166,3.508784532546997,0.08722705394029617
-0.7727745771408081,3.4806087017059326,0.0862327590584755
-0.7947474718093872,3.4676551818847656,0.08562727272510529
-0.8112841844558716,3.4317398071289062,0.08446073532104492
-0.8286654353141785,3.3994648456573486,0.08338800817728043
-0.8447168469429016,3.3633193969726562,0.0822286531329155
-0.8641773462295532,3.3422513008117676,0.08139180392026901
-0.8789141178131104,3.3061015605926514,0.0801934227347374
-0.8983438014984131,3.288742780685425,0.0794585794210434
-0.9126548171043396,3.2523751258850098,0.07826722413301468
-0.9330503940582275,3.238466501235962,0.0776229128241539
-0.9488658905029297,3.209453821182251,0.07657261192798615
-0.9648945331573486,3.184286117553711,0.07560422271490097
-0.9771528840065002,3.147860527038574,0.07437758892774582
-0.9941327571868896,3.1261637210845947,0.0735001489520073
-1.0061582326889038,3.0894858837127686,0.07227691262960434
-1.0251880884170532,3.0750041007995605,0.07154884934425354
-1.0370973348617554,3.0421528816223145,0.07038853317499161
-1.0576313734054565,3.035088062286377,0.06983093172311783
-1.0706664323806763,3.005664587020874,0.06875716149806976
-1.0861446857452393,2.9835000038146973,0.06785514950752258
-1.098266839981079,2.9540858268737793,0.06676197052001953
-1.118391513824463,2.946539878845215,0.06613870710134506
-1.1085330247879028,2.8624987602233887,0.06382010132074356
-1.1225723028182983,2.840245246887207,0.06288262456655502
-1.140831708908081,2.828763246536255,0.06218740716576576
-1.1539829969406128,2.8065545558929443,0.06122911721467972
-1.1549842357635498,2.7554092407226562,0.059634920209646225
-1.1412795782089233,2.6721673011779785,0.057375889271497726
-1.1457891464233398,2.631958484649658,0.05604711174964905
-1.1845009326934814,2.6704177856445312,0.05638875439763069
-1.2022584676742554,2.6624844074249268,0.05571313574910164
-1.2072139978408813,2.625906467437744,0.05443744361400604
-1.2218201160430908,2.610534191131592,0.05360626429319382
-1.2433083057403564,2.6090385913848877,0.053053438663482666
-1.2540292739868164,2.586566209793091,0.052057430148124695
-1.2849793434143066,2.6062278747558594,0.05189972743391991
-1.2922619581222534,2.576449394226074,0.05074156075716019
-1.2835339307785034,2.5152242183685303,0.04897259548306465
-1.2933982610702515,2.492593288421631,0.04795913025736809
-1.302533745765686,2.4701974391937256,0.04694082960486412
-1.3152035474777222,2.4546310901641846,0.04605623334646225
-1.3303959369659424,2.44199800491333,0.045202065259218216
-1.3397136926651,2.41907000541687,0.04413757473230362
-1.3479130268096924,2.3966171741485596,0.0430777370929718
-1.359887957572937,2.3808658123016357,0.042140018194913864
-1.3881630897521973,2.391641855239868,0.04163777083158493
-1.3962360620498657,2.36883544921875,0.04054024815559387
-1.4038689136505127,2.34614634513855,0.03943344205617905
-1.4114736318588257,2.3233327865600586,0.03832470253109932
-1.4234669208526611,2.306844711303711,0.03730351850390434
-1.4300813674926758,2.2843527793884277,0.03617338836193085
-1.4447828531265259,2.275097608566284,0.03525776043534279
-1.4544990062713623,2.2549822330474854,0.034103792160749435
-1.4694373607635498,2.245291233062744,0.03311821445822716
-1.4751670360565186,2.2228176593780518,0.03194499760866165
-1.4597710371017456,2.167346477508545,0.03026711940765381
-1.500623106956482,2.196287155151367,0.029747873544692993
-1.510299563407898,2.180161952972412,0.02858133241534233
-1.5161950588226318,2.157010555267334,0.02727421186864376
-1.4962018728256226,2.0993945598602295,0.025527074933052063
-1.509443759918213,2.0899078845977783,0.024367420002818108
-1.5100146532058716,2.0605242252349854,0.022883329540491104
-1.518017053604126,2.0449280738830566,0.02156859077513218
-1.4903438091278076,2.103518486022949,-0.028510861098766327
-1.5089384317398071,2.1620495319366455,-0.03053346462547779
-1.4878870248794556,2.1671011447906494,-0.03183043375611305
-1.4940592050552368,2.2101387977600098,-0.033630095422267914
-1.4777321815490723,2.221068859100342,-0.03491126745939255
-1.4695278406143188,2.2451813220977783,-0.03639422729611397
-1.458058476448059,2.2619268894195557,-0.03768874332308769
-1.4370025396347046,2.266097068786621,-0.038769882172346115
-1.4260480403900146,2.286807060241699,-0.040138497948646545
-1.414186954498291,2.3033125400543213,-0.04136313125491142
-1.4093563556671143,2.3336715698242188,-0.0428338497877121
-1.3959311246871948,2.3507957458496094,-0.04407147318124771
-1.3874359130859375,2.373913049697876,-0.04537041112780571
-1.381729006767273,2.404285192489624,-0.04682820290327072
-1.3524030447006226,2.3940036296844482,-0.04747237265110016
-1.3391098976135254,2.410384178161621,-0.04861271381378174
-1.326060175895691,2.426473379135132,-0.04973370209336281
-1.315595269203186,2.449889659881592,-0.05100161209702492
-1.3063830137252808,2.4768927097320557,-0.05236984044313431
-1.3142715692520142,2.534450054168701,-0.054353296756744385
-1.3087151050567627,2.568025588989258,-0.05583750829100609
-1.29689359664917,2.5914759635925293,-0.05709575116634369
-1.2625707387924194,2.5692427158355713,-0.057339102029800415
-1.2799389362335205,2.6519861221313477,-0.05992502719163895
-1.2309250831604004,2.5974838733673096,-0.059388723224401474
-1.211972713470459,2.60636043548584,-0.060267943888902664
-1.2060775756835938,2.643453598022461,-0.06180468201637268
-1.1876232624053955,2.65177583694458,-0.06265515834093094
-1.1547188758850098,2.627901792526245,-0.06272698193788528
-1.1724110841751099,2.7223968505859375,-0.0656261071562767
-1.170890212059021,2.773969888687134,-0.06751378625631332
-1.1545820236206055,2.7892322540283203,-0.06850641965866089
-1.1468368768692017,2.826150417327881,-0.07003810256719589
-1.1279277801513672,2.8379335403442383,-0.0709141343832016
-1.1156067848205566,2.8679354190826416,-0.07226531952619553
-1.1093312501907349,2.9121763706207275,-0.07396641373634338
-1.0972615480422974,2.941746473312378,-0.07530365139245987
-1.083054780960083,2.967780590057373,-0.07653220742940903
-1.069667935371399,2.997502088546753,-0.07785303890705109
-1.0555921792984009,3.0272929668426514,-0.07919611781835556
-1.0458104610443115,3.067821741104126,-0.08081141114234924
-1.0292941331863403,3.089851140975952,-0.08194354176521301
-1.0119860172271729,3.1119742393493652,-0.083034448325634
-0.9873273372650146,3.1116738319396973,-0.08353250473737717
-0.9741899371147156,3.1485087871551514,-0.08503719419240952
-0.9623904228210449,3.188844680786133,-0.08663538843393326
-0.9487650990486145,3.225482940673828,-0.08812253922224045
-0.9257431626319885,3.232147693634033,-0.08876977860927582
-0.9110618233680725,3.26874041557312,-0.09024783968925476
-0.8953331112861633,3.3013956546783447,-0.09162074327468872
-0.877912700176239,3.3302876949310303,-0.09290655702352524
-0.858323335647583,3.351499080657959,-0.0939294621348381
-0.8401912450790405,3.380221128463745,-0.09514342248439789
-0.8234952092170715,3.416452646255493,-0.09658048301935196
-0.8023034930229187,3.4335052967071533,-0.09747810661792755
-0.777970016002655,3.439084053039551,-0.09806238114833832
-0.7637375593185425,3.490238666534424,-0.09989827126264572
-0.7478948831558228,3.5375657081604004,-0.10161872208118439
-0.7306393980979919,3.581015110015869,-0.10324122756719589
-0.713975727558136,3.628145217895508,-0.10497719049453735
-0.6912135481834412,3.648432970046997,-0.10595344752073288
-0.6739966869354248,3.6992759704589844,-0.10776815563440323
-0.6519211530685425,3.7270023822784424,-0.10889902710914612
-0.6314582824707031,3.7661473751068115,-0.11037357896566391
-0.610129714012146,3.801287889480591,-0.11173856258392334
-0.5908868312835693,3.85567307472229,-0.11368723958730698
-0.5694864392280579,3.8983442783355713,-0.11523576825857162
-0.5479408502578735,3.9447872638702393,-0.11686807125806808
-0.5252955555915833,3.987241744995117,-0.11839304864406586
-0.5022624135017395,4.029548168182373,-0.11992292106151581
-0.47923019528388977,4.075589656829834,-0.12157430499792099
-0.4553731679916382,4.1254563331604,-0.12330938875675201
-0.43078720569610596,4.171267509460449,-0.12487424910068512
-0.4059920608997345,4.220818519592285,-0.1265612095594406
-0.37894490361213684,4.2507643699646,-0.12766903638839722
-0.3481389284133911,4.2377190589904785,-0.1274912804365158
-0.317574143409729,4.232280254364014,-0.12752459943294525
-0.2906656861305237,4.273343563079834,-0.1288864016532898
-0.30861109495162964,5.05860710144043,-0.15272507071495056
-0.2714349925518036,5.025539875030518,-0.15188747644424438
-0.23496437072753906,4.996100425720215,-0.1511644870042801
-0.19952379167079926,4.997634410858154,-0.1513863354921341
-0.1641101837158203,4.983293533325195,-0.15100181102752686
-0.12931163609027863,4.984315395355225,-0.15108999609947205
-0.09428480267524719,4.973382949829102,-0.15082301199436188
-0.05964643135666847,4.966106414794922,-0.15067362785339355
-0.02439798228442669,4.9429755210876465,-0.15005147457122803
0.009973480366170406,4.935216426849365,-0.14981748163700104
0.04409894347190857,4.911602973937988,-0.1490817368030548
0.0781000629067421,4.903370380401611,-0.1488202065229416
0.11181031167507172,4.887096881866455,-0.14832182228565216
0.14494892954826355,4.858883380889893,-0.14746823906898499
0.17871077358722687,4.842133045196533,-0.1469077616930008
0.21191418170928955,4.832981586456299,-0.14651624858379364
0.24381104111671448,4.800206661224365,-0.1454164683818817
0.2771085202693939,4.798404216766357,-0.14526250958442688
0.30875903367996216,4.769088268280029,-0.14428280293941498
0.34190383553504944,4.759003162384033,-0.14386820793151855
0.3748435378074646,4.756529808044434,-0.14360187947750092
0.1842147707939148,2.147390842437744,-0.064747154712677
0.19763483107089996,2.130516529083252,-0.06415854394435883
0.21476462483406067,2.1524059772491455,-0.06473979353904724
0.22912579774856567,2.1430749893188477,-0.06438338756561279
0.24299727380275726,2.1336922645568848,-0.06397860497236252
0.2567638158798218,2.1242189407348633,-0.0635722205042839
0.271382600069046,2.122406005859375,-0.06339872628450394
0.2856201231479645,2.1166021823883057,-0.06310801953077316
0.29952719807624817,2.106796979904175,-0.06269949674606323
0.3296290934085846,2.208953380584717,-0.0655844435095787
0.34364911913871765,2.1989190578460693,-0.06512044370174408
0.7434197664260864,4.551002025604248,-0.13443875312805176
0.7742941975593567,4.541903972625732,-0.1338365375995636
0.8030703067779541,4.52105712890625,-0.13289551436901093
0.8290814757347107,4.484613418579102,-0.1314399689435959
0.7243256568908691,3.7732763290405273,-0.11023806780576706
0.7501447200775146,3.768242835998535,-0.10974247008562088
0.8259259462356567,4.00389289855957,-0.11623520404100418
0.9443362951278687,4.4219160079956055,-0.1279643476009369
0.9729354381561279,4.4037346839904785,-0.1269868165254593
1.0091612339019775,4.423634052276611,-0.12706546485424042
1.037692666053772,4.409025192260742,-0.12615610659122467
1.0653799772262573,4.390383720397949,-0.12513571977615356
1.0958528518676758,4.382896900177002,-0.1244380995631218
1.1265614032745361,4.375125885009766,-0.12368188798427582
1.1503492593765259,4.344722747802734,-0.1222369521856308
1.1778758764266968,4.329270362854004,-0.12122242152690887
1.2056506872177124,4.313531875610352,-0.12019962072372437
1.2313299179077148,4.290046691894531,-0.11896549165248871
1.2613873481750488,4.28132963180542,-0.11810065060853958
1.2882280349731445,4.265196800231934,-0.11700697988271713
1.317252278327942,4.256347179412842,-0.11611885577440262
1.346640944480896,4.247164726257324,-0.1152176633477211
1.3713536262512207,4.222855091094971,-0.11390919983386993
1.4007381200790405,4.213225364685059,-0.11294117569923401
1.4254823923110962,4.192572116851807,-0.11166597157716751
1.453857421875,4.182843208312988,-0.11068875342607498
1.4828788042068481,4.172669410705566,-0.10968689620494843
1.5118627548217773,4.162281513214111,-0.10868386179208755
1.537339687347412,4.1446380615234375,-0.10743275284767151
1.5630064010620117,4.126704216003418,-0.10616060346364975
1.5910561084747314,4.1159987449646,-0.10508821159601212
1.6225144863128662,4.112125396728516,-0.10417623072862625
1.6391435861587524,4.071894645690918,-0.10233050584793091
1.6694629192352295,4.06803035736084,-0.10135287046432495
1.6942710876464844,4.049325466156006,-0.09999417513608932
1.7313125133514404,4.059142589569092,-0.09933637082576752
2.0195393562316895,4.6451311111450195,-0.11263571679592133
2.0523600578308105,4.6350297927856445,-0.11128834635019302
2.086535692214966,4.628349781036377,-0.1100122407078743
2.115180492401123,4.606770992279053,-0.10835157334804535
2.1422083377838135,4.581369876861572,-0.10660206526517868
2.176692485809326,4.5737738609313965,-0.10523821413516998
2.207141637802124,4.559194087982178,-0.1036849170923233
2.242828130722046,4.554843425750732,-0.10235960781574249
2.271505117416382,4.531911849975586,-0.10055231302976608
2.297064781188965,4.505898952484131,-0.09868700802326202
2.335867404937744,4.50794792175293,-0.0974026769399643
2.365819215774536,4.492336750030518,-0.09573055803775787
1.7442933320999146,3.257007122039795,-0.06839029490947723
1.7552125453948975,3.2245075702667236,-0.06668371707201004
1.7409151792526245,3.147736072540283,-0.06405165791511536
1.746612787246704,3.108814001083374,-0.062228281050920486
1.793360948562622,3.140714168548584,-0.06177776679396629
1.346062183380127,2.321159601211548,-0.044833503663539886
1.3216158151626587,2.2449917793273926,-0.04255380481481552
0.95821613073349,1.6022876501083374,-0.029759656637907028
0.9713118076324463,1.598968267440796,-0.029077744111418724
0.98170006275177,1.5926249027252197,-0.02832745388150215
0.9921449422836304,1.5861526727676392,-0.027570022270083427
1.00104820728302,1.575937271118164,-0.026713253930211067
1.013694167137146,1.572495698928833,-0.02595381811261177
1.021679162979126,1.562667727470398,-0.025099322199821472
1.0475480556488037,1.5783809423446655,-0.02459895983338356
1.0448622703552246,1.5520005226135254,-0.02343039959669113
1.0635508298873901,1.5582199096679688,-0.022754458710551262
2.538203716278076,3.6633312702178955,-0.051489606499671936
2.579878807067871,3.6723878383636475,-0.049603912979364395
2.612447500228882,3.6685192584991455,-0.04748775064945221
2.6422946453094482,3.6567542552948,-0.04508693888783455
2.6765763759613037,3.6559994220733643,-0.042791273444890976
2.700970411300659,3.6380455493927,-0.04011869058012962
2.6212046146392822,3.671654462814331,0.062020715326070786
2.5880048274993896,3.6855406761169434,0.0647471696138382
2.5704803466796875,3.716749429702759,0.06757848709821701
1.0659313201904297,1.5659420490264893,0.029396578669548035
1.0583875179290771,1.580440640449524,0.03057844005525112
1.0280067920684814,1.5584068298339844,0.030969936400651932
1.0309540033340454,1.5891292095184326,0.03241619095206261
1.0149112939834595,1.590144157409668,0.033234938979148865
0.9955103397369385,1.5839208364486694,0.033843789249658585
0.9837050437927246,1.591260552406311,0.03472556546330452
0.9717732071876526,1.5985560417175293,0.03560261428356171
0.9644395709037781,1.6120812892913818,0.03658488020300865
1.333026647567749,2.265270471572876,0.05232919380068779
1.3473918437957764,2.329207420349121,0.054736848920583725
1.7961865663528442,3.1567955017089844,0.0753873884677887
1.7607439756393433,3.1453723907470703,0.07627474516630173
1.7614518404006958,3.2030043601989746,0.07883074134588242
1.7618106603622437,3.2605948448181152,0.08140215277671814
2.3969566822052,4.510797500610352,0.11410786956548691
2.3649494647979736,4.527612209320068,0.11600766330957413
2.3387112617492676,4.558736324310303,0.11823248863220215
2.294179916381836,4.555038928985596,0.11957510560750961
2.2589855194091797,4.563836097717285,0.1211489588022232
2.226703405380249,4.579626560211182,0.12289105355739594
2.1898248195648193,4.588676452636719,0.1244082972407341
2.162869691848755,4.618650436401367,0.12650145590305328
2.13057541847229,4.633591175079346,0.12813639640808105
2.103921413421631,4.6628499031066895,0.13018834590911865
2.060397148132324,4.656591892242432,0.13115613162517548
2.0202202796936035,4.657097339630127,0.1323113739490509
1.7441961765289307,4.099891662597656,0.11745572835206985
1.7050701379776,4.0866780281066895,0.11803492158651352
1.6753017902374268,4.098933696746826,0.11930957436561584
1.6499431133270264,4.121792316436768,0.1208617240190506
1.6287857294082642,4.155336856842041,0.12273550033569336
1.5941966772079468,4.151967525482178,0.12349829822778702
1.5624239444732666,4.1556501388549805,0.12446372956037521
1.5372600555419922,4.181634902954102,0.12604260444641113
1.507086992263794,4.192570209503174,0.12716247141361237
1.4824796915054321,4.217859745025635,0.12871482968330383
1.448013186454773,4.213271141052246,0.12934671342372894
1.423333764076233,4.238119125366211,0.1308579444885254
1.3971799612045288,4.263219833374023,0.13233579695224762
1.3689202070236206,4.280546188354492,0.13357022404670715
1.3363962173461914,4.2826008796691895,0.13432210683822632
1.30656099319458,4.29176664352417,0.13529382646083832
1.2785732746124268,4.308304309844971,0.13646945357322693
1.2521257400512695,4.332295894622803,0.1378326714038849
1.2226985692977905,4.348776340484619,0.13897868990898132
1.19205904006958,4.3572468757629395,0.13985683023929596
1.1616748571395874,4.36541748046875,0.1407259851694107
1.135944128036499,4.3923234939575195,0.142178475856781
1.104638934135437,4.400275707244873,0.14296050369739532
1.0763615369796753,4.423326015472412,0.14425253868103027
1.0469567775726318,4.438376426696777,0.14527787268161774
1.0160634517669678,4.445525169372559,0.14604559540748596
0.9833771586418152,4.444847583770752,0.14655159413814545
0.9518789649009705,4.4516777992248535,0.14720869064331055
0.9126479625701904,4.423992156982422,0.14673656225204468
0.7541294097900391,3.7908473014831543,0.12611396610736847
0.7277317047119141,3.795984983444214,0.1266622394323349
0.8358490467071533,4.530419826507568,0.15162557363510132
0.8073191046714783,4.5553975105285645,0.15283945202827454
0.775831937789917,4.568767070770264,0.1536540687084198
0.7460153102874756,4.589534282684326,0.15472076833248138
0.716295599937439,4.610052108764648,0.15578517317771912
0.6853567361831665,4.622628688812256,0.1565886288881302
0.6552308201789856,4.642749309539795,0.15761418640613556
0.6245797872543335,4.666652679443359,0.1587037891149521
0.5946543216705322,4.69415807723999,0.15992189943790436
0.5589022636413574,4.674943923950195,0.15955543518066406
0.5272107720375061,4.686467170715332,0.1602424681186676
0.4970689117908478,4.713299751281738,0.16146230697631836
0.46474772691726685,4.72443151473999,0.16204217076301575
0.4331149458885193,4.75094747543335,0.16314297914505005
0.400423526763916,4.7616400718688965,0.16370636224746704
0.36873602867126465,4.783766269683838,0.1646706610918045
0.3365802466869354,4.801779747009277,0.16550226509571075
0.3036447763442993,4.811789512634277,0.16602985560894012
0.2698865532875061,4.821615219116211,0.1664724200963974
0.23695401847362518,4.838974952697754,0.1671820431947708
0.20411939918994904,4.863908767700195,0.1681625097990036
0.17122815549373627,4.892516613006592,0.16927890479564667
0.13718287646770477,4.893583297729492,0.16945131123065948
0.10262108594179153,4.902236461639404,0.16980130970478058
0.0683305636048317,4.89502477645874,0.16956816613674164
0.034527428448200226,4.942226409912109,0.17122842371463776
6.924009358044714e-05,4.977481365203857,0.17248357832431793
-0.03450954705476761,4.973456382751465,0.17238600552082062
-0.06999222934246063,4.9926042556762695,0.17309047281742096
-0.10516048967838287,5.015418529510498,0.17382001876831055
-0.14043113589286804,5.030179500579834,0.1742783784866333
-0.17536768317222595,5.029085636138916,0.17419564723968506
-0.210671529173851,5.035547256469727,0.17438296973705292
-0.24640482664108276,5.049562931060791,0.17484018206596375
-0.2870539426803589,5.137353420257568,0.17779046297073364
-0.31743085384368896,5.053432464599609,0.17472679913043976
-0.2991175055503845,4.287809371948242,0.14812646806240082
-0.3288430869579315,4.285638809204102,0.14792992174625397
-0.3573337495326996,4.267693519592285,0.14719612896442413
-0.38683682680130005,4.257287502288818,0.14672817289829254
-0.4113275408744812,4.204010486602783,0.14469335973262787
-0.43624362349510193,4.162256717681885,0.14304813742637634
-0.4602096676826477,4.1164774894714355,0.1412750631570816
-0.48414331674575806,4.074429988861084,0.13963991403579712
-0.5065597891807556,4.020565986633301,0.1376073658466339
-0.5292826890945435,3.9782683849334717,0.13595686852931976
-0.5495612621307373,3.924290418624878,0.13384278118610382
-0.5753713846206665,3.9127109050750732,0.13318504393100739
-0.5903839468955994,3.83150315284729,0.13016875088214874
-0.6105856895446777,3.784855365753174,0.1283341944217682
-0.6342324018478394,3.7651424407958984,0.127427339553833
-0.6546573042869568,3.729954242706299,0.12593364715576172
-0.6738249063491821,3.690842866897583,0.12429179251194
-0.6947055459022522,3.6631462574005127,0.1230446845293045
-0.710201621055603,3.608475685119629,0.12090054899454117
-0.731046736240387,3.5804214477539062,0.11965283751487732
-0.7493625283241272,3.544731378555298,0.11814279109239578
-0.7627283930778503,3.4899630546569824,0.11594654619693756
-0.7848370671272278,3.4770712852478027,0.11515304446220398
-0.8015552759170532,3.441210985183716,0.1136072427034378
-0.8221956491470337,3.4202961921691895,0.11255407333374023
-0.8393542766571045,3.3879942893981934,0.11114218086004257
-0.8546968698501587,3.351951837539673,0.10955014079809189
-0.8715448975563049,3.323417901992798,0.1082061231136322
-0.8869985342025757,3.2910492420196533,0.10674881935119629
-0.9080933332443237,3.2772088050842285,0.10588680952787399
-0.930878758430481,3.270829200744629,0.10527729243040085
-0.9400938749313354,3.219433069229126,0.1031755581498146
-0.9551821351051331,3.1905643939971924,0.10177641361951828
-0.9733298420906067,3.1728463172912598,0.10074325650930405
-0.981548547744751,3.1212542057037354,0.09863010793924332
-1.0032398700714111,3.1143715381622314,0.0979461744427681
-1.0172481536865234,3.085188388824463,0.0965355783700943
-1.0355757474899292,3.0708680152893066,0.09556324779987335
-1.0473932027816772,3.0379841327667236,0.09402325749397278
-1.0578513145446777,3.0012810230255127,0.09237038344144821
-1.073710560798645,2.9790704250335693,0.09116151183843613
-1.0994230508804321,2.9863500595092773,0.09083825349807739
-1.1015701293945312,2.931417226791382,0.0885995626449585
-1.107224702835083,2.887528657913208,0.08671493083238602
-1.1156823635101318,2.850776433944702,0.08504693955183029
-1.132940411567688,2.835577964782715,0.08401703834533691
-1.1477861404418945,2.8169806003570557,0.08286625146865845
-1.157662034034729,2.787609100341797,0.08138637989759445
-1.147412896156311,2.711482524871826,0.07856498658657074
-1.1769989728927612,2.728590488433838,0.0784381553530693
-1.185263752937317,2.6952011585235596,0.07685067504644394
-1.1697241067886353,2.6124072074890137,0.07384300231933594
-1.1870793104171753,2.6045916080474854,0.07297426462173462
-1.212877869606018,2.614243268966675,0.07258328050374985
-1.241051197052002,2.6269490718841553,0.07225100696086884
-1.2694008350372314,2.6394176483154297,0.07187101989984512
-1.2800219058990479,2.616931438446045,0.07052605599164963
-1.271270751953125,2.5559587478637695,0.06816564500331879
-1.27840256690979,2.5261924266815186,0.06662837415933609
-1.2922487258911133,2.5103821754455566,0.06546363234519958
-1.2979012727737427,2.481076717376709,0.06392404437065125
-1.310845971107483,2.4654455184936523,0.0627344399690628
-1.3222061395645142,2.4460883140563965,0.061438173055648804
-1.3353973627090454,2.4300291538238525,0.06022174656391144
-1.3474961519241333,2.414426803588867,0.05898604542016983
-1.3517297506332397,2.3851876258850098,0.057430170476436615
-1.3684090375900269,2.375684976577759,0.05630061402916908
-1.3965646028518677,2.386460304260254,0.05564674735069275
-1.4001213312149048,2.357187271118164,0.05404137074947357
-1.4074742794036865,2.3346076011657715,0.052599769085645676
-1.415480136871338,2.311490058898926,0.05110502988100052
-1.426994800567627,2.2952334880828857,0.0497383177280426
-1.4417572021484375,2.286015272140503,0.04853200912475586
-1.4466148614883423,2.2598183155059814,0.04692796990275383
-1.453629732131958,2.236729860305786,0.04536420851945877
-1.4829941987991333,2.2502121925354004,0.044518377631902695
-1.5067493915557861,2.253221035003662,0.04339703172445297
-1.4937748908996582,2.200766086578369,0.041185542941093445
-1.5076667070388794,2.191298484802246,0.039791278541088104
-1.4996153116226196,2.149385690689087,0.037786759436130524
-1.4940077066421509,2.110386610031128,0.035785332322120667
-1.502852439880371,2.094515800476074,0.03415147215127945
-1.5076854228973389,2.0717732906341553,0.03234463185071945
-1.5165458917617798,2.055621862411499,0.03059322200715542
-1.4888197183609009,2.0853304862976074,-0.034911371767520905
-1.5076301097869873,2.1437759399414062,-0.03753472492098808
-1.4959779977798462,2.161398410797119,-0.03944342955946922
-1.4930983781814575,2.191770553588867,-0.0415506511926651
