X,Y,Z
-1.1020796298980713,2.0611231327056885,-0.22063976526260376
-1.0657129287719727,2.027042865753174,-0.2212400883436203
-1.0209712982177734,1.9752938747406006,-0.21968887746334076
-0.9868680238723755,1.9441813230514526,-0.22025495767593384
-0.9345917105674744,1.8742570877075195,-0.21609576046466827
-0.9127750992774963,1.8628668785095215,-0.21841256320476532
-0.8893270492553711,1.847840666770935,-0.22020123898983002
-0.8559301495552063,1.8116377592086792,-0.21930931508541107
-0.8216798305511475,1.7714534997940063,-0.21772782504558563
-0.7783861756324768,1.7097017765045166,-0.21330106258392334
-0.7692874670028687,1.721855878829956,-0.21788489818572998
-0.75057053565979,1.7127012014389038,-0.219730406999588
-0.7260892987251282,1.689038634300232,-0.21960511803627014
-0.6975907683372498,1.6543558835983276,-0.21791045367717743
-0.6825737953186035,1.6517720222473145,-0.22035382688045502
-0.6531847715377808,1.6130995750427246,-0.2178223580121994
-0.6388502717018127,1.6100672483444214,-0.21999356150627136
-0.6204829216003418,1.5960420370101929,-0.22061000764369965
-0.6008356809616089,1.5782814025878906,-0.22058744728565216
-0.5839056968688965,1.5676875114440918,-0.22150792181491852
-0.5754251480102539,1.578657865524292,-0.22540996968746185
-0.548717737197876,1.538503885269165,-0.22194774448871613
-0.5314455032348633,1.5236855745315552,-0.22199878096580505
-0.5180578231811523,1.5197348594665527,-0.22353263199329376
-0.5021840929985046,1.5083677768707275,-0.22398068010807037
-0.4868136942386627,1.4967644214630127,-0.22430281341075897
-0.46691688895225525,1.470299482345581,-0.22231127321720123
-0.4507387578487396,1.454768180847168,-0.221805140376091
-0.44376832246780396,1.468677282333374,-0.22578571736812592
-0.42577221989631653,1.4454706907272339,-0.22404097020626068
-0.4175276458263397,1.4555585384368896,-0.22747831046581268
0.43056610226631165,1.428206205368042,-0.21985970437526703
0.4407593309879303,1.4254381656646729,-0.21761325001716614
0.4601146876811981,1.452124834060669,-0.2198663353919983
0.46066898107528687,1.4198161363601685,-0.2130834460258484
0.4778205454349518,1.438962697982788,-0.2140101045370102
0.49410098791122437,1.454256296157837,-0.21430246531963348
0.5170239210128784,1.4876554012298584,-0.21718785166740417
0.5275768041610718,1.484326958656311,-0.21456824243068695
0.5431353449821472,1.4955713748931885,-0.21401000022888184
0.5589178204536438,1.5066591501235962,-0.21338778734207153
0.572235107421875,1.5103237628936768,-0.21167156100273132
0.5981556177139282,1.546417236328125,-0.21440564095973969
0.620376467704773,1.5714268684387207,-0.2153727412223816
0.6399292945861816,1.5890741348266602,-0.2152949571609497
0.6584668755531311,1.602875828742981,-0.21460218727588654
0.6816778779029846,1.6272473335266113,-0.21524927020072937
0.69896000623703,1.637212872505188,-0.2138359695672989
0.7135235071182251,1.6398212909698486,-0.21138545870780945
0.7345162630081177,1.6564630270004272,-0.21068887412548065
0.760545015335083,1.6835170984268188,-0.21122758090496063
0.7915735840797424,1.7210137844085693,-0.2128656506538391
0.818235456943512,1.7476178407669067,-0.21302807331085205
0.8474591374397278,1.7772347927093506,-0.2133205384016037
0.8751745223999023,1.8031641244888306,-0.21310406923294067
0.8977959156036377,1.818520188331604,-0.21147723495960236
0.9364193677902222,1.8648805618286133,-0.21330983936786652
0.9601734280586243,1.879485845565796,-0.21127907931804657
1.0019859075546265,1.9284087419509888,-0.21294423937797546
1.0389399528503418,1.9666248559951782,-0.21312353014945984
1.0745739936828613,2.0010335445404053,-0.2127387970685959
1.120336651802063,2.0519776344299316,-0.2138303816318512
1.1552109718322754,2.0821635723114014,-0.21253244578838348
1.2094062566757202,2.14601731300354,-0.2144155502319336
1.263276219367981,2.205502986907959,-0.215347558259964
1.2925121784210205,2.220651388168335,-0.211775541305542
1.307431697845459,2.2124550342559814,-0.20589816570281982
1.334457278251648,2.2241036891937256,-0.2017754167318344
1.354193091392517,2.2218308448791504,-0.19612671434879303
1.365565299987793,2.2062551975250244,-0.18920202553272247
1.3720039129257202,2.1843984127044678,-0.18188133835792542
1.4438568353652954,2.2639830112457275,-0.1825544685125351
1.5823694467544556,2.444244861602783,-0.19056616723537445
1.8553303480148315,2.8253114223480225,-0.21267034113407135
1.8643648624420166,2.7966246604919434,-0.2024521678686142
1.81157386302948,2.677694082260132,-0.18606479465961456
1.8334931135177612,2.6727850437164307,-0.17789383232593536
1.865291953086853,2.679853677749634,-0.17001500725746155
1.4335124492645264,2.030179500579834,-0.12230059504508972
1.4650312662124634,2.046492338180542,-0.11657678335905075
1.470198154449463,2.0239479541778564,-0.10815571248531342
1.4696134328842163,1.9957592487335205,-0.09953088313341141
2.194100856781006,3.102273464202881,0.3560604751110077
2.1812641620635986,3.1337616443634033,0.3688356578350067
2.5018534660339355,3.648104190826416,0.4391649663448334
2.342531204223633,3.473036050796509,0.4272725284099579
2.300869941711426,3.46685791015625,0.4351445436477661
2.2505767345428467,3.442915916442871,0.44008687138557434
1.6194885969161987,2.51802659034729,0.32748979330062866
1.6371299028396606,2.5887298583984375,0.342342734336853
1.6018356084823608,2.5733256340026855,0.34552088379859924
3.0409765243530273,4.962629795074463,0.6760512590408325
3.0146989822387695,5.004154205322266,0.6910237669944763
2.984717607498169,5.0384626388549805,0.7049281001091003
2.952759027481079,5.06464147567749,0.7172224521636963
2.9328017234802246,5.114847183227539,0.7330211400985718
2.9088950157165527,5.162498474121094,0.7480390667915344
2.8850619792938232,5.209716796875,0.7629901170730591
2.8648722171783447,5.259055137634277,0.7778975963592529
2.827470541000366,5.277710437774658,0.7883247137069702
2.819380044937134,5.359373569488525,0.8078833222389221
2.7913620471954346,5.402994155883789,0.8217451572418213
2.7667782306671143,5.448891639709473,0.8356764912605286
2.76094913482666,5.5326433181762695,0.8555261492729187
58.05765151977539,118.47242736816406,18.461538314819336
1.221694827079773,2.5411489009857178,0.3989623188972473
1.1996170282363892,2.5424370765686035,0.40204960107803345
1.1881978511810303,2.564215660095215,0.4082726836204529
1.166924238204956,2.564836263656616,0.41115492582321167
1.1512043476104736,2.5797829627990723,0.41611307859420776
2.572354555130005,5.879665851593018,0.954105019569397
2.5469985008239746,5.939764976501465,0.9696694016456604
2.5200815200805664,5.99180793762207,0.9837574362754822
2.496969699859619,6.05444860458374,0.999710738658905
2.4642956256866455,6.0998406410217285,1.0123525857925415
2.4349188804626465,6.156014442443848,1.0267362594604492
2.4058220386505127,6.2158074378967285,1.0418940782546997
2.3771727085113525,6.270968437194824,1.0561103820800781
2.349266290664673,6.3296051025390625,1.0710229873657227
2.3210129737854004,6.392155647277832,1.0863407850265503
2.287257194519043,6.444056510925293,1.0995630025863647
2.2532904148101807,6.499693870544434,1.1136136054992676
2.2269513607025146,6.572744369506836,1.1305718421936035
2.1916675567626953,6.619960308074951,1.143160343170166
2.1593849658966064,6.677986145019531,1.1577240228652954
2.094595193862915,6.640953063964844,1.1550569534301758
2.0262677669525146,6.592527389526367,1.150438666343689
1.9675124883651733,6.569027900695801,1.1500946283340454
1.9074389934539795,6.533541679382324,1.1475443840026855
1.8511854410171509,6.508645057678223,1.1468567848205566
1.7980709075927734,6.494559288024902,1.147904396057129
1.737212061882019,6.454403877258301,1.143730640411377
1.6830947399139404,6.439974784851074,1.1441876888275146
0.8246847987174988,3.249727487564087,0.5788860321044922
1.5689586400985718,6.367937088012695,1.1372803449630737
0.7961919903755188,3.3311800956726074,0.5964937806129456
1.4630086421966553,6.316425323486328,1.1338039636611938
1.4102685451507568,6.296144008636475,1.1324528455734253
1.3602746725082397,6.282805919647217,1.132352590560913
1.309307336807251,6.2614827156066895,1.1308338642120361
1.2510815858840942,6.198148727416992,1.1217070817947388
1.201150894165039,6.172073841094971,1.1193381547927856
1.1528443098068237,6.1571431159973145,1.1188781261444092
1.0961068868637085,6.092736721038818,1.108790397644043
1.0540087223052979,6.107423305511475,1.1131384372711182
1.001793384552002,6.061119556427002,1.1064109802246094
0.956020176410675,6.0446319580078125,1.1051218509674072
0.9125968813896179,6.046919345855713,1.1073452234268188
0.863902747631073,6.006950855255127,1.1018389463424683
0.8146862387657166,5.963016986846924,1.094850778579712
0.6778844594955444,5.236495494842529,0.9624378681182861
0.6212899088859558,5.080618381500244,0.9347872138023376
0.5805099606513977,5.038705825805664,0.9280989766120911
0.5534641742706299,5.12258768081665,0.9446502923965454
0.40885746479034424,4.0480475425720215,0.747387170791626
0.383357971906662,4.081216812133789,0.7541016936302185
0.359592080116272,4.141059398651123,0.7656081914901733
0.3335222899913788,4.181610584259033,0.7735961079597473
0.30318158864974976,4.176045894622803,0.773101270198822
0.27364182472229004,4.170220375061035,0.7725811004638672
0.2471209168434143,4.214034080505371,0.7812997102737427
0.40189117193222046,7.778930187225342,1.443199872970581
0.3460741341114044,7.750727653503418,1.4381983280181885
0.28945228457450867,7.7106404304504395,1.431064248085022
0.23463748395442963,7.681635856628418,1.4260495901107788
0.18005332350730896,7.636882781982422,1.4181751012802124
0.12650896608829498,7.6109442710876465,1.41385817527771
0.07337113469839096,7.588472843170166,1.4102500677108765
0.01957620494067669,7.565768241882324,1.4059165716171265
-0.03298166021704674,7.546573638916016,1.4020549058914185
-0.08522796630859375,7.523174285888672,1.3974813222885132
-0.13692492246627808,7.491735458374023,1.3914834260940552
-0.18838290870189667,7.467620849609375,1.3869141340255737
-0.24000664055347443,7.458508491516113,1.3851983547210693
-0.29299038648605347,7.464402198791504,1.3860862255096436
-0.34295135736465454,7.427897930145264,1.3784483671188354
-0.2867918014526367,5.400418281555176,1.0016162395477295
-0.32415297627449036,5.3984694480896,1.0007243156433105
-0.3598855137825012,5.3694233894348145,0.9948574900627136
-0.3966844975948334,5.351590633392334,0.9911134243011475
-0.43326854705810547,5.341209888458252,0.9888066053390503
-0.4590432047843933,5.21206521987915,0.9640465378761292
-0.4386472702026367,4.616249084472656,0.8529836535453796
-0.4681358337402344,4.590430736541748,0.8473987579345703
-0.5004536509513855,4.587273597717285,0.8460257053375244
-0.5287426114082336,4.553403854370117,0.8390457034111023
-0.5603430867195129,4.549871444702148,0.8377012014389038
-0.5893633961677551,4.527107238769531,0.8326776027679443
-0.6193317174911499,4.515694618225098,0.8293861150741577
-0.6508163809776306,4.511617660522461,0.8274627327919006
-0.6771770119667053,4.476986408233643,0.8200010061264038
-0.708345353603363,4.472509860992432,0.8180934190750122
-0.7369239926338196,4.452653408050537,0.8134171366691589
-0.7652604579925537,4.432612419128418,0.8087537884712219
-0.7881488800048828,4.3860697746276855,0.7987844347953796
-0.8228744268417358,4.403605937957764,0.8004626035690308
-0.8485672473907471,4.375664234161377,0.7939374446868896
-0.734811007976532,3.6537041664123535,0.661746084690094
-0.7586835622787476,3.6413347721099854,0.6583370566368103
-0.9299373030662537,4.31321382522583,0.7784616947174072
-0.965071439743042,4.329647541046143,0.779718279838562
-0.9945539236068726,4.323501110076904,0.7767694592475891
-1.0222207307815552,4.309664249420166,0.7724779844284058
-1.0482364892959595,4.288096904754639,0.7668271660804749
-1.0800517797470093,4.288671016693115,0.7651512026786804
-1.1036834716796875,4.2553629875183105,0.7574490308761597
-1.1310046911239624,4.240790843963623,0.752892017364502
-1.1577402353286743,4.226199150085449,0.7481177449226379
-1.1843290328979492,4.2114362716674805,0.7433551549911499
-1.2175257205963135,4.2186126708984375,0.7424699068069458
-1.2408958673477173,4.188333988189697,0.7349620461463928
-1.272340178489685,4.187563419342041,0.7327144145965576
-1.294202208518982,4.1573100090026855,0.7250922918319702
-1.319985270500183,4.141800403594971,0.7198387384414673
-1.3503551483154297,4.140796184539795,0.7171430587768555
-1.368340253829956,4.099039077758789,0.7073500752449036
-1.3994733095169067,4.097366809844971,0.7045286893844604
-1.420474886894226,4.066335201263428,0.6967024803161621
-1.4482089281082153,4.057285785675049,0.6923494338989258
-1.478163242340088,4.05544376373291,0.6891062259674072
-1.5054658651351929,4.046149730682373,0.6846226453781128
-1.5286301374435425,4.0217437744140625,0.6774762272834778
-1.554044246673584,4.004497051239014,0.671614408493042
-1.5735042095184326,3.9727742671966553,0.663338840007782
-1.6088656187057495,3.984414577484131,0.6618966460227966
-1.6356713771820068,3.974322557449341,0.6568511128425598
-1.6632201671600342,3.963731288909912,0.6516520380973816
-1.6909911632537842,3.9528262615203857,0.6463963985443115
-1.7094230651855469,3.9204721450805664,0.6376835703849792
-1.736007809638977,3.909663200378418,0.6322007775306702
-1.7684699296951294,3.9129605293273926,0.6288857460021973
-1.7854459285736084,3.880643129348755,0.61980140209198
-1.8126503229141235,3.868943929672241,0.6139503717422485
-1.846468448638916,3.8709936141967773,0.6102921366691589
-1.8761769533157349,3.8662352561950684,0.6053346991539001
-1.8761824369430542,3.8025906085968018,0.5910542607307434
-1.8950423002243042,3.776884078979492,0.5826805830001831
-1.9339340925216675,3.7885570526123047,0.5799266695976257
-1.9677592515945435,3.7895495891571045,0.5755157470703125
-1.9861135482788086,3.763474702835083,0.5667373538017273
-1.9982272386550903,3.7273406982421875,0.5563939213752747
-2.0345261096954346,3.7351646423339844,0.5525423288345337
-1.712250828742981,3.091045379638672,0.45281559228897095
-1.7358769178390503,3.0831706523895264,0.44726112484931946
-0.8502408266067505,1.4874540567398071,0.21351544559001923
-0.8600775003433228,1.4822190999984741,0.2105029672384262
-0.8665047287940979,1.4699249267578125,0.2063780426979065
-0.8650932312011719,1.444145917892456,0.20035189390182495
-0.8665803074836731,1.4255667924880981,0.1953148990869522
-0.8758854866027832,1.4203054904937744,0.1921117901802063
-0.8816131353378296,1.4080640077590942,0.18783044815063477
-0.9165720343589783,1.4415518045425415,0.1895415186882019
-0.8841241598129272,1.370581865310669,0.17742659151554108
-0.9057790637016296,1.3847486972808838,0.17646273970603943
-0.9198305010795593,1.385274052619934,0.17347542941570282
-2.386693000793457,3.5416905879974365,0.4355534315109253
-2.4226274490356445,3.546708583831787,0.4278981685638428
-1.299841284751892,1.8758985996246338,0.2216363102197647
-1.3534767627716064,1.9245165586471558,0.22233892977237701
-1.3111379146575928,1.877123475074768,-0.12259916216135025
-106.79235076904297,165.3097686767578,-13.483195304870605
-1.4622174501419067,2.37457537651062,-0.21405935287475586
-1.4323170185089111,2.3647782802581787,-0.2196516990661621
-1.335744857788086,2.2404704093933105,-0.21389196813106537
-1.3157103061676025,2.2426376342773438,-0.21981966495513916
-0.8370656967163086,1.475414752960205,-0.15200966596603394
-1.1564664840698242,2.071878433227539,-0.21840423345565796
-1.1243542432785034,2.049038887023926,-0.22080887854099274
-1.0779125690460205,1.9984513521194458,-0.2199954241514206
-1.052536964416504,1.9849796295166016,-0.2230215221643448
-1.0094776153564453,1.9367804527282715,-0.22188542783260345
-0.9686421751976013,1.8916995525360107,-0.22084397077560425
-0.9288390874862671,1.845999836921692,-0.21942245960235596
-0.8916753530502319,1.8032341003417969,-0.2180846929550171
-0.8631396889686584,1.777759075164795,-0.2186899036169052
-0.8401421308517456,1.7624443769454956,-0.22036762535572052
-0.8078607320785522,1.7256693840026855,-0.2191581428050995
-0.7810603976249695,1.699095368385315,-0.21909447014331818
-0.7623568773269653,1.690059781074524,-0.22113053500652313
-0.7328144907951355,1.6560328006744385,-0.21980129182338715
-0.7147232294082642,1.6465332508087158,-0.2216089814901352
-0.6848461031913757,1.608260989189148,-0.2193976640701294
-0.6672560572624207,1.5983848571777344,-0.220858633518219
-0.6454410552978516,1.5775853395462036,-0.22075265645980835
-0.6285291910171509,1.5672601461410522,-0.22199441492557526
-0.6144320964813232,1.5640535354614258,-0.22426357865333557
-0.5837278962135315,1.5173964500427246,-0.2200462520122528
-0.5714544057846069,1.5174874067306519,-0.22253137826919556
-0.5580690503120422,1.5137819051742554,-0.22440823912620544
-0.5395228266716003,1.4954051971435547,-0.2240723818540573
-0.5183708667755127,1.469679832458496,-0.22248061001300812
-0.5053362250328064,1.465624213218689,-0.2240745574235916
-0.4925037920475006,1.4614222049713135,-0.22561022639274597
-0.47615060210227966,1.4460947513580322,-0.22539688646793365
-0.45639821887016296,1.4196288585662842,-0.22327764332294464
-0.4437691569328308,1.4151455163955688,-0.22457069158554077
0.4899637699127197,1.4258627891540527,-0.21843256056308746
0.49984559416770935,1.4228267669677734,-0.2158242166042328
0.5189626216888428,1.4451662302017212,-0.2170138657093048
0.5291293263435364,1.441878080368042,-0.21431775391101837
0.5502409934997559,1.4674819707870483,-0.21576480567455292
0.577006995677948,1.507431149482727,-0.21920271217823029
0.5875332951545715,1.503791332244873,-0.21622204780578613
0.6009799242019653,1.507239818572998,-0.21424150466918945
0.6304700374603271,1.5500824451446533,-0.21773438155651093
0.6413493752479553,1.5460702180862427,-0.21446247398853302
0.6641777157783508,1.570569396018982,-0.21513110399246216
0.6890466213226318,1.5983412265777588,-0.21611875295639038
0.7064622044563293,1.6081395149230957,-0.21456874907016754
0.7238712906837463,1.6178585290908813,-0.21290099620819092
0.751370906829834,1.6484819650650024,-0.21382996439933777
0.7744104862213135,1.6682608127593994,-0.2132560759782791
0.8026151657104492,1.6983901262283325,-0.21387474238872528
0.8327562212944031,1.7318196296691895,-0.21471497416496277
0.8618024587631226,1.761386752128601,-0.21490927040576935
0.8900243639945984,1.786957025527954,-0.2143639773130417
0.9164875149726868,1.8089569807052612,-0.2133103907108307
0.9537362456321716,1.8515305519104004,-0.21450160443782806
0.9936559796333313,1.8970187902450562,-0.21575723588466644
1.0271553993225098,1.9282276630401611,-0.21514372527599335
1.0663639307022095,1.969506859779358,-0.21543094515800476
1.1231213808059692,2.0409939289093018,-0.21865755319595337
1.1411982774734497,2.040438175201416,-0.21393370628356934
1.1882216930389404,2.0904271602630615,-0.21433985233306885
1.243166208267212,2.1537091732025146,-0.21577639877796173
1.2912849187850952,2.202854871749878,-0.21545401215553284
1.3150784969329834,2.20750093460083,-0.2103249430656433
1.342319369316101,2.2189927101135254,-0.20585842430591583
1.3572131395339966,2.2104997634887695,-0.19947615265846252
1.3561652898788452,2.1750922203063965,-0.19051383435726166
1.3838225603103638,2.1858954429626465,-0.18556983768939972
1.4344151020050049,2.232769250869751,-0.1833752989768982
1.7478209733963013,2.680483818054199,-0.21255087852478027
1.8699458837509155,2.824819803237915,-0.21573030948638916
1.8603218793869019,2.7710063457489014,-0.2034446746110916
1.8067562580108643,2.652552366256714,-0.18659642338752747
1.8522274494171143,2.6787614822387695,-0.17972302436828613
1.8607189655303955,2.6544506549835205,-0.1695353090763092
1.4402364492416382,2.0254056453704834,-0.12244582176208496
1.4540810585021973,2.0159430503845215,-0.11474326997995377
1.4624204635620117,2.000664234161377,-0.10674826800823212
1.4857597351074219,2.0032968521118164,-0.099014513194561
2.203519821166992,3.093705177307129,0.37208291888237
2.1768388748168945,3.1017019748687744,0.38236528635025024
2.1769649982452393,3.152320384979248,0.3977864980697632
2.4712014198303223,3.6367733478546143,0.4690629243850708
2.324162721633911,3.4721665382385254,0.4567132294178009
2.291247606277466,3.478614568710327,0.4661669135093689
2.269705295562744,3.5051212310791016,0.4783540666103363
1.637596607208252,2.5679447650909424,0.356067419052124
1.622986078262329,2.585383653640747,0.36404502391815186
1.5641871690750122,2.5342113971710205,0.36206573247909546
3.0218796730041504,4.9771809577941895,0.7209724187850952
2.9976613521575928,5.017100811004639,0.7363364696502686
2.9683077335357666,5.050719261169434,0.7504482865333557
2.933323383331299,5.078277587890625,0.7634441256523132
2.920619249343872,5.141826629638672,0.7816386818885803
2.8992111682891846,5.187731742858887,0.7969651222229004
2.871811628341675,5.227721214294434,0.8114094138145447
2.8449654579162598,5.27147912979126,0.8260616064071655
2.8237757682800293,5.3249945640563965,0.8422328233718872
2.809253215789795,5.3878021240234375,0.8596506118774414
2.788652181625366,5.440319061279297,0.8755706548690796
2.7660863399505615,5.497828483581543,0.8919087648391724
2.745220184326172,5.558412075042725,0.9087794423103333
1.2429662942886353,2.56223201751709,0.42202240228652954
1.214870572090149,2.5492982864379883,0.42293012142181396
1.1817820072174072,2.5257716178894043,0.42193764448165894
1.1741896867752075,2.5583996772766113,0.43013522028923035
1.1579257249832153,2.5735671520233154,0.4355021119117737
1.1552536487579346,2.616351842880249,0.44542503356933594
2.5634663105010986,5.916751384735107,1.013366460800171
2.5299575328826904,5.9548234939575195,1.025730848312378
2.508121967315674,6.025331497192383,1.0433305501937866
2.480203151702881,6.085392475128174,1.0593652725219727
2.4497852325439453,6.133661270141602,1.0731589794158936
2.4178059101104736,6.178041934967041,1.0863292217254639
2.3892009258270264,6.2331647872924805,1.101389765739441
2.3623573780059814,6.2997026443481445,1.11789071559906
2.332582712173462,6.362786769866943,1.1339908838272095
2.3023414611816406,6.421577453613281,1.1492862701416016
2.268634080886841,6.468982219696045,1.162546157836914
2.240615129470825,6.534420013427734,1.1791660785675049
2.209439277648926,6.596564769744873,1.1947605609893799
2.1820616722106934,6.677347660064697,1.213647723197937
2.124039888381958,6.662473678588867,1.2151665687561035
2.055267572402954,6.606271743774414,1.2090173959732056
1.9977834224700928,6.582494735717773,1.2087658643722534
1.9373902082443237,6.54719877243042,1.206411361694336
1.8815206289291382,6.5304083824157715,1.2066456079483032
1.8157758712768555,6.480067253112793,1.200721025466919
1.7568070888519287,6.4474592208862305,1.1980270147323608
1.70481276512146,6.4325690269470215,1.198541283607483
0.8333019018173218,3.234685182571411,0.6043701171875
1.5961123704910278,6.379212856292725,1.1951966285705566
0.8096509575843811,3.338690757751465,0.626884400844574
1.4887704849243164,6.336333274841309,1.1923136711120605
1.425480604171753,6.2673211097717285,1.181929349899292
1.3716909885406494,6.231310844421387,1.1777170896530151
1.3273372650146484,6.236177444458008,1.181264042854309
1.273672103881836,6.199497699737549,1.177027702331543
1.2249696254730225,6.185164928436279,1.1761738061904907
1.1743671894073486,6.159145355224609,1.1731293201446533
1.114506483078003,6.07985782623291,1.1599607467651367
1.0766040086746216,6.113342761993408,1.1683099269866943
1.0273867845535278,6.086133003234863,1.1651461124420166
0.9824742078781128,6.077365875244141,1.1655161380767822
0.928412675857544,6.011572360992432,1.1543678045272827
0.8868968486785889,6.025119304656982,1.1583013534545898
0.8399160504341125,6.000377178192139,1.1549265384674072
0.790539026260376,5.956291675567627,1.1478770971298218
0.7490442991256714,5.961188793182373,1.150278091430664
0.5981839895248413,5.04387903213501,0.9745510816574097
0.5701742172241211,5.11240291595459,0.9888522624969482
0.5381354093551636,5.154173851013184,0.9976266622543335
0.3997209072113037,4.107723712921143,0.7956703305244446
0.36790770292282104,4.083518981933594,0.7916198968887329
0.348039448261261,4.188965320587158,0.8127371668815613
0.31711944937705994,4.168125152587891,0.809404730796814
0.2886210083961487,4.177666187286377,0.812008798122406
0.2602938413619995,4.194778919219971,0.8155847191810608
0.4254123568534851,7.7495856285095215,1.5072277784347534
0.37108924984931946,7.752171516418457,1.5082839727401733
0.3154495656490326,7.7160539627075195,1.501877784729004
0.2606367766857147,7.683368682861328,1.4962037801742554
0.20660370588302612,7.6617960929870605,1.4927608966827393
0.15171416103839874,7.6322832107543945,1.4873818159103394
0.09818368405103683,7.606313705444336,1.4821797609329224
0.04499971121549606,7.57613468170166,1.476230263710022
-0.00776681350544095,7.5532546043396,1.4717745780944824
-0.05992373824119568,7.526175498962402,1.4665716886520386
-0.1129063069820404,7.510223388671875,1.4636104106903076
-0.16421915590763092,7.470921039581299,1.4561656713485718
-0.2152106761932373,7.442946434020996,1.4500648975372314
-0.2670988440513611,7.452962875366211,1.4513359069824219
-0.318401575088501,7.4434614181518555,1.44887375831604
-0.269743949174881,5.422964572906494,1.0551866292953491
-0.3072444200515747,5.405746936798096,1.0514861345291138
-0.34383925795555115,5.388309955596924,1.0478023290634155
-0.37984415888786316,5.366854667663574,1.0431337356567383
-0.4163517653942108,5.356725215911865,1.0402451753616333
-0.4513826072216034,5.331065654754639,1.0343968868255615
-0.42436403036117554,4.625270366668701,0.8967288732528687
-0.4542369842529297,4.59954309463501,0.8910743594169617
-0.48619380593299866,4.5965094566345215,0.8898627161979675
-0.5172703862190247,4.585630416870117,0.8871760368347168
-0.5460883975028992,4.559433937072754,0.8810663819313049
-0.575982928276062,4.540634632110596,0.8763182163238525
-0.6066622734069824,4.533109664916992,0.8738100528717041
-0.6358622312545776,4.513950347900391,0.8690983653068542
-0.6639038920402527,4.486982345581055,0.8629271388053894
-0.6939033269882202,4.475015640258789,0.8596909046173096
-0.7217098474502563,4.447678565979004,0.8532939553260803
-0.7521114349365234,4.443087577819824,0.8509559631347656
-0.783865749835968,4.445840358734131,0.8500597476959229
-0.8102019429206848,4.418148040771484,0.8433848023414612
-0.8344738483428955,4.378907680511475,0.8345435857772827
-0.7248839735984802,3.6652512550354004,0.6974336504936218
-0.7493149638175964,3.652879476547241,0.6939809918403625
-0.7710121870040894,3.6331167221069336,0.6887153387069702
-0.9504757523536682,4.333616256713867,0.8197373151779175
-0.9800052642822266,4.327578067779541,0.8168618083000183
-1.008306622505188,4.3137335777282715,0.8125219345092773
-1.038867712020874,4.307037353515625,0.8095371127128601
-1.065165400505066,4.285322666168213,0.8038038015365601
-1.094376802444458,4.27857780456543,0.800487220287323
-1.1204928159713745,4.260530948638916,0.794975221157074
-1.1434041261672974,4.231186389923096,0.7874085903167725
-1.1731593608856201,4.22368860244751,0.7838823199272156
-1.2025985717773438,4.216049671173096,0.7803872227668762
-1.2319875955581665,4.208202362060547,0.7768916487693787
-1.2540767192840576,4.178284645080566,0.768999457359314
-1.2778432369232178,4.155706405639648,0.7623432874679565
-1.306406855583191,4.147550106048584,0.758339524269104
-1.3303605318069458,4.124491214752197,0.7516412734985352
-1.361634373664856,4.123121738433838,0.748907208442688
-1.3855146169662476,4.099643230438232,0.7422021627426147
-1.4096436500549316,4.07998514175415,0.7358281016349792
-1.4371410608291626,4.071190357208252,0.7313374876976013
-1.4677164554595947,4.06928014755249,0.7280575037002563
-1.4907392263412476,4.045313835144043,0.7208294868469238
-1.4973653554916382,3.97788143157959,0.7059276103973389
-1.5390007495880127,4.004098415374756,0.7076651453971863
-1.5715612173080444,4.008888244628906,0.7051481604576111
-1.593294620513916,3.984600305557251,0.6974878311157227
-1.6232770681381226,3.981701135635376,0.693638265132904
-1.6452717781066895,3.9568753242492676,0.6859017014503479
-1.6730562448501587,3.946118116378784,0.6806453466415405
-1.6999893188476562,3.9355318546295166,0.6751802563667297
-1.7329851388931274,3.93896746635437,0.671867311000824
-1.7467060089111328,3.9000489711761475,0.6614411473274231
-1.7772259712219238,3.8957202434539795,0.6567542552947998
-1.804688572883606,3.8840713500976562,0.6508333683013916
-1.82828688621521,3.8654847145080566,0.6436337828636169
-1.8612574338912964,3.8679323196411133,0.6395822167396545
-1.8803218603134155,3.8425331115722656,0.6310278177261353
-1.8932807445526123,3.802717447280884,0.6200056076049805
-1.927026629447937,3.8041369915008545,0.6157035827636719
-1.9673912525177002,3.819331645965576,0.6134507060050964
-1.981943130493164,3.786731719970703,0.6032636761665344
-2.00020170211792,3.7607104778289795,0.5941125154495239
-2.017467498779297,3.7306394577026367,0.5841704607009888
-1.700718879699707,3.0933027267456055,0.4800412356853485
-1.7235174179077148,3.0860531330108643,0.4743597209453583
-1.7305450439453125,3.0519540309906006,0.4644924998283386
-0.8545394539833069,1.4835292100906372,0.22343143820762634
-0.853293776512146,1.4578595161437988,0.21718691289424896
-0.8594471216201782,1.4457111358642578,0.21296638250350952
-0.8729422092437744,1.4471461772918701,0.21065263450145721
-0.8865911364555359,1.4484081268310547,0.20827263593673706
-0.8888450860977173,1.4293094873428345,0.20276425778865814
-0.8987972736358643,1.4235740900039673,0.19920948147773743
-0.9080658555030823,1.4181830883026123,0.19559547305107117
-0.9090235233306885,1.399597406387329,0.19014057517051697
-0.9018864035606384,1.367679238319397,0.1827581226825714
-0.9113954305648804,1.3618831634521484,0.17882579565048218
-2.413947820663452,3.55825138092041,0.4588782787322998
-1.2775670289993286,1.8562796115875244,0.23474407196044922
-1.2484811544418335,1.7873319387435913,0.22136279940605164
-1.4396947622299194,2.3195109367370605,-0.21291232109069824
-1.4061412811279297,2.3028757572174072,-0.2180543690919876
-1.3113049268722534,2.1821248531341553,-0.21269391477108002
-1.273598551750183,2.154090642929077,-0.21580681204795837
-0.8422176241874695,1.4721450805664062,-0.15521958470344543
-1.157859444618225,2.0572099685668945,-0.22211270034313202
-1.108457088470459,2.0039637088775635,-0.2214646190404892
-1.0660334825515747,1.9600921869277954,-0.22139577567577362
-1.0246280431747437,1.9155728816986084,-0.22090615332126617
-0.9745160937309265,1.8535785675048828,-0.2180907428264618
-0.9377033114433289,1.8152203559875488,-0.21778103709220886
-0.8946585059165955,1.7625051736831665,-0.21546289324760437
-0.8751891851425171,1.754348635673523,-0.2183513045310974
-0.8486872315406799,1.7322447299957275,-0.21935471892356873
-0.8175739049911499,1.6993374824523926,-0.21883799135684967
-0.7956075072288513,1.6834790706634521,-0.22029957175254822
-0.7770704030990601,1.6744840145111084,-0.222576305270195
-0.737388551235199,1.6196314096450806,-0.21860723197460175
-0.7225671410560608,1.617284893989563,-0.22151513397693634
-0.6986470818519592,1.5934468507766724,-0.2213740199804306
-0.6841958165168762,1.5907585620880127,-0.22406898438930511
-0.6591304540634155,1.5630340576171875,-0.22311198711395264
-0.6388482451438904,1.5458128452301025,-0.22358807921409607
-0.6279195547103882,1.549787163734436,-0.22700895369052887
-0.5983125567436218,1.5069637298583984,-0.22345171868801117
-0.5790451765060425,1.4891160726547241,-0.22341981530189514
-0.5601490139961243,1.4710496664047241,-0.22326979041099548
-0.5414748787879944,1.4528192281723022,-0.22304625809192657
-0.5218876600265503,1.4307446479797363,-0.22207288444042206
-0.5142406225204468,1.4412763118743896,-0.22605645656585693
-0.5013988018035889,1.4371647834777832,-0.22774997353553772
0.5196348428726196,1.4314628839492798,-0.222725510597229
0.532276451587677,1.4355067014694214,-0.22096295654773712
0.5464616417884827,1.4430277347564697,-0.21969346702098846
0.5566232800483704,1.4395864009857178,-0.21674005687236786
0.575344443321228,1.4576590061187744,-0.2168688327074051
0.5970150828361511,1.4828134775161743,-0.21797692775726318
0.6132745742797852,1.4933873414993286,-0.21685083210468292
0.6312804818153381,1.5073519945144653,-0.2161504626274109
0.6478598117828369,1.5176420211791992,-0.21481168270111084
0.6708983182907104,1.5419564247131348,-0.21529148519039154
0.6942415833473206,1.566057801246643,-0.21566101908683777
0.7164788842201233,1.5863343477249146,-0.2153790146112442
0.7404901385307312,1.6099859476089478,-0.21541135013103485
0.7647419571876526,1.6334491968154907,-0.21527957916259766
0.7880434393882751,1.653003454208374,-0.21443159878253937
0.8268142342567444,1.7037779092788696,-0.21750469505786896
0.8506393432617188,1.7229043245315552,-0.21632839739322662
0.8798739314079285,1.7522588968276978,-0.21629410982131958
0.9080179333686829,1.7777347564697266,-0.2155774086713791
0.9384431838989258,1.8063123226165771,-0.21507440507411957
0.9746362566947937,1.8449437618255615,-0.21547290682792664
1.0055712461471558,1.873063087463379,-0.21454183757305145
1.0504562854766846,1.924494981765747,-0.2159179002046585
1.0904327630996704,1.9652200937271118,-0.21583162248134613
1.1324410438537598,2.0091617107391357,-0.2158357948064804
1.1832436323165894,2.0659186840057373,-0.21680013835430145
1.2330631017684937,2.1186509132385254,-0.21699489653110504
1.2892225980758667,2.181087017059326,-0.21784083545207977
1.3139256238937378,2.1896579265594482,-0.21308334171772003
1.3413918018341064,2.2009897232055664,-0.2082911729812622
1.3529448509216309,2.1853973865509033,-0.20076757669448853
1.3592623472213745,2.1637065410614014,-0.1928340643644333
1.3824822902679443,2.168058395385742,-0.187069833278656
1.3935340642929077,2.15229868888855,-0.17938517034053802
1.7951500415802002,2.73315691947937,-0.21970796585083008
1.8593652248382568,2.7895662784576416,-0.21559655666351318
1.8615856170654297,2.7512497901916504,-0.20381373167037964
1.8379374742507935,2.6784098148345947,-0.18977300822734833
1.873802661895752,2.6922249794006348,-0.18176822364330292
1.4471410512924194,2.048737049102783,-0.13111037015914917
1.4379658699035645,2.0078797340393066,-0.1212516501545906
1.4608052968978882,2.0111241340637207,-0.11389168351888657
1.4791311025619507,2.007847547531128,-0.10584831237792969
2.1822402477264404,3.086359977722168,0.39767685532569885
2.171112298965454,3.1210901737213135,0.4119671583175659
2.1640241146087646,3.1575746536254883,0.42574188113212585
2.486556053161621,3.6876869201660156,0.507557213306427
2.3051211833953857,3.4759104251861572,0.4877513647079468
2.2759315967559814,3.484342098236084,0.4973757565021515
1.6021708250045776,2.491743803024292,0.3616017997264862
1.6385465860366821,2.5915942192077637,0.38201966881752014
1.5902471542358398,2.556751251220703,0.3825046718120575
3.0306742191314697,4.948979377746582,0.7506018877029419
2.997281074523926,4.976341247558594,0.7645955681800842
2.978489398956299,5.030664443969727,0.7826774716377258
2.949659585952759,5.0636396408081055,0.7969945073127747
2.937884569168091,5.126605033874512,0.8161582350730896
2.906949043273926,5.1600847244262695,0.8301689624786377
2.8955066204071045,5.231013298034668,0.8501854538917542
2.860917329788208,5.256965160369873,0.8626502156257629
2.8454205989837646,5.316215991973877,0.8804644346237183
2.8130156993865967,5.3490519523620605,0.8938935995101929
2.7990882396698,5.419857978820801,0.9132779240608215
2.7759690284729004,5.473269462585449,0.929817259311676
2.7595102787017822,5.535989761352539,0.9477020502090454
2.727057695388794,5.5674848556518555,0.9603567719459534
1.2153983116149902,2.5287439823150635,0.43928593397140503
1.1964365243911743,2.5370001792907715,0.4437144696712494
1.1811107397079468,2.551917314529419,0.4492688477039337
1.1630550622940063,2.559457778930664,0.4534587264060974
1.1512082815170288,2.580958604812622,0.46016401052474976
2.5745837688446045,5.887259006500244,1.0555483102798462
2.5482521057128906,5.947401523590088,1.0723695755004883
2.5213491916656494,6.003246307373047,1.0883309841156006
2.4936022758483887,6.054928779602051,1.103490948677063
2.4638612270355225,6.102895259857178,1.1180856227874756
2.4306321144104004,6.147827625274658,1.131598711013794
2.4039695262908936,6.214595794677734,1.1491599082946777
2.3760595321655273,6.277333736419678,1.166009783744812
2.349215507507324,6.339334011077881,1.18264901638031
2.320363759994507,6.397597312927246,1.1987152099609375
2.2876131534576416,6.448755741119385,1.2132689952850342
2.2559974193573,6.51141357421875,1.229620099067688
2.218212604522705,6.555470943450928,1.24250328540802
2.1894187927246094,6.6245269775390625,1.2601455450057983
2.1522998809814453,6.667632579803467,1.2728937864303589
2.0892722606658936,6.6298933029174805,1.2702556848526
2.028353691101074,6.6033034324646,1.2691893577575684
1.964971899986267,6.5651140213012695,1.2655593156814575
1.8990260362625122,6.5153069496154785,1.2596912384033203
1.8446325063705444,6.497823238372803,1.2599812746047974
1.7939876317977905,6.490919589996338,1.262330412864685
1.7324951887130737,6.442866802215576,1.2566999197006226
1.6729457378387451,6.405994415283203,1.2525683641433716
0.8270427584648132,3.262387752532959,0.6393784880638123
1.5658671855926514,6.367830276489258,1.2509407997131348
0.7894504070281982,3.310147762298584,0.6517913937568665
1.4565742015838623,6.301283359527588,1.243700385093689
1.3975276947021484,6.246884822845459,1.235973834991455
1.3530055284500122,6.255864143371582,1.2400933504104614
1.296500325202942,6.208293914794922,1.2328376770019531
1.247557520866394,6.194077491760254,1.2322403192520142
1.1966428756713867,6.164308547973633,1.2285547256469727
1.152137279510498,6.168119430541992,1.2316290140151978
1.1010010242462158,6.129980564117432,1.2263257503509521
1.0512617826461792,6.099163055419922,1.2220522165298462
0.9936030507087708,6.018931865692139,1.2075031995773315
0.9531950950622559,6.040405750274658,1.213403344154358
0.9087031483650208,6.038929462432861,1.2147722244262695
0.8617627620697021,6.0104146003723145,1.2107009887695312
0.8126099109649658,5.962576389312744,1.202773928642273
0.7710076570510864,5.967568397521973,1.2054003477096558
0.6151757836341858,5.041051387786865,1.0190788507461548
0.5813636183738708,5.060147285461426,1.0238178968429565
0.5536438226699829,5.143800735473633,1.041704535484314
0.41041743755340576,4.0804243087768555,0.8271347880363464
0.3812527656555176,4.075292587280273,0.8269129991531372
0.35981830954551697,4.157680988311768,0.8445038795471191
0.33126938343048096,4.167540550231934,0.8470078110694885
0.29923945665359497,4.139094352722168,0.8415964245796204
0.270643949508667,4.148576736450195,0.8439303636550903
0.45121681690216064,7.750114917755127,1.577410101890564
0.39728087186813354,7.752773284912109,1.5788544416427612
0.3416368365287781,7.71681547164917,1.5725065469741821
0.28630560636520386,7.699655532836914,1.5698809623718262
0.23205535113811493,7.686086177825928,1.5671451091766357
0.1774759590625763,7.649176120758057,1.5597261190414429
0.1234235167503357,7.611881256103516,1.5523035526275635
0.07033949345350266,7.59334135055542,1.5487782955169678
0.016605496406555176,7.555296421051025,1.5413533449172974
-0.03579520806670189,7.53218936920166,1.537042260169983
-0.08762182295322418,7.4973649978637695,1.5297712087631226
-0.13924551010131836,7.473752975463867,1.5244131088256836
-0.19085121154785156,7.46509313583374,1.5221813917160034
-0.2419317215681076,7.440771579742432,1.5168302059173584
-0.29483291506767273,7.446663856506348,1.517707109451294
-0.24799033999443054,5.326289176940918,1.0853776931762695
-0.2896728515625,5.412450313568115,1.1028107404708862
-0.32525989413261414,5.379995346069336,1.0953794717788696
-0.36246752738952637,5.377863883972168,1.094165325164795
-0.39771732687950134,5.341073036193848,1.0859450101852417
-0.4347795248031616,5.338429927825928,1.0847346782684326
-0.41415297985076904,4.683366775512695,0.9510848522186279
-0.43974193930625916,4.608175277709961,0.9353232979774475
-0.4715915322303772,4.605287075042725,0.934031069278717
-0.5021346807479858,4.586991310119629,0.9292529225349426
-0.5319275259971619,4.568546772003174,0.9245131611824036
-0.5633666515350342,4.56511116027832,0.9228578209877014
-0.5906339883804321,4.527239799499512,0.9142829775810242
-0.6210552453994751,4.515769004821777,0.9110924005508423
-0.6530041098594666,4.511600494384766,0.9094060063362122
-0.6817036867141724,4.492293834686279,0.9041714668273926
-0.710065484046936,4.472832202911377,0.8988868594169617
-0.7369391918182373,4.445629119873047,0.8920999765396118
-0.7676860094070435,4.440873622894287,0.8898540139198303
-0.79588383436203,4.420783042907715,0.8845743536949158
-0.82367342710495,4.396651268005371,0.8785175085067749
-0.7105851173400879,3.6538193225860596,0.7288939952850342
-0.7385569214820862,3.664379835128784,0.7295483946800232
-0.7573079466819763,3.629687786102295,0.7212331295013428
-0.9294289946556091,4.307108402252197,0.854195773601532
-0.9649816155433655,4.323434352874756,0.8557665348052979
-0.9968429803848267,4.324634552001953,0.8544023633003235
-1.023358702659607,4.303239345550537,0.8485514521598816
-1.0544532537460327,4.304291725158691,0.8466446995735168
-1.0799790620803833,4.282793998718262,0.8403452038764954
-1.1057615280151367,4.261023044586182,0.834010660648346
-1.1324647665023804,4.242758274078369,0.8284025192260742
-1.16205894947052,4.235418796539307,0.8249701261520386
-1.187438726425171,4.21308708190918,0.8186646699905396
-1.2181628942489624,4.213059902191162,0.8161917328834534
-1.2428486347198486,4.190598964691162,0.8093265295028687
-1.2689961194992065,4.175485134124756,0.8039762377738953
-1.291158676147461,4.145320892333984,0.7957203984260559
-1.3248156309127808,4.151599884033203,0.7944886684417725
-1.3442533016204834,4.113783836364746,0.7848691940307617
-1.3774534463882446,4.1198649406433105,0.7831245064735413
-1.4003071784973145,4.096757411956787,0.7758665680885315
-1.4254052639007568,4.080794334411621,0.7700164318084717
-1.4538753032684326,4.071610927581787,0.7653906941413879
-1.4784096479415894,4.051353931427002,0.7587203979492188
-1.4905316829681396,3.9985404014587402,0.7459795475006104
-1.5260907411575317,4.010773181915283,0.7448848485946655
-1.561418890953064,4.02287483215332,0.7438210248947144
-1.574534296989441,3.977322578430176,0.7321144342422485
-1.6082046031951904,3.9814114570617676,0.729486346244812
-1.6391105651855469,3.978086471557617,0.7255129814147949
-1.6668803691864014,3.967546224594116,0.719937264919281
-1.6874501705169678,3.9431099891662598,0.7116941213607788
-1.723126769065857,3.9539120197296143,0.7098416686058044
-1.7412707805633545,3.921717643737793,0.7001580595970154
-1.7529762983322144,3.875272750854492,0.6879796385765076
-1.7966604232788086,3.898799419403076,0.6881055235862732
-1.8096519708633423,3.8598361015319824,0.6768959164619446
-1.8321311473846436,3.8417632579803467,0.6694251894950867
-1.8788065910339355,3.871824264526367,0.6702029705047607
-1.8890855312347412,3.824960231781006,0.6575717926025391
-1.912955641746521,3.8055953979492188,0.6496349573135376
-1.941811442375183,3.800811290740967,0.643866777420044
-1.9671539068222046,3.7889328002929688,0.6369103193283081
-1.9969319105148315,3.7832746505737305,0.6308420896530151
-2.0127506256103516,3.7498109340667725,0.6200590133666992
-2.029572010040283,3.7199513912200928,0.6098353862762451
-1.7115898132324219,3.0883872509002686,0.501574695110321
-1.7358776330947876,3.0847089290618896,0.4963253438472748
-0.8413587808609009,1.4712241888046265,0.23435437679290771
-0.8478795886039734,1.4590438604354858,0.23005671799182892
-0.8694294095039368,1.473861575126648,0.2298746258020401
-0.8673449754714966,1.448603630065918,0.2233717292547226
-0.8894121050834656,1.4629687070846558,0.222905233502388
-0.8916857838630676,1.4439526796340942,0.21726541221141815
-0.8850206136703491,1.4121320247650146,0.20969489216804504
-0.8901333212852478,1.4002724885940552,0.20509904623031616
-0.9041045904159546,1.4010937213897705,0.20219184458255768
-0.901278018951416,1.3757336139678955,0.19549638032913208
-0.910400927066803,1.3702665567398071,0.19158202409744263
-2.376188039779663,3.5281081199645996,0.48506295680999756
-2.4295387268066406,3.5544092655181885,0.4795946180820465
-1.2573374509811401,1.8123197555541992,0.2396898865699768
-1.823079228401184,2.593012809753418,0.335890531539917
-1.2171378135681152,1.7424885034561157,-0.12063007801771164
-1.4187349081039429,2.2680718898773193,-0.21146439015865326
-1.3713669776916504,2.227997064590454,-0.21449115872383118
-1.2772216796875,2.1425321102142334,-0.21865230798721313
-1.2494574785232544,2.1311047077178955,-0.22354921698570251
-0.8200888633728027,1.4217511415481567,-0.1530493199825287
-0.82127845287323,1.4474682807922363,-0.15969684720039368
-1.090783715248108,1.9554742574691772,-0.2209334671497345
-1.0505499839782715,1.9148880243301392,-0.22123581171035767
-1.0129599571228027,1.8771852254867554,-0.22158969938755035
-0.9716141223907471,1.8325636386871338,-0.2209332287311554
-0.9330664873123169,1.790765643119812,-0.2202758938074112
-0.904416024684906,1.7656229734420776,-0.22135452926158905
-0.8742702007293701,1.7367857694625854,-0.22180622816085815
-0.8426135182380676,1.7042701244354248,-0.22158648073673248
-0.8131585717201233,1.6748974323272705,-0.2216225564479828
-0.7812258005142212,1.6380352973937988,-0.22038166224956512
-0.7545943856239319,1.6114532947540283,-0.22032426297664642
-0.7331343293190002,1.595203161239624,-0.22154396772384644
-0.712166428565979,1.5786455869674683,-0.2225768119096756
-0.6931346654891968,1.5653811693191528,-0.22397452592849731
-0.675482451915741,1.5556490421295166,-0.2258017659187317
-0.6520784497261047,1.5314534902572632,-0.22537469863891602
-0.638185441493988,1.5283739566802979,-0.2279440462589264
-0.614149272441864,1.5000953674316406,-0.22667716443538666
-0.5860674381256104,1.4608768224716187,-0.22353273630142212
-0.5696783065795898,1.4502229690551758,-0.22468774020671844
-0.553817629814148,1.4392966032028198,-0.22566740214824677
-0.539552628993988,1.431821584701538,-0.2271391898393631
-0.523955762386322,1.4206557273864746,-0.22789070010185242
-0.49577316641807556,1.4052191972732544,-0.23036226630210876
0.5261449813842773,1.4037151336669922,-0.22332528233528137
0.5359114408493042,1.4005013704299927,-0.22025932371616364
0.5541022419929504,1.4188176393508911,-0.22054605185985565
0.5741282105445862,1.4405049085617065,-0.22124913334846497
0.590124249458313,1.4512360095977783,-0.22020451724529266
0.5974199771881104,1.4403860569000244,-0.2157369703054428
0.6285064220428467,1.4866111278533936,-0.2197788804769516
0.6420352458953857,1.4897702932357788,-0.21730944514274597
0.6727888584136963,1.531806230545044,-0.22041049599647522
0.689738929271698,1.5417728424072266,-0.2187049686908722
0.7102102041244507,1.5585784912109375,-0.21783576905727386
0.73259037733078,1.5786898136138916,-0.21734032034873962
0.7536948323249817,1.5950369834899902,-0.21622177958488464
0.7714400291442871,1.6043118238449097,-0.21401074528694153
0.8080577850341797,1.6517709493637085,-0.2167479246854782
0.8337363004684448,1.6742924451828003,-0.21589778363704681
0.8683838248252869,1.7139252424240112,-0.21715058386325836
0.9014596939086914,1.7499244213104248,-0.21769605576992035
0.926090657711029,1.7683476209640503,-0.21590274572372437
0.9641931653022766,1.8103264570236206,-0.21669241786003113
0.9935563802719116,1.834855318069458,-0.21520516276359558
1.0475459098815918,1.9034138917922974,-0.21850523352622986
