X,Y,Z
1.0308358669281006,6.108942985534668,1.1693052053451538
0.985706627368927,6.100227355957031,1.1695778369903564
0.9296859502792358,6.019110202789307,1.155989646911621
0.8860815167427063,6.017441272735596,1.157052993774414
0.8402620553970337,6.000314235687256,1.1550014019012451
0.7929814457893372,5.9753265380859375,1.1515066623687744
0.7477174401283264,5.953651428222656,1.1486600637435913
0.596101701259613,5.028718948364258,0.9713695645332336
0.5674329996109009,5.089566230773926,0.9843447804450989
0.539047360420227,5.161750793457031,0.9993174076080322
0.39573636651039124,4.065703392028809,0.7876220345497131
0.36870867013931274,4.091148853302002,0.7931028604507446
0.34788110852241516,4.188992500305176,0.8126651644706726
0.3163912296295166,4.160518646240234,0.8077647686004639
0.2863713502883911,4.147116661071777,0.8058226704597473
0.2603541612625122,4.194736957550049,0.8157821297645569
0.4260115623474121,7.757181167602539,1.5089881420135498
0.37167733907699585,7.759800434112549,1.5098786354064941
0.3157610595226288,7.723727703094482,1.5033124685287476
0.26050132513046265,7.683415412902832,1.4959869384765625
0.2067163735628128,7.6695380210876465,1.4938747882843018
0.1515667736530304,7.6246337890625,1.485798954963684
0.09842579066753387,7.613914489746094,1.4840034246444702
0.04523392394185066,7.5761003494262695,1.4764015674591064
-0.007442218717187643,7.553252220153809,1.4717893600463867
-0.059767864644527435,7.5262041091918945,1.466430902481079
-0.11283254623413086,7.51028299331665,1.4633119106292725
-0.16439615190029144,7.478675365447998,1.457208275794983
-0.2154146283864975,7.442882537841797,1.4503587484359741
-0.26667970418930054,7.433740615844727,1.4478840827941895
-0.31969669461250305,7.466405868530273,1.453487515449524
-0.2698785364627838,5.422957897186279,1.0551879405975342
-0.30641618371009827,5.3904500007629395,1.0484074354171753
-0.34391334652900696,5.388344764709473,1.047600269317627
-0.3799804747104645,5.366856098175049,1.043076992034912
-0.41656652092933655,5.35664701461792,1.040560007095337
-0.4521941840648651,5.338653564453125,1.036091685295105
-0.4230608642101288,4.609965801239014,0.8938602209091187
-0.4555920660495758,4.614823818206787,0.8940454125404358
-0.48443785309791565,4.581282138824463,0.8868314623832703
-0.5136989951133728,4.555182456970215,0.8811094760894775
-0.5471844673156738,4.566986560821533,0.8827627897262573
-0.5772291421890259,4.548166751861572,0.8780180215835571
-0.6058974266052246,4.525444030761719,0.8724768161773682
-0.6348159313201904,4.506338596343994,0.867682695388794
-0.6659471988677979,4.502204418182373,0.8658090233802795
-0.6937748789787292,4.475062847137451,0.8595494031906128
-0.7242124676704407,4.462828159332275,0.8561861515045166
-0.7499136924743652,4.427842617034912,0.8482910394668579
-0.7828953266143799,4.4381890296936035,0.8487498760223389
-0.811848521232605,4.4256439208984375,0.8448704481124878
-0.8371704816818237,4.3940324783325195,0.8373973369598389
-0.7187332510948181,3.635172128677368,0.6916018128395081
-0.7475109696388245,3.645439863204956,0.6923881769180298
-0.7744128704071045,3.6480648517608643,0.6917516589164734
-0.9506597518920898,4.333551406860352,0.819868803024292
-0.9818192720413208,4.335037708282471,0.8183163404464722
-1.0060499906539917,4.306368827819824,0.8111156225204468
-1.0382895469665527,4.307194709777832,0.8094453811645508
-1.0645681619644165,4.285506725311279,0.8036144971847534
-1.0924994945526123,4.271103858947754,0.7991979718208313
-1.120634913444519,4.260472297668457,0.7950885891914368
-1.1475250720977783,4.245997428894043,0.7902000546455383
-1.1747571229934692,4.231225490570068,0.7852638363838196
-1.2019716501235962,4.216239929199219,0.7803234457969666
-1.2335751056671143,4.21578311920166,0.7780935168266296
-1.2563819885253906,4.18561315536499,0.770425021648407
-1.278150200843811,4.1555938720703125,0.7624431848526001
-1.3090850114822388,4.154776096343994,0.7596766352653503
-1.3324741125106812,4.131900310516357,0.7529625296592712
-1.3635618686676025,4.130606651306152,0.7501571774482727
-1.3900587558746338,4.114397048950195,0.7446534633636475
-1.4138368368148804,4.090747833251953,0.7378570437431335
-1.4416214227676392,4.0818586349487305,0.733309805393219
-1.4683756828308105,4.069057464599609,0.7279722094535828
-1.4905081987380981,4.04540491104126,0.7207962274551392
-1.4997981786727905,3.985222339630127,0.7070878148078918
-1.5415366888046265,4.011415481567383,0.7087463140487671
-1.566563367843628,3.9942760467529297,0.7026745676994324
-1.6024317741394043,4.005865573883057,0.7012208700180054
-1.6235154867172241,3.9816150665283203,0.693576455116272
-1.644789457321167,3.9570794105529785,0.685882031917572
-1.6725250482559204,3.946362018585205,0.6805388331413269
-1.703286051750183,3.9425132274627686,0.6764029264450073
-1.724236249923706,3.9175171852111816,0.6682532429695129
-1.7504013776779175,3.906869411468506,0.6625407934188843
-1.7701947689056396,3.881943702697754,0.6544352769851685
-1.7942949533462524,3.8633596897125244,0.6472548246383667
-1.8347316980361938,3.8795366287231445,0.645908772945404
-1.8550206422805786,3.8537826538085938,0.6372808218002319
-1.8841476440429688,3.8492817878723145,0.63206946849823
-1.8995153903961182,3.816875457763672,0.6223201751708984
-1.922897219657898,3.7975707054138184,0.6145273447036743
-1.9496378898620605,3.7849884033203125,0.607861340045929
-1.9824804067611694,3.7864584922790527,0.6032146215438843
-2.000755786895752,3.7604405879974365,0.5939555168151855
-2.0222954750061035,3.741213083267212,0.5858539938926697
-1.6964480876922607,3.0868210792541504,0.47896069288253784
-1.7239466905593872,3.0858097076416016,0.4743836522102356
-1.71954345703125,3.031491279602051,0.4613564908504486
-0.8274313807487488,1.4365625381469727,0.21635940670967102
-0.8608890771865845,1.471368432044983,0.2191944122314453
-0.8713283538818359,1.4657007455825806,0.21589314937591553
-0.8772290945053101,1.4536203145980835,0.21157626807689667
-0.8867766857147217,1.4483041763305664,0.20820516347885132
-0.8640753030776978,1.3899089097976685,0.19716323912143707
-0.8987706303596497,1.4235973358154297,0.1991647630929947
-0.8874316215515137,1.3853307962417603,0.19101722538471222
-0.8879818320274353,1.3669918775558472,0.18566535413265228
-0.901650607585907,1.3678321838378906,0.18277709186077118
-0.9503954648971558,1.419890284538269,0.186443492770195
-2.3947594165802,3.529042959213257,0.45501604676246643
-1.2859077453613281,1.8693870306015015,0.23650521039962769
-1.3704478740692139,1.9628617763519287,0.2430741786956787
-1.2100838422775269,1.7193087339401245,-0.11257389187812805
-1.407153606414795,2.2663774490356445,-0.20798401534557343
-1.3942266702651978,2.282788038253784,-0.2160715013742447
-1.3733434677124023,2.285628080368042,-0.22279445827007294
-1.2857203483581543,2.1740522384643555,-0.2178015559911728
-0.8304752111434937,1.4519680738449097,-0.15313339233398438
-1.134885549545288,2.016585350036621,-0.2177409678697586
-1.1086171865463257,2.003878593444824,-0.22143405675888062
-1.0696462392807007,1.9669734239578247,-0.22219973802566528
-1.020833969116211,1.9087872505187988,-0.22012270987033844
-0.978324294090271,1.860358476638794,-0.2188733071088791
-0.9236514568328857,1.787511944770813,-0.21440374851226807
-0.891107439994812,1.7555983066558838,-0.21461237967014313
-0.8491842150688171,1.7022476196289062,-0.2118353396654129
-0.8198463320732117,1.6729044914245605,-0.21181923151016235
-0.8210607767105103,1.706276535987854,-0.219702810049057
-0.7988603115081787,1.6905226707458496,-0.22121982276439667
-0.7672893404960632,1.65337073802948,-0.21976961195468903
-0.7374785542488098,1.6195900440216064,-0.21861116588115692
-0.7130584716796875,1.5960592031478882,-0.21862176060676575
-0.6985601782798767,1.5934834480285645,-0.22138534486293793
-0.6734728217124939,1.5658471584320068,-0.22058704495429993
-0.6591712236404419,1.5630134344100952,-0.22313489019870758
-0.638772189617157,1.5458394289016724,-0.22362157702445984
-0.6190750598907471,1.5283088684082031,-0.223879873752594
-0.5982933044433594,1.5069658756256104,-0.22348906099796295
-0.5790858268737793,1.4890962839126587,-0.22344623506069183
-0.562874972820282,1.4782856702804565,-0.22438476979732513
-0.5468045473098755,1.4673373699188232,-0.2252742201089859
-0.5311312675476074,1.4561710357666016,-0.22604024410247803
-0.5116477608680725,1.4339908361434937,-0.22494523227214813
-0.4988253116607666,1.4298776388168335,-0.22660480439662933
-0.4861811101436615,1.425626277923584,-0.22820915281772614
0.5070381164550781,1.4273325204849243,-0.2244117110967636
0.5269518494606018,1.4209860563278198,-0.21873916685581207
0.546428382396698,1.4430394172668457,-0.2196999192237854
0.5565776824951172,1.4396065473556519,-0.2167229801416397
0.5810900926589966,1.4720263481140137,-0.21903957426548004
0.5970460176467896,1.4827985763549805,-0.21799327433109283
0.6102458834648132,1.4862562417984009,-0.21584083139896393
0.6267141103744507,1.4966685771942139,-0.2146175503730774
0.6570563316345215,1.538982629776001,-0.21786582469940186
0.6771568655967712,1.5561336278915405,-0.217288538813591
0.6989111304283142,1.5767021179199219,-0.21715368330478668
0.7132033109664917,1.5793037414550781,-0.21443884074687958
0.7373083233833313,1.602907419204712,-0.21451133489608765
0.7549268007278442,1.6123443841934204,-0.21252863109111786
0.7912442088127136,1.6600650548934937,-0.21540693938732147
0.8232853412628174,1.696858286857605,-0.21665246784687042
0.847283124923706,1.715898036956787,-0.21549685299396515
0.8694967031478882,1.7313998937606812,-0.213737353682518
0.9061233401298523,1.7743346691131592,-0.21521468460559845
0.9347725510597229,1.7994632720947266,-0.21426184475421906
0.9730132818222046,1.841408371925354,-0.21505770087242126
1.0094736814498901,1.8797972202301025,-0.21526744961738586
1.0466570854187012,1.9177082777023315,-0.21517632901668549
1.0865929126739502,1.9584555625915527,-0.21509911119937897
1.1325658559799194,2.0090904235839844,-0.21584245562553406
1.1831309795379639,2.06597638130188,-0.21686752140522003
1.2347344160079956,2.1221702098846436,-0.21743875741958618
1.289314866065979,2.1810266971588135,-0.2178996056318283
1.3180304765701294,2.1962735652923584,-0.21373866498470306
1.337053894996643,2.194502592086792,-0.2077837735414505
1.3528029918670654,2.1854796409606934,-0.20082594454288483
1.3552746772766113,2.157012701034546,-0.19223614037036896
1.373862862586975,2.1550614833831787,-0.18605461716651917
1.4144744873046875,2.1851577758789062,-0.18216872215270996
1.7954760789871216,2.73294734954834,-0.21964845061302185
1.8550080060958862,2.7830982208251953,-0.2151300311088562
1.8438528776168823,2.72558331489563,-0.20195701718330383
1.8470739126205444,2.69106125831604,-0.19063736498355865
1.864668607711792,2.6795654296875,-0.18103815615177155
1.446844458580017,2.048940896987915,-0.13119572401046753
1.451757550239563,2.02679705619812,-0.12238334864377975
1.465051531791687,2.0176756381988525,-0.11442302912473679
1.4792242050170898,2.0077767372131348,-0.10588707029819489
2.2254180908203125,3.1462321281433105,0.40541642904281616
2.5948328971862793,3.7299087047576904,0.4923204481601715
2.5846402645111084,3.772942543029785,0.5088391304016113
2.493711471557617,3.6969032287597656,0.5089010000228882
2.3078393936157227,3.4787867069244385,0.4880369007587433
2.28163743019104,3.4944894313812256,0.4989323914051056
1.6106607913970947,2.5047221183776855,0.36350974440574646
1.630804181098938,2.5781595706939697,0.37998831272125244
1.5980076789855957,2.570157527923584,0.38461336493492126
3.0378870964050293,4.962721347808838,0.7526808381080627
2.99215030670166,4.96586275100708,0.7631046772003174
2.9754576683044434,5.023489952087402,0.7814518809318542
2.9525744915008545,5.070863723754883,0.7982774376869202
2.9407687187194824,5.133869171142578,0.8172453045845032
2.9115755558013916,5.166350841522217,0.8312968015670776
2.879528284072876,5.200099468231201,0.8450859785079956
2.852708101272583,5.243797779083252,0.8605923652648926
2.833513021469116,5.2962775230407715,0.8771205544471741
2.8204288482666016,5.362612724304199,0.8962092995643616
2.792957305908203,5.405640125274658,0.9109234809875488
2.7695729732513428,5.45920991897583,0.9273632764816284
2.765645980834961,5.55017614364624,0.9501399397850037
2.729663848876953,5.574819564819336,0.9614696502685547
1.2158259153366089,2.528528928756714,0.43934205174446106
1.196867823600769,2.5368006229400635,0.44369205832481384
1.1729905605316162,2.5344223976135254,0.4461921155452728
1.169057846069336,2.573671340942383,0.45595911145210266
1.1508625745773315,2.581125497817993,0.46009424328804016
2.5724334716796875,5.879762649536133,1.0544062852859497
2.549260139465332,5.946981906890869,1.0723036527633667
2.518548011779785,5.996078014373779,1.086970567703247
2.4928970336914062,6.055230140686035,1.103426218032837
2.4631187915802,6.103236198425293,1.117856740951538
2.437030792236328,6.161836624145508,1.1343531608581543
2.404837131500244,6.214260101318359,1.149159550666809
2.368577241897583,6.255498886108398,1.1618692874908447
2.3456990718841553,6.332433700561523,1.1812864542007446
2.3194658756256104,6.397953510284424,1.1985503435134888
2.287280321121216,6.4488844871521,1.2132090330123901
2.2541208267211914,6.503893852233887,1.228408932685852
2.2250864505767822,6.573440074920654,1.2459485530853271
2.1891226768493652,6.624627113342285,1.2601357698440552
2.1537551879882812,6.675253868103027,1.2742174863815308
2.0906198024749756,6.637568473815918,1.2714438438415527
2.0217361450195312,6.581185340881348,1.2651417255401611
1.9654836654663086,6.564924240112305,1.2657496929168701
1.9038913249969482,6.529883861541748,1.2625786066055298
1.8438886404037476,6.498022079467773,1.260042667388916
1.7930349111557007,6.491192817687988,1.2622790336608887
1.7336734533309937,6.450541019439697,1.2579396963119507
1.675126075744629,6.413296699523926,1.2543363571166992
0.8197348713874817,3.2325453758239746,0.6336613893508911
1.5636780261993408,6.356503963470459,1.2487990856170654
0.7909989953041077,3.317666530609131,0.6532617211341858
1.4560279846191406,6.301437854766846,1.243557095527649
1.4069887399673462,6.291989326477051,1.2445640563964844
1.3516753911972046,6.248271942138672,1.2387688159942627
1.290845274925232,6.178102970123291,1.227047085762024
1.2421785593032837,6.16386604309082,1.2262909412384033
1.1981637477874756,6.171833038330078,1.2300069332122803
1.1462215185165405,6.138059616088867,1.225459098815918
1.0979362726211548,6.115009784698486,1.2230335474014282
1.050679326057434,6.095367908477783,1.221328616142273
0.9952921867370605,6.0263671875,1.2092853784561157
0.9560601711273193,6.055442810058594,1.2165758609771729
0.908869743347168,6.038900852203369,1.2147892713546753
0.8591803908348083,5.995319843292236,1.2075705528259277
0.8132720589637756,5.970259189605713,1.2041006088256836
0.7594144344329834,5.880279064178467,1.1875618696212769
0.6181328892707825,5.06378173828125,1.023980736732483
0.5806708335876465,5.052482604980469,1.0224469900131226
0.5592241883277893,5.193260669708252,1.0517722368240356
0.41111013293266296,4.088062286376953,0.8286290764808655
0.3811391592025757,4.0753326416015625,0.8267684578895569
0.35970863699913025,4.157740592956543,0.8442582488059998
0.33072957396507263,4.159891605377197,0.8455085158348083
0.30055201053619385,4.15432596206665,0.8448354601860046
0.2713707387447357,4.156194686889648,0.8455203175544739
0.24512003362178802,4.207535743713379,0.856315016746521
0.39724674820899963,7.752832412719727,1.5785720348358154
0.34172746539115906,7.7169060707092285,1.5720438957214355
0.2858109176158905,7.684445858001709,1.566307783126831
0.23174835741519928,7.663064479827881,1.5627317428588867
0.17794133722782135,7.649146556854248,1.559816598892212
0.12377879023551941,7.600409030914307,1.5498770475387573
0.07048293203115463,7.570427417755127,1.543837308883667
0.016864491626620293,7.555384159088135,1.5409214496612549
-0.03551069274544716,7.524658679962158,1.5348780155181885
-0.08759191632270813,7.5050530433654785,1.5311756134033203
-0.13914568722248077,7.473721504211426,1.5245754718780518
-0.19042916595935822,7.449785232543945,1.5190775394439697
-0.24151140451431274,7.4293212890625,1.514364242553711
-0.295072078704834,7.454370975494385,1.5189929008483887
-0.25131529569625854,5.399001598358154,1.099879503250122
-0.28884804248809814,5.397244930267334,1.099287986755371
-0.3263684809207916,5.39522647857666,1.0986964702606201
-0.3615870475769043,5.362547397613525,1.0911961793899536
-0.39781835675239563,5.341058731079102,1.0859781503677368
-0.43471184372901917,5.338449001312256,1.084667682647705
-0.46395501494407654,5.2478556632995605,1.065542221069336
-0.43898147344589233,4.60060453414917,0.9335344433784485
-0.4717530906200409,4.605288982391357,0.9339411854743958
-0.5025002360343933,4.586910724639893,0.9294556975364685
-0.5322784781455994,4.568484783172607,0.9246191382408142
-0.5618270039558411,4.549863815307617,0.9197941422462463
-0.5911444425582886,4.531049728393555,0.9149805903434753
-0.6200135350227356,4.508213043212891,0.9093960523605347
-0.6518951058387756,4.504072666168213,0.9076147675514221
-0.6797389984130859,4.477058410644531,0.9012897610664368
-0.7092254757881165,4.465176582336426,0.8975152373313904
-0.7385175228118896,4.453124523162842,0.8936707973480225
-0.7689832448959351,4.448431015014648,0.8913472890853882
-0.795642614364624,4.420847415924072,0.8844728469848633
-0.824856698513031,4.404270172119141,0.8798200488090515
-0.7135136723518372,3.6688787937164307,0.7318556308746338
-0.7388405799865723,3.6642942428588867,0.7296904921531677
-0.7591410279273987,3.637127637863159,0.7227823734283447
-0.9311570525169373,4.314583778381348,0.8556696176528931
-0.9662693738937378,4.331019878387451,0.8571779727935791
-0.9964410662651062,4.324760913848877,0.8542301654815674
-1.0230698585510254,4.303350925445557,0.8483342528343201
-1.0547852516174316,4.30418062210083,0.8467943668365479
-1.0784019231796265,4.275265693664551,0.8389402627944946
-1.106073260307312,4.260951042175293,0.8339654207229614
-1.1340440511703491,4.2502946853637695,0.8297910690307617
-1.1616276502609253,4.235567092895508,0.8248150944709778
-1.1848951578140259,4.205873966217041,0.8169792294502258
-1.214250922203064,4.198175430297852,0.8134633898735046
-1.245319128036499,4.197865009307861,0.810821533203125
-1.2715054750442505,4.182755470275879,0.8053776621818542
-1.2974998950958252,4.167490482330322,0.7999533414840698
-1.3195750713348389,4.13715124130249,0.791611909866333
-1.3461469411849976,4.1212849617004395,0.7860889434814453
-1.380428433418274,4.126948833465576,0.7846599221229553
-1.4033340215682983,4.103839874267578,0.7772982716560364
-1.4259873628616333,4.080600261688232,0.7699674963951111
-1.4471361637115479,4.053596496582031,0.7619807720184326
-1.4675885438919067,4.02255916595459,0.7532033920288086
-1.4903632402420044,3.9986326694488525,0.7458207011222839
-1.5295771360397339,4.017665386199951,0.746309220790863
-1.559358835220337,4.015415668487549,0.7424939274787903
-1.5778356790542603,3.9843058586120605,0.7333877086639404
-1.607915997505188,3.9815268516540527,0.729489803314209
-1.630027174949646,3.956850051879883,0.7215216755867004
-1.664299488067627,3.9602718353271484,0.718652606010437
-1.6912510395050049,3.9498579502105713,0.7130212783813477
-1.7146544456481934,3.932387590408325,0.705975353717804
-1.73789644241333,3.9147706031799316,0.6989489197731018
-1.7589747905731201,3.8894951343536377,0.690436065196991
-1.7901018857955933,3.8848519325256348,0.685533881187439
-1.807141661643982,3.852487325668335,0.6756926774978638
-1.8428633213043213,3.862311840057373,0.6729769110679626
-1.8787927627563477,3.871832847595215,0.6701905131340027
-1.8817558288574219,3.8113582134246826,0.6551803946495056
-1.9125220775604248,3.8058269023895264,0.6495555639266968
-1.9493827819824219,3.814283609390259,0.6462517976760864
-1.960455298423767,3.775001287460327,0.6345860958099365
-1.9927270412445068,3.776728391647339,0.6298606395721436
-2.0063939094543457,3.7400405406951904,0.6184950470924377
-2.025496006011963,3.713352680206299,0.6088057160377502
-1.71005117893219,3.084808111190796,0.5010892748832703
-1.7361639738082886,3.084552764892578,0.4962961673736572
-0.8333558440208435,1.4579589366912842,0.2322891503572464
-0.8514841198921204,1.4659007787704468,0.23112061619758606
-0.8696891069412231,1.4737074375152588,0.2298811972141266
-0.8676274418830872,1.44844388961792,0.2233109474182129
-0.8811953663825989,1.4498250484466553,0.22092755138874054
-0.8955062031745911,1.450700044631958,0.21826520562171936
-0.8893140554428101,1.418587565422058,0.21068045496940613
-0.8985999822616577,1.4132685661315918,0.20699356496334076
-0.8869569897651672,1.3752226829528809,0.19853560626506805
-0.8967224955558777,1.3694387674331665,0.19460849463939667
-0.9149433374404907,1.376568078994751,0.19246549904346466
-2.3812148571014404,3.534116744995117,0.48568791151046753
-2.4464447498321533,3.5804555416107178,0.48318585753440857
-1.283841609954834,1.850653886795044,0.24472075700759888
-1.1799672842025757,1.6776167154312134,0.21722263097763062
-1.341940999031067,1.9217069149017334,-0.133140429854393
-1.4354157447814941,2.2943825721740723,-0.2139311283826828
-1.371174693107605,2.228105068206787,-0.21459878981113434
-1.2553573846817017,2.105727195739746,-0.21495358645915985
-0.8432117104530334,1.4622862339019775,-0.15747280418872833
-0.8366817831993103,1.474492073059082,-0.162700355052948
-1.0872052907943726,1.9485728740692139,-0.2201218456029892
-1.0654155015945435,1.9421899318695068,-0.22442908585071564
-0.9980906248092651,1.8498871326446533,-0.2183806151151657
-0.9608328342437744,1.8119003772735596,-0.21845650672912598
-0.9133716225624084,1.7528607845306396,-0.21562258899211884
-0.8865603804588318,1.7311443090438843,-0.21707436442375183
-0.8672760725021362,1.7229222059249878,-0.22006745636463165
-0.8151801228523254,1.6485798358917236,-0.2143581360578537
-0.8096590042114258,1.6679662466049194,-0.2207484245300293
-0.7760885953903198,1.627592921257019,-0.21899719536304474
-0.7579649090766907,1.6184325218200684,-0.22131069004535675
-0.7267557978630066,1.5810749530792236,-0.21957942843437195
-0.715275764465332,1.585740327835083,-0.2235962301492691
-0.6930412650108337,1.5654221773147583,-0.2239760011434555
-0.6755356192588806,1.5556219816207886,-0.22582942247390747
-0.6460566520690918,1.5171879529953003,-0.2232833057641983
-0.629146933555603,1.506982684135437,-0.22477470338344574
-0.6052889823913574,1.478642225265503,-0.2234254628419876
-0.5890280604362488,1.4680198431015015,-0.2246541976928711
-0.5669533014297485,1.4429874420166016,-0.2235608547925949
-0.5621357560157776,1.4609445333480835,-0.22905777394771576
-0.5368209481239319,1.4245973825454712,-0.2259623259305954
-0.521385669708252,1.4133665561676025,-0.22674542665481567
-0.511256992816925,1.41658353805542,-0.22971537709236145
0.5233815312385559,1.396501898765564,-0.2221546620130539
0.5331894159317017,1.3932620286941528,-0.21915356814861298
0.5485045909881592,1.4044016599655151,-0.218313068151474
0.5640286803245544,1.4153878688812256,-0.2173980176448822
0.581290066242218,1.429775595664978,-0.21692875027656555
0.6033706665039062,1.4546703100204468,-0.21790216863155365
0.6285062432289124,1.4866102933883667,-0.21978458762168884
0.6434393525123596,1.4933778047561646,-0.2178504467010498
0.6789174675941467,1.5460362434387207,-0.2224360704421997
0.6898084878921509,1.5417413711547852,-0.21870698034763336
0.7103068828582764,1.5585391521453857,-0.21780166029930115
0.7325618267059326,1.5787053108215332,-0.21732363104820251
0.7536485195159912,1.5950640439987183,-0.2161833494901657
0.7850099802017212,1.6322170495986938,-0.21771760284900665
0.8047549724578857,1.6447547674179077,-0.21578902006149292
0.8301953673362732,1.6673860549926758,-0.21499887108802795
0.8683034181594849,1.7139703035354614,-0.2171166092157364
0.8909552097320557,1.7291369438171387,-0.21507106721401215
0.9334341883659363,1.7820459604263306,-0.21751359105110168
0.9567924737930298,1.7966643571853638,-0.21504075825214386
0.997258186340332,1.841692328453064,-0.2159733772277832
1.040169596672058,1.8897327184677124,-0.2169007807970047
1.0853047370910645,1.9408843517303467,-0.21797600388526917
1.1277365684509277,1.984559416770935,-0.21780768036842346
1.1689496040344238,2.024348497390747,-0.2169332653284073
1.2121514081954956,2.0673694610595703,-0.21612991392612457
1.2843000888824463,2.1564764976501465,-0.21959049999713898
1.3116291761398315,2.1679940223693848,-0.21475552022457123
1.33669912815094,2.176180362701416,-0.20947834849357605
1.3595584630966187,2.1810078620910645,-0.20379877090454102
1.3748741149902344,2.1720564365386963,-0.19652137160301208
1.3859905004501343,2.1563854217529297,-0.18851566314697266
1.385439157485962,2.1248738765716553,-0.17933179438114166
1.7829992771148682,2.6943438053131104,-0.2188386768102646
1.8474799394607544,2.75051212310791,-0.21441908180713654
1.7975990772247314,2.639091968536377,-0.19706015288829803
1.860455870628357,2.6912858486175537,-0.19148218631744385
1.8857955932617188,2.6886231899261475,-0.1816958785057068
1.4399274587631226,2.0251822471618652,-0.12957198917865753
1.4631388187408447,2.0282771587371826,-0.12191243469715118
1.4675815105438232,2.0062551498413086,-0.11264315992593765
1.4667657613754272,1.978240966796875,-0.10303283482789993
2.2253546714782715,3.125044584274292,0.4203195571899414
2.2149839401245117,3.1592257022857666,0.4351661205291748
2.6153295040130615,3.786652088165283,0.5331701040267944
2.558746576309204,3.7670209407806396,0.5414718389511108
2.461200714111328,3.68125319480896,0.539286732673645
2.311063528060913,3.5092976093292236,0.5232093930244446
1.51238214969635,2.3352928161621094,0.3540911376476288
1.6023898124694824,2.515763759613037,0.3875756859779358
1.6151692867279053,2.5752813816070557,0.40249404311180115
3.0704903602600098,4.974156856536865,0.7882986068725586
3.0196173191070557,4.97585916519165,0.7989739775657654
2.9893293380737305,5.009951114654541,0.8147181868553162
2.9653592109680176,5.049039363861084,0.830651581287384
2.9496588706970215,5.105327606201172,0.8493320345878601
2.918095588684082,5.139147758483887,0.8640053868293762
2.8907525539398193,5.179086685180664,0.8796301484107971
2.888437032699585,5.262237548828125,0.9024854302406311
2.8615269660949707,5.301246643066406,0.9177344441413879
2.824751138687134,5.32769775390625,0.9303115606307983
2.8072896003723145,5.391548156738281,0.9495590329170227
2.7792632579803467,5.430161476135254,0.9640096426010132
2.7660045623779297,5.499817371368408,0.9842042922973633
2.7426228523254395,5.552660942077637,1.0009945631027222
1.2293235063552856,2.5358526706695557,0.4603441059589386
1.2269941568374634,2.57887601852417,0.47137725353240967
1.1826318502426147,2.530809164047241,0.46560433506965637
1.1711159944534302,2.5523078441619873,0.47260722517967224
1.1646831035614014,2.588268280029297,0.48216283321380615
1.136041283607483,2.5749521255493164,0.48242491483688354
2.5625762939453125,5.924519062042236,1.1162471771240234
2.5371315479278564,5.979747772216797,1.1327484846115112
2.506593942642212,6.024219989776611,1.1473376750946045
2.4794487953186035,6.0835981369018555,1.1645088195800781
2.4471797943115234,6.132277488708496,1.1793023347854614
2.4185779094696045,6.191503524780273,1.1962488889694214
2.38706374168396,6.239161014556885,1.210853099822998
2.356585741043091,6.290169715881348,1.2261971235275269
2.3309762477874756,6.35947847366333,1.2451814413070679
2.302424907684326,6.42551326751709,1.262830376625061
2.2667462825775146,6.473292827606201,1.2770140171051025
2.234879970550537,6.531561851501465,1.2933237552642822
2.20721173286438,6.600214004516602,1.3116973638534546
2.175490140914917,6.661708354949951,1.3288720846176147
2.1149749755859375,6.635443210601807,1.3280274868011475
2.0529754161834717,6.605334281921387,1.3259929418563843
1.9882574081420898,6.563657283782959,1.3216403722763062
1.9295552968978882,6.535862922668457,1.3200116157531738
1.87521231174469,6.518455505371094,1.320444941520691
1.8162519931793213,6.48605489730835,1.3179333209991455
1.7607325315475464,6.46442174911499,1.3169529438018799
1.7003275156021118,6.423970699310303,1.311846375465393
0.8383862972259521,3.262018918991089,0.6677637100219727
1.5851510763168335,6.352486610412598,1.3035591840744019
0.8073569536209106,3.3357601165771484,0.6862065196037292
1.4875869750976562,6.33848762512207,1.3071174621582031
1.434099555015564,6.3105788230896,1.3040639162063599
1.3765958547592163,6.263698577880859,1.2967270612716675
1.3118854761123657,6.178887367248535,1.2815468311309814
1.2720005512237549,6.209794521331787,1.2904213666915894
1.2130188941955566,6.138829708099365,1.278096079826355
1.168756365776062,6.138780117034912,1.2805596590042114
1.1173770427703857,6.100886344909668,1.2748630046844482
1.0640562772750854,6.051490783691406,1.2661986351013184
1.0215493440628052,6.065903186798096,1.2709665298461914
0.9748440980911255,6.049683570861816,1.2693434953689575
0.9279360175132751,6.025454998016357,1.2660586833953857
0.8819696307182312,6.004657745361328,1.2635390758514404
0.8348178267478943,5.972147464752197,1.2585933208465576
0.7887914776802063,5.954780101776123,1.2560757398605347
0.7456772923469543,5.952163219451904,1.2566661834716797
0.592782199382782,5.019074440002441,1.0606800317764282
0.5715732574462891,5.1480913162231445,1.0890260934829712
0.5357213020324707,5.151552200317383,1.090885877609253
0.39692792296409607,4.093376159667969,0.8677448630332947
0.37051913142204285,4.126288890838623,0.8754345774650574
0.3446703851222992,4.166685581207275,0.8844219446182251
0.31423595547676086,4.153567790985107,0.8820961713790894
0.28509703278541565,4.155477523803711,0.8830026388168335
0.25717470049858093,4.172421455383301,0.8871437907218933
0.4228692650794983,7.752695083618164,1.6494879722595215
0.3674871623516083,7.724559783935547,1.6446629762649536
0.3126869797706604,7.703880786895752,1.640480399131775
0.2583313584327698,7.6904826164245605,1.6377980709075928
0.2035558819770813,7.649964809417725,1.629418134689331
0.1485510617494583,7.612895488739014,1.6218550205230713
0.09546368569135666,7.594522953033447,1.6183445453643799
0.04257400333881378,7.5643205642700195,1.6123881340026855
-0.009989379905164242,7.541449546813965,1.607792854309082
-0.062210436910390854,7.526025772094727,1.6040265560150146
-0.11488228291273117,7.4911274909973145,1.596183180809021
-0.1661147028207779,7.452059745788574,1.5875393152236938
-0.21806341409683228,7.45847225189209,1.5886627435684204
-0.2690899670124054,7.433974266052246,1.583278775215149
-0.32110440731048584,7.439664840698242,1.5844014883041382
-0.2707687318325043,5.403540134429932,1.150288701057434
-0.30791860818862915,5.386486053466797,1.1458932161331177
-0.34422242641448975,5.3692121505737305,1.141523003578186
-0.3814471960067749,5.366934776306152,1.1403969526290894
-0.4166371822357178,5.33772611618042,1.1336051225662231
-0.45182493329048157,5.312088966369629,1.1276308298110962
-0.4248405992984772,4.608746528625488,0.9779087901115417
-0.4558424651622772,4.598441123962402,0.9746949672698975
-0.4858563542366028,4.5803327560424805,0.9698644280433655
-0.5156947374343872,4.5620222091674805,0.9650417566299438
-0.5463710427284241,4.551089763641357,0.9618260860443115
-0.578612208366394,4.547451019287109,0.9601801037788391
-0.6082220673561096,4.528496265411377,0.9553654789924622
-0.634745180606842,4.490490436553955,0.946333646774292
-0.6666759252548218,4.494058132171631,0.9457195401191711
-0.6940385103225708,4.46715784072876,0.9387403130531311
-0.7264718413352966,4.470218658447266,0.9380859136581421
-0.7524320483207703,4.4353532791137695,0.9295303225517273
-0.7818887829780579,4.422948837280273,0.9257394671440125
-0.8112589716911316,4.410338878631592,0.9219523072242737
-0.832081139087677,4.356395244598389,0.9090127348899841
-0.7234571576118469,3.652907609939575,0.7607977986335754
-0.7488253712654114,3.648287296295166,0.7584182620048523
-0.922010064125061,4.3400115966796875,0.9005773067474365
-0.955538272857666,4.349024772644043,0.9008315205574036
-0.9841504096984863,4.3353776931762695,0.8964330554008484
-1.010480523109436,4.314228057861328,0.890240490436554
-1.0385524034500122,4.300389289855957,0.8852475881576538
-1.0641214847564697,4.2790446281433105,0.8787981867790222
-1.093477725982666,4.272336483001709,0.8753872513771057
-1.1193950176239014,4.250481128692627,0.8688866496086121
-1.1480191946029663,4.239574909210205,0.8646783828735352
-1.17795991897583,4.232097625732422,0.8610292673110962
-1.2045072317123413,4.217453479766846,0.855554461479187
-1.2266417741775513,4.187906265258789,0.8471090197563171
-1.257340669631958,4.187604904174805,0.844619631767273
-1.286625862121582,4.1795244216918945,0.8405303359031677
-1.3117659091949463,4.156449317932129,0.8334319591522217
-1.3360066413879395,4.133426189422607,0.8263484835624695
-1.363952875137329,4.1252007484436035,0.8217845559120178
-1.3893883228302002,4.109508037567139,0.8157756924629211
-1.4173054695129395,4.100872039794922,0.8111974000930786
-1.440922498703003,4.077277183532715,0.8036196827888489
-1.4673824310302734,4.060604572296143,0.7974116206169128
-1.494168758392334,4.047675132751465,0.7918897867202759
-1.5133100748062134,4.016932964324951,0.782538652420044
-1.540376901626587,4.007627964019775,0.7774173021316528
-1.5621613264083862,3.983680248260498,0.7694551944732666
-1.5935406684875488,3.9805641174316406,0.7654047012329102
-1.6244471073150635,3.977388620376587,0.761430025100708
-1.6546103954315186,3.9743454456329346,0.7571687698364258
-1.678308367729187,3.9571402072906494,0.7500324845314026
-1.7018463611602783,3.9397847652435303,0.7429153323173523
-1.7205208539962769,3.9075872898101807,0.7328460812568665
-1.7417192459106445,3.882434844970703,0.7242074012756348
-1.7688101530075073,3.8713009357452393,0.7181265354156494
-1.794740080833435,3.860530138015747,0.711742103099823
-1.833747386932373,3.877462387084961,0.7104713320732117
-1.8608925342559814,3.8657383918762207,0.7037477493286133
-1.881344199180603,3.839888334274292,0.694474995136261
-1.9048559665679932,3.8208811283111572,0.6864820122718811
-1.930240273475647,3.809387445449829,0.6794161796569824
-1.9520492553710938,3.7908387184143066,0.6711248755455017
-1.978094220161438,3.7786026000976562,0.6638278365135193
-1.9981255531311035,3.751904010772705,0.6537797451019287
-2.0189337730407715,3.728893518447876,0.6444501876831055
-1.70682692527771,3.1040265560150146,0.5317038297653198
-1.7199532985687256,3.0801944732666016,0.5228915214538574
-0.827853262424469,1.4589611291885376,0.24530841410160065
-0.846138596534729,1.4668784141540527,0.24418066442012787
-0.8600217700004578,1.4683167934417725,0.2418878972530365
-0.865770161151886,1.456505537033081,0.23736250400543213
-0.87968909740448,1.457762598991394,0.23489734530448914
-0.88600754737854,1.4454524517059326,0.23014041781425476
-0.8593236804008484,1.3806166648864746,0.2170502245426178
-0.9055666923522949,1.4344738721847534,0.22257758677005768
-0.9068664312362671,1.4158822298049927,0.2166920155286789
-0.9000836610794067,1.3839819431304932,0.20868054032325745
-0.9010475277900696,1.3654181957244873,0.20271335542201996
-0.959712564945221,1.4341254234313965,0.20942263305187225
-2.398825168609619,3.53344988822937,0.5070387721061707
-1.1448355913162231,1.6614927053451538,0.23402972519397736
-1.3512285947799683,1.934787392616272,0.26721566915512085
-1.3545445203781128,2.183232545852661,-0.21315228939056396
-1.3511735200881958,2.2119827270507812,-0.22268998622894287
-1.2465894222259521,2.0743865966796875,-0.21521304547786713
-1.2191869020462036,2.0627987384796143,-0.22019094228744507
-0.8380433917045593,1.4644660949707031,-0.1646415889263153
-1.0348694324493408,1.8393402099609375,-0.21192291378974915
-1.0249600410461426,1.8530774116516113,-0.21863974630832672
-0.995051920413971,1.828930377960205,-0.22062255442142487
-0.9322375655174255,1.7430013418197632,-0.21480686962604523
-0.8976740837097168,1.7079378366470337,-0.2149132490158081
-0.8925954103469849,1.727455735206604,-0.22167806327342987
-0.8624656796455383,1.6986347436904907,-0.22225497663021088
-0.830939769744873,1.6660913228988647,-0.2220437079668045
-0.7829741835594177,1.5983316898345947,-0.21684955060482025
-0.7648815512657166,1.589276909828186,-0.21933123469352722
-0.7501713633537292,1.587101697921753,-0.22269310057163239
-0.707609236240387,1.525150179862976,-0.21746371686458588
-0.7028434872627258,1.5437958240509033,-0.2236352264881134
-0.6792396306991577,1.5198768377304077,-0.2235126942396164
-0.6621146202087402,1.509947419166565,-0.22531569004058838
-0.6374081969261169,1.4821358919143677,-0.224319726228714
-0.6177690029144287,1.464709997177124,-0.22475744783878326
-0.6012816429138184,1.4542642831802368,-0.22622725367546082
-0.5850522518157959,1.443648338317871,-0.227504163980484
-0.561798095703125,1.4149588346481323,-0.22580522298812866
-0.551687479019165,1.418394684791565,-0.22915217280387878
-0.5333772301673889,1.4000775814056396,-0.2289341390132904
0.5686835646629333,1.4125783443450928,-0.22346043586730957
0.5814362168312073,1.4162709712982178,-0.2212022840976715
0.5928423404693604,1.4162592887878418,-0.21833433210849762
0.608940601348877,1.4267853498458862,-0.21703322231769562
0.628375768661499,1.444235920906067,-0.21663163602352142
0.6681995987892151,1.5076181888580322,-0.22293679416179657
0.6819315552711487,1.5105230808258057,-0.22012564539909363
0.7088170647621155,1.541403889656067,-0.22126832604408264
0.7344025373458862,1.5685486793518066,-0.2217007279396057
0.7487750053405762,1.5709242820739746,-0.21844950318336487
0.7733008861541748,1.594128131866455,-0.21804672479629517
0.7880257368087769,1.596147060394287,-0.21463122963905334
0.8322151303291321,1.6570676565170288,-0.2189381718635559
0.8542110323905945,1.6726287603378296,-0.2170237898826599
0.8891803026199341,1.7119873762130737,-0.2179807722568512
0.9232598543167114,1.7473634481430054,-0.2181157022714615
0.9518260359764099,1.7723758220672607,-0.2168196588754654
0.9862720370292664,1.8073630332946777,-0.2165641486644745
1.0273258686065674,1.8519505262374878,-0.21707600355148315
1.0804896354675293,1.9163953065872192,-0.2195827066898346
1.1246933937072754,1.963500738143921,-0.21965286135673523
1.1597528457641602,1.9933315515518188,-0.21757732331752777
1.203560471534729,2.0359725952148438,-0.2165241837501526
1.2676461935043335,2.111708164215088,-0.21861016750335693
1.306217074394226,2.14365553855896,-0.2158137857913971
1.3399884700775146,2.1647589206695557,-0.21137075126171112
1.3633933067321777,2.169224500656128,-0.20525570213794708
1.3695428371429443,2.14758038520813,-0.19667011499404907
1.3886014223098755,2.145277261734009,-0.18967783451080322
1.3973592519760132,2.1262857913970947,-0.18105554580688477
1.7922483682632446,2.688114643096924,-0.21988852322101593
1.8389997482299805,2.718564987182617,-0.21311096847057343
1.833952784538269,2.670916795730591,-0.19986362755298615
1.8894020318984985,2.7139320373535156,-0.19336412847042084
1.907886028289795,2.7017335891723633,-0.18237869441509247
1.4520823955535889,2.026172399520874,-0.12870784103870392
1.4606343507766724,2.0109047889709473,-0.1198044940829277
1.469871997833252,1.9949969053268433,-0.11040311306715012
2.2263574600219727,3.148888349533081,0.45173782110214233
2.6216022968292236,3.7698581218719482,0.5531674027442932
2.5970747470855713,3.7940874099731445,0.5683801770210266
1.5250805616378784,2.2621376514434814,0.34549009799957275
1.5244255065917969,2.2986409664154053,0.3573903739452362
1.5065152645111084,2.309199571609497,0.36518505215644836
1.5505702495574951,2.413264274597168,0.3875541090965271
1.627699613571167,2.5739893913269043,0.4195137619972229
1.586725115776062,2.5527172088623047,0.42203202843666077
3.026402473449707,4.948343276977539,0.8288905024528503
3.0068106651306152,4.994109630584717,0.8470073938369751
2.9889118671417236,5.047509670257568,0.8661672472953796
2.9536397457122803,5.074862003326416,0.8807343244552612
2.9327521324157715,5.1247758865356445,0.8990335464477539
2.9037086963653564,5.156826496124268,0.9138535261154175
2.8973824977874756,5.233317852020264,0.9363778233528137
2.8683924674987793,5.273446083068848,0.9522057771682739
2.832462787628174,5.299413681030273,0.9654072523117065
2.8137056827545166,5.355230808258057,0.9838966131210327
2.7966556549072266,5.414152145385742,1.002968192100525
2.774752616882324,5.470919609069824,1.021098256111145
2.7607243061065674,5.544857501983643,1.0426210165023804
1.246884822845459,2.5495638847351074,0.482806533575058
1.2151144742965698,2.5298027992248535,0.482431560754776
1.190283179283142,2.523669719696045,0.4844764173030853
1.1778043508529663,2.5456221103668213,0.49166184663772583
1.1682145595550537,2.5745275020599365,0.5002623796463013
1.152863621711731,2.589012384414673,0.5059859752655029
2.5753304958343506,5.893564224243164,1.1583800315856934
2.5506391525268555,5.9525675773620605,1.1765660047531128
2.516765832901001,5.994330883026123,1.19068443775177
2.4926931858062744,6.060736179351807,1.2098288536071777
2.4617786407470703,6.108829975128174,1.2253061532974243
2.4354796409606934,6.167136192321777,1.2428393363952637
2.4063050746917725,6.222028732299805,1.2599304914474487
2.3742473125457764,6.273684024810791,1.275592565536499
2.345283031463623,6.336086750030518,1.2934459447860718
2.3170230388641357,6.401910305023193,1.312125325202942
2.2834787368774414,6.448924541473389,1.326866865158081
2.2498509883880615,6.499622821807861,1.342576503753662
2.2220277786254883,6.568272113800049,1.361799716949463
2.1933212280273438,6.6409831047058105,1.3812987804412842
2.146040439605713,6.6588873863220215,1.3895124197006226
2.073962926864624,6.595874786376953,1.380806565284729
2.0167183876037598,6.576046466827393,1.3811054229736328
1.96171236038208,6.559214115142822,1.3819886445999146
1.9032734632492065,6.531156539916992,1.3800963163375854
1.8412911891937256,6.491926670074463,1.3752933740615845
1.7810636758804321,6.4558305740356445,1.371167540550232
1.728947401046753,6.444955348968506,1.3723883628845215
1.6714248657226562,6.411426067352295,1.3688076734542847
0.8160635232925415,3.2219936847686768,0.6896665692329407
1.551831841468811,6.313084602355957,1.3545050621032715
0.7993301153182983,3.354924440383911,0.7212246656417847
1.4558738470077515,6.310307502746582,1.3592723608016968
1.3991950750350952,6.27117395401001,1.3536320924758911
1.3505291938781738,6.257382869720459,1.3533918857574463
1.298933982849121,6.228272438049316,1.3498822450637817
1.243975043296814,6.180073261260986,1.342115044593811
1.19254469871521,6.1504998207092285,1.3376202583312988
1.1429392099380493,6.131908893585205,1.335597276687622
1.0924756526947021,6.101517677307129,1.331013560295105
1.047206997871399,6.093182563781738,1.331250548362732
0.9979011416435242,6.058122634887695,1.3256876468658447
0.9544152617454529,6.0566325187683105,1.3275214433670044
0.9040375351905823,6.017409324645996,1.3204469680786133
0.8586480021476746,6.004205703735352,1.3188899755477905
0.8098961710929871,5.964191436767578,1.311495065689087
0.762649655342102,5.927534580230713,1.304869532585144
0.6149548292160034,5.057100772857666,1.1145212650299072
0.5797346234321594,5.060789585113525,1.1166536808013916
0.5547449588775635,5.166771411895752,1.1412538290023804
0.410274863243103,4.092151165008545,0.9044157266616821
0.3782768249511719,4.060501575469971,0.8979881405830383
0.3585210144519806,4.165430545806885,0.921820342540741
0.32893362641334534,4.159966945648193,0.9212742447853088
0.2983624041080475,4.146718978881836,0.9190583229064941
0.26901692152023315,4.140831470489502,0.9185017347335815
0.4465397894382477,7.706173419952393,1.7100512981414795
0.39451971650123596,7.746980667114258,1.7194867134094238
0.33860424160957336,7.7112345695495605,1.7120147943496704
0.28324398398399353,7.697980880737305,1.7096259593963623
0.22891353070735931,7.6728668212890625,1.7046715021133423
0.17503327131271362,7.65118408203125,1.7005574703216553
0.12122282385826111,7.613874435424805,1.6930464506149292
0.06800010800361633,7.591689586639404,1.687811255455017
0.014171072281897068,7.550072193145752,1.6783210039138794
-0.038246266543865204,7.519519329071045,1.6713781356811523
-0.09042119979858398,7.503854751586914,1.6678262948989868
-0.14207503199577332,7.476393222808838,1.6617332696914673
-0.19325250387191772,7.444764614105225,1.6547939777374268
-0.24394647777080536,7.4128594398498535,1.6475419998168945
-0.29655131697654724,7.418857097625732,1.647959589958191
-0.2496551275253296,5.321732997894287,1.181535005569458
-0.2904180884361267,5.392430782318115,1.196692943572998
-0.3278372585773468,5.390488147735596,1.195779800415039
-0.36375823616981506,5.36544942855835,1.1898020505905151
-0.3999066650867462,5.340132713317871,1.1838184595108032
-0.43684816360473633,5.3375420570373535,1.182446837425232
-0.40916869044303894,4.609033584594727,1.0201454162597656
-0.44095614552497864,4.606420993804932,1.018701434135437
-0.471947580575943,4.5959978103637695,1.015580177307129
-0.5019448399543762,4.570115566253662,1.0090776681900024
-0.5327934622764587,4.559257984161377,1.0059608221054077
-0.5635154247283936,4.548190593719482,1.0028488636016846
-0.592742919921875,4.529533386230469,0.997454822063446
-0.6238036751747131,4.525820255279541,0.9953647255897522
-0.6526713371276855,4.502931118011475,0.9890871644020081
-0.6804201602935791,4.476117134094238,0.9820165038108826
-0.7103809118270874,4.464189529418945,0.9782614707946777
-0.7402083873748779,4.452059745788574,0.9745132327079773
-0.7697053551673889,4.439810752868652,0.9705520272254944
-0.7960049510002136,4.412479877471924,0.9629229307174683
-0.8239161372184753,4.3924078941345215,0.9569083452224731
-0.7116791605949402,3.656033992767334,0.7951818704605103
-0.7401685118675232,3.6664607524871826,0.796156108379364
-0.7626211047172546,3.646740198135376,0.7906204462051392
-0.9351248145103455,4.321637153625488,0.9354981780052185
-0.9685417413711548,4.330650329589844,0.9354341626167297
-0.994596540927887,4.309762954711914,0.9289151430130005
-1.0239983797073364,4.303583145141602,0.925613284111023
-1.051964521408081,4.289678573608398,0.9206687808036804
-1.0818947553634644,4.282951831817627,0.91729736328125
-1.1103252172470093,4.268497943878174,0.9122899174690247
-1.1268209218978882,4.213493347167969,0.898370087146759
-1.1615127325057983,4.228705406188965,0.8991926908493042
-1.1902307271957397,4.221543312072754,0.8952861428260803
-1.2127912044525146,4.192048072814941,0.8866752982139587
-1.244789958000183,4.191507816314697,0.884152889251709
-1.2673782110214233,4.161563873291016,0.8755234479904175
-1.2983909845352173,4.1608967781066895,0.8728829622268677
-1.3265126943588257,4.152963638305664,0.8683663606643677
-1.3498663902282715,4.130254745483398,0.8608055710792542
-1.380988359451294,4.129000186920166,0.8576889634132385
-1.4025259017944336,4.098404407501221,0.8484997153282166
-1.4287667274475098,4.0821709632873535,0.8423459529876709
-1.4479440450668335,4.047904014587402,0.8323168158531189
-1.477936029434204,4.046270370483398,0.8286743760108948
-1.5092698335647583,4.048022747039795,0.8257532715797424
-1.530737280845642,4.020511627197266,0.816792368888855
-1.5589240789413452,4.010744571685791,0.8114818930625916
-1.587046504020691,4.000773906707764,0.8061702251434326
-1.6114896535873413,3.9838311672210693,0.7991564869880676
-1.638222098350525,3.9740664958953857,0.7934010028839111
-1.6505018472671509,3.9285056591033936,0.7804999947547913
-1.6899843215942383,3.9463307857513428,0.7801619172096252
