X,Y,Z
1.6666516065597534,6.396505832672119,1.4786622524261475
1.617699384689331,6.396010875701904,1.4815316200256348
0.8080046772956848,3.2938106060028076,0.7644782662391663
1.4997292757034302,6.308712005615234,1.4672027826309204
1.448420763015747,6.288229465484619,1.465404748916626
1.4002984762191772,6.282312393188477,1.4670865535736084
1.3378560543060303,6.205160140991211,1.4521037340164185
1.2984524965286255,6.235833644866943,1.4617334604263306
1.2440792322158813,6.19549036026001,1.4544038772583008
1.1882511377334595,6.143478870391846,1.4443683624267578
1.1439448595046997,6.150938034057617,1.4483890533447266
1.092222809791565,6.109170913696289,1.4408040046691895
1.0417838096618652,6.070745468139648,1.4340424537658691
0.9968065619468689,6.062008380889893,1.4341487884521484
0.9531170725822449,6.064493179321289,1.4361648559570312
0.8979644775390625,5.995305061340332,1.4212878942489624
0.8554211258888245,6.0008440017700195,1.4241507053375244
0.8078577518463135,5.9645586013793945,1.4171236753463745
0.7653378248214722,5.961833953857422,1.4181209802627563
0.6138753890991211,5.060652732849121,1.2052146196365356
0.5852651596069336,5.124809741973877,1.2215046882629395
0.5468540787696838,5.113372802734375,1.2195260524749756
0.4061812460422516,4.069177150726318,0.9711209535598755
0.37759336829185486,4.071628093719482,0.9723832011222839
0.3557703197002411,4.14957857131958,0.9917299747467041
0.32512614130973816,4.1289191246032715,0.9875664710998535
0.29701894521713257,4.145965099334717,0.9924822449684143
0.2692243754863739,4.1667375564575195,0.9976956248283386
0.4471122622489929,7.764013290405273,1.8594906330108643
0.3916889727115631,7.743900775909424,1.855215311050415
0.3364945352077484,7.719597339630127,1.8500216007232666
0.2804237902164459,7.683540344238281,1.8421069383621216
0.2258753627538681,7.647057056427002,1.8341591358184814
0.17199468612670898,7.621634483337402,1.828730821609497
0.11841089278459549,7.592274188995361,1.8213984966278076
0.06544125080108643,7.585328578948975,1.8195334672927856
0.011545688845217228,7.551425933837891,1.811289668083191
-0.04081695154309273,7.520946025848389,1.8039584159851074
-0.09266624599695206,7.490105628967285,1.7966275215148926
-0.14416256546974182,7.462706565856934,1.7902079820632935
-0.19542211294174194,7.438855171203613,1.784266471862793
-0.2466951310634613,7.430014610290527,1.781260371208191
-0.2997371554374695,7.4435601234436035,1.7836920022964478
-0.25473910570144653,5.396196365356445,1.292566180229187
-0.29306700825691223,5.4096760749816895,1.2953360080718994
-0.3292757570743561,5.384962558746338,1.2890232801437378
-0.3640589118003845,5.344846725463867,1.2790907621383667
-0.4005357325077057,5.327322483062744,1.2740999460220337
-0.4366680383682251,5.317258358001709,1.2706114053726196
-0.4167141020298004,4.678593158721924,1.1170966625213623
-0.44173067808151245,4.600295543670654,1.0975687503814697
-0.4717957377433777,4.578554153442383,1.091597318649292
-0.5025309324264526,4.56033992767334,1.0865135192871094
-0.5342690944671631,4.557077407836914,1.0850597620010376
-0.5637320876121521,4.538686275482178,1.07943856716156
-0.5929580330848694,4.520130634307861,1.0737168788909912
-0.6229962110519409,4.508917808532715,1.0697966814041138
-0.6535863280296326,4.497416019439697,1.0658366680145264
-0.6808674931526184,4.466946601867676,1.0574547052383423
-0.7132015228271484,4.470109462738037,1.0570889711380005
-0.7404769062995911,4.443063259124756,1.0495283603668213
-0.7682633996009827,4.42355489730835,1.0432013273239136
-0.7985243201255798,4.418848514556885,1.0404194593429565
-0.8250935077667236,4.3913984298706055,1.0323103666305542
-0.7149364352226257,3.6651453971862793,0.8602553606033325
-0.7389676570892334,3.653160572052002,0.8561502695083618
-0.7613459229469299,3.633554220199585,0.8503063321113586
-0.9315261840820312,4.2987823486328125,1.0041592121124268
-0.9663443565368652,4.31532096862793,1.005895972251892
-0.9974735975265503,4.3168487548828125,1.0042040348052979
-1.0253760814666748,4.303276062011719,0.999029815196991
-1.0554358959197998,4.296815872192383,0.9955258369445801
-1.0797972679138184,4.267982482910156,0.9869000911712646
-1.1119588613510132,4.268434524536133,0.9849770069122314
-1.1350573301315308,4.2396135330200195,0.975797712802887
-1.1638813018798828,4.232728004455566,0.9717254638671875
-1.1905906200408936,4.218300819396973,0.9659709930419922
-1.2178421020507812,4.203522682189941,0.9601325988769531
-1.244494080543518,4.184736251831055,0.9533836245536804
-1.2737808227539062,4.176864147186279,0.9492163062095642
-1.2976223230361938,4.154574871063232,0.9412787556648254
-1.3164621591567993,4.117647171020508,0.9299914240837097
-1.3514429330825806,4.131475925445557,0.9302201271057129
-1.3782293796539307,4.115665912628174,0.923680305480957
-1.4045987129211426,4.0997538566589355,0.9172003269195557
-1.4308538436889648,4.083651542663574,0.9107289910316467
-1.4535201787948608,4.06056547164917,0.9022896885871887
-1.4809620380401611,4.051827907562256,0.8969293236732483
-1.5029600858688354,4.028575897216797,0.8884140849113464
-1.5369505882263184,4.03334903717041,0.8859553337097168
-1.5625501871109009,4.016513347625732,0.8788126707077026
-1.5879862308502197,3.9995059967041016,0.8716883659362793
-1.607871651649475,3.9722073078155518,0.8618454337120056
-1.640465259552002,3.9767441749572754,0.8588823080062866
-1.6677136421203613,3.966722011566162,0.8527321815490723
-1.6926469802856445,3.9491660594940186,0.8448985815048218
-1.7174499034881592,3.9314284324645996,0.8370770215988159
-1.7323356866836548,3.892697811126709,0.8247183561325073
-1.7490007877349854,3.8613994121551514,0.8136059045791626
-1.781810998916626,3.864704132080078,0.8097561597824097
-1.8117326498031616,3.860686779022217,0.8043425679206848
-1.8390820026397705,3.849202871322632,0.7972823977470398
-1.8797932863235474,3.865147590637207,0.7959100604057312
-1.89894437789917,3.8401741981506348,0.7856090068817139
-1.9044033288955688,3.787472724914551,0.7695974111557007
-1.9442249536514282,3.803298234939575,0.7675653100013733
-1.9713858366012573,3.790898084640503,0.7595875859260559
-1.9876354932785034,3.757901430130005,0.7475578188896179
-2.0239639282226562,3.766334056854248,0.7433308959007263
-2.034420967102051,3.7272815704345703,0.7297149300575256
-1.7204853296279907,3.101698637008667,0.6021019220352173
-1.731195330619812,3.070643186569214,0.5908910036087036
-0.8313907980918884,1.451294183731079,0.2768007218837738
-0.8332546353340149,1.4330918788909912,0.2707105278968811
-0.8662565350532532,1.4680585861206055,0.2746303975582123
-0.8688432574272156,1.4492979049682617,0.2682422399520874
-0.8832112550735474,1.4503512382507324,0.26555752754211426
-0.8808441162109375,1.4253520965576172,0.25800982117652893
-0.9025498628616333,1.4398484230041504,0.2575688362121582
-0.9083616733551025,1.427787184715271,0.2522102892398834
-0.9020178914070129,1.3959013223648071,0.2432558536529541
-0.9115100502967834,1.3904701471328735,0.23894022405147552
-0.9077929854393005,1.3658581972122192,0.23131603002548218
-0.9670904278755188,1.4340274333953857,0.23905031383037567
-2.4031732082366943,3.510436773300171,0.5754777193069458
-1.5987629890441895,2.3032031059265137,0.37081509828567505
-1.2505664825439453,1.7774733304977417,0.2809502184391022
-1.3860828876495361,2.181978225708008,-0.21280157566070557
-1.3099379539489746,2.0956921577453613,-0.21180686354637146
-1.1865030527114868,1.9598966836929321,-0.2112089991569519
-1.1541050672531128,1.9377349615097046,-0.21513202786445618
-0.8346242904663086,1.4477287530899048,-0.16980595886707306
-0.9637155532836914,1.6999990940093994,-0.20461295545101166
-0.9912723302841187,1.7773722410202026,-0.2191455215215683
-0.9392552375793457,1.7122242450714111,-0.21609880030155182
-0.915513277053833,1.6978970766067505,-0.2191784679889679
-0.8756763339042664,1.6524614095687866,-0.21804822981357574
-0.8459569811820984,1.6235588788986206,-0.21869495511054993
-0.8182429671287537,1.5978981256484985,-0.2195705771446228
-0.7890740633010864,1.5685380697250366,-0.21975217759609222
-0.7623504400253296,1.5422172546386719,-0.22010022401809692
-0.7443764209747314,1.5330842733383179,-0.22283972799777985
-0.7265142202377319,1.5238196849822998,-0.22535641491413116
-0.6989602446556091,1.493353247642517,-0.22462129592895508
-0.6769949793815613,1.4730305671691895,-0.22518250346183777
-0.6505634784698486,1.44191575050354,-0.22394560277462006
-0.6244180202484131,1.4106147289276123,-0.22244630753993988
-0.6140010952949524,1.4145402908325195,-0.2264787256717682
-0.5903031826019287,1.3862545490264893,-0.22517091035842896
-0.5803952813148499,1.3898147344589233,-0.22895008325576782
0.5827434659004211,1.4054702520370483,-0.23189805448055267
0.5955596566200256,1.409088373184204,-0.2293497771024704
0.6131582260131836,1.4231961965560913,-0.2284257858991623
0.6357060670852661,1.447727084159851,-0.229062020778656
0.6489956974983215,1.4509210586547852,-0.22619201242923737
0.6801378130912781,1.4926741123199463,-0.22912952303886414
0.7037020325660706,1.5165547132492065,-0.22917568683624268
0.7210811972618103,1.5261614322662354,-0.22695404291152954
0.7535247206687927,1.5671164989471436,-0.2292020320892334
0.7711901664733887,1.5764285326004028,-0.22667138278484344
0.7928892970085144,1.5923254489898682,-0.22486230731010437
0.830477774143219,1.6391841173171997,-0.22730126976966858
0.8631020784378052,1.6754517555236816,-0.2279934138059616
0.8944646120071411,1.7079297304153442,-0.22796349227428436
0.9284891486167908,1.7433271408081055,-0.22799335420131683
0.9685190916061401,1.788629174232483,-0.22907179594039917
1.0034781694412231,1.823359489440918,-0.22843149304389954
1.0559524297714233,1.888250708580017,-0.2312958836555481
1.0943315029144287,1.9253500699996948,-0.2303168773651123
1.1349046230316162,1.9655653238296509,-0.2294471263885498
1.1896089315414429,2.028939962387085,-0.23093564808368683
1.2499279975891113,2.097980499267578,-0.23233678936958313
1.2950019836425781,2.1397719383239746,-0.2303837537765503
1.3298789262771606,2.164870023727417,-0.22637411952018738
1.3550878763198853,2.1729466915130615,-0.2203303724527359
1.3663089275360107,2.1574978828430176,-0.21168342232704163
1.3770029544830322,2.1422152519226074,-0.20298807322978973
1.38505220413208,2.1238245964050293,-0.1941392719745636
1.7829139232635498,2.6928975582122803,-0.23661254346370697
1.8425624370574951,2.743018627166748,-0.23123089969158173
1.7971571683883667,2.63816237449646,-0.21289660036563873
1.871608853340149,2.706162214279175,-0.2077288031578064
1.8944027423858643,2.700643301010132,-0.19678355753421783
1.4444330930709839,2.0308914184570312,-0.13991668820381165
1.4633617401123047,2.0275473594665527,-0.13103389739990234
1.4582457542419434,1.9932600259780884,-0.12026257812976837
1.4717055559158325,1.9838985204696655,-0.11071658879518509
2.25287127494812,3.165867805480957,0.4708903133869171
1.5552726984024048,2.218714714050293,0.33747732639312744
1.5496231317520142,2.2448959350585938,0.34872663021087646
1.5358809232711792,2.262314796447754,0.3585119843482971
1.5276403427124023,2.2852399349212646,0.3687114417552948
1.5110536813735962,2.294954299926758,0.3766389787197113
1.496724247932434,2.3122360706329346,0.3856576085090637
1.6221952438354492,2.547482490539551,0.4313713610172272
1.6079353094100952,2.5643107891082764,0.44028353691101074
3.076075553894043,4.98537015914917,0.8674366474151611
3.0170090198516846,4.973639011383057,0.8763865828514099
2.990903854370117,5.013842582702637,0.8942381739616394
2.9705820083618164,5.059332370758057,0.9125268459320068
2.942643642425537,5.095500946044922,0.928945004940033
2.922299385070801,5.149177551269531,0.9483017325401306
2.8986122608184814,5.195512294769287,0.9662136435508728
2.873784065246582,5.237739562988281,0.9832040667533875
2.8468925952911377,5.276367664337158,0.9993765950202942
2.828263521194458,5.336475372314453,1.0191073417663574
2.810602903366089,5.399984359741211,1.039689302444458
2.78578782081604,5.445234775543213,1.0564297437667847
2.772132158279419,5.514618873596191,1.0781104564666748
2.7382681369781494,5.546481609344482,1.0920311212539673
1.2358037233352661,2.5505547523498535,0.5055302381515503
1.2034175395965576,2.5309946537017822,0.5049731135368347
1.18217134475708,2.53157639503479,0.5082361698150635
1.1737616062164307,2.5599312782287598,0.5171220302581787
1.1641086339950562,2.5886940956115723,0.5259847044944763
2.5914742946624756,5.877976894378662,1.2007993459701538
2.562776565551758,5.9303364753723145,1.2180464267730713
2.534273624420166,5.9781413078308105,1.234150767326355
2.5154683589935303,6.050621509552002,1.2555129528045654
2.478372097015381,6.084634780883789,1.2687846422195435
2.4503519535064697,6.14366340637207,1.2867062091827393
2.417344570159912,6.1918792724609375,1.3025096654891968
2.394760847091675,6.264482021331787,1.3234161138534546
2.362610101699829,6.311661720275879,1.3390047550201416
2.3330368995666504,6.369725227355957,1.3571418523788452
2.2980728149414062,6.417312145233154,1.3721925020217896
2.2686362266540527,6.482866287231445,1.3911020755767822
2.2395949363708496,6.551918029785156,1.4109164476394653
2.208009958267212,6.609370708465576,1.4281737804412842
2.1736397743225098,6.663293361663818,1.4448968172073364
2.1137564182281494,6.636691093444824,1.4439983367919922
2.0438101291656494,6.580995082855225,1.4358776807785034
1.9914705753326416,6.579532623291016,1.439609169960022
1.9264962673187256,6.533604145050049,1.4336237907409668
1.8689554929733276,6.505114555358887,1.4313557147979736
1.812174677848816,6.480021953582764,1.4299259185791016
1.755391240119934,6.450682640075684,1.4273518323898315
1.695062279701233,6.410264015197754,1.4214876890182495
0.8272014856338501,3.2216522693634033,0.7159867286682129
1.5793427228927612,6.338967800140381,1.4119466543197632
0.8051807880401611,3.3321282863616943,0.7438774108886719
1.4818940162658691,6.324796199798584,1.4151556491851807
1.4292064905166626,6.296606063842773,1.4120768308639526
1.3735030889511108,6.257246017456055,1.4055280685424805
1.3207882642745972,6.228631496429443,1.4014126062393188
1.2669509649276733,6.196009635925293,1.396483063697815
1.2086834907531738,6.1289777755737305,1.3837342262268066
1.1651477813720703,6.132600784301758,1.3869632482528687
1.1195628643035889,6.124662399291992,1.3876372575759888
1.0570961236953735,6.02274227142334,1.3664474487304688
1.0147422552108765,6.037032604217529,1.3713314533233643
0.971789538860321,6.043385982513428,1.3744558095932007
0.9209761023521423,5.996659755706787,1.3655511140823364
0.8786648511886597,5.9984636306762695,1.3677228689193726
0.8336741328239441,5.981109142303467,1.365587830543518
0.7862045168876648,5.948436737060547,1.3598947525024414
0.6501303315162659,5.201159954071045,1.1899120807647705
0.5959813594818115,5.057671546936035,1.157973051071167
0.569932222366333,5.148409843444824,1.1797075271606445
0.52964848279953,5.110183238983154,1.1719473600387573
0.39408645033836365,4.078540802001953,0.9361941814422607
0.367889404296875,4.111241340637207,0.9446076154708862
0.343832790851593,4.170380592346191,0.9587920904159546
0.3119770884513855,4.138332366943359,0.9517565965652466
0.2829242944717407,4.140232563018799,0.9525730013847351
0.2582852840423584,4.214127063751221,0.9700078964233398
0.41942256689071655,7.739474296569824,1.7823635339736938
0.3648350238800049,7.726647853851318,1.7803707122802734
0.3096179962158203,7.690613269805908,1.773107886314392
0.2551555931568146,7.6696391105651855,1.7683757543563843
0.20106787979602814,7.652127742767334,1.7643412351608276
0.1461205780506134,7.622835159301758,1.7576781511306763
0.09258198738098145,7.5931396484375,1.75100576877594
0.0397515632212162,7.566875457763672,1.7452068328857422
-0.012779210694134235,7.528826713562012,1.7367717027664185
-0.0649048462510109,7.505669116973877,1.7317209243774414
-0.11756991595029831,7.478568077087402,1.7247660160064697
-0.1688905954360962,7.454922676086426,1.7187103033065796
-0.22020170092582703,7.438533306121826,1.7144118547439575
-0.27054595947265625,7.39896297454834,1.704856038093567
-0.32399266958236694,7.442720413208008,1.7145832777023315
-0.27296996116638184,5.40641450881958,1.2452805042266846
-0.309810072183609,5.381754398345947,1.2391387224197388
-0.34702160954475403,5.379799842834473,1.2377630472183228
-0.3815074861049652,5.3396100997924805,1.2276557683944702
-0.417475163936615,5.3257737159729,1.22367525100708
-0.4499548077583313,5.269941329956055,1.2101081609725952
-0.42546546459198,4.599571704864502,1.0555707216262817
-0.4581894874572754,4.604353427886963,1.0561243295669556
-0.48755401372909546,4.578731060028076,1.049282431602478
-0.5190484523773193,4.5756940841674805,1.0474215745925903
-0.5495606660842896,4.564881801605225,1.0438340902328491
-0.5767785310745239,4.523553371429443,1.0333061218261719
-0.6062330603599548,4.504749298095703,1.0279947519302368
-0.6370049118995667,4.497076034545898,1.02527916431427
-0.6682597994804382,4.492960453033447,1.0234251022338867
-0.6955446004867554,4.466245174407959,1.0157850980758667
-0.7254429459571838,4.454340934753418,1.0115352869033813
-0.7559289336204529,4.44983434677124,1.0090436935424805
-0.7840836644172668,4.430044651031494,1.003122329711914
-0.813582718372345,4.417540550231934,0.9988970160484314
-0.8350604176521301,4.363636016845703,0.9853761196136475
-0.7255650758743286,3.6550559997558594,0.8240612745285034
-0.7494427561759949,3.643045663833618,0.8197194337844849
-0.9125184416770935,4.287742614746094,0.9629337787628174
-0.9500588774681091,4.319352149963379,0.9682082533836365
-0.9801520109176636,4.313331604003906,0.965045690536499
-1.0085115432739258,4.299656867980957,0.9602177739143372
-1.040798544883728,4.300529479980469,0.9586583375930786
-1.0682486295700073,4.2867560386657715,0.9532747864723206
-1.0935912132263184,4.2654242515563965,0.9462491869926453
-1.1187384128570557,4.243927001953125,0.9392430186271667
-1.1372003555297852,4.196330547332764,0.9264917969703674
-1.176242709159851,4.222115993499756,0.9299399852752686
-1.2078860998153687,4.221965312957764,0.9277346134185791
-1.2292454242706299,4.18883752822876,0.9179110527038574
-1.2532542943954468,4.166705131530762,0.9103435277938843
-1.2837307453155518,4.166369915008545,0.9075892567634583
-1.3084057569503784,4.1436285972595215,0.8999024629592896
-1.3397996425628662,4.142601490020752,0.8969891667366028
-1.3640685081481934,4.119527816772461,0.889346718788147
-1.3948849439620972,4.11830997467041,0.8861299753189087
-1.4202767610549927,4.102599620819092,0.8795573711395264
-1.435260534286499,4.057857036590576,0.8668390512466431
-1.4545923471450806,4.023566246032715,0.8563297390937805
-1.4920964241027832,4.039499282836914,0.856552004814148
-1.5230884552001953,4.037198066711426,0.8529292345046997
-1.5437414646148682,4.009965419769287,0.8437174558639526
-1.5777299404144287,4.018495559692383,0.8418527245521545
-1.6009297370910645,3.998115301132202,0.8339053392410278
-1.6287411451339722,3.9880762100219727,0.8281013369560242
-1.6538875102996826,3.97062087059021,0.8207579255104065
-1.6638623476028442,3.9176723957061768,0.8061646819114685
-1.7024757862091064,3.935814619064331,0.805704653263092
-1.7294118404388428,3.9253621101379395,0.7993050217628479
-1.7528796195983887,3.9078097343444824,0.7915449738502502
-1.774120569229126,3.8826558589935303,0.7821277976036072
-1.7918095588684082,3.8504250049591064,0.7713686227798462
-1.8215463161468506,3.846310615539551,0.7659839987754822
-1.8611196279525757,3.8629086017608643,0.7643824815750122
-1.8835928440093994,3.8448193073272705,0.7560147643089294
-1.9072948694229126,3.82596755027771,0.7472906708717346
-1.9309197664260864,3.806910514831543,0.7385632991790771
-1.960797667503357,3.8017349243164062,0.7323444485664368
-1.9861913919448853,3.790020704269409,0.7245904803276062
-2.001054525375366,3.7575266361236572,0.7128375172615051
-2.0275983810424805,3.744814872741699,0.7046769857406616
-2.061615467071533,3.745349407196045,0.6989964842796326
-1.7220935821533203,3.079739809036255,0.5697688460350037
-1.7425159215927124,3.0695321559906006,0.5627169609069824
-0.8403432369232178,1.4575365781784058,0.264660120010376
-0.8546378016471863,1.4588112831115723,0.262241929769516
-0.8649970293045044,1.4533450603485107,0.25860297679901123
-0.8785998225212097,1.4548577070236206,0.2560334801673889
-0.8841708302497864,1.4430793523788452,0.2511392831802368
-0.9027034640312195,1.4505085945129395,0.24933703243732452
-0.8882676959037781,1.4054884910583496,0.23860584199428558
-0.9184750914573669,1.432790994644165,0.2400311827659607
-0.8941184282302856,1.3755148649215698,0.22732071578502655
-0.9081090092658997,1.376312017440796,0.22407008707523346
-0.9181772470474243,1.3703402280807495,0.21959537267684937
-0.9227786064147949,1.3585994243621826,0.2141289860010147
-2.441511869430542,3.545637369155884,0.5492910146713257
-1.330119252204895,1.9031542539596558,0.28923314809799194
-1.361093521118164,1.9203338623046875,0.2860563397407532
-1.3661954402923584,2.167046308517456,-0.20958863198757172
-1.3151390552520752,2.1201319694519043,-0.21212336421012878
-1.277052879333496,2.092512369155884,-0.21619769930839539
-1.191790223121643,1.9841859340667725,-0.21126943826675415
-0.8205125331878662,1.4117848873138428,-0.15897513926029205
-0.8412812948226929,1.471055269241333,-0.1699325144290924
-1.023108720779419,1.8185293674468994,-0.21531614661216736
-0.9886897206306458,1.788068175315857,-0.21689873933792114
-0.9330062866210938,1.716032862663269,-0.21293480694293976
-0.9170781373977661,1.7151210308074951,-0.2174830436706543
-0.8810469508171082,1.6764321327209473,-0.21707271039485931
-0.8472973108291626,1.64083731174469,-0.21682998538017273
-0.8195716142654419,1.6151490211486816,-0.21764670312404633
-0.7872708439826965,1.5786633491516113,-0.21674302220344543
-0.7620575428009033,1.5558936595916748,-0.21750055253505707
-0.7389676570892334,1.536313772201538,-0.2185605764389038
-0.7313587665557861,1.5478978157043457,-0.22392962872982025
-0.7072426676750183,1.524351716041565,-0.22415153682231903
-0.6767178177833557,1.48662531375885,-0.22213532030582428
-0.6549392342567444,1.4661210775375366,-0.22246043384075165
-0.6413937211036682,1.4630515575408936,-0.2253233790397644
-0.6125583052635193,1.424383521080017,-0.22255875170230865
-0.5917097330093384,1.4032665491104126,-0.22234158217906952
-0.5814478993415833,1.4069609642028809,-0.2260369509458542
-0.5627585053443909,1.3889884948730469,-0.2261263132095337
-0.5471256971359253,1.3780478239059448,-0.22723929584026337
0.546967625617981,1.386372447013855,-0.22868454456329346
0.5625256896018982,1.3973546028137207,-0.22765477001667023
0.5751852989196777,1.4011127948760986,-0.22532473504543304
0.5983971357345581,1.4297069311141968,-0.22690796852111816
0.61763596534729,1.4473356008529663,-0.2266024351119995
0.6434962749481201,1.4788947105407715,-0.22829531133174896
0.6710184216499329,1.5138829946517944,-0.23034454882144928
0.6815693974494934,1.5097651481628418,-0.2263583242893219
0.6987398266792297,1.5195631980895996,-0.22438059747219086
0.7373896241188049,1.5748103857040405,-0.2289447784423828
0.7584825754165649,1.5911873579025269,-0.227547287940979
0.7796844244003296,1.6074163913726807,-0.2260919064283371
0.8030915856361389,1.6268073320388794,-0.224906787276268
0.8354154229164124,1.6633293628692627,-0.22592408955097198
0.8662657737731934,1.696176290512085,-0.22621682286262512
0.9031038284301758,1.7389599084854126,-0.22758357226848602
0.9301771521568298,1.760515809059143,-0.22582216560840607
0.9663322567939758,1.7991129159927368,-0.2261316031217575
1.0177509784698486,1.864691138267517,-0.2295144647359848
1.0534310340881348,1.8989684581756592,-0.22865529358386993
1.095519781112671,1.942923903465271,-0.22866514325141907
1.1341780424118042,1.9797989130020142,-0.22746947407722473
1.1789690256118774,2.0264835357666016,-0.22721879184246063
1.2428240776062012,2.102491855621338,-0.22964754700660706
1.2915418148040771,2.1511993408203125,-0.2286902219057083
1.322290062904358,2.1697304248809814,-0.22428493201732635
1.3519920110702515,2.1842336654663086,-0.21902023255825043
1.3633062839508057,2.1687562465667725,-0.2107088565826416
1.3736572265625,2.1537108421325684,-0.20248758792877197
1.3777828216552734,2.128626585006714,-0.1932709664106369
1.7737048864364624,2.699028253555298,-0.23597119748592377
1.8462814092636108,2.7686939239501953,-0.23250389099121094
1.810364842414856,2.6763064861297607,-0.2154700756072998
1.8712157011032104,2.725315809249878,-0.2094307392835617
1.8760398626327515,2.694355010986328,-0.1971215456724167
1.4239822626113892,2.016616106033325,-0.13987049460411072
1.4521079063415527,2.0259294509887695,-0.13220015168190002
1.4652655124664307,2.0169897079467773,-0.12342406064271927
1.4697843790054321,1.9948903322219849,-0.11345118284225464
2.6091010570526123,3.691072463989258,0.5274317860603333
2.6187777519226074,3.7627084255218506,0.5499566197395325
2.58837628364563,3.7815141677856445,0.5646950006484985
1.5465588569641113,2.294562578201294,0.3492963910102844
1.5296099185943604,2.3046836853027344,0.357206791639328
1.515547275543213,2.3219871520996094,0.36606234312057495
1.5545324087142944,2.4200809001922607,0.38760441541671753
1.6322392225265503,2.580457925796509,0.4194601774215698
1.5834623575210571,2.5458319187164307,0.4197565019130707
3.0260908603668213,4.948842525482178,0.8270488381385803
2.9941461086273193,4.974991798400879,0.8416885733604431
2.9820950031280518,5.033923625946045,0.8618903756141663
2.9571189880371094,5.077693939208984,0.8790817260742188
2.940145492553711,5.138669490814209,0.8995175957679749
2.906806707382202,5.164288520812988,0.9130918979644775
2.8811213970184326,5.2029709815979,0.9289715886116028
2.866180419921875,5.266242504119873,0.9488905668258667
2.840480327606201,5.313002586364746,0.9657856822013855
2.82027006149292,5.369556903839111,0.9844797849655151
2.7926411628723145,5.407948017120361,0.9995461106300354
2.7763819694519043,5.470468044281006,1.019083023071289
2.7590551376342773,5.537517070770264,1.0390070676803589
1.230005145072937,2.5151329040527344,0.4752959907054901
1.2149462699890137,2.5300776958465576,0.4814133644104004
1.1903972625732422,2.5238184928894043,0.48342064023017883
1.1785813570022583,2.545454263687134,0.4906669557094574
1.159506916999817,2.553349018096924,0.4950745105743408
1.1622772216796875,2.610278844833374,0.5090730786323547
2.5750324726104736,5.894176006317139,1.1559265851974487
2.5521128177642822,5.9566168785095215,1.1747381687164307
2.5212509632110596,6.001229763031006,1.1898348331451416
2.494169235229492,6.0606279373168945,1.2073261737823486
2.4649031162261963,6.116353511810303,1.2242296934127808
2.434917449951172,6.167879104614258,1.2402520179748535
2.403050184249878,6.215633869171143,1.2556273937225342
2.3782076835632324,6.280893325805664,1.2745763063430786
2.352250099182129,6.350414752960205,1.2937215566635132
2.313385486602783,6.387505054473877,1.3062607049942017
2.285813331604004,6.456820964813232,1.3254984617233276
2.2570886611938477,6.522102355957031,1.343953251838684
2.2222039699554443,6.568866729736328,1.358638048171997
2.1924080848693848,6.633793354034424,1.3769913911819458
2.1463608741760254,6.655394554138184,1.385697603225708
2.0840201377868652,6.625504970550537,1.3837329149246216
2.0163354873657227,6.576841354370117,1.3778772354125977
1.9568829536437988,6.545395851135254,1.375456690788269
1.9012526273727417,6.524464130401611,1.3752578496932983
1.8423762321472168,6.49224328994751,1.3723416328430176
1.7861301898956299,6.470986366271973,1.3711254596710205
1.7234165668487549,6.42337703704834,1.3643451929092407
1.6698204278945923,6.408620834350586,1.3645961284637451
1.6080747842788696,6.352215766906738,1.3558627367019653
1.5599782466888428,6.347281455993652,1.3581397533416748
0.7926544547080994,3.3254239559173584,0.7131824493408203
1.4515429735183716,6.288485050201416,1.3511182069778442
1.3998504877090454,6.271790504455566,1.3500932455062866
1.3421261310577393,6.220881938934326,1.341686725616455
1.297079086303711,6.221685409545898,1.3444162607192993
1.2452324628829956,6.188459873199463,1.3398423194885254
1.1946946382522583,6.158571720123291,1.3360018730163574
1.1423076391220093,6.125009536743164,1.3304980993270874
1.0871186256408691,6.068351745605469,1.3199870586395264
1.0445061922073364,6.078978061676025,1.324157953262329
0.9963517785072327,6.051508903503418,1.320054531097412
0.9541850686073303,6.057589530944824,1.3233140707015991
0.9015127420425415,5.999300956726074,1.312593936920166
0.8604094386100769,6.012458801269531,1.3169362545013428
0.8147476315498352,5.995183944702148,1.314333200454712
0.7645691633224487,5.939702987670898,1.3034011125564575
0.6135526895523071,5.046513557434082,1.1084963083267212
0.5814470052719116,5.076773643493652,1.1162854433059692
0.5572065114974976,5.190361976623535,1.142507791519165
0.4041030704975128,4.028149127960205,0.887610912322998
0.3810283839702606,4.08766508102417,0.9011498689651489
0.35877174139022827,4.166052341461182,0.9189084768295288
0.3288652002811432,4.160644054412842,0.9182367324829102
0.29716962575912476,4.13220739364624,0.912527859210968
0.27091455459594727,4.17202091217041,0.9219257235527039
0.4485103189945221,7.737884521484375,1.711108684539795
0.3945842683315277,7.740533828735352,1.712409496307373
0.3395736813545227,7.720077991485596,1.7080591917037964
0.2832280397415161,7.684024810791016,1.7003451585769653
0.22882488369941711,7.658971309661865,1.695141315460205
0.1747867465019226,7.629720687866211,1.689087152481079
0.12125576287508011,7.600090503692627,1.6830264329910278
0.06819403171539307,7.585342884063721,1.6803404092788696
0.014382307417690754,7.543726921081543,1.6708521842956543
-0.037937916815280914,7.513222694396973,1.6636946201324463
-0.09005788713693619,7.493796348571777,1.6590726375579834
-0.14174942672252655,7.470196723937988,1.6536091566085815
-0.19303008913993835,7.446244239807129,1.6481488943099976
-0.24398492276668549,7.421939849853516,1.6426910161972046
-0.29614269733428955,7.412527561187744,1.640464186668396
-0.2522594928741455,5.379849433898926,1.1898349523544312
-0.2902787923812866,5.393450736999512,1.1921213865280151
-0.32717275619506836,5.38393497467041,1.1893529891967773
-0.36349567770957947,5.366550922393799,1.1849050521850586
-0.39970770478248596,5.3412652015686035,1.1787643432617188
-0.43651822209358215,5.334793567657471,1.176844835281372
-0.41844356060028076,4.712491035461426,1.0388697385787964
-0.4410841763019562,4.607300758361816,1.014658808708191
-0.4720402956008911,4.5969109535217285,1.0113980770111084
-0.5017898082733154,4.571079730987549,1.0047779083251953
-0.5308858156204224,4.545088291168213,0.9981894493103027
-0.5633976459503174,4.549213409423828,0.9982662200927734
-0.5930197834968567,4.530396938323975,0.9933584332466125
-0.6220698356628418,4.511545181274414,0.9879488945007324
-0.6535558104515076,4.50758695602417,0.9856868386268616
-0.682732105255127,4.492159843444824,0.9809920191764832
-0.7113313674926758,4.472741603851318,0.9754709005355835
-0.7386960387229919,4.445565223693848,0.968305230140686
-0.7696301937103271,4.440800189971924,0.9660741090774536
-0.7963338494300842,4.413318157196045,0.9588015675544739
-0.8270262479782104,4.40829610824585,0.955916702747345
-0.7088935375213623,3.6417973041534424,0.7882857322692871
-0.7368014454841614,3.6523561477661133,0.7891788482666016
-0.7575596570968628,3.62520170211792,0.7819364666938782
-0.9299017786979675,4.300318241119385,0.9259626865386963
-0.9687438607215881,4.331539630889893,0.931097686290741
-0.9949806332588196,4.310606479644775,0.9245791435241699
-1.0225998163223267,4.297011852264404,0.9195560216903687
-1.0500324964523315,4.2832465171813965,0.9145496487617493
-1.07779061794281,4.269196033477783,0.9094999432563782
-1.1100448369979858,4.269588470458984,0.9075173139572144
-1.132947564125061,4.2365899085998535,0.898525595664978
-1.160110354423523,4.222088813781738,0.8932161927223206
-1.1918902397155762,4.226012706756592,0.8915222883224487
-1.215262770652771,4.2002763748168945,0.8836166262626648
-1.242406964302063,4.185207843780518,0.8779431581497192
-1.2716739177703857,4.177274703979492,0.8738101720809937
-1.3008897304534912,4.169133186340332,0.869676411151886
-1.3250153064727783,4.146337509155273,0.8623383045196533
-1.3459148406982422,4.116375923156738,0.8531767725944519
-1.3742265701293945,4.107981204986572,0.8484918475151062
-1.3998342752456665,4.092183589935303,0.8423404097557068
-1.4310663938522339,4.0904741287231445,0.839056134223938
-1.4520069360733032,4.059632301330566,0.829847514629364
-1.4760643243789673,4.03970193862915,0.822715163230896
-1.4952623844146729,4.009130001068115,0.8131277561187744
-1.5282421112060547,4.0141777992248535,0.8107495903968811
-1.5558373928070068,4.00463342666626,0.8054456114768982
-1.5755099058151245,3.973247766494751,0.7957286834716797
-1.6149846315383911,3.9916179180145264,0.7960100173950195
-1.6364115476608276,3.9674062728881836,0.7874432802200317
-1.6576182842254639,3.943106174468994,0.7786703705787659
-1.6871626377105713,3.940074920654297,0.7742112874984741
-1.711629033088684,3.922313928604126,0.7667431831359863
-1.742361307144165,3.91837477684021,0.7619880437850952
-1.753808856010437,3.8722755908966064,0.7489990592002869
-1.7705082893371582,3.8405299186706543,0.7383832931518555
-1.8092883825302124,3.85768985748291,0.7372731566429138
-1.8358033895492554,3.846414089202881,0.7306122183799744
-1.873031497001648,3.8554277420043945,0.7276981472969055
-1.8968489170074463,3.836469888687134,0.71951824426651
-1.9194077253341675,3.817979574203491,0.7109154462814331
-1.9448846578598022,3.8064043521881104,0.7037084698677063
-1.9602686166763306,3.773818254470825,0.6925487518310547
-1.9870866537094116,3.761164903640747,0.6849112510681152
-2.0137226581573486,3.748363494873047,0.677253782749176
-2.029411792755127,3.7193589210510254,0.6662692427635193
-1.712186336517334,3.0891106128692627,0.5485007166862488
-1.7299013137817383,3.0715878009796143,0.5404096841812134
-0.8365530967712402,1.461485505104065,0.25470322370529175
-0.8505221009254456,1.4629396200180054,0.2524417042732239
-0.860219419002533,1.4578584432601929,0.24895401298999786
-0.866222083568573,1.4459062814712524,0.2442319095134735
-0.8724696040153503,1.4337245225906372,0.2394063025712967
-0.8866040706634521,1.4347493648529053,0.2367742657661438
-0.90010666847229,1.4360857009887695,0.23403586447238922
-0.9053831100463867,1.4242218732833862,0.2291470468044281
-0.9031690955162048,1.3987271785736084,0.2218056470155716
-0.9088044166564941,1.3864693641662598,0.21666394174098969
-0.9092939496040344,1.3682215213775635,0.21051965653896332
-0.9574437141418457,1.4205875396728516,0.21505887806415558
-2.414608955383301,3.52959942817688,0.5249499082565308
-1.3532495498657227,1.9500763416290283,0.284614235162735
-1.6023911237716675,2.278641700744629,0.3261997401714325
-1.3827168941497803,2.2119944095611572,-0.21176636219024658
-1.3200167417526245,2.1447815895080566,-0.21197926998138428
-1.2660239934921265,2.090365171432495,-0.2130214273929596
-1.2085343599319458,2.028839111328125,-0.21293725073337555
-0.8468807339668274,1.468660593032837,-0.16267718374729156
-0.9969950914382935,1.7584302425384521,-0.19975021481513977
-1.0277491807937622,1.8430390357971191,-0.2144223004579544
-0.997826099395752,1.818959355354309,-0.21648289263248444
-0.9587020874023438,1.7776668071746826,-0.2162580043077469
-0.8962666988372803,1.6914846897125244,-0.21028412878513336
-0.8914229869842529,1.7109453678131104,-0.21700073778629303
-0.8668081760406494,1.6924457550048828,-0.2188744843006134
-0.830001950263977,1.6495825052261353,-0.21737074851989746
-0.8025542497634888,1.6236406564712524,-0.21788083016872406
-0.773828387260437,1.5939146280288696,-0.21773499250411987
-0.7522990107536316,1.577858567237854,-0.21923017501831055
-0.7292304635047913,1.5581529140472412,-0.22008857131004333
-0.711550772190094,1.5486778020858765,-0.22224755585193634
-0.6846365928649902,1.517793893814087,-0.22118832170963287
-0.6705768704414368,1.5150184631347656,-0.22407963871955872
-0.6455293297767639,1.487381100654602,-0.22324329614639282
-0.6227776408195496,1.4629080295562744,-0.22266118228435516
-0.6094059944152832,1.4595913887023926,-0.22521711885929108
-0.590126633644104,1.4419080018997192,-0.22542516887187958
-0.5710693597793579,1.4240609407424927,-0.22550518810749054
-0.5508654117584229,1.4024351835250854,-0.22491025924682617
-0.535381019115448,1.3913466930389404,-0.2258758395910263
-0.5227074027061462,1.3873897790908813,-0.22787457704544067
0.5228747725486755,1.395574927330017,-0.22906620800495148
0.5409666895866394,1.4140162467956543,-0.22943347692489624
0.5537916421890259,1.4178614616394043,-0.2273702174425125
0.5708863139152527,1.4324138164520264,-0.22692270576953888
0.5779501795768738,1.4217678308486938,-0.22242367267608643
0.6177223920822144,1.4895803928375244,-0.23000989854335785
0.625221848487854,1.4786015748977661,-0.22534357011318207
0.6432100534439087,1.4925055503845215,-0.22440707683563232
0.6753352284431458,1.5381784439086914,-0.22806628048419952
0.6924228668212891,1.548114538192749,-0.2262718379497528
0.7148147225379944,1.568333387374878,-0.2258131355047226
0.7323053479194641,1.5779246091842651,-0.22376284003257751
0.7564573287963867,1.601428747177124,-0.22356407344341278
0.7844691276550293,1.6316099166870117,-0.22412250936031342
0.8147772550582886,1.664914846420288,-0.22491270303726196
0.8473241329193115,1.70137357711792,-0.22584311664104462
0.8783192038536072,1.7341794967651367,-0.22615985572338104
0.9136022925376892,1.7734400033950806,-0.22705145180225372
0.9333541393280029,1.7813138961791992,-0.22376342117786407
0.9784771800041199,1.8371632099151611,-0.22628068923950195
1.0150882005691528,1.875463604927063,-0.22637714445590973
1.0604209899902344,1.9266486167907715,-0.22754517197608948
1.104333519935608,1.97407066822052,-0.2280593067407608
1.1504113674163818,2.024636745452881,-0.22862379252910614
1.2012999057769775,2.0813233852386475,-0.2294980138540268
1.2495026588439941,2.1304919719696045,-0.22906868159770966
1.3022578954696655,2.1859025955200195,-0.22887425124645233
1.3210731744766235,2.184401750564575,-0.22262495756149292
1.3445708751678467,2.1890392303466797,-0.2167155146598816
1.3639930486679077,2.186887741088867,-0.21004125475883484
1.3619771003723145,2.152052164077759,-0.2002948373556137
1.3707818984985352,2.133270740509033,-0.19184108078479767
1.7775747776031494,2.7245523929595947,-0.2363276481628418
1.8279244899749756,2.7622320652008057,-0.2307431399822235
1.855449914932251,2.7634475231170654,-0.22167851030826569
1.837647557258606,2.6963045597076416,-0.20694923400878906
1.8668643236160278,2.7006795406341553,-0.19768424332141876
1.3881827592849731,1.9797637462615967,-0.1377030462026596
1.4404784440994263,2.024561643600464,-0.13309919834136963
1.4581694602966309,2.022017240524292,-0.12518735229969025
1.4583237171173096,1.9935016632080078,-0.11520268768072128
1.4648258686065674,1.97467041015625,-0.10571140050888062
2.2623136043548584,3.1752588748931885,0.42517325282096863
2.6438324451446533,3.769057273864746,0.5170202851295471
2.6091270446777344,3.7817089557647705,0.5308088660240173
2.5906124114990234,3.8113322257995605,0.5457764863967896
2.482180118560791,3.709506034851074,0.5414850115776062
1.5086947679519653,2.2926738262176514,0.3408345878124237
1.5168163776397705,2.3418116569519043,0.35403716564178467
1.5749448537826538,2.4691457748413086,0.37922903895378113
1.631679892539978,2.6016650199890137,0.405504435300827
3.060704231262207,4.962276935577393,0.7844589948654175
3.025222063064575,4.981872081756592,0.7977896928787231
2.9921553134918213,5.008649826049805,0.8123378753662109
2.9769575595855713,5.069473743438721,0.8319077491760254
2.9521725177764893,5.113109588623047,0.848615825176239
2.9118123054504395,5.125285625457764,0.8596621155738831
2.9143073558807373,5.2149858474731445,0.8837471008300781
2.8885488510131836,5.262519359588623,0.9004819393157959
2.855703830718994,5.295925617218018,0.9147469401359558
2.8216168880462646,5.320976734161377,0.9270762205123901
2.810462236404419,5.390299320220947,0.9472622871398926
2.7912566661834717,5.450422286987305,0.9654520750045776
2.768308401107788,5.507681846618652,0.983268678188324
2.741532564163208,5.553587436676025,0.9988411664962769
1.2332390546798706,2.542705774307251,0.46059492230415344
1.2084403038024902,2.536668300628662,0.46274489164352417
1.1828727722167969,2.5308804512023926,0.4646047353744507
1.1670657396316528,2.5458762645721436,0.47030162811279297
1.160948395729065,2.5816893577575684,0.47985267639160156
1.1395809650421143,2.5819952487945557,0.4827365279197693
2.565264940261841,5.92378568649292,1.1139638423919678
2.5408520698547363,5.986999988555908,1.1316059827804565
2.5052971839904785,6.0252685546875,1.1446599960327148
2.4782471656799316,6.084603786468506,1.161810278892517
2.44805645942688,6.132436275482178,1.176651120185852
2.421510696411133,6.190858364105225,1.1936521530151367
2.3941426277160645,6.253448963165283,1.2108805179595947
2.3588032722473145,6.298130035400391,1.2246016263961792
2.3341872692108154,6.375286102294922,1.2448469400405884
2.3048360347747803,6.433404445648193,1.2612218856811523
2.27103328704834,6.480499744415283,1.2755504846572876
2.2423605918884277,6.545799255371094,1.2933423519134521
2.210442543029785,6.6078643798828125,1.3099454641342163
2.173266649246216,6.6591010093688965,1.3246090412139893
2.1184120178222656,6.65116024017334,1.3274363279342651
2.0534913539886475,6.605831623077393,1.3227137327194214
1.9925810098648071,6.570971965789795,1.3200891017913818
1.9337527751922607,6.543240547180176,1.3184233903884888
1.877801775932312,6.526381969451904,1.3185195922851562
1.8172985315322876,6.49448823928833,1.315665602684021
1.75593101978302,6.450584888458252,1.310272455215454
1.697993516921997,6.41338586807251,1.30619215965271
0.8374859094619751,3.2546615600585938,0.664658784866333
1.5804502964019775,6.326669692993164,1.2950491905212402
0.8040178418159485,3.3211922645568848,0.6812530755996704
1.4849950075149536,6.33205509185791,1.3015636205673218
1.4273805618286133,6.285437107086182,1.2946909666061401
1.3833768367767334,6.2943267822265625,1.2992581129074097
1.3234702348709106,6.227992057800293,1.2883235216140747
1.2733852863311768,6.210190773010254,1.2871464490890503
1.221637487411499,6.180809020996094,1.2829996347427368
1.171020269393921,6.15478515625,1.2795956134796143
1.1100924015045166,6.068087100982666,1.263587236404419
1.0709930658340454,6.093811511993408,1.270994782447815
1.0258195400238037,6.089200019836426,1.2721736431121826
0.97956782579422,6.072847843170166,1.270853042602539
0.8223533630371094,5.338105201721191,1.1182514429092407
0.8844435214996338,6.024484634399414,1.2634059190750122
0.8359166979789734,5.988391399383545,1.257254958152771
0.7873086929321289,5.948145389556885,1.2502793073654175
0.6550918817520142,5.228278636932373,1.1002860069274902
0.5926508903503418,5.012021541595459,1.0560894012451172
0.5697473883628845,5.1258931159973145,1.08100163936615
0.5459018349647522,5.247350215911865,1.107313632965088
0.3957667946815491,4.08264684677124,0.8621180057525635
0.36971187591552734,4.119386196136475,0.8705172538757324
0.3448144197463989,4.167329788208008,0.8813241124153137
0.3152737319469452,4.161759376525879,0.880861222743988
0.2857646346092224,4.155993461608887,0.8803530335426331
0.2580990493297577,4.180657863616943,0.8857709169387817
0.42330411076545715,7.7539825439453125,1.643311858177185
0.36787790060043335,7.733630180358887,1.6395184993743896
0.31302520632743835,7.712873458862305,1.635713815689087
0.25852927565574646,7.687906265258789,1.6310888528823853
0.20440863072872162,7.666378498077393,1.6272691488265991
0.14935804903507233,7.629316806793213,1.6196922063827515
0.09584871679544449,7.607258319854736,1.6147770881652832
0.04250398650765419,7.558078765869141,1.6041849851608276
-0.010098823346197605,7.535274982452393,1.5992707014083862
-0.06229492649435997,7.512106418609619,1.5943565368652344
-0.11509578675031662,7.492385387420654,1.5902529954910278
-0.16641297936439514,7.460855007171631,1.5837178230285645
-0.2175002545118332,7.436800479888916,1.577925205230713
-0.26870855689048767,7.427710056304932,1.5752125978469849
-0.3218628168106079,7.4640793800354,1.5822123289108276
-0.2706140875816345,5.404630184173584,1.1451948881149292
-0.3084065318107605,5.395120620727539,1.1427664756774902
-0.34545549750328064,5.385385036468506,1.1403535604476929
-0.3812447786331177,5.360180854797363,1.134566068649292
-0.4182051122188568,5.357750415802002,1.1330240964889526
-0.45165008306503296,5.3131632804870605,1.1226270198822021
-0.42446574568748474,4.609776973724365,0.973200261592865
-0.45646676421165466,4.607000827789307,0.9718629717826843
-0.4860821068286896,4.581185817718506,0.9657149314880371
-0.5153605341911316,4.555179595947266,0.9595799446105957
-0.5477266311645508,4.559460639953613,0.9594813585281372
-0.5776426792144775,4.540767192840576,0.9543023705482483
-0.6068111062049866,4.521937370300293,0.9491684436798096
-0.6379891633987427,4.51805305480957,0.9472169280052185
-0.6654707789421082,4.487433433532715,0.9397029280662537
-0.6978439092636108,4.490665435791016,0.9393278956413269
-0.7271391749382019,4.4709367752075195,0.934140682220459
-0.7513163089752197,4.428666591644287,0.9237183928489685
-0.7829381823539734,4.431486129760742,0.9227548837661743
-0.8104842901229858,4.411495685577393,0.9170874357223511
-0.8410559892654419,4.406301975250244,0.9145253300666809
-0.7222772836685181,3.646104097366333,0.755545973777771
-0.7496594190597534,3.6488404273986816,0.7549266815185547
-0.7731449604034424,3.636610507965088,0.7509469389915466
-0.9524179100990295,4.334962844848633,0.8932189345359802
-0.9785736203193665,4.314068794250488,0.8870241045951843
-1.010007381439209,4.315332412719727,0.8854120969772339
-1.0406492948532104,4.308712005615234,0.8821637034416199
-1.0651774406433105,4.279679775238037,0.8744117021560669
-1.0967304706573486,4.280296325683594,0.8725916743278503
-1.1219708919525146,4.258655548095703,0.8658538460731506
-1.148924708366394,4.2442731857299805,0.8606478571891785
-1.1753376722335815,4.225863456726074,0.8546261787414551
-1.2047979831695557,4.218323707580566,0.8508433699607849
-1.227780818939209,4.188479423522949,0.84261155128479
-1.259077787399292,4.187960624694824,0.8402557969093323
-1.2874116897583008,4.180197238922119,0.8359708189964294
-1.3092433214187622,4.150143623352051,0.8272362351417542
-1.3302956819534302,4.120100498199463,0.8186113834381104
-1.3639352321624756,4.126134395599365,0.8171141743659973
-1.390383243560791,4.110063076019287,0.8112709522247314
-1.4164756536483765,4.093897819519043,0.8053789734840393
-1.4390064477920532,4.070695877075195,0.7976722717285156
-1.4656453132629395,4.058061599731445,0.7920367121696472
-1.4905645847320557,4.0417351722717285,0.7857578992843628
-1.508080244064331,4.003365516662598,0.775160014629364
-1.5444514751434326,4.01516580581665,0.7743205428123474
-1.572176456451416,4.005390167236328,0.769136905670166
-1.590979814529419,3.974174976348877,0.7594953179359436
-1.6206029653549194,3.9715347290039062,0.7554239630699158
-1.6479480266571045,3.961324453353882,0.7498554587364197
-1.6758300065994263,3.950686454772949,0.7441622614860535
-1.7036408185958862,3.939845323562622,0.7384676933288574
-1.7245373725891113,3.9150662422180176,0.7297049760818481
-1.753968358039856,3.911543607711792,0.72493976354599
-1.7611737251281738,3.858673095703125,0.7110762000083923
