X,Y,Z
-1.2208656072616577,1.8307299613952637,-0.10804782807826996
-123.56427001953125,188.19053649902344,-11.531476020812988
-1.6789156198501587,2.639279365539551,-0.17309021949768066
-1.760118842124939,2.9042534828186035,-0.20793220400810242
-1.7172490358352661,2.879530668258667,-0.21156254410743713
-0.8424668312072754,1.4845377206802368,-0.11706601828336716
-1.4977655410766602,2.684926986694336,-0.21629323065280914
-1.4351379871368408,2.616730213165283,-0.21514534950256348
-1.3779340982437134,2.554305076599121,-0.214084193110466
-1.3373240232467651,2.5226023197174072,-0.2154577523469925
-1.2918574810028076,2.480093002319336,-0.21567292511463165
-1.2458513975143433,2.4333338737487793,-0.21524940431118011
-1.1989777088165283,2.3825080394744873,-0.21427308022975922
-1.1523172855377197,2.3314425945281982,-0.21302254498004913
-1.1350244283676147,2.3395302295684814,-0.21715326607227325
-1.0934818983078003,2.2943592071533203,-0.2160988748073578
-1.0476070642471313,2.238194227218628,-0.21384896337985992
-1.0199934244155884,2.22062349319458,-0.21509812772274017
-0.981590211391449,2.1779048442840576,-0.2138080596923828
-0.9600287675857544,2.1701548099517822,-0.21579819917678833
-0.9305374026298523,2.1445138454437256,-0.215985968708992
-0.8998423218727112,2.1150450706481934,-0.21557573974132538
-0.8711763620376587,2.0888192653656006,-0.2154148817062378
-0.8300013542175293,2.0297868251800537,-0.21171338856220245
-0.8185845017433167,2.042487859725952,-0.21542257070541382
-0.7766438722610474,1.9793614149093628,-0.2109980285167694
-0.7623946666717529,1.984598159790039,-0.21375609934329987
-0.7347809672355652,1.9532299041748047,-0.21248844265937805
-0.7143721580505371,1.9398080110549927,-0.2131223976612091
-0.6952341198921204,1.9299644231796265,-0.21399392187595367
-0.6682669520378113,1.8980523347854614,-0.21240396797657013
-0.6485894918441772,1.884071946144104,-0.2127087116241455
-0.630436360836029,1.8735747337341309,-0.21337635815143585
-0.609885573387146,1.855600118637085,-0.21307046711444855
-0.5918969511985779,1.8448625802993774,-0.21352669596672058
-0.5739924907684326,1.833994746208191,-0.21396438777446747
-0.5509862303733826,1.8042957782745361,-0.21212279796600342
-0.5338888168334961,1.792999267578125,-0.21236684918403625
-0.512515127658844,1.7666970491409302,-0.21069705486297607
-0.49577420949935913,1.7551230192184448,-0.2107561081647873
-0.48347392678260803,1.758332371711731,-0.2125725895166397
-0.45992302894592285,1.7202786207199097,-0.20940108597278595
-0.4516395926475525,1.7383084297180176,-0.21287721395492554
-0.43171507120132446,1.7111799716949463,-0.21079911291599274
-0.4178527891635895,1.706437587738037,-0.21144936978816986
-0.40593791007995605,1.7091164588928223,-0.21301712095737457
-0.3954915702342987,1.7193304300308228,-0.21549905836582184
-0.3766249418258667,1.6916234493255615,-0.2130889743566513
-0.3646954596042633,1.694061517715454,-0.21446774899959564
-0.3489391505718231,1.677412509918213,-0.2134164571762085
-0.3357214331626892,1.6720303297042847,-0.21379221975803375
-0.3252713084220886,1.681833267211914,-0.2159939706325531
-0.31202951073646545,1.676306962966919,-0.21618114411830902
-0.2961786091327667,1.6554166078567505,-0.21437914669513702
-0.2859219014644623,1.6649339199066162,-0.21651414036750793
-0.2717595100402832,1.651455283164978,-0.21563482284545898
-0.2587233781814575,1.6455786228179932,-0.21559953689575195
-0.2459992915391922,1.639571189880371,-0.21553772687911987
-0.2323695570230484,1.6257861852645874,-0.21444793045520782
-0.2210424840450287,1.627242922782898,-0.21537132561206818
-0.20523716509342194,1.594065546989441,-0.21160706877708435
-0.19641102850437164,1.6145892143249512,-0.21488292515277863
-0.1836107224225998,1.604304313659668,-0.21408018469810486
-0.17080117762088776,1.5900461673736572,-0.2127358317375183
-0.1597459614276886,1.5910998582839966,-0.21344494819641113
-0.14575302600860596,1.5612632036209106,-0.20984795689582825
-0.13751697540283203,1.5930323600769043,-0.21450726687908173
-0.12622562050819397,1.593896508216858,-0.2150292992591858
-0.11401072144508362,1.5792226791381836,-0.21345460414886475
-0.10352738946676254,1.5876379013061523,-0.21498358249664307
-0.0910969227552414,1.565092921257019,-0.21215084195137024
-0.08097882568836212,1.5811117887496948,-0.2145545333623886
-0.07010312378406525,1.589337706565857,-0.21591907739639282
-0.05817640945315361,1.5665371417999268,-0.21307192742824554
-0.04748574644327164,1.574612021446228,-0.21434858441352844
-0.03651070222258568,1.5748904943466187,-0.21445289254188538
-0.025534071028232574,1.5750925540924072,-0.21455718576908112
-0.014188027009367943,1.5519973039627075,-0.21149839460849762
-0.003414259059354663,1.5597853660583496,-0.21265627443790436
0.007489676121622324,1.575257420539856,-0.2147347331047058
0.018245548009872437,1.5596996545791626,-0.21252857148647308
0.029087210074067116,1.5595483779907227,-0.21243272721767426
0.0399276427924633,1.5593215227127075,-0.21233686804771423
0.050706494599580765,1.5512762069702148,-0.211186021566391
0.06178615987300873,1.5586600303649902,-0.21195779740810394
0.07297026365995407,1.565966248512268,-0.2127157300710678
0.08384475111961365,1.56546151638031,-0.2124217301607132
0.09471575170755386,1.564881443977356,-0.21212776005268097
0.10578352957963943,1.5642184019088745,-0.2117861807346344
0.11661942303180695,1.5635145902633667,-0.211294487118721
0.12683403491973877,1.555017113685608,-0.20976120233535767
0.13765771687030792,1.554162621498108,-0.20926959812641144
0.14848841726779938,1.5532314777374268,-0.20877738296985626
0.16184411942958832,1.5753321647644043,-0.21128329634666443
0.17277811467647552,1.574263095855713,-0.21059194207191467
0.18550164997577667,1.5885028839111328,-0.21195340156555176
0.19655375182628632,1.5872665643692017,-0.21125361323356628
0.2066052258014679,1.5782711505889893,-0.20953328907489777
0.21773546934127808,1.5768879652023315,-0.20867544412612915
0.23200200498104095,1.598456859588623,-0.21082384884357452
0.24191449582576752,1.589268684387207,-0.2089189887046814
0.25420060753822327,1.5953140258789062,-0.20902349054813385
0.2665620446205139,1.6012710332870483,-0.20910322666168213
0.27762290835380554,1.599531650543213,-0.20801937580108643
0.2888665497303009,1.5976825952529907,-0.20691640675067902
0.30212923884391785,1.6071999073028564,-0.20729844272136688
0.31630685925483704,1.6204094886779785,-0.20815081894397736
0.3275637626647949,1.6183242797851562,-0.20696066319942474
0.34511449933052063,1.6465342044830322,-0.20953652262687683
0.35506701469421387,1.6366535425186157,-0.20724186301231384
0.37326282262802124,1.6645678281784058,-0.2097397744655609
0.38486722111701965,1.662091612815857,-0.20839974284172058
0.3963499665260315,1.6595758199691772,-0.2069219946861267
0.39852750301361084,1.6193289756774902,-0.20074863731861115
0.4233138859272003,1.6692924499511719,-0.20572924613952637
0.42713627219200134,1.6364548206329346,-0.20051209628582
0.44656142592430115,1.663606882095337,-0.20261244475841522
0.45183488726615906,1.6382510662078857,-0.1982058584690094
0.4747679829597473,1.6763627529144287,-0.20147103071212769
0.4953329861164093,1.70297110080719,-0.20326781272888184
0.513875424861908,1.7219948768615723,-0.2041500210762024
0.5303052067756653,1.7334749698638916,-0.2039978951215744
0.5422149300575256,1.7300153970718384,-0.20204950869083405
0.5648889541625977,1.759711503982544,-0.20393936336040497
0.5847070813179016,1.7780076265335083,-0.2044239193201065
0.5970709323883057,1.774133563041687,-0.20233453810214996
0.62064528465271,1.803283452987671,-0.20389316976070404
0.640779972076416,1.8212047815322876,-0.20413795113563538
0.6613852381706238,1.8388705253601074,-0.20429305732250214
0.67958664894104,1.8490456342697144,-0.20358967781066895
0.7006592750549316,1.866362452507019,-0.20348809659481049
0.7203735113143921,1.8799371719360352,-0.20297197997570038
0.7419464588165283,1.8968671560287476,-0.2027503103017807
0.7696103453636169,1.9280105829238892,-0.203986257314682
0.7931262254714966,1.9481592178344727,-0.20392213761806488
0.8215543627738953,1.9788085222244263,-0.20481404662132263
0.8412911295890808,1.9876972436904907,-0.20341429114341736
0.865999698638916,2.0070440769195557,-0.20301663875579834
0.8986571431159973,2.0440375804901123,-0.20427949726581573
0.9252763390541077,2.06658673286438,-0.20396414399147034
0.9510547518730164,2.0851454734802246,-0.20312023162841797
0.982025146484375,2.1140472888946533,-0.20322202146053314
1.0066066980361938,2.1286380290985107,-0.20184467732906342
1.0530697107315063,2.18873929977417,-0.2046230286359787
1.0800493955612183,2.206270217895508,-0.2032703161239624
1.127010464668274,2.2615857124328613,-0.20517052710056305
1.1619305610656738,2.292320728302002,-0.20472276210784912
1.195217490196228,2.319394111633301,-0.20380502939224243
1.234635353088379,2.3563289642333984,-0.2035854607820511
1.254763126373291,2.3548686504364014,-0.19991877675056458
1.2744967937469482,2.353473663330078,-0.1962011605501175
1.3262286186218262,2.4099366664886475,-0.19711188971996307
1.318196177482605,2.3568339347839355,-0.18897582590579987
1.3154253959655762,2.3140170574188232,-0.1817624866962433
1.3269881010055542,2.2987606525421143,-0.17672964930534363
1.3503152132034302,2.3035740852355957,-0.17320683598518372
1.4046188592910767,2.3578805923461914,-0.17304304242134094
1.448948860168457,2.3952884674072266,-0.17150136828422546
1.4729820489883423,2.3992602825164795,-0.1674405187368393
1.4895294904708862,2.389382839202881,-0.16221769154071808
1.5331969261169434,2.422182083129883,-0.15975232422351837
1.5704551935195923,2.4450411796569824,-0.15637563169002533
1.672265887260437,2.5653750896453857,-0.15882493555545807
1.6987899541854858,2.5669970512390137,-0.15347911417484283
1.4111037254333496,2.1026439666748047,-0.12120568752288818
1.4120999574661255,2.074005603790283,-0.11491263657808304
1.435629963874817,2.077090263366699,-0.11013119667768478
1.4579700231552124,2.0808420181274414,-0.10540764778852463
1.4676134586334229,2.0647642612457275,-0.09938685595989227
1.4587136507034302,2.0234012603759766,-0.09211647510528564
1.4716413021087646,2.014273166656494,-0.08637164533138275
1.4763925075531006,1.9916465282440186,-0.0795925185084343
2.2114579677581787,3.1002724170684814,0.2504383325576782
2.204256772994995,3.1380746364593506,0.26106077432632446
2.3697800636291504,3.42572021484375,0.29280030727386475
2.3888344764709473,3.5110743045806885,0.30788707733154297
2.318089485168457,3.4593818187713623,0.3103037476539612
2.3122620582580566,3.5046093463897705,0.3211721181869507
2.3460755348205566,3.6166675090789795,0.3383963704109192
1.6366688013076782,2.562985420227051,0.24431192874908447
1.6350728273391724,2.600346088409424,0.2522968053817749
1.578220009803772,2.552694797515869,0.25183162093162537
3.023099422454834,4.971551895141602,0.498313307762146
2.991413116455078,4.9987897872924805,0.5085612535476685
2.972658634185791,5.049684524536133,0.521024227142334
2.9420766830444336,5.084583759307861,0.5317509174346924
2.926194190979004,5.142086505889893,0.5446465611457825
2.889941453933716,5.161620140075684,0.5533764958381653
2.873913526535034,5.222945213317871,0.5665501356124878
2.8530378341674805,5.277688026428223,0.5788421034812927
2.834775447845459,5.335081577301025,0.5913106203079224
2.8008925914764404,5.360822677612305,0.6001521944999695
2.7764968872070312,5.407578468322754,0.6112415790557861
2.7652111053466797,5.486536502838135,0.6259381771087646
2.7437965869903564,5.544112205505371,0.6381593346595764
1.2487385272979736,2.568066358566284,0.2981034815311432
1.2172588109970093,2.548335313796997,0.2982964515686035
1.1983659267425537,2.5568888187408447,0.3015812039375305
1.1826242208480835,2.572371244430542,0.3056991994380951
1.1638975143432617,2.580514430999756,0.3089230954647064
1.152059555053711,2.6024415493011475,0.31374573707580566
2.567089557647705,5.911206245422363,0.7175037860870361
2.5342609882354736,5.954084873199463,0.7272378206253052
2.508354425430298,6.014718532562256,0.7392369508743286
2.4812488555908203,6.071279048919678,0.7507311105728149
2.4531044960021973,6.123723983764648,0.7616970539093018
2.4251534938812256,6.179924488067627,0.7730357646942139
2.3938753604888916,6.232921600341797,0.7836806178092957
2.359279155731201,6.278491973876953,0.7934703230857849
1.9928667545318604,5.420790195465088,0.6885486841201782
2.3028242588043213,6.401039123535156,0.8170714974403381
2.2744851112365723,6.463876247406006,0.8290767669677734
2.2426717281341553,6.523496627807617,0.840273916721344
2.2113447189331055,6.5866546630859375,0.8520210981369019
2.1792173385620117,6.649683952331543,0.8638489842414856
2.137399196624756,6.678817272186279,0.8712196946144104
2.0710089206695557,6.629987716674805,0.8684369921684265
2.012164831161499,6.60692834854126,0.868524968624115
1.9523054361343384,6.579778671264648,0.8679336309432983
1.8918663263320923,6.5483927726745605,0.8667898774147034
1.833742380142212,6.520024299621582,0.8660053014755249
1.7738851308822632,6.479737758636475,0.8635842800140381
1.7194968461990356,6.457721710205078,0.8634786009788513
1.6595929861068726,6.416849613189697,0.8603542447090149
0.8157419562339783,3.2497193813323975,0.436917245388031
1.5551629066467285,6.390100479125977,0.8615573048591614
0.7890595197677612,3.343381881713867,0.4520209729671478
1.4424841403961182,6.308249473571777,0.8552469611167908
1.3837486505508423,6.25352144241333,0.8499535322189331
1.3342126607894897,6.2401018142700195,0.8499500751495361
1.2872885465621948,6.241616725921631,0.8520483374595642
1.2334697246551514,6.200752258300781,0.8483302593231201
1.1858419179916382,6.185979843139648,0.8481823801994324
1.1370753049850464,6.163234233856201,0.846966028213501
1.0903565883636475,6.151655197143555,0.8469629287719727
1.031648874282837,6.075087547302246,0.8377731442451477
0.9767942428588867,6.009337902069092,0.8300567865371704
0.9452846050262451,6.084572792053223,0.841842770576477
0.8937980532646179,6.029443740844727,0.8356239795684814
0.8382585644721985,5.939414024353027,0.8245715498924255
0.8009992837905884,5.983328819274902,0.831842303276062
0.7510138750076294,5.927175998687744,0.8249455094337463
0.6053462028503418,5.063803195953369,0.7055935263633728
0.5759046077728271,5.121557235717773,0.7144902348518372
0.5488007068634033,5.2060465812683105,0.7271676659584045
0.40120944380760193,4.077532768249512,0.570263683795929
0.37226027250289917,4.080144882202148,0.5712131857872009
0.3524351119995117,4.186642169952393,0.5864886045455933
0.3224625885486603,4.181197643280029,0.5861201882362366
0.29159238934516907,4.160096168518066,0.5835815072059631
0.263604074716568,4.177369594573975,0.5864516496658325
0.23618681728839874,4.217653274536133,0.5925952792167664
0.3808223009109497,7.769809246063232,1.092438817024231
0.32614073157310486,7.764476776123047,1.0918974876403809
0.2697421610355377,7.704634666442871,1.083741307258606
0.21487027406692505,7.671457767486572,1.0793856382369995
0.1604599505662918,7.664973735809326,1.078841209411621
0.10672032088041306,7.627150535583496,1.073928713798523
0.05351245030760765,7.600557327270508,1.0706464052200317
0.0007153918850235641,7.593042850494385,1.069320797920227
-0.05184503272175789,7.554217338562012,1.0636383295059204
-0.10498233139514923,7.53048849105835,1.060132384300232
-0.15672332048416138,7.502539157867432,1.0560877323150635
-0.20827031135559082,7.478100299835205,1.052588701248169
-0.2594848573207855,7.45330810546875,1.0490909814834595
-0.31078487634658813,7.443711757659912,1.0472240447998047
-0.2632182538509369,5.405337333679199,0.7599748969078064
-0.30218592286109924,5.4188971519470215,0.7614301443099976
-0.3393144905567169,5.409046649932861,0.7596391439437866
-0.375900000333786,5.391214847564697,0.7567644715309143
-0.41219526529312134,5.373140335083008,0.7538949847221375
-0.44881075620651245,5.362578868865967,0.7518383860588074
-0.4259805381298065,4.692906856536865,0.6572244167327881
-0.45119401812553406,4.616847991943359,0.6459022164344788
-0.48152071237564087,4.598372936248779,0.6426777839660645
-0.512141764163971,4.583533763885498,0.6399939656257629
-0.542172908782959,4.564642429351807,0.636777937412262
-0.5723360180854797,4.545529842376709,0.6334153413772583
-0.6025228500366211,4.534029960632324,0.6308408379554749
-0.6314584016799927,4.514670372009277,0.6272086501121521
-0.6636268496513367,4.518085479736328,0.6267690062522888
-0.6885043382644653,4.471503734588623,0.6194217801094055
-0.721956729888916,4.478198051452637,0.6194751858711243
-0.7497438788414001,4.454224109649658,0.6152642965316772
-0.7801945209503174,4.449256896972656,0.6133406758308411
-0.8036198616027832,4.406007766723633,0.6061806082725525
-0.8265365958213806,4.362634181976318,0.5990505218505859
-0.7238911390304565,3.6808841228485107,0.5044609308242798
-0.7483575940132141,3.668311834335327,0.5017716884613037
-0.7705721259117126,3.6481080055236816,0.49805158376693726
-0.9473878741264343,4.339114665985107,0.590883731842041
-0.9769309163093567,4.332876205444336,0.5885531306266785
-0.9985355138778687,4.292487144470215,0.5816226601600647
-1.027098536491394,4.278101921081543,0.5782014727592468
-1.0512179136276245,4.248620986938477,0.5728062391281128
-1.0921262502670288,4.286596775054932,0.5764646530151367
-1.1152998208999634,4.25697135925293,0.5707104206085205
-1.146178960800171,4.257151126861572,0.5689847469329834
-1.1694854497909546,4.227064609527588,0.5632084012031555
-1.1904374361038208,4.189367771148682,0.5564591884613037
-1.2261115312576294,4.203658580780029,0.5566456317901611
-1.2550770044326782,4.195486068725586,0.5537388324737549
-1.2788667678833008,4.1724982261657715,0.5486451387405396
-1.305248737335205,4.156615257263184,0.54448401927948
-1.3325382471084595,4.144290924072266,0.5408289432525635
-1.3541793823242188,4.113209247589111,0.5347273349761963
-1.3903071880340576,4.1261115074157715,0.5343700051307678
-1.4032543897628784,4.072989463806152,0.5252400040626526
-1.4384368658065796,4.085826396942139,0.5245422720909119
-1.4586009979248047,4.0544114112854,0.5181453824043274
-1.4867316484451294,4.044642925262451,0.5145266652107239
-1.5094555616378784,4.020108699798584,0.5090534687042236
-1.5427449941635132,4.024543285369873,0.5071818828582764
-1.5640159845352173,4.000162124633789,0.5014218688011169
-1.596994161605835,4.004327297210693,0.4992159605026245
-1.6127352714538574,3.9650208950042725,0.49160563945770264
-1.6404755115509033,3.954131841659546,0.487505167722702
-1.6772152185440063,3.964494228363037,0.4860337972640991
-1.691415786743164,3.9251978397369385,0.47817713022232056
-1.7134631872177124,3.9034459590911865,0.47244971990585327
-1.751104712486267,3.917032241821289,0.471014142036438
-1.7687299251556396,3.884063243865967,0.4639262557029724
-1.7811099290847778,3.8404452800750732,0.4556277394294739
-1.8132063150405884,3.843141555786133,0.4525611400604248
-1.8475220203399658,3.848888874053955,0.4497720003128052
-1.8771332502365112,3.8437564373016357,0.4456762671470642
-1.8920104503631592,3.806690216064453,0.43780654668807983
-1.911424160003662,3.780149459838867,0.43115583062171936
-1.9435571432113647,3.7818119525909424,0.42749452590942383
-1.9650251865386963,3.7625248432159424,0.42147231101989746
-1.987941861152649,3.742288589477539,0.4151271879673004
-2.0104942321777344,3.7219972610473633,0.40883827209472656
-1.7062395811080933,3.1090071201324463,0.3379758596420288
-1.7267001867294312,3.0982086658477783,0.3331919014453888
-1.7284866571426392,3.0531184673309326,0.3246760964393616
-0.8499135375022888,1.4767794609069824,0.1551656275987625
-0.8599704504013062,1.4712046384811401,0.1526927649974823
-0.8576455116271973,1.4457381963729858,0.1481250822544098
-0.8753299117088318,1.4535619020462036,0.14693531394004822
-0.8814814686775208,1.4409929513931274,0.14357760548591614
-0.8873379230499268,1.4285086393356323,0.14018113911151886
-0.9049181938171387,1.4361437559127808,0.1387399584054947
-0.9062020778656006,1.4171531200408936,0.1346513330936432
-0.8991345763206482,1.3849204778671265,0.12929168343544006
-0.9124874472618103,1.385764479637146,0.12699444591999054
-0.9301406741142273,1.3930237293243408,0.12519335746765137
-2.400078058242798,3.5410032272338867,0.3114127516746521
-1.3269050121307373,1.9295830726623535,0.16589751839637756
-1.2879478931427002,1.8479270935058594,0.15515300631523132
-82.35877990722656,111.70697021484375,8.32818603515625
-1.345894694328308,1.911357045173645,-0.10075007379055023
-1.2855526208877563,1.8532429933547974,-0.10277006030082703
-1.3263269662857056,1.943272590637207,-0.11305419355630875
-1.30888831615448,1.9778355360031128,-0.12491320073604584
-1.115499496459961,1.7400881052017212,-0.11810341477394104
-1.6304569244384766,2.7128283977508545,-0.20727621018886566
-1.545976996421814,2.657691240310669,-0.21342350542545319
-1.4595617055892944,2.59397029876709,-0.21792559325695038
-1.3859049081802368,2.505237340927124,-0.21501733362674713
-1.3402975797653198,2.4631752967834473,-0.21569901704788208
-1.2965410947799683,2.4243886470794678,-0.2164488434791565
-1.2479248046875,2.374800205230713,-0.21604390442371368
-1.2008298635482788,2.324289083480835,-0.21520164608955383
-1.169926404953003,2.304704189300537,-0.2171381562948227
-1.1305063962936401,2.2674827575683594,-0.2171803116798401
-1.0833584070205688,2.2122414112091064,-0.21529138088226318
-1.0627295970916748,2.208885908126831,-0.21827088296413422
-1.0203460454940796,2.1597421169281006,-0.2165890485048294
-0.9866386651992798,2.1278913021087646,-0.21646197140216827
-0.9486434459686279,2.085042953491211,-0.21509480476379395
-0.9276618957519531,2.0770721435546875,-0.21714815497398376
-0.8800786733627319,2.0084784030914307,-0.2126864492893219
-0.8624985218048096,2.0072803497314453,-0.21522018313407898
-0.843686580657959,2.002263307571411,-0.21729233860969543
-0.8086097240447998,1.9575917720794678,-0.21500292420387268
-0.7888252139091492,1.948554277420044,-0.21644508838653564
-0.7533190250396729,1.899668574333191,-0.21333202719688416
-0.7159063220024109,1.843088984489441,-0.20919734239578247
-0.702970564365387,1.8477510213851929,-0.21192267537117004
-0.6733915209770203,1.8087776899337769,-0.2095835655927658
-0.6657374501228333,1.827851414680481,-0.2138315588235855
-0.644898533821106,1.8103002309799194,-0.21378494799137115
-0.6296531558036804,1.8071469068527222,-0.21538518369197845
-0.6106873154640198,1.7928636074066162,-0.2156165987253189
-0.5854255557060242,1.7601374387741089,-0.21350088715553284
-0.5680858492851257,1.749224066734314,-0.2139563262462616
-0.5511301159858704,1.738097071647644,-0.2143377810716629
-0.535504162311554,1.7305269241333008,-0.2151423990726471
-0.514243483543396,1.7043246030807495,-0.21346734464168549
-0.49554362893104553,1.6853667497634888,-0.212641179561615
-0.4834780991077423,1.6886177062988281,-0.21461592614650726
-0.46959757804870605,1.6842366456985474,-0.21558712422847748
-0.4506433606147766,1.6610710620880127,-0.2140558809041977
-0.4369156062602997,1.6564960479736328,-0.21481043100357056
-0.4271356761455536,1.6668239831924438,-0.21750684082508087
-0.41151416301727295,1.6545546054840088,-0.21727122366428375
-0.3999297618865967,1.6571701765060425,-0.21896255016326904
-0.38643860816955566,1.652209997177124,-0.21948693692684174
-0.36961501836776733,1.6320312023162842,-0.21797895431518555
-0.3548696041107178,1.6192461252212524,-0.2174302339553833
-0.34177228808403015,1.613944411277771,-0.2178967446088791
-0.3258090615272522,1.593350887298584,-0.21617548167705536
-0.31235095858573914,1.5840353965759277,-0.21588018536567688
-0.293996125459671,1.5479856729507446,-0.21192054450511932
-0.2873687446117401,1.572679877281189,-0.21627138555049896
-0.27485600113868713,1.566884160041809,-0.21646714210510254
-0.26513633131980896,1.5762635469436646,-0.21856902539730072
-0.25158992409706116,1.5626612901687622,-0.21747992932796478
-0.23714591562747955,1.5412898063659668,-0.21529516577720642
-0.22528433799743652,1.535107135772705,-0.2152249962091446
-0.21652378141880035,1.5518604516983032,-0.21833334863185883
-0.20362553000450134,1.5378820896148682,-0.21698793768882751
-0.19094595313072205,1.5238004922866821,-0.21562537550926208
-0.18123531341552734,1.5326628684997559,-0.2175147384405136
-0.16970054805278778,1.5260858535766602,-0.21722343564033508
-0.15903639793395996,1.5271397829055786,-0.2178848534822464
-0.1477920413017273,1.5242964029312134,-0.21794530749320984
-0.13576775789260864,1.5097990036010742,-0.2163352370262146
-0.12589450180530548,1.5183300971984863,-0.21803197264671326
-0.11590786278247833,1.5267966985702515,-0.21972611546516418
-0.10313712805509567,1.4966522455215454,-0.21567106246948242
-0.09393874555826187,1.520444393157959,-0.21940329670906067
-0.08334013819694519,1.5210058689117432,-0.21979306638240814
-0.07127350568771362,1.4905996322631836,-0.21571168303489685
-0.06151099503040314,1.5064672231674194,-0.21825379133224487
-0.04072911664843559,1.522589921951294,-0.220849871635437
-0.029685325920581818,1.4996205568313599,-0.21766066551208496
-0.008841739036142826,1.4998584985733032,-0.21786600351333618
0.022607479244470596,1.4997272491455078,-0.21777623891830444
0.03352603316307068,1.5227274894714355,-0.22111152112483978
0.053529348224401474,1.4912781715393066,-0.21615329384803772
0.06357386708259583,1.4831788539886475,-0.21479934453964233
0.08486095070838928,1.489936351776123,-0.2153758853673935
0.09472799301147461,1.481656551361084,-0.21382367610931396
0.10557806491851807,1.4887384176254272,-0.21449877321720123
0.11711960285902023,1.5034520626068115,-0.21627894043922424
0.12710317969322205,1.494944453239441,-0.2147212028503418
0.1395922750234604,1.5172139406204224,-0.21746087074279785
0.14857561886310577,1.500909686088562,-0.21460896730422974
0.1606130450963974,1.5153192281723022,-0.21615846455097198
0.17116940021514893,1.514256477355957,-0.2155037671327591
0.180979922413826,1.5054185390472412,-0.2137470245361328
0.19238895177841187,1.511922001838684,-0.2139900177717209
0.20287881791591644,1.5106704235076904,-0.21313980221748352
0.2133849710226059,1.5093423128128052,-0.2122875303030014
0.22559939324855804,1.519420862197876,-0.21304412186145782
0.2375328093767166,1.5255653858184814,-0.2131730616092682
0.24810563027858734,1.5240284204483032,-0.21212120354175568
0.26124921441078186,1.5376818180084229,-0.21318647265434265
0.27061939239501953,1.5283472537994385,-0.21106496453285217
0.27987200021743774,1.518955111503601,-0.20895399153232574
0.2904069423675537,1.5171388387680054,-0.2077685445547104
0.307126522064209,1.5456074476242065,-0.21065136790275574
0.31786227226257324,1.5436075925827026,-0.20938578248023987
0.33022424578666687,1.5491023063659668,-0.20913979411125183
0.3460127115249634,1.5696321725845337,-0.2108910232782364
0.35684260725975037,1.5674015283584595,-0.20942918956279755
0.37228843569755554,1.5839080810546875,-0.21044565737247467
0.3833312690258026,1.581470012664795,-0.20895053446292877
0.4037601351737976,1.6165448427200317,-0.21239294111728668
0.41688981652259827,1.6214262247085571,-0.21174615621566772
0.43403011560440063,1.6412112712860107,-0.21295693516731262
0.44764095544815063,1.6458158493041992,-0.2121535837650299
0.4591344892978668,1.6428728103637695,-0.21039535105228424
0.46419060230255127,1.6174880266189575,-0.20577748119831085
0.4819059669971466,1.6368070840835571,-0.20671400427818298
0.48871278762817383,1.6188297271728516,-0.202941432595253
0.4978981614112854,1.608151912689209,-0.2000727653503418
0.5244050025939941,1.652933120727539,-0.20409579575061798
0.5478295087814331,1.6864157915115356,-0.2065618485212326
0.5692378878593445,1.71232008934021,-0.20798951387405396
0.5873454213142395,1.7269705533981323,-0.20800164341926575
0.5930480360984802,1.704754114151001,-0.20356608927249908
0.6194194555282593,1.7410181760787964,-0.20603430271148682
0.6393263936042786,1.758899211883545,-0.20619919896125793
0.6622229814529419,1.783868432044983,-0.20714600384235382
0.681590735912323,1.7976341247558594,-0.20671232044696808
0.6997800469398499,1.8075957298278809,-0.20581434667110443
0.7237957119941711,1.8318835496902466,-0.2063463032245636
0.7392405867576599,1.8343926668167114,-0.2044237107038498
0.7712327837944031,1.8762236833572388,-0.20678691565990448
0.7843645215034485,1.871086835861206,-0.2039167284965515
0.8094344735145569,1.894564151763916,-0.20405057072639465
0.8396522402763367,1.9284327030181885,-0.20515622198581696
0.8782749772071838,1.979745864868164,-0.20799800753593445
0.9001461863517761,1.9915964603424072,-0.20658338069915771
0.9268458485603333,2.0139620304107666,-0.20613937079906464
0.9603490233421326,2.050219774246216,-0.20699460804462433
0.9865023493766785,2.0683422088623047,-0.20583555102348328
1.0179531574249268,2.096747636795044,-0.20564454793930054
1.047788143157959,2.12149977684021,-0.2049473077058792
1.0900648832321167,2.1703805923461914,-0.20643000304698944
1.1281192302703857,2.2082102298736572,-0.20663538575172424
1.1723127365112305,2.2558987140655518,-0.20757834613323212
1.2115634679794312,2.292877197265625,-0.2072574645280838
1.2454314231872559,2.319352865219116,-0.20591752231121063
1.2672011852264404,2.321259021759033,-0.2022015005350113
1.2909859418869019,2.32635498046875,-0.1987074613571167
1.306563138961792,2.318040609359741,-0.19400189816951752
1.3186497688293457,2.302611827850342,-0.18860818445682526
1.330876111984253,2.286952495574951,-0.1831522136926651
1.358391523361206,2.2983126640319824,-0.17982374131679535
1.3596588373184204,2.2661843299865723,-0.17307975888252258
1.4240106344223022,2.3369925022125244,-0.17393042147159576
1.4733856916427612,2.380274772644043,-0.1723351776599884
1.5036216974258423,2.393977642059326,-0.1685061752796173
1.5533745288848877,2.4367260932922363,-0.1664484143257141
1.6021944284439087,2.4753000736236572,-0.1637326031923294
1.7298418283462524,2.6346089839935303,-0.16851165890693665
1.7390962839126587,2.6102027893066406,-0.16097068786621094
1.4098376035690308,2.0844955444335938,-0.12358943372964859
1.4191062450408936,2.069061040878296,-0.11770318448543549
1.4418394565582275,2.0726444721221924,-0.1127401664853096
1.460793375968933,2.069209575653076,-0.1071045994758606
1.4561079740524292,2.0345354080200195,-0.0998135656118393
1.4653843641281128,2.018522262573242,-0.09327537566423416
1.4742743968963623,2.0026371479034424,-0.08662119507789612
2.204685688018799,3.1126413345336914,0.2747229039669037
2.4962317943573,3.5829966068267822,0.3252406418323517
2.485337257385254,3.6227638721466064,0.3372248411178589
2.3343026638031006,3.4561448097229004,0.329470694065094
2.289968967437744,3.447474956512451,0.3360320031642914
2.350032329559326,3.593549966812134,0.3573894798755646
1.6711382865905762,2.594916343688965,0.2630211412906647
1.6344112157821655,2.5808181762695312,0.26631903648376465
1.610683798789978,2.5859227180480957,0.2714719772338867
3.0506365299224854,4.9743876457214355,0.5304363369941711
3.0037593841552734,4.979036808013916,0.5388880968093872
2.9756414890289307,5.0174078941345215,0.5508617162704468
2.9590797424316406,5.071203231811523,0.5641930103302002
2.93428897857666,5.111425399780273,0.5760930180549622
2.899890661239624,5.138893127441406,0.586178719997406
2.8930320739746094,5.217369556427002,0.602130651473999
2.8724310398101807,5.267579555511475,0.6145899295806885
2.853525161743164,5.320939064025879,0.6274526119232178
2.8061304092407227,5.327486038208008,0.6346371173858643
2.7981345653533936,5.409499645233154,0.6506755352020264
2.7713992595672607,5.452754497528076,0.6619280576705933
2.7607991695404053,5.526672840118408,0.6768702864646912
2.7262203693389893,5.5557966232299805,0.6862401962280273
1.2208458185195923,2.5357885360717773,0.3157760202884674
1.2087599039077759,2.5583078861236572,0.3211011588573456
1.1875355243682861,2.55924654006958,0.323618084192276
1.1695517301559448,2.5670838356018066,0.32701951265335083
1.1634999513626099,2.6034493446350098,0.3339128792285919
2.5718839168548584,5.869748592376709,0.7578215599060059
2.54848313331604,5.933916091918945,0.7711454629898071
2.527839183807373,6.000784397125244,0.7847046852111816
2.4945871829986572,6.038938522338867,0.7945994138717651
2.4665029048919678,6.095615863800049,0.8065102100372314
2.4389007091522217,6.1558942794799805,0.8189265727996826
2.4090287685394287,6.212502956390381,0.8309699296951294
2.3792121410369873,6.264593601226807,0.8422961235046387
2.0165212154388428,5.423010349273682,0.7329320311546326
2.312424421310425,6.357993125915527,0.8632941246032715
2.2829320430755615,6.421302795410156,0.8757975101470947
2.258371591567993,6.503002643585205,0.8909773230552673
2.2240395545959473,6.550841331481934,0.901414155960083
2.1951816082000732,6.616904258728027,0.9144583940505981
2.16365647315979,6.6794257164001465,0.9268391728401184
2.1001269817352295,6.646146774291992,0.9255689382553101
2.03969407081604,6.623676776885986,0.9258745312690735
1.9783246517181396,6.589001655578613,0.9243400692939758
1.919153094291687,6.557371616363525,0.9231944680213928
1.8615813255310059,6.528966903686523,0.9225051403045654
1.8002469539642334,6.489287376403809,0.9196593761444092
1.7424207925796509,6.4603424072265625,0.9182549118995667
1.6852991580963135,6.434848308563232,0.9174019694328308
0.8273590207099915,3.251039743423462,0.46484559774398804
1.56480872631073,6.332555770874023,0.9081206917762756
0.8062382936477661,3.36324143409729,0.483694851398468
1.4750908613204956,6.352957248687744,0.9157603979110718
1.4161813259124756,6.306375503540039,0.9111951589584351
1.3606466054916382,6.266641616821289,0.9075837731361389
1.3106286525726318,6.245189666748047,0.906593918800354
1.2571355104446411,6.204399108886719,0.9028134346008301
1.2136422395706177,6.21258544921875,0.9060304760932922
1.1544400453567505,6.144783020019531,0.8977195024490356
1.110795259475708,6.152426719665527,0.9004288911819458
1.061290979385376,6.125453472137451,0.8981033563613892
1.0084378719329834,6.071294784545898,0.8917863368988037
0.9570622444152832,6.020515441894531,0.8859744071960449
0.9164793491363525,6.042098522186279,0.8907215595245361
0.869278073310852,6.017537593841553,0.8881765604019165
0.8220095634460449,5.988778591156006,0.8850427269935608
0.7766863703727722,5.9711527824401855,0.8835877180099487
0.6346803903579712,5.159103870391846,0.7644359469413757
0.5782963633537292,4.986565589904785,0.7398845553398132
0.5621345639228821,5.167026042938232,0.7677097916603088
0.5215426087379456,5.128391742706299,0.7625359892845154
0.3875744044780731,4.096951007843018,0.6096546053886414
0.3594311773777008,4.107141494750977,0.6116845011711121
0.33670371770858765,4.182591438293457,0.6234690546989441
0.307059645652771,4.184737205505371,0.6243768334388733
0.276368647813797,4.163510322570801,0.6218146085739136
0.2499963641166687,4.211546897888184,0.6292281150817871
0.40642645955085754,7.766507625579834,1.1607640981674194
0.35164007544517517,7.7613205909729,1.1604506969451904
0.2951708436012268,7.724884986877441,1.1555250883102417
0.24072998762130737,7.703457832336426,1.1528867483139038
0.18631993234157562,7.670063018798828,1.1485087871551514
0.13251756131649017,7.647950172424316,1.1453630924224854
0.07890937477350235,7.617780685424805,1.1407549381256104
0.024772970005869865,7.575651168823242,1.1344114542007446
-0.027925459668040276,7.575637340545654,1.1344306468963623
-0.07996366918087006,7.528903484344482,1.1275079250335693
-0.1317766010761261,7.501125335693359,1.123477578163147
-0.18289044499397278,7.46144437789917,1.1174585819244385
-0.2345217615365982,7.460116863250732,1.1166801452636719
-0.28623339533805847,7.435234069824219,1.1124211549758911
-0.339517742395401,7.471781253814697,1.1174153089523315
-0.28288203477859497,5.397536754608154,0.8069045543670654
-0.32149365544319153,5.414810657501221,0.8092207908630371
-0.3583691716194153,5.400964736938477,0.8069181442260742
-0.394620805978775,5.375363826751709,0.8023251891136169
-0.42988914251327515,5.349567890167236,0.7977612614631653
-0.4597785174846649,5.265801906585693,0.7846038341522217
-0.435730904340744,4.620204448699951,0.6878554821014404
-0.4671136736869812,4.609513282775879,0.6857416033744812
-0.49891987442970276,4.598552227020264,0.683614194393158
-0.5288453102111816,4.579843044281006,0.6800102591514587
-0.5599119067192078,4.5724687576293945,0.6780058741569519
-0.5874288082122803,4.538053035736084,0.6720307469367981
-0.6167346239089966,4.518773078918457,0.6683336496353149
-0.6486796736717224,4.51451301574707,0.6668758392333984
-0.6789077520370483,4.502460479736328,0.6643145084381104
-0.7051231861114502,4.467372417449951,0.6581341624259949
-0.7357009053230286,4.462715148925781,0.6562566757202148
-0.7655928134918213,4.454037666320801,0.6538198590278625
-0.7908210754394531,4.418486595153809,0.6474707126617432
-0.819219172000885,4.397860527038574,0.6433225870132446
-0.8402433395385742,4.342979431152344,0.6342296600341797
-0.737114667892456,3.6738717555999756,0.5354791879653931
-0.7621461153030396,3.669044017791748,0.5335321426391602
-0.9317402839660645,4.3371100425720215,0.629234254360199
-0.9653695225715637,4.345941066741943,0.6290590763092041
-0.9912465810775757,4.320612907409668,0.623977541923523
-1.0212738513946533,4.313953399658203,0.62162846326828
-1.0473158359527588,4.292137622833252,0.6169661283493042
-1.0726581811904907,4.270313262939453,0.6120702028274536
-1.1002068519592285,4.255704879760742,0.6082150936126709
-1.1313227415084839,4.255941390991211,0.6065258383750916
-1.1608853340148926,4.2483720779418945,0.6037246584892273
-1.186212420463562,4.225689888000488,0.5988110303878784
-1.2130305767059326,4.210435390472412,0.594786524772644
-1.2397593259811401,4.195025444030762,0.5905165672302246
-1.2635929584503174,4.172174453735352,0.5852735638618469
-1.292256474494934,4.163835525512695,0.582065224647522
-1.313060998916626,4.1293416023254395,0.5752121806144714
-1.3442388772964478,4.127894401550293,0.5729996562004089
-1.3703255653381348,4.111638069152832,0.5684208869934082
-1.3955278396606445,4.095464706420898,0.5638217329978943
-1.4205734729766846,4.079133987426758,0.5592349767684937
-1.4489918947219849,4.069632530212402,0.5555357336997986
-1.4721232652664185,4.0453386306762695,0.549846351146698
-1.5001856088638306,4.035526275634766,0.5460886359214783
-1.527828574180603,4.025696277618408,0.5419890284538269
-1.552090048789978,4.008633613586426,0.5369974970817566
-1.5795152187347412,3.998453378677368,0.5329098701477051
-1.6016247272491455,3.9734885692596436,0.5268323421478271
-1.6264102458953857,3.9555742740631104,0.521730363368988
-1.6594557762145996,3.9592392444610596,0.5191343426704407
-1.6798328161239624,3.9343574047088623,0.5128099322319031
-1.7063435316085815,3.923515796661377,0.5083256959915161
-1.7306714057922363,3.9049627780914307,0.5027522444725037
-1.7580147981643677,3.8933277130126953,0.4980999231338501
-1.7734019756317139,3.8570942878723145,0.49003785848617554
-1.8056777715682983,3.859856605529785,0.4869200587272644
-1.8249799013137817,3.8342039585113525,0.48020482063293457
-1.8703944683074951,3.860405683517456,0.47984927892684937
-1.878517746925354,3.8095407485961914,0.46993330121040344
-1.9009125232696533,3.790395736694336,0.4636683166027069
-1.9294979572296143,3.7852976322174072,0.459159791469574
-1.962358832359314,3.78654146194458,0.4553125202655792
-1.9817008972167969,3.75958251953125,0.4479612112045288
-2.000401020050049,3.7327229976654053,0.44061583280563354
-2.0287294387817383,3.726945400238037,0.4355376660823822
-1.7114319801330566,3.094942569732666,0.35795894265174866
-1.7331465482711792,3.083436965942383,0.35273703932762146
-0.8407736420631409,1.4717382192611694,0.16649606823921204
-0.8583318591117859,1.4798650741577148,0.16543054580688477
-0.8562021851539612,1.4543753862380981,0.16060683131217957
-0.87039715051651,1.4552985429763794,0.1585872620344162
-0.8846448659896851,1.4560924768447876,0.15654195845127106
-0.8656742572784424,1.404146671295166,0.1488095074892044
-0.8912934064865112,1.4251676797866821,0.14882533252239227
-0.8969709873199463,1.41269850730896,0.14517620205879211
-0.9112725853919983,1.4131007194519043,0.14277468621730804
-0.8990529179573059,1.3749265670776367,0.1364809274673462
-0.9080435633659363,1.3693053722381592,0.13343995809555054
-2.415987253189087,3.588846206665039,0.3426838517189026
-2.461932420730591,3.6055660247802734,0.3370468318462372
-1.3413200378417969,1.9376779794692993,0.17709654569625854
-1.3638440370559692,1.9507956504821777,-0.11009612679481506
-1.3289358615875244,1.9319045543670654,-0.11473538726568222
-1.3937405347824097,2.057349443435669,-0.12784284353256226
-1.2378573417663574,1.8562517166137695,-0.12029247730970383
-1.6077150106430054,2.653201103210449,-0.20973758399486542
-1.5022187232971191,2.5608222484588623,-0.21319645643234253
-0.76671302318573,1.3518263101577759,-0.11803042888641357
-1.3662291765213013,2.4486427307128906,-0.21845588088035583
-1.313320279121399,2.3928778171539307,-0.21796540915966034
-1.2735340595245361,2.360856294631958,-0.2193988859653473
-1.2214934825897217,2.3043296337127686,-0.21837899088859558
-1.1872937679290771,2.2778780460357666,-0.21984846889972687
-1.133672833442688,2.213143825531006,-0.21740444004535675
-1.0982532501220703,2.1826794147491455,-0.21811169385910034
-1.0482088327407837,2.1202597618103027,-0.21536608040332794
-1.033004641532898,2.127276659011841,-0.21958975493907928
-0.9857983589172363,2.06756854057312,-0.21669475734233856
-0.9592135548591614,2.0496082305908203,-0.21802298724651337
-0.9252310991287231,2.0135374069213867,-0.21724456548690796
-0.8870505094528198,1.9664552211761475,-0.21513544023036957
-0.8539128303527832,1.9297926425933838,-0.2139432728290558
-0.8334724307060242,1.9213874340057373,-0.21585415303707123
-0.8062618970870972,1.8946473598480225,-0.21551571786403656
-0.7839820384979248,1.8783730268478394,-0.21629765629768372
-0.761642336845398,1.862028956413269,-0.216905876994133
-0.7150243520736694,1.7841899394989014,-0.21021640300750732
-0.7078782916069031,1.8033829927444458,-0.21487687528133392
-0.6923855543136597,1.8007252216339111,-0.2169080227613449
-0.6698755025863647,1.7798832654953003,-0.21660424768924713
-0.6463403701782227,1.7551853656768799,-0.2157575786113739
-0.6287129521369934,1.7447644472122192,-0.21657869219779968
-0.6085296869277954,1.7269179821014404,-0.216471329331398
-0.5849066376686096,1.6978719234466553,-0.2147713601589203
-0.5653725862503052,1.679640531539917,-0.21434639394283295
-0.5462406277656555,1.6611887216567993,-0.21383683383464813
-0.5322126746177673,1.6572989225387573,-0.21516777575016022
-0.5203210711479187,1.6607770919799805,-0.21742261946201324
-0.5028300285339355,1.6456249952316284,-0.21711057424545288
-0.49116161465644836,1.6488673686981201,-0.2192102074623108
-0.4731430113315582,1.62965989112854,-0.21829186379909515
-0.46382957696914673,1.640114188194275,-0.22133556008338928
-0.4480842053890228,1.6281658411026,-0.22120384871959686
-0.42832639813423157,1.601165533065796,-0.2190232127904892
-0.41321054100990295,1.588884949684143,-0.21878229081630707
-0.39355793595314026,1.5577043294906616,-0.21590377390384674
-0.38628673553466797,1.5752402544021606,-0.21965715289115906
-0.36798903346061707,1.5475804805755615,-0.21704551577568054
-0.35343116521835327,1.5348641872406006,-0.21652084589004517
-0.342693567276001,1.5370780229568481,-0.2180715948343277
-0.33355748653411865,1.546786904335022,-0.22066979110240936
-0.31791621446609497,1.5261799097061157,-0.21878930926322937
-0.30258187651634216,1.5054349899291992,-0.21686826646327972
-0.2933550477027893,1.5149450302124023,-0.2193143218755722
-0.2827720642089844,1.5167630910873413,-0.2206449657678604
-0.2707768678665161,1.510919451713562,-0.22073692083358765
-0.25950828194618225,1.5088069438934326,-0.22131334245204926
-0.2489352822303772,1.5104213953018188,-0.2224431037902832
-0.235813170671463,1.4967072010040283,-0.22132842242717743
-0.2230813354253769,1.4828652143478394,-0.2201475203037262
-0.21489280462265015,1.4995571374893188,-0.22332952916622162
-0.20229819416999817,1.4855742454528809,-0.22195471823215485
0.2367178052663803,1.4887466430664062,-0.22013640403747559
0.2781849205493927,1.482227087020874,-0.21558715403079987
0.28849563002586365,1.4804339408874512,-0.21435391902923584
0.30035051703453064,1.4861459732055664,-0.2142105996608734
0.31385287642478943,1.4993542432785034,-0.21507087349891663
0.3252265453338623,1.5010958909988403,-0.21415293216705322
0.3373192846775055,1.5065609216690063,-0.21378622949123383
0.3513301908969879,1.519453763961792,-0.21445754170417786
0.3565443456172943,1.4945820569992065,-0.2098160684108734
0.3779886066913605,1.5374051332473755,-0.2145123928785324
0.3869059085845947,1.5274351835250854,-0.21177507936954498
0.4014548659324646,1.5399184226989746,-0.21216826140880585
0.41422662138938904,1.5447850227355957,-0.2114984095096588
0.4321805536746979,1.5682401657104492,-0.2132902890443802
0.44301700592041016,1.565469741821289,-0.21140174567699432
0.4562149941921234,1.570004940032959,-0.21047240495681763
0.4782574772834778,1.6041653156280518,-0.21349507570266724
0.49173468351364136,1.6084531545639038,-0.21250925958156586
0.5051525235176086,1.6126936674118042,-0.2113642394542694
0.5044235587120056,1.5725349187850952,-0.20443721115589142
0.5349351167678833,1.6281297206878662,-0.20989587903022766
0.5524963140487671,1.643005609512329,-0.21005645394325256
0.5664061903953552,1.64676034450531,-0.20869113504886627
0.5854613184928894,1.6650731563568115,-0.20908720791339874
0.6022332906723022,1.6758818626403809,-0.20849812030792236
0.6219965219497681,1.6937774419784546,-0.2087348997592926
0.6367232799530029,1.6969045400619507,-0.20705726742744446
0.6580789685249329,1.718183994293213,-0.20750774443149567
0.6783801913261414,1.7356250286102295,-0.20743857324123383
0.7020606994628906,1.759998083114624,-0.20810194313526154
0.7275793552398682,1.7877274751663208,-0.20908662676811218
0.7519556879997253,1.8116525411605835,-0.20940369367599487
0.773447573184967,1.8282630443572998,-0.20886044204235077
0.7908630967140198,1.8338510990142822,-0.2069699764251709
0.8193514943122864,1.864181637763977,-0.20781555771827698
0.8416127562522888,1.8801796436309814,-0.20689576864242554
0.8659498691558838,1.8994125127792358,-0.2062150537967682
0.9054217338562012,1.950097680091858,-0.20881891250610352
0.9440219402313232,1.9968031644821167,-0.21083518862724304
0.961003839969635,1.9977110624313354,-0.20785245299339294
0.9985076785087585,2.040428400039673,-0.20913217961788177
1.0320930480957031,2.071979522705078,-0.20899055898189545
1.073025107383728,2.1171348094940186,-0.21012675762176514
1.0909342765808105,2.1171348094940186,-0.20661571621894836
1.130579948425293,2.158350944519043,-0.20703616738319397
1.1877917051315308,2.2298104763031006,-0.2100318968296051
1.227391242980957,2.2664248943328857,-0.20952752232551575
1.2654167413711548,2.299344778060913,-0.20841029286384583
1.2848942279815674,2.2978873252868652,-0.20411160588264465
1.3048523664474487,2.2960236072540283,-0.19964270293712616
1.3224828243255615,2.2908518314361572,-0.19484496116638184
1.3279507160186768,2.2655627727508545,-0.18834590911865234
1.3319844007492065,2.236461877822876,-0.18136699497699738
1.3596864938735962,2.247528076171875,-0.17768684029579163
1.3970447778701782,2.2753851413726807,-0.17519345879554749
1.4763933420181274,2.368821382522583,-0.1773637980222702
1.5284860134124756,2.414813280105591,-0.17546315491199493
1.5660033226013184,2.43757963180542,-0.1715739220380783
1.6716868877410889,2.56472110748291,-0.17468604445457458
