X,Y,Z
-2.3726723194122314,5.635799407958984,0.9192508459091187
-2.4061341285705566,5.606001377105713,0.9094510674476624
-2.496593952178955,5.7069902420043945,0.9208234548568726
-2.519615888595581,5.655861854553223,0.9071819186210632
-2.560617685317993,5.64720344543457,0.900217592716217
-2.5714735984802246,5.571264266967773,0.8825263381004333
-1.5725456476211548,3.345949649810791,0.5265716910362244
-1.5894205570220947,3.3216209411621094,0.519305944442749
-1.615503191947937,3.318434000015259,0.5151821970939636
-1.6376011371612549,3.308411121368408,0.5098482370376587
-1.64264714717865,3.2634706497192383,0.49912551045417786
-2.738147020339966,5.347705841064453,0.8114795088768005
-1.6991147994995117,3.2623443603515625,0.4910958409309387
-1.7012187242507935,3.213988780975342,0.4797118604183197
-1.724338412284851,3.2069036960601807,0.47443869709968567
-1.1830265522003174,2.1659064292907715,0.31755489110946655
-1.1891356706619263,2.141040086746216,0.31085333228111267
-1.7738105058670044,3.1424808502197266,0.4518130123615265
-1.7867506742477417,3.118178129196167,0.4436296820640564
-1.8072402477264404,3.1072328090667725,0.437386155128479
-1.8326952457427979,3.1022238731384277,0.4317362308502197
-1.249999761581421,2.0820870399475098,0.2862994372844696
-1.8796594142913818,3.0849831104278564,0.4189087748527527
-1.9039276838302612,3.080130100250244,0.41287481784820557
-1.9291874170303345,3.0745131969451904,0.4064710736274719
-1.9593545198440552,3.074803352355957,0.40063509345054626
-2.007540464401245,3.104877471923828,0.39827001094818115
-3.0607943534851074,4.668304920196533,0.5894014835357666
-2.0728774070739746,3.1151671409606934,0.38657665252685547
-2.062025308609009,3.0533134937286377,0.37210407853126526
-2.072794198989868,3.0282158851623535,0.3620634078979492
-2.119722843170166,3.053588628768921,0.3576705753803253
-2.1056363582611084,2.988612174987793,0.3422882854938507
-2.8802709579467773,4.033199787139893,0.4511251747608185
-2.8766250610351562,3.9749531745910645,0.43370217084884644
-2.925553560256958,3.984151601791382,0.4225827157497406
-2.951190710067749,3.9666895866394043,0.4083463251590729
-2.450241804122925,3.456921100616455,-0.205342635512352
-2.4236793518066406,3.474778652191162,-0.218741774559021
-2.877391815185547,4.189271926879883,-0.2777163088321686
-2.252239942550659,3.330655097961426,-0.23162363469600677
-2.2225115299224854,3.34037184715271,-0.242879256606102
-2.2349820137023926,3.4107422828674316,-0.25802427530288696
-2.184649705886841,3.386823892593384,-0.26600179076194763
-2.096421003341675,3.3036036491394043,-0.2689310908317566
-1.2633196115493774,2.022414445877075,-0.17014655470848083
-1.281225323677063,2.084125280380249,-0.1808454692363739
-1.8883157968521118,3.122990131378174,-0.27917546033859253
-1.8798604011535645,3.1590394973754883,-0.290262371301651
-1.857143759727478,3.1716198921203613,-0.29916608333587646
-1.2000548839569092,2.084909439086914,-0.20178687572479248
-1.1887619495391846,2.0997626781463623,-0.20813530683517456
-1.739986538887024,3.1239545345306396,-0.3167564570903778
-1.7076674699783325,3.118741512298584,-0.3231934905052185
-1.6846439838409424,3.1303861141204834,-0.3313411772251129
-1.6657564640045166,3.1484310626983643,-0.3400232493877411
-1.6521917581558228,3.1766486167907715,-0.34970927238464355
-2.474285125732422,4.842266082763672,-0.5430378913879395
-2.421846866607666,4.823946952819824,-0.5507270097732544
-2.3980660438537598,4.860518455505371,-0.5644662380218506
-2.3691253662109375,4.890619277954102,-0.577589213848114
-2.340104818344116,4.920441150665283,-0.5905161499977112
-2.3262667655944824,4.981424808502197,-0.6071394085884094
-2.3007917404174805,5.017525672912598,-0.6207680106163025
-2.270900011062622,5.046798229217529,-0.6334230303764343
-2.198211908340454,4.980118274688721,-0.6338952779769897
-1.9662519693374634,4.62987756729126,-0.6054404973983765
-1.9448471069335938,4.6712965965271,-0.6185920238494873
-0.9636198878288269,2.3617124557495117,-0.3166334629058838
-0.9583612680435181,2.3966476917266846,-0.32519295811653137
-0.9524406790733337,2.4316771030426025,-0.3339228928089142
-0.9350075721740723,2.4378011226654053,-0.33850908279418945
-0.9038486480712891,2.407564401626587,-0.3379797339439392
-0.8747338056564331,2.3805785179138184,-0.33777081966400146
-0.8723635673522949,2.4261298179626465,-0.34785550832748413
-0.862467348575592,2.4536681175231934,-0.3553692102432251
-0.8449017405509949,2.459156036376953,-0.35960784554481506
-0.8323721885681152,2.4791367053985596,-0.365975558757782
-0.8197677731513977,2.49899959564209,-0.3723520040512085
-0.8079878687858582,2.5225307941436768,-0.3792097866535187
-0.7943106293678284,2.5424630641937256,-0.38551199436187744
-0.780773401260376,2.5622105598449707,-0.3917747139930725
-0.7671704292297363,2.581834077835083,-0.39804399013519287
-0.7468399405479431,2.5791351795196533,-0.4008350670337677
-0.7421794533729553,2.6321136951446533,-0.41210252046585083
-0.7398491501808167,2.6963043212890625,-0.4252740144729614
-0.7126094698905945,2.671060800552368,-0.4244185984134674
-0.7142148613929749,2.753858804702759,-0.4407503008842468
-0.6787131428718567,2.6946380138397217,-0.4340868294239044
-0.6669694185256958,2.728797197341919,-0.4424149990081787
-0.6557716727256775,2.76663875579834,-0.4514126479625702
-0.6360676884651184,2.770651340484619,-0.45498278737068176
-0.6199610233306885,2.7895586490631104,-0.4607841670513153
-0.6019358038902283,2.800869941711426,-0.46518728137016296
-0.5869156718254089,2.827157735824585,-0.4721282124519348
-0.5686146020889282,2.8382272720336914,-0.4765671193599701
-0.5520123243331909,2.8605926036834717,-0.4829477369785309
-0.875903308391571,4.716403007507324,-0.7999014854431152
-0.8406746983528137,4.710293292999268,-0.8025330901145935
-0.7960031628608704,4.646947383880615,-0.795369565486908
-0.7492108941078186,4.564216136932373,-0.7847968935966492
-0.6999898552894592,4.462235927581787,-0.7703748941421509
-0.6607475876808167,4.413101673126221,-0.764713704586029
-0.6217182874679565,4.359836578369141,-0.7582998871803284
-0.5815330743789673,4.290984630584717,-0.7491154670715332
-0.5418282151222229,4.218014717102051,-0.7390092015266418
-0.5091241598129272,4.194486618041992,-0.7369730472564697
-0.4749419093132019,4.15929651260376,-0.7329291105270386
-0.4398181140422821,4.104660511016846,-0.7254031300544739
-0.41046053171157837,4.09951114654541,-0.726624608039856
-0.384731262922287,4.1325459480285645,-0.7341368794441223
-0.2823532521724701,3.280243158340454,-0.5839065313339233
-0.2557372748851776,3.2397191524505615,-0.5779061317443848
-0.2326211780309677,3.2334864139556885,-0.5780094861984253
-0.21281105279922485,3.2769994735717773,-0.586912214756012
-0.19218306243419647,3.3166253566741943,-0.5947168469429016
-0.16942133009433746,3.3253982067108154,-0.5970286726951599
-0.14676372706890106,3.3455474376678467,-0.6014279723167419
-0.1299266517162323,3.5192039012908936,-0.6334841847419739
-0.11516349017620087,3.8427138328552246,-0.692152738571167
-0.08759111166000366,3.804917097091675,-0.685619592666626
-0.06082840636372566,3.786144733428955,-0.6825438737869263
-0.0344788022339344,3.8363821506500244,-0.6919512152671814
-0.007715681102126837,3.8057329654693604,-0.6866417527198792
0.018734289333224297,3.7980589866638184,-0.6849614977836609
0.04525993391871452,3.805577516555786,-0.6860544085502625
0.07200603932142258,3.8205983638763428,-0.6885318160057068
0.09819980710744858,3.804685354232788,-0.6854673027992249
0.12446028739213943,3.784824848175049,-0.6812247037887573
0.15094678103923798,3.7878830432891846,-0.6809487342834473
0.18122759461402893,3.871411085128784,-0.6951541900634766
0.209992453455925,3.9047906398773193,-0.7003639936447144
0.2394576519727707,3.941821336746216,-0.7061097025871277
0.26625025272369385,3.9249937534332275,-0.7016421556472778
0.2957993447780609,3.9540326595306396,-0.7054269313812256
0.3232872784137726,3.952183723449707,-0.7037227153778076
0.3565789461135864,4.0152740478515625,-0.7135918736457825
0.3874033987522125,4.043725967407227,-0.71681809425354
0.41598808765411377,4.041323661804199,-0.7143397331237793
0.4461851418018341,4.057886600494385,-0.7152730226516724
0.4771115481853485,4.078044891357422,-0.7168521285057068
0.5082940459251404,4.0980000495910645,-0.7182760238647461
0.5472552180290222,4.175065040588379,-0.7291172742843628
0.5878105163574219,4.251742839813232,-0.7397790551185608
0.6080260872840881,4.183342933654785,-0.7252600193023682
0.6325392127037048,4.149110317230225,-0.7167590260505676
0.7463734149932861,4.677653789520264,-0.8046776652336121
0.7719025015830994,4.631307601928711,-0.7931731343269348
0.7988734245300293,4.596192359924316,-0.7836774587631226
0.8444998264312744,4.663187026977539,-0.7915366291999817
0.884109616279602,4.695824146270752,-0.7934085130691528
0.9218869805335999,4.716904640197754,-0.7927736639976501
0.9577019214630127,4.726354598999023,-0.7901856899261475
0.987503707408905,4.705321788787842,-0.7825206518173218
1.0192780494689941,4.691517353057861,-0.7760430574417114
1.0459694862365723,4.658901691436768,-0.7660773396492004
1.0765666961669922,4.6449480056762695,-0.759113073348999
1.1053320169448853,4.623256683349609,-0.7509281635284424
1.1321767568588257,4.593845844268799,-0.7415379285812378
1.15815007686615,4.560466289520264,-0.7312992215156555
1.1878687143325806,4.54583740234375,-0.7238472700119019
0.5901987552642822,2.196507692337036,-0.3472955524921417
1.0044647455215454,3.637299060821533,-0.57101970911026
1.0278205871582031,3.623530149459839,-0.5648000836372375
1.0555204153060913,3.62446665763855,-0.5604231953620911
1.0828315019607544,3.625309944152832,-0.5561044216156006
1.103631854057312,3.6037075519561768,-0.5483396053314209
1.1266053915023804,3.589324474334717,-0.5417084693908691
1.1468675136566162,3.5675179958343506,-0.5337787866592407
1.1720231771469116,3.560218334197998,-0.527839183807373
1.194339394569397,3.5454962253570557,-0.5208969116210938
1.2167164087295532,3.5305588245391846,-0.513927161693573
1.238816499710083,3.5155270099639893,-0.5068831443786621
1.2631350755691528,3.5077505111694336,-0.5007038712501526
1.2874014377593994,3.499796152114868,-0.4945232570171356
1.3124425411224365,3.491382598876953,-0.488129585981369
1.3299744129180908,3.4648783206939697,-0.4793277382850647
1.3595354557037354,3.470933437347412,-0.47480499744415283
1.377708911895752,3.447957754135132,-0.4663390815258026
1.4077560901641846,3.4534413814544678,-0.46164920926094055
1.7198514938354492,4.135148048400879,-0.5461399555206299
1.7544145584106445,4.1385393142700195,-0.5397816300392151
1.789062261581421,4.141661167144775,-0.5333503484725952
1.8086402416229248,4.108804225921631,-0.522217869758606
1.8438661098480225,4.111202716827393,-0.5155687928199768
1.869416356086731,4.092208385467529,-0.5059187412261963
1.8941956758499146,4.07329797744751,-0.4964168965816498
1.9226540327072144,4.061008930206299,-0.48762065172195435
1.9445042610168457,4.0344085693359375,-0.4770975708961487
1.9670485258102417,4.011538982391357,-0.4669329822063446
1.9948920011520386,3.9988152980804443,-0.4578538239002228
2.022939920425415,3.985743522644043,-0.44867613911628723
2.0403294563293457,3.9516685009002686,-0.43714895844459534
2.067234754562378,3.938678741455078,-0.4278726279735565
2.0940487384796143,3.9254889488220215,-0.41859444975852966
2.121657133102417,3.9116504192352295,-0.40900537371635437
2.1418046951293945,3.8839049339294434,-0.39784079790115356
2.131899833679199,3.805795192718506,-0.38176846504211426
2.150250196456909,3.778505563735962,-0.3708666265010834
2.1847012042999268,3.7776477336883545,-0.36232370138168335
2.1907594203948975,3.729985475540161,-0.3493211269378662
2.220276355743408,3.7224857807159424,-0.3399818241596222
2.2624189853668213,3.734426498413086,-0.3321753740310669
2.2760884761810303,3.6996006965637207,-0.32013198733329773
2.296603202819824,3.6785919666290283,-0.30933642387390137
2.330078125,3.6768200397491455,-0.29992082715034485
2.3395438194274902,3.634662628173828,-0.28680500388145447
2.3721117973327637,3.6329636573791504,-0.2770823836326599
2.4052135944366455,3.6306815147399902,-0.2670665681362152
2.4133689403533936,3.5885608196258545,-0.25372499227523804
2.437006711959839,3.5733370780944824,-0.2423928678035736
2.474691867828369,3.576627731323242,-0.23182567954063416
2.481839179992676,3.534377098083496,-0.2179909348487854
2.5092175006866455,3.5253043174743652,-0.20628249645233154
2.5468037128448486,3.527890920639038,-0.1946384310722351
2.2433056831359863,3.064056158065796,-0.1583564579486847
2.1697816848754883,2.924860954284668,-0.14087632298469543
2.8002917766571045,3.930189371109009,0.4170021712779999
2.76956844329834,3.9504315853118896,0.43069320917129517
2.738936185836792,3.9702744483947754,0.44391942024230957
2.7149100303649902,3.9947729110717773,0.4568514823913574
2.6902542114257812,4.024057388305664,0.4701071083545685
2.6526992321014404,4.033565521240234,0.4808264672756195
2.6108250617980957,4.031717300415039,0.4895331561565399
2.5846710205078125,4.056439399719238,0.5010665059089661
2.565488576889038,4.094796657562256,0.5142291784286499
2.5378618240356445,4.1152777671813965,0.524645984172821
2.5206193923950195,4.151879787445068,0.5370215177536011
2.47420597076416,4.14682149887085,0.5437836647033691
2.456218719482422,4.187765121459961,0.5564459562301636
2.4264776706695557,4.203878879547119,0.5653579831123352
2.4039433002471924,4.23345947265625,0.5760640501976013
2.3943896293640137,4.291058540344238,0.590325653553009
2.27353572845459,4.148406982421875,0.5770084857940674
2.2441771030426025,4.163269519805908,0.5848422646522522
2.221977472305298,4.191610336303711,0.5946176052093506
2.2012009620666504,4.227710247039795,0.6051480174064636
2.1658194065093994,4.236152648925781,0.6117549538612366
2.1380815505981445,4.257816314697266,0.6201866865158081
2.1114389896392822,4.278688907623291,0.6283330321311951
2.0837790966033936,4.299808979034424,0.6363354325294495
2.054943084716797,4.321230411529541,0.6441794037818909
2.025937080383301,4.342432498931885,0.6520360708236694
1.9920618534088135,4.348596572875977,0.6574118137359619
1.9736073017120361,4.389973163604736,0.6682321429252625
2.0071234703063965,4.55195426940918,0.6972025036811829
1.9442439079284668,4.498254776000977,0.6930961608886719
1.9713799953460693,4.653937816619873,0.7213428020477295
1.9103939533233643,4.598913192749023,0.7168480157852173
1.8876370191574097,4.636578559875488,0.7268686890602112
1.871240496635437,4.692288398742676,0.7393925189971924
1.833878993988037,4.6978302001953125,0.7438913583755493
1.779990315437317,4.659761428833008,0.7414799928665161
1.3668030500411987,3.6545820236206055,0.5842697620391846
1.3380202054977417,3.656315803527832,0.5873355269432068
1.3158869743347168,3.6760010719299316,0.5931153297424316
1.2878081798553467,3.681230068206787,0.5963108539581299
1.652946949005127,4.837067127227783,0.7866626977920532
1.6207095384597778,4.855309963226318,0.7927338480949402
1.5716930627822876,4.821913242340088,0.7903777360916138
1.5496007204055786,4.868796348571777,0.8011589050292969
1.5168241262435913,4.886471748352051,0.8067204356193542
1.4881325960159302,4.918772220611572,0.8146485090255737
1.468865990638733,4.984204292297363,0.8281477093696594
1.4358232021331787,5.001148223876953,0.8335980772972107
1.4022538661956787,5.017962455749512,0.8391033411026001
1.349773645401001,4.963736534118652,0.8326466083526611
1.2933337688446045,4.894436836242676,0.8230763077735901
1.2628741264343262,4.921692371368408,0.8297610282897949
1.24041748046875,4.982431888580322,0.842167854309082
1.203206181526184,4.983019828796387,0.8444380760192871
1.1736538410186768,5.013225555419922,0.8517398238182068
1.138542890548706,5.0207390785217285,0.8551326990127563
1.0993305444717407,5.013197422027588,0.8554742932319641
1.0755083560943604,5.076955318450928,0.8680378198623657
1.0386009216308594,5.084123611450195,0.8710204362869263
1.0015828609466553,5.083202838897705,0.872590184211731
1.8079720735549927,9.52449893951416,1.638292908668518
1.7414385080337524,9.535982131958008,1.6435593366622925
1.6789939403533936,9.57772159576416,1.6530379056930542
1.6020269393920898,9.543296813964844,1.6494947671890259
1.5214033126831055,9.47386360168457,1.6399093866348267
1.4498860836029053,9.449300765991211,1.6381051540374756
1.3817800283432007,9.443224906921387,1.6395647525787354
1.3127673864364624,9.429035186767578,1.6396849155426025
1.2394510507583618,9.3956880569458,1.635576605796814
1.1744682788848877,9.415151596069336,1.64054274559021
1.1088225841522217,9.430340766906738,1.6448490619659424
1.0363609790802002,9.379983901977539,1.6377818584442139
0.9694311022758484,9.371152877807617,1.638020396232605
0.9063679575920105,9.400150299072266,1.6449522972106934
0.38725772500038147,4.338847637176514,0.759873628616333
0.35266169905662537,4.2914628982543945,0.7519547343254089
0.3248031437397003,4.324389934539795,0.7581437826156616
0.2952417731285095,4.337936878204346,0.7609759569168091
0.3433879017829895,5.62246561050415,0.986947774887085
0.30355942249298096,5.624569416046143,0.9880125522613525
0.2669137716293335,5.680185794830322,0.9984140396118164
0.22719210386276245,5.681849956512451,0.9987694621086121
0.1888553947210312,5.725534915924072,1.0065609216690063
0.14961904287338257,5.757420063018799,1.012328863143921
0.1100781038403511,5.823662281036377,1.0241937637329102
0.06962163001298904,5.824223041534424,1.0245554447174072
0.02912416309118271,5.816808223724365,1.023563265800476
-0.01721896417438984,8.879223823547363,1.5622351169586182
-0.07851766049861908,8.836664199829102,1.5542763471603394
-0.13976426422595978,8.759044647216797,1.5402255058288574
-0.19867399334907532,8.669485092163086,1.5241633653640747
-0.25670701265335083,8.594919204711914,1.510816216468811
-0.225303053855896,6.116994380950928,1.0751287937164307
-0.26573193073272705,6.069249153137207,1.0665061473846436
-0.1818656474351883,3.5851380825042725,0.6295374631881714
-0.2057790458202362,3.560835123062134,0.6248428225517273
-0.23418255150318146,3.6170308589935303,0.634307324886322
-0.5639909505844116,7.864139556884766,1.3783115148544312
-0.6146493554115295,7.81041145324707,1.3681676387786865
-0.5680795311927795,6.629129886627197,1.160677433013916
-0.6085388660430908,6.5601606369018555,1.1474463939666748
-0.6380015015602112,6.399152755737305,1.1180388927459717
-0.6820833683013916,6.394941806793213,1.1161078214645386
-0.7296853065490723,6.421013832092285,1.119507908821106
-0.7707303166389465,6.385542392730713,1.1122206449508667
-0.8096523880958557,6.330625057220459,1.1015958786010742
-0.8463436961174011,6.271829128265381,1.0901079177856445
-0.8846033215522766,6.232014179229736,1.0815036296844482
-0.9285949468612671,6.233854293823242,1.0801866054534912
-0.977925717830658,6.269632816314697,1.0847913026809692
-1.0297285318374634,6.308630466461182,1.0899358987808228
-1.0819412469863892,6.351142406463623,1.0957469940185547
-1.1354516744613647,6.39703369140625,1.102155089378357
-1.1868282556533813,6.431389331817627,1.1058367490768433
-1.2415558099746704,6.480489730834961,1.1120750904083252
-1.293325424194336,6.5102434158325195,1.115010142326355
-1.3507866859436035,6.558205604553223,1.1210209131240845
-1.4094334840774536,6.60952615737915,1.1276392936706543
-1.4505339860916138,6.577584743499756,1.1200981140136719
-1.4844682216644287,6.5193610191345215,1.1075530052185059
-1.520155906677246,6.472291946411133,1.096811056137085
-0.6795362830162048,2.805966854095459,0.47431662678718567
-0.693271279335022,2.779094696044922,0.4686219394207001
-0.7107078433036804,2.7670490741729736,0.46545010805130005
-0.7358908653259277,2.7847158908843994,0.46729278564453125
-0.7448278665542603,2.74275541305542,0.4589388966560364
-0.781363844871521,2.8010761737823486,0.4672345817089081
-1.7577800750732422,6.141010284423828,1.0212396383285522
-1.791262149810791,6.100001335144043,1.0113210678100586
-1.823834776878357,6.054924964904785,1.000758171081543
-1.8546638488769531,6.00601053237915,0.989649772644043
-1.887068510055542,5.964442253112793,0.9792945981025696
-1.9190746545791626,5.926742076873779,0.9695186018943787
-1.9469550848007202,5.877894878387451,0.9580062627792358
-1.9775524139404297,5.8359832763671875,0.947636604309082
-2.0043883323669434,5.782804012298584,0.9354792237281799
-2.0370264053344727,5.747718811035156,0.9263324737548828
-2.0646636486053467,5.701895236968994,0.9148484468460083
-2.0949654579162598,5.667108535766602,0.9052411913871765
-2.1167073249816895,5.610470294952393,0.8922304511070251
-2.1559410095214844,5.596513748168945,0.8859224915504456
-2.203673839569092,5.603817939758301,0.8829968571662903
-2.2704081535339355,5.657379627227783,0.8870335221290588
-2.331829071044922,5.700320720672607,0.8890260457992554
-2.3582186698913574,5.657044887542725,0.8775882720947266
-2.3939244747161865,5.634725570678711,0.8693820238113403
-2.43343448638916,5.618896007537842,0.8621108531951904
-2.545274496078491,5.765355110168457,0.8795479536056519
-2.5314254760742188,5.6329474449157715,0.8539427518844604
-2.5689876079559326,5.617094039916992,0.8461642265319824
-2.5889694690704346,5.5621657371521,0.8325045108795166
-1.5784618854522705,3.330524444580078,0.4951431155204773
-1.5989078283309937,3.3128983974456787,0.48913633823394775
-1.6244208812713623,3.3098461627960205,0.48505422472953796
-1.6464139223098755,3.2997114658355713,0.47992414236068726
-2.7203938961029053,5.362317085266113,0.7738971710205078
-1.6811408996582031,3.2575511932373047,0.4663264751434326
-1.6931443214416504,3.225860357284546,0.45798876881599426
-1.713011384010315,3.2117626667022705,0.4518481492996216
-1.726846694946289,3.1874964237213135,0.4443907141685486
-1.1783030033111572,2.140202045440674,0.2955511510372162
-1.7598060369491577,3.144390344619751,0.429945707321167
-1.7812228202819824,3.1331214904785156,0.4239755868911743
-1.7944575548171997,3.1084814071655273,0.4160125255584717
-1.8112717866897583,3.0905349254608154,0.40901410579681396
-1.255181908607483,2.1079065799713135,0.2756347358226776
-1.253724217414856,2.0731360912323,0.26774492859840393
-1.894841194152832,3.0882387161254883,0.393657386302948
-1.9340420961380005,3.105971336364746,0.3905433118343353
-1.9684020280838013,3.1128361225128174,0.38571879267692566
-2.019146680831909,3.1459147930145264,0.3839564919471741
-3.0380194187164307,4.667953968048096,0.5607149004936218
-3.064732789993286,4.64252233505249,0.5484073162078857
-2.0654137134552,3.0811824798583984,0.3572789132595062
-2.0486607551574707,3.013669967651367,0.34281983971595764
-2.0591542720794678,2.9885473251342773,0.33328256011009216
-2.062138319015503,2.949556350708008,0.32172176241874695
-2.048450231552124,2.888756513595581,0.3078012466430664
-2.8552794456481934,3.9732255935668945,0.412905216217041
-2.907782554626465,3.9894328117370605,0.40332722663879395
-2.934814453125,3.970952033996582,0.38968372344970703
-2.4626266956329346,3.4488728046417236,-0.1920982003211975
-2.432835340499878,3.459688186645508,-0.2044520378112793
-2.874833345413208,4.1542067527771,-0.25936463475227356
-2.2982017993927,3.3711085319519043,-0.22086383402347565
-2.255279779434204,3.361706495285034,-0.23050962388515472
-2.234630584716797,3.3840489387512207,-0.24195854365825653
-2.2102084159851074,3.3992741107940674,-0.252625435590744
-2.157261371612549,3.372326135635376,-0.25985902547836304
-1.9519104957580566,3.1002683639526367,-0.2470756620168686
-1.2729614973068237,2.05342173576355,-0.1688399463891983
-1.9005776643753052,3.116859197616577,-0.26407381892204285
-1.8833000659942627,3.1402008533477783,-0.27383288741111755
-1.8610707521438599,3.152681827545166,-0.28227582573890686
-1.837830662727356,3.1655220985412598,-0.2907138168811798
-1.2005525827407837,2.1030635833740234,-0.19793394207954407
-1.1742475032806396,2.0906145572662354,-0.20127665996551514
-1.715811848640442,3.107060670852661,-0.3058924376964569
-1.6928725242614746,3.118849277496338,-0.3136385381221771
-1.670387864112854,3.1301822662353516,-0.3212006688117981
-1.6609158515930176,3.1652309894561768,-0.33113500475883484
-1.6377873420715332,3.176478624343872,-0.3385482430458069
-2.443047285079956,4.825046062469482,-0.5238258242607117
-2.4157774448394775,4.854947566986084,-0.5361780524253845
-2.391439914703369,4.891749382019043,-0.5493335723876953
-2.362435817718506,4.9218597412109375,-0.5616304278373718
-2.334970712661743,4.955204486846924,-0.574332594871521
-2.3098344802856445,4.991450786590576,-0.5872067213058472
-2.2864937782287598,5.035077095031738,-0.6011252999305725
-2.2531349658966064,5.057362079620361,-0.6122509241104126
-2.156118154525757,4.933457374572754,-0.6054261326789856
-2.0693554878234863,4.826030731201172,-0.6000593900680542
-1.9137780666351318,4.645003795623779,-0.5922511219978333
-1.8441717624664307,4.567554473876953,-0.5893881916999817
-1.831932544708252,4.629817485809326,-0.6044080257415771
-1.325503945350647,3.4197258949279785,-0.45149537920951843
-1.298182487487793,3.4211008548736572,-0.456559419631958
-0.9117580056190491,2.455977439880371,-0.33131861686706543
-2.0059642791748047,5.520732402801514,-0.7524785995483398
-0.953639566898346,2.6827809810638428,-0.3693734407424927
-0.8594347834587097,2.4730777740478516,-0.3437412679195404
-0.8504401445388794,2.5042667388916016,-0.3513639569282532
-0.8215571641921997,2.4766364097595215,-0.3507387042045593
-0.817305326461792,2.5222787857055664,-0.3604550063610077
-0.7970210909843445,2.520106077194214,-0.3631525933742523
-0.7836611866950989,2.5399532318115234,-0.36903688311576843
-0.7724236845970154,2.5670971870422363,-0.3760210871696472
-0.7587226629257202,2.5867550373077393,-0.38196125626564026
-0.7539000511169434,2.6399426460266113,-0.392802357673645
-0.7475692629814148,2.6893956661224365,-0.40305766463279724
-0.732584536075592,2.7089951038360596,-0.4089106619358063
-0.7136161923408508,2.713510751724243,-0.4124944508075714
-0.6964796781539917,2.725405216217041,-0.41712895035743713
-0.6750005483627319,2.7223336696624756,-0.41930365562438965
-0.6557665467262268,2.726527452468872,-0.42256271839141846
-0.6428146362304688,2.7568745613098145,-0.4298979938030243
-0.6269172430038452,2.7758595943450928,-0.4355221390724182
-0.6156219244003296,2.8174519538879395,-0.44442763924598694
-0.5938096046447754,2.8137643337249756,-0.44624045491218567
-0.5786856412887573,2.840083122253418,-0.4527945816516876
-0.5640097856521606,2.8700952529907227,-0.4599958062171936
-0.5453252196311951,2.881108045578003,-0.46401891112327576
-0.5305716395378113,2.9148170948028564,-0.4715234935283661
-0.5123905539512634,2.933300256729126,-0.47665396332740784
-0.4931851625442505,2.943986177444458,-0.480508029460907
-0.4781295955181122,2.981193780899048,-0.4887445867061615
-0.45489317178726196,2.9688613414764404,-0.48845916986465454
-0.44522345066070557,3.0479071140289307,-0.5032539963722229
-0.7039640545845032,5.070362567901611,-0.8402482271194458
-0.6484872102737427,4.921678066253662,-0.8185519576072693
-0.6193879246711731,4.967606067657471,-0.8288215398788452
-0.5374118089675903,4.569493770599365,-0.7644567489624023
-0.5004011988639832,4.52673864364624,-0.7593770623207092
-0.49347537755966187,4.767273902893066,-0.8019393086433411
-0.46296724677085876,4.804697036743164,-0.8105440735816956
-0.42357364296913147,4.742245674133301,-0.8015508651733398
-0.38542333245277405,4.683333396911621,-0.7931081056594849
-0.34786325693130493,4.6202874183654785,-0.7839605808258057
-0.31337273120880127,4.587690353393555,-0.7799808382987976
-0.27761632204055786,4.535705089569092,-0.7724284529685974
-0.24774257838726044,4.568097114562988,-0.7787877321243286
-0.21521399915218353,4.554133892059326,-0.7772854566574097
-0.1828918159008026,4.53994083404541,-0.7757755517959595
-0.1505211889743805,4.517823696136475,-0.7729412913322449
-0.11756858974695206,4.484053611755371,-0.7674961686134338
-0.08647909760475159,4.49240255355835,-0.7691657543182373
-0.054936230182647705,4.469736099243164,-0.765561044216156
-0.02399507351219654,4.493050575256348,-0.7698686718940735
0.007177435792982578,4.462284564971924,-0.764725923538208
0.03607058897614479,4.1580400466918945,-0.7122161388397217
0.06405419856309891,4.100008010864258,-0.7019516825675964
0.09187380224466324,4.068731784820557,-0.6963086128234863
0.12039840221405029,4.0757551193237305,-0.6972551345825195
0.15393701195716858,4.217340469360352,-0.7207242846488953
0.17941662669181824,4.127871513366699,-0.7045392990112305
0.21557767689228058,4.265138149261475,-0.7270637154579163
0.24384237825870514,4.240657329559326,-0.7220425605773926
0.2690461575984955,4.173734188079834,-0.7097287774085999
0.29549750685691833,4.137491703033447,-0.7021057605743408
0.3211584985256195,4.097240447998047,-0.6938614845275879
0.35968682169914246,4.20646333694458,-0.7109091281890869
0.40249258279800415,4.349918842315674,-0.7337130904197693
0.42704492807388306,4.28988790512085,-0.7217706441879272
0.4654536545276642,4.3676910400390625,-0.7327704429626465
0.47930365800857544,4.21928071975708,-0.7058839797973633
0.522123396396637,4.323324203491211,-0.7212496399879456
0.5590306520462036,4.373538970947266,-0.7275779247283936
0.6527666449546814,4.8399481773376465,-0.8022228479385376
0.695544421672821,4.90078067779541,-0.8093598484992981
0.7262058258056641,4.8735432624816895,-0.801959216594696
0.7619351744651794,4.8764967918396,-0.7995194792747498
0.7920758724212646,4.848905563354492,-0.7917714715003967
0.8231044411659241,4.828789710998535,-0.7849783897399902
0.8451232314109802,4.759092330932617,-0.7702208161354065
0.8783154487609863,4.753769874572754,-0.765946090221405
0.9129248261451721,4.755792617797852,-0.7628740072250366
0.9404706954956055,4.719748020172119,-0.7530243992805481
0.9693061113357544,4.694985866546631,-0.7451255917549133
0.9987953305244446,4.673788070678711,-0.7378393411636353
0.836483359336853,3.785245180130005,-0.5944046378135681
0.8525376319885254,3.7348060607910156,-0.5831204056739807
0.8806752562522888,3.7369046211242676,-0.5798177123069763
0.9011505246162415,3.708852767944336,-0.5719391703605652
0.9308037757873535,3.7181339263916016,-0.5698330402374268
0.9528933763504028,3.6972551345825195,-0.563093900680542
0.9765039086341858,3.6838271617889404,-0.5571293234825134
1.0024588108062744,3.6775896549224854,-0.5522177815437317
1.0249896049499512,3.660057544708252,-0.5456881523132324
1.0484477281570435,3.6460824012756348,-0.5397269129753113
1.0672160387039185,3.6171963214874268,-0.5313454270362854
1.0944725275039673,3.617888927459717,-0.5272250771522522
1.1131960153579712,3.588644504547119,-0.5186880826950073
1.1406922340393066,3.588879108428955,-0.5144966840744019
1.1609752178192139,3.5668554306030273,-0.5070374608039856
1.1880793571472168,3.5668702125549316,-0.502509593963623
1.202746868133545,3.530019521713257,-0.49283990263938904
1.2300738096237183,3.529576301574707,-0.4882368743419647
1.2578750848770142,3.528780698776245,-0.4835117757320404
1.2756009101867676,3.5026068687438965,-0.4751242697238922
1.301128625869751,3.4981353282928467,-0.4697234332561493
1.3283133506774902,3.4969964027404785,-0.46472108364105225
1.6416661739349365,4.233033180236816,-0.5566319823265076
1.6657592058181763,4.207931995391846,-0.5471118092536926
1.6976258754730225,4.204523086547852,-0.5404803156852722
1.723915696144104,4.1864013671875,-0.5319182872772217
1.7563121318817139,4.182307243347168,-0.5251061320304871
1.7822096347808838,4.163876533508301,-0.5163705348968506
1.8050719499588013,4.138077259063721,-0.5065555572509766
1.830574870109558,4.119334697723389,-0.4977167546749115
1.8563350439071655,4.100237846374512,-0.4887818396091461
1.8847500085830688,4.088223457336426,-0.4806113839149475
1.9061070680618286,4.06211519241333,-0.4707266688346863
1.9346681833267212,4.049564838409424,-0.46226707100868225
1.9597127437591553,4.029821872711182,-0.45302829146385193
1.982333779335022,4.006685256958008,-0.4433635175228119
2.0113205909729004,3.9975054264068604,-0.4352015256881714
2.0336596965789795,3.974026918411255,-0.4253899157047272
2.054441213607788,3.946730375289917,-0.4151090979576111
2.0819735527038574,3.9332168102264404,-0.4061008393764496
2.112318515777588,3.9267513751983643,-0.3979249894618988
2.1321914196014404,3.899181365966797,-0.3874363899230957
2.119873285293579,3.8135411739349365,-0.37129560112953186
2.14554500579834,3.8000309467315674,-0.36224833130836487
2.1600334644317627,3.765777349472046,-0.35112014412879944
2.182629346847534,3.7445833683013916,-0.3410862982273102
2.2282471656799316,3.763803005218506,-0.3346700370311737
2.2293829917907715,3.7095284461975098,-0.32170572876930237
2.2549197673797607,3.6948885917663574,-0.3120540678501129
2.2976746559143066,3.7060232162475586,-0.30420947074890137
2.3056488037109375,3.6650824546813965,-0.2922268807888031
2.3261542320251465,3.6436409950256348,-0.281746506690979
2.364527702331543,3.647559404373169,-0.2728109657764435
2.38028621673584,3.619407892227173,-0.2614699900150299
2.3961498737335205,3.5909435749053955,-0.24991543591022491
2.4301226139068604,3.587653398513794,-0.2397681325674057
2.4450509548187256,3.55930233001709,-0.22794659435749054
2.464203357696533,3.5372629165649414,-0.2164107710123062
2.516085147857666,3.5587575435638428,-0.2068425863981247
2.5167508125305176,3.5110623836517334,-0.19306345283985138
2.572572946548462,3.5388104915618896,-0.1830589473247528
2.174978017807007,2.950110673904419,-0.14251591265201569
2.7690622806549072,3.9161884784698486,0.3948659598827362
2.7526285648345947,3.954949378967285,0.4095161259174347
2.7258410453796387,3.9815762042999268,0.4227937161922455
2.688262939453125,3.9870476722717285,0.4329948425292969
2.658019781112671,4.006038665771484,0.4442722797393799
2.635025978088379,4.038528919219971,0.4569834768772125
2.5978360176086426,4.042915344238281,0.46569547057151794
2.5683062076568604,4.060570240020752,0.47577792406082153
2.5363471508026123,4.079411029815674,0.4859439432621002
2.5243279933929443,4.126759052276611,0.49913445115089417
2.5030317306518555,4.156735897064209,0.5100071430206299
2.471773862838745,4.174274444580078,0.5191256999969482
2.43581223487854,4.185244560241699,0.5273509621620178
2.4088399410247803,4.208676338195801,0.5368973612785339
2.3866825103759766,4.238039493560791,0.5469996929168701
2.3436436653137207,4.2343363761901855,0.5525261163711548
2.2522366046905518,4.141795635223389,0.5462300777435303
2.234976291656494,4.180953025817871,0.5569704174995422
2.2049243450164795,4.1958746910095215,0.5644891262054443
2.1848134994506836,4.23160982131958,0.5745250582695007
2.156507968902588,4.253827095031738,0.5826218128204346
2.125060796737671,4.268657684326172,0.5896633863449097
2.0949547290802,4.282582759857178,0.5963813066482544
2.0707950592041016,4.310569763183594,0.6051507592201233
2.0353777408599854,4.317939281463623,0.6105691194534302
2.0096802711486816,4.346129894256592,0.6189778447151184
1.9751719236373901,4.352530002593994,0.6241735816001892
2.0107288360595703,4.514009475708008,0.6516774892807007
1.9878002405166626,4.54862642288208,0.6609326004981995
1.965806245803833,4.591011047363281,0.671098530292511
1.9259066581726074,4.590236663818359,0.6749366521835327
1.8900730609893799,4.595892906188965,0.6796201467514038
1.8490979671478271,4.586675643920898,0.6820406913757324
1.8193641901016235,4.606050491333008,0.6886277198791504
1.8170435428619385,4.701691150665283,0.7063748240470886
1.7770520448684692,4.699619770050049,0.7094733715057373
1.728464961051941,4.671594142913818,0.708585262298584
1.3243968486785889,3.657565116882324,0.5573474764823914
1.2987427711486816,3.6661579608917236,0.5612444281578064
1.2690850496292114,3.667792320251465,0.5637608170509338
1.6246994733810425,4.807869911193848,0.7419014573097229
1.5849043130874634,4.8041462898254395,0.7442466020584106
1.5618877410888672,4.847540378570557,0.7538358569145203
1.5325433015823364,4.8724045753479,0.7606087923049927
1.5018677711486816,4.897432804107666,0.7672731280326843
1.4686769247055054,4.914926528930664,0.7724277973175049
1.433102011680603,4.9247870445251465,0.7764303088188171
1.3937537670135498,4.919392108917236,0.7780253887176514
1.3593132495880127,4.928408622741699,0.7818852663040161
1.3078035116195679,4.873788833618164,0.7756559252738953
1.2744340896606445,4.890040874481201,0.7803617119789124
1.2392687797546387,4.898543357849121,0.7836641073226929
1.212376594543457,4.940515995025635,0.7923721075057983
1.1899346113204956,5.000999450683594,0.8040944933891296
1.1549822092056274,5.00866174697876,0.8073607087135315
1.1252845525741577,5.042559623718262,0.814940869808197
1.0926580429077148,5.065057754516602,0.8202371001243591
1.0565088987350464,5.0722761154174805,0.8229838609695435
1.0232958793640137,5.09437370300293,0.8281937837600708
0.9859712719917297,5.0934295654296875,0.8296772241592407
1.812835693359375,9.733307838439941,1.588697910308838
1.7408866882324219,9.722089767456055,1.5901024341583252
1.6788418292999268,9.771422386169434,1.6006274223327637
1.6119979619979858,9.79764461517334,1.6071524620056152
1.5305962562561035,9.731972694396973,1.598666787147522
1.4591877460479736,9.730575561523438,1.6008247137069702
1.3902268409729004,9.732232093811035,1.6034975051879883
1.318202257156372,9.710478782653809,1.6023814678192139
1.2450746297836304,9.680716514587402,1.599367380142212
1.180389165878296,9.71942138671875,1.6072124242782593
1.1099662780761719,9.711736679077148,1.6074687242507935
1.0366946458816528,9.684476852416992,1.6045801639556885
0.9662814736366272,9.66031551361084,1.6022251844406128
0.4104222059249878,4.412984848022461,0.7327104806900024
0.37141579389572144,4.3195624351501465,0.7178695201873779
0.3404654860496521,4.314260959625244,0.7173112034797668
0.309679239988327,4.3164591789245605,0.718040406703949
0.28110164403915405,4.345325946807861,0.7232385277748108
0.3245798647403717,5.624244689941406,0.9366554617881775
0.28506484627723694,5.618515968322754,0.9362984299659729
0.24867790937423706,5.68179988861084,0.9474935531616211
0.21042189002037048,5.741123199462891,0.9574746489524841
0.1701536774635315,5.734701156616211,0.9564670324325562
0.13175590336322784,5.808892726898193,0.9689525961875916
0.09124620258808136,5.8096232414245605,0.9692330360412598
0.051065173000097275,5.833188056945801,0.9733698964118958
0.009801050648093224,5.833354949951172,0.9736554622650146
-0.04687558114528656,8.877083778381348,1.481613278388977
-0.10747121274471283,8.788032531738281,1.4662307500839233
-0.11599895358085632,6.048162937164307,1.0087910890579224
-0.16131126880645752,6.170533657073975,1.0289360284805298
-0.20418336987495422,6.169332981109619,1.0285199880599976
-0.24292346835136414,6.044600963592529,1.0075597763061523
-0.285265177488327,6.050543785095215,1.008374810218811
-0.19293120503425598,3.566831111907959,0.5939812660217285
-0.21759560704231262,3.5655198097229004,0.5933303833007812
-0.5316283106803894,7.82011604309082,1.3004399538040161
-0.5868362188339233,7.816409111022949,1.298981785774231
-0.5279859304428101,6.433498859405518,1.0685302019119263
-0.5897842645645142,6.621806621551514,1.0992094278335571
-0.6299867630004883,6.56031608581543,1.0879299640655518
-0.6562086939811707,6.372114181518555,1.0554845333099365
-0.7038127779960632,6.394498348236084,1.0579811334609985
-0.7497806549072266,6.405113697052002,1.0585907697677612
-0.7890902757644653,6.357983589172363,1.0497047901153564
-0.8242711424827576,6.283857345581055,1.0364313125610352
-0.8630177974700928,6.243979454040527,1.0286380052566528
-0.9033145308494568,6.215339183807373,1.022220253944397
-0.9534775614738464,6.258975982666016,1.0277634859085083
-1.0024608373641968,6.290796756744385,1.0313920974731445
-1.0512782335281372,6.31453800201416,1.0337055921554565
-1.1051617860794067,6.364491939544678,1.0403364896774292
-1.1576385498046875,6.402640342712402,1.0450432300567627
-1.2114622592926025,6.444268226623535,1.0496041774749756
-1.2650885581970215,6.4856133460998535,1.0541762113571167
-1.3216992616653442,6.537861347198486,1.0605303049087524
-1.3740432262420654,6.563114166259766,1.0625014305114746
-1.4278278350830078,6.5916852951049805,1.0650283098220825
-1.4694292545318604,6.559401988983154,1.0577322244644165
-1.5028212070465088,6.5010247230529785,1.045682668685913
-1.5317620038986206,6.427520275115967,1.0311877727508545
-0.6911146640777588,2.8152058124542236,0.45049798488616943
-0.6972847580909729,2.758272647857666,0.440257728099823
-0.7149108052253723,2.7460813522338867,0.4371728003025055
-0.7360791563987732,2.7487740516662598,0.4364975690841675
-0.763044536113739,2.7737948894500732,0.4391283392906189
-0.7797844409942627,2.7614524364471436,0.4357925057411194
-1.7732785940170288,6.121289253234863,0.9629926681518555
-1.8019790649414062,6.061309814453125,0.9504885077476501
-1.8374422788619995,6.027188301086426,0.9421476721763611
-1.8656026124954224,5.970731258392334,0.9303940534591675
-1.8977073431015015,5.933040618896484,0.9210705161094666
-1.9305142164230347,5.898885250091553,0.9122962951660156
-1.958729863166809,5.849668979644775,0.9012090563774109
-1.9905751943588257,5.811154842376709,0.8918111324310303
-2.018427610397339,5.761429309844971,0.8807485699653625
-2.0493338108062744,5.7226128578186035,0.8713251352310181
-2.0798892974853516,5.687785625457764,0.8620579242706299
-2.107361316680908,5.645546913146973,0.851742148399353
-2.1353142261505127,5.602840900421143,0.8413369059562683
-2.1717207431793213,5.581445217132568,0.8341439962387085
-2.2336909770965576,5.624518871307373,0.8365857601165771
-2.2937581539154053,5.663934230804443,0.8380696177482605
-2.343597888946533,5.677999973297119,0.8355712890625
-2.3703296184539795,5.634315490722656,0.8245387673377991
-2.400233507156372,5.597385883331299,0.8145014643669128
-2.4549028873443604,5.6169257164001465,0.8126667141914368
-3.9379804134368896,8.84542179107666,1.2721112966537476
-4.006448745727539,8.841827392578125,1.2634085416793823
-2.588135004043579,5.611227989196777,0.7965050339698792
-1.5645214319229126,3.332059144973755,0.4697987735271454
-1.5912564992904663,3.328629970550537,0.46607571840286255
-1.6074620485305786,3.3042690753936768,0.45935553312301636
-1.6397322416305542,3.315027952194214,0.45731180906295776
-1.65517258644104,3.290686845779419,0.4503781497478485
-2.734142780303955,5.344416618347168,0.7255159020423889
-1.697407603263855,3.261768341064453,0.43910059332847595
-1.7087523937225342,3.2302424907684326,0.43104231357574463
-1.7264654636383057,3.212719440460205,0.42475518584251404
-1.1806679964065552,2.1629815101623535,0.2833018898963928
-1.1867347955703735,2.138000965118408,0.27717605233192444
-1.7759772539138794,3.147770881652832,0.40393954515457153
-1.7850576639175415,3.1165542602539062,0.39555084705352783
-1.8094152212142944,3.1121957302093506,0.390607088804245
-1.8348170518875122,3.1070752143859863,0.38534441590309143
-1.2394154071807861,2.0652735233306885,0.2529274523258209
-1.2733556032180786,2.090674877166748,0.2526996433734894
-1.897818684577942,3.0713353157043457,0.3662588894367218
-1.9415444135665894,3.0952696800231934,0.36383718252182007
-1.984173059463501,3.1151270866394043,0.3606901168823242
-2.009110689163208,3.1091973781585693,0.3542136549949646
-3.0437464714050293,4.6454315185546875,0.5206265449523926
-3.076136350631714,4.625334739685059,0.5090603232383728
-2.0437865257263184,3.028200387954712,0.32700812816619873
-2.032435417175293,2.970879077911377,0.3144579231739044
-2.0437610149383545,2.9450221061706543,0.30498695373535156
-2.0645930767059326,2.931321620941162,0.2965444326400757
-2.053879976272583,2.877713918685913,0.28401094675064087
-2.8739383220672607,3.972541093826294,0.3818507790565491
-2.931898593902588,3.994180917739868,0.3727785646915436
-2.945169687271118,3.9613561630249023,0.3583294749259949
-2.4599716663360596,3.4699695110321045,-0.19187285006046295
-2.772672653198242,3.9743969440460205,-0.23261794447898865
-2.268664598464966,3.302379846572876,-0.20331217348575592
-2.257396936416626,3.3377044200897217,-0.2153434157371521
-2.21469783782959,3.328073740005493,-0.22428399324417114
-2.2273240089416504,3.3984971046447754,-0.23809155821800232
-2.193917751312256,3.4008991718292236,-0.24718280136585236
-2.0407636165618896,3.2158401012420654,-0.24210287630558014
-1.2721422910690308,2.0363290309906006,-0.15829691290855408
-1.269553780555725,2.0650038719177246,-0.16544800996780396
-1.8851908445358276,3.1176185607910156,-0.25714781880378723
-1.8729602098464966,3.147000312805176,-0.26659882068634033
-1.8581920862197876,3.173124313354492,-0.2757903039455414
-1.1929761171340942,2.072484016418457,-0.18471744656562805
-1.2010380029678345,2.121229648590088,-0.19351132214069366
-1.7241309881210327,3.0951321125030518,-0.2886759042739868
-1.6938776969909668,3.0933632850646973,-0.2946951389312744
-1.6785314083099365,3.1187100410461426,-0.30328771471977234
-1.6597415208816528,3.136857748031616,-0.31110695004463196
-1.6497876644134521,3.172132968902588,-0.3205491304397583
-2.4512135982513428,4.797668933868408,-0.49368083477020264
-2.4271597862243652,4.834932327270508,-0.5062308311462402
-2.3999948501586914,4.864749431610107,-0.5179028511047363
-2.381274700164795,4.916073322296143,-0.5319615602493286
-2.348865509033203,4.939149379730225,-0.5428454279899597
-2.318532943725586,4.965231418609619,-0.5539659857749939
-2.2996208667755127,5.015688896179199,-0.5678296685218811
-2.269650459289551,5.045258522033691,-0.579186737537384
-2.2502031326293945,5.099575996398926,-0.5934599041938782
-1.9937763214111328,4.6963701248168945,-0.5610090494155884
-1.955461859703064,4.698825836181641,-0.5681604743003845
-1.8585103750228882,4.557236671447754,-0.5576577186584473
-1.8377963304519653,4.598099231719971,-0.5691932439804077
-1.813392162322998,4.631779193878174,-0.5800143480300903
-1.333088994026184,3.477306604385376,-0.4401284456253052
-1.757813811302185,4.68436336517334,-0.599151611328125
-1.7366596460342407,4.728463649749756,-0.6110165119171143
-1.9997289180755615,5.564155101776123,-0.7262844443321228
-1.024040937423706,2.9148354530334473,-0.3841785788536072
-0.9805242419242859,2.8555116653442383,-0.3798483610153198
-0.9417740106582642,2.8067076206207275,-0.3767600357532501
-0.9172689318656921,2.797945261001587,-0.378941148519516
-0.8609225749969482,2.6894233226776123,-0.3673705458641052
-0.8021893501281738,2.569366216659546,-0.3538735508918762
-0.7771797180175781,2.5522725582122803,-0.35435083508491516
-0.7636659145355225,2.5720202922821045,-0.3599218428134918
-0.7520639300346375,2.5991339683532715,-0.36655473709106445
-0.751432478427887,2.667273998260498,-0.37882527709007263
-0.7386373281478882,2.6944499015808105,-0.3853793740272522
-0.7153609991073608,2.6842212677001953,-0.38663408160209656
-0.711094081401825,2.7448573112487793,-0.3981000781059265
-0.6794303059577942,2.700587749481201,-0.3941516578197479
-0.667652428150177,2.734938383102417,-0.401580810546875
-0.6545960903167725,2.7654662132263184,-0.4085104167461395
-0.6366472244262695,2.777127981185913,-0.4127255380153656
-0.6188488006591797,2.788626194000244,-0.41681477427482605
-0.6056663393974304,2.8227410316467285,-0.42407965660095215
-0.5841914415359497,2.8189570903778076,-0.42568913102149963
-0.5713119506835938,2.856654167175293,-0.43358445167541504
-0.5568831562995911,2.8905563354492188,-0.441010445356369
-0.5366097688674927,2.8940093517303467,-0.4434903860092163
-0.5189969539642334,2.9125449657440186,-0.4482296109199524
-0.5057528614997864,2.9576072692871094,-0.457106351852417
-0.48510637879371643,2.9606873989105225,-0.45953771471977234
-0.4712294936180115,3.009463310241699,-0.46903225779533386
