X,Y,Z
2.947263717651367,5.097124099731445,0.7660750150680542
2.9215362071990967,5.141356468200684,0.781307578086853
2.8976588249206543,5.188590049743652,0.7970215678215027
2.8769431114196777,5.238175392150879,0.8128324747085571
2.85072660446167,5.277188777923584,0.8269688487052917
2.8216278553009033,5.3174309730529785,0.8408018946647644
2.804630994796753,5.3814921379089355,0.8585329055786133
2.7906408309936523,5.448025703430176,0.8764515519142151
2.76522159576416,5.493954181671143,0.8912357091903687
2.740396022796631,5.543592929840088,0.9062590003013611
1.2397254705429077,2.555227518081665,0.4208002984523773
1.207433819770813,2.5357251167297363,0.4206114113330841
1.1813271045684814,2.5259969234466553,0.42186376452445984
1.171529769897461,2.5511221885681152,0.4289582371711731
1.1714743375778198,2.6013543605804443,0.4401683211326599
1.1427652835845947,2.5881214141845703,0.440562903881073
2.5587704181671143,5.9103922843933105,1.0120482444763184
2.535135507583618,5.969428062438965,1.027961015701294
2.5122735500335693,6.031951427459717,1.0446120500564575
2.4791951179504395,6.0774970054626465,1.0579893589019775
2.4500317573547363,6.133589744567871,1.073001742362976
2.421753168106079,6.193079948425293,1.088716745376587
2.390570640563965,6.24096155166626,1.1022814512252808
2.3628907203674316,6.2995100021362305,1.117846965789795
2.334289312362671,6.36215353012085,1.1340296268463135
2.300713539123535,6.414004325866699,1.147836685180664
2.267709970474243,6.469334602355957,1.1623886823654175
2.241623640060425,6.54228401184082,1.180102825164795
2.2090914249420166,6.596720218658447,1.1945475339889526
2.178696632385254,6.662210464477539,1.2111976146697998
2.1234493255615234,6.654587268829346,1.2138006687164307
2.060189723968506,6.620889663696289,1.2115463018417358
1.9941807985305786,6.575591564178467,1.2071702480316162
1.9404383897781372,6.562446594238281,1.2085684537887573
1.8753299713134766,6.508204936981201,1.2023977041244507
1.8215110301971436,6.494391441345215,1.2036978006362915
1.758440375328064,6.447028160095215,1.1979470252990723
1.705080509185791,6.432539463043213,1.1983219385147095
0.8346685767173767,3.242305278778076,0.6055806279182434
1.590433955192566,6.360937595367432,1.1911036968231201
0.8078635931015015,3.3312251567840576,0.6254318356513977
1.4818743467330933,6.302376747131348,1.1862680912017822
1.4350305795669556,6.3045501708984375,1.1889857053756714
1.3815560340881348,6.276377201080322,1.1860278844833374
1.330224633216858,6.255270481109619,1.1844370365142822
1.272654414176941,6.199835300445557,1.1763514280319214
1.226303219795227,6.192762851715088,1.1774325370788574
1.1765819787979126,6.166478157043457,1.17489492893219
1.1229826211929321,6.1212263107299805,1.1679542064666748
1.065420389175415,6.049072742462158,1.1558974981307983
1.0266629457473755,6.08631706237793,1.1648238897323608
0.9780328273773193,6.054864406585693,1.1605921983718872
0.9305441379547119,6.026821136474609,1.1570460796356201
0.8840529322624207,6.0022125244140625,1.154195785522461
0.8375074863433838,5.977424144744873,1.150759220123291
0.7944854497909546,5.9828667640686035,1.1529817581176758
0.7497777938842773,5.968878746032715,1.151493787765503
0.5941300392150879,5.013535499572754,0.9682449698448181
0.5668889880180359,5.085824012756348,0.9833109378814697
0.5458422303199768,5.2266340255737305,1.0117186307907104
0.39665478467941284,4.073293685913086,0.789244532585144
0.3695800304412842,4.098763465881348,0.7946276664733887
0.34616953134536743,4.166054725646973,0.8081605434417725
0.3163548707962036,4.160549640655518,0.8076175451278687
0.28634199500083923,4.1471662521362305,0.8055772185325623
0.2594284415245056,4.179493427276611,0.8124565482139587
0.42512911558151245,7.734160900115967,1.504657506942749
0.3707820475101471,7.729111194610596,1.5040245056152344
0.31608524918556213,7.716050148010254,1.5017651319503784
0.2612866759300232,7.691104412078857,1.497263789176941
0.2066289633512497,7.654269695281982,1.490517020225525
0.1517917513847351,7.6208977699279785,1.4845203161239624
0.09845169633626938,7.598628997802734,1.4807467460632324
0.045464660972356796,7.583723068237305,1.4781227111816406
-0.007308775559067726,7.5455732345581055,1.4703471660614014
-0.059614840894937515,7.526229381561279,1.4663100242614746
-0.11239287257194519,7.487339973449707,1.4585341215133667
-0.16402211785316467,7.471104145050049,1.4552479982376099
-0.21487762033939362,7.43535041809082,1.4482303857803345
-0.2672528624534607,7.4528937339782715,1.4516642093658447
-0.3191579580307007,7.458734512329102,1.4520926475524902
-0.26892638206481934,5.407657146453857,1.0521613359451294
-0.3074329197406769,5.413468837738037,1.0527122020721436
-0.3434666395187378,5.388426780700684,1.0473250150680542
-0.3797701597213745,5.370791435241699,1.0434304475784302
-0.4156092703342438,5.349082946777344,1.0387970209121704
-0.45199981331825256,5.338643550872803,1.0362308025360107
-0.42213016748428345,4.602343559265137,0.8924037218093872
-0.45605412125587463,4.622500419616699,0.8954550623893738
-0.4838813245296478,4.5813703536987305,0.886677622795105
-0.5131369829177856,4.555294513702393,0.880860447883606
-0.5448403358459473,4.551880359649658,0.8794706463813782
-0.5761196613311768,4.5405659675598145,0.8765864372253418
-0.6069065928459167,4.533034801483154,0.8740296959877014
-0.634792149066925,4.506341934204102,0.867681086063385
-0.665757954120636,4.502247333526611,0.8657287955284119
-0.6957225799560547,4.490325450897217,0.862307071685791
-0.7237949371337891,4.462943077087402,0.8559411764144897
-0.7523018717765808,4.443032264709473,0.851076602935791
-0.7816717028617859,4.430572986602783,0.8474898338317871
-0.8085091710090637,4.406721115112305,0.8413655161857605
-0.8372126221656799,4.3940205574035645,0.8374189138412476
-0.7243368029594421,3.665382146835327,0.6973143219947815
-0.7472481727600098,3.6455132961273193,0.692287266254425
-0.7742613554000854,3.648127794265747,0.6915876865386963
-0.9512372016906738,4.333379745483398,0.8201067447662354
-0.977375864982605,4.31238317489624,0.8142159581184387
-1.0102695226669312,4.3211565017700195,0.8139839768409729
-1.0402350425720215,4.314627170562744,0.8108691573143005
-1.0627918243408203,4.278039455413818,0.8021543025970459
-1.0945063829421997,4.2785539627075195,0.8004392385482788
-1.1174724102020264,4.245375633239746,0.7924675345420837
-1.1504185199737549,4.253153324127197,0.7917309999465942
-1.1756621599197388,4.230966567993164,0.7853046655654907
-1.2001270055770874,4.208765506744385,0.7789695262908936
-1.2292320728302002,4.201033592224121,0.7753128409385681
-1.2541251182556152,4.178286552429199,0.7689104676246643
-1.2832427024841309,4.170111179351807,0.7652381062507629
-1.3120943307876587,4.161876678466797,0.7611320614814758
-1.3331208229064941,4.131688594818115,0.7529780864715576
-1.3609960079193115,4.123341083526611,0.748856782913208
-1.3871017694473267,4.107274532318115,0.7433035969734192
-1.4132968187332153,4.0909576416015625,0.73772794008255
-1.4328749179840088,4.056325912475586,0.7289100289344788
-1.4607542753219604,4.047214508056641,0.7242074012756348
-1.4932934045791626,4.052582263946533,0.7221276760101318
-1.5015535354614258,3.9927737712860107,0.7084934711456299
-1.537818431854248,4.004581928253174,0.7074974179267883
-1.5715065002441406,4.0089030265808105,0.7051858305931091
-1.5997751951217651,3.998594284057617,0.7001323699951172
-1.6178725957870483,3.967247247695923,0.691144585609436
-1.6474230289459229,3.96433162689209,0.6871586441993713
-1.6746233701705933,3.953845739364624,0.6818039417266846
-1.7024160623550415,3.942903518676758,0.6763173341751099
-1.727501630783081,3.924501419067383,0.669529914855957
-1.7570680379867554,3.9208006858825684,0.6649436354637146
-1.7672940492630005,3.8747920989990234,0.6531745195388794
-1.8032331466674805,3.8847451210021973,0.6508461236953735
-1.8305866718292236,3.8729560375213623,0.6447163224220276
-1.865007996559143,3.8746938705444336,0.640787661075592
-1.8844484090805054,3.8491265773773193,0.6321199536323547
-1.896317958831787,3.8098390102386475,0.6211473345756531
-1.9219298362731934,3.7980358600616455,0.6146767735481262
-1.9522770643234253,3.792325019836426,0.6089857220649719
-1.9790456295013428,3.7795159816741943,0.6021766066551208
-2.0084943771362305,3.773857355117798,0.5960824489593506
-2.016963481903076,3.7309117317199707,0.5841708183288574
-1.7013922929763794,3.097346782684326,0.48058372735977173
-1.7233036756515503,3.0861799716949463,0.4743109345436096
-1.7314096689224243,3.051476001739502,0.46441224217414856
-0.8392024636268616,1.4566104412078857,0.21933943033218384
-0.8644614815711975,1.478247046470642,0.22024917602539062
-0.8749113082885742,1.472584843635559,0.21689140796661377
-0.8773301839828491,1.4535566568374634,0.21159346401691437
-0.8869051337242126,1.4482276439666748,0.2081892043352127
-0.8883796334266663,1.4295873641967773,0.2028452754020691
-0.9025619626045227,1.4303711652755737,0.20013709366321564
-0.900164783000946,1.4048187732696533,0.1937473714351654
-0.9051200151443481,1.392889380455017,0.1891637146472931
-0.9056497812271118,1.3744823932647705,0.18374034762382507
-0.9199455976486206,1.3748525381088257,0.18051190674304962
-2.4022223949432373,3.5380821228027344,0.45609530806541443
-1.2590206861495972,1.8036681413650513,0.2233656793832779
-1.3077423572540283,1.8461686372756958,0.22358335554599762
-1.4662675857543945,2.0827713012695312,-0.13641466200351715
-1.5523121356964111,2.240908145904541,-0.1552976667881012
-1.4151533842086792,2.279731512069702,-0.2093600034713745
-1.3983409404754639,2.289391279220581,-0.21678738296031952
-1.3389039039611816,2.2290990352630615,-0.21746711432933807
-1.277523159980774,2.1608028411865234,-0.2165703922510147
-85.46570587158203,146.9331817626953,-15.115382194519043
-0.8497804999351501,1.4857350587844849,-0.15673482418060303
-1.1499782800674438,2.0437843799591064,-0.2207455039024353
-1.1050195693969727,1.9969775676727295,-0.22072042524814606
-1.0623780488967896,1.9532270431518555,-0.22065548598766327
-1.0279638767242432,1.922590732574463,-0.2218027114868164
-0.9818040728569031,1.8673005104064941,-0.21974584460258484
-0.9558331370353699,1.8495769500732422,-0.22189418971538544
-0.8980764150619507,1.7694731950759888,-0.21636484563350677
-0.8819334506988525,1.7683333158493042,-0.22012099623680115
-0.8522899746894836,1.739119529724121,-0.22026996314525604
-0.821122944355011,1.7062422037124634,-0.2197352647781372
-0.7920733094215393,1.6765578985214233,-0.21946021914482117
-0.7703876495361328,1.6604771614074707,-0.22075363993644714
-0.7310804724693298,1.6054548025131226,-0.21676389873027802
-0.7162497639656067,1.6031197309494019,-0.2196234166622162
-0.6953111886978149,1.5864371061325073,-0.22046072781085968
-0.6733936667442322,1.5658786296844482,-0.2206052541732788
-0.6562723517417908,1.5558241605758667,-0.2221539169549942
-0.6419063210487366,1.5529247522354126,-0.22464536130428314
-0.6249198317527771,1.5426454544067383,-0.22598731517791748
-0.5982816219329834,1.5069717168807983,-0.22348064184188843
-0.5791764855384827,1.4890544414520264,-0.2234899401664734
-0.5656978487968445,1.485484004020691,-0.22550687193870544
-0.5440256595611572,1.4601140022277832,-0.22420482337474823
-0.5217950940132141,1.4307726621627808,-0.2221098393201828
-0.514283299446106,1.441245198249817,-0.2261575311422348
-0.49378320574760437,1.415264368057251,-0.2243298441171646
0.4866844415664673,1.4012839794158936,-0.22257931530475616
0.5197165012359619,1.4314318895339966,-0.22273550927639008
0.5297303795814514,1.42820143699646,-0.2198639065027237
0.5423822402954102,1.4321670532226562,-0.21803930401802063
0.5565700531005859,1.4396116733551025,-0.21670876443386078
0.5782639980316162,1.4648278951644897,-0.2179284542798996
0.5971839427947998,1.4827439785003662,-0.21798598766326904
0.6177362203598022,1.5041111707687378,-0.21840794384479523
0.6401820778846741,1.528816819190979,-0.21920804679393768
0.6570378541946411,1.5389962196350098,-0.21782611310482025
0.6834668517112732,1.57029128074646,-0.2192639708518982
0.7052897810935974,1.5908358097076416,-0.21907709538936615
0.7163363099098206,1.5863971710205078,-0.21539078652858734
0.7404916286468506,1.6099848747253418,-0.21541506052017212
0.7649169564247131,1.6333667039871216,-0.21528352797031403
0.7947081327438354,1.667016863822937,-0.21626172959804535
0.8198292851448059,1.6899104118347168,-0.21574418246746063
0.8541050553321838,1.7298519611358643,-0.21719887852668762
0.8766193389892578,1.7452075481414795,-0.21540725231170654
0.9080026149749756,1.7777423858642578,-0.21557918190956116
0.9454188346862793,1.8201984167099,-0.21672005951404572
0.9730144143104553,1.8414102792739868,-0.21503566205501556
1.0169761180877686,1.893418550491333,-0.21679675579071045
1.0503536462783813,1.924548864364624,-0.21593636274337769
1.097773790359497,1.9789327383041382,-0.21733909845352173
1.144218921661377,2.029313802719116,-0.21798564493656158
1.1910864114761353,2.0793612003326416,-0.21819406747817993
1.2502613067626953,2.149148941040039,-0.22020389139652252
1.2951608896255493,2.191138982772827,-0.21885447204113007
1.3143174648284912,2.189432144165039,-0.21298502385616302
1.3371601104736328,2.1944446563720703,-0.20771066844463348
1.3404184579849243,2.1656689643859863,-0.19895921647548676
1.3721641302108765,2.1832115650177,-0.19448834657669067
1.3678507804870605,2.145045518875122,-0.18506374955177307
1.414298415184021,2.1852710247039795,-0.18217720091342926
1.8064453601837158,2.749065637588501,-0.22085987031459808
1.8683390617370605,2.8023366928100586,-0.2164328396320343
1.85236656665802,2.7386538982391357,-0.20290221273899078
1.8341096639633179,2.6715903282165527,-0.18913325667381287
1.8739244937896729,2.6921470165252686,-0.18166983127593994
1.437646508216858,2.0363352298736572,-0.13036789000034332
1.4566261768341064,2.032916784286499,-0.1226206049323082
1.4559979438781738,2.00496768951416,-0.11357911676168442
1.4652010202407837,1.9890276193618774,-0.1048043817281723
2.1781041622161865,3.0797972679138184,0.39663952589035034
2.1586642265319824,3.1014223098754883,0.4090051054954529
2.1540064811706543,3.1455912590026855,0.42417970299720764
2.4868948459625244,3.6874842643737793,0.5073718428611755
2.3064475059509277,3.4751031398773193,0.48723459243774414
2.2789392471313477,3.4916181564331055,0.49847346544265747
1.662620186805725,2.5865750312805176,0.37523043155670166
1.635546088218689,2.5843617916107178,0.38076210021972656
1.5782005786895752,2.5368916988372803,0.37935951352119446
3.0291080474853516,4.949946880340576,0.7505413889884949
3.0136566162109375,5.002688407897949,0.7684040069580078
2.9884626865386963,5.0428385734558105,0.7842242121696472
2.9533987045288086,5.0704498291015625,0.7978559732437134
2.932225465774536,5.120936870574951,0.8150358200073242
2.910888671875,5.166775226593018,0.8310675621032715
2.8843235969543457,5.206319808959961,0.8459750413894653
2.8648526668548584,5.263667583465576,0.8635185360908508
2.8435287475585938,5.3172287940979,0.8804612755775452
2.8248701095581055,5.373414993286133,0.8976860046386719
2.8009190559387207,5.418937683105469,0.9131284356117249
2.760084390640259,5.438089370727539,0.9235569834709167
2.758673906326294,5.5364274978637695,0.9475789070129395
1.247294545173645,2.548403263092041,0.4394049644470215
1.2155379056930542,2.5286905765533447,0.43920838832855225
1.1940213441848755,2.529618978500366,0.4424261748790741
1.1848042011260986,2.5587306022644043,0.450376957654953
1.1560800075531006,2.5456902980804443,0.4509334862232208
1.1536229848861694,2.588353157043457,0.46125996112823486
2.581094264984131,5.901268005371094,1.0579231977462769
2.547124147415161,5.93951940536499,1.0709824562072754
2.519519567489624,5.995711326599121,1.0867403745651245
2.4926257133483887,6.055369853973389,1.103270411491394
2.4651100635528564,6.110775947570801,1.1189616918563843
2.436095714569092,6.16227388381958,1.1339876651763916
2.4097490310668945,6.224731922149658,1.1512067317962646
2.377598762512207,6.27679967880249,1.1657493114471436
2.34875750541687,6.339548110961914,1.1824105978012085
2.315883159637451,6.3910980224609375,1.197036862373352
2.2863564491271973,6.449275016784668,1.2128753662109375
2.251507043838501,6.496685981750488,1.2269002199172974
2.223353624343872,6.565908432006836,1.2445709705352783
2.1923575401306152,6.631690502166748,1.2613379955291748
2.1487181186676025,6.660761833190918,1.2712323665618896
2.083062171936035,6.615836143493652,1.2669174671173096
2.0234508514404297,6.588791847229004,1.2660578489303589
1.964035153388977,6.557347297668457,1.2642854452133179
1.905078411102295,6.529558181762695,1.262473225593567
1.8473560810089111,6.5050787925720215,1.26118004322052
1.7891318798065186,6.476398468017578,1.2590916156768799
1.733574390411377,6.450651168823242,1.2575087547302246
1.6672534942626953,6.383731842041016,1.2479418516159058
0.822119414806366,3.2398595809936523,0.6351151466369629
1.5647484064102173,6.356251239776611,1.2487428188323975
0.7960257530212402,3.3362088203430176,0.6568315029144287
1.4577854871749878,6.308950424194336,1.2448089122772217
1.396734595298767,6.247186183929443,1.2353479862213135
1.3498098850250244,6.240920066833496,1.2368228435516357
1.2975491285324097,6.208030700683594,1.2330573797225952
1.2488749027252197,6.193788528442383,1.2323530912399292
1.1973282098770142,6.164198875427246,1.2284380197525024
1.1462222337722778,6.138092517852783,1.2252917289733887
1.0962375402450562,6.107583045959473,1.2212414741516113
1.046425223350525,6.072854042053223,1.2163641452789307
1.0040866136550903,6.0793137550354,1.2197785377502441
0.9577029347419739,6.062914848327637,1.2182292938232422
0.9065714478492737,6.0198798179626465,1.2109569311141968
0.8584147691726685,5.987719535827637,1.2058920860290527
0.8141301274299622,5.977926731109619,1.205370545387268
0.7714778780937195,5.975351810455322,1.2063413858413696
0.620331346988678,5.082874774932861,1.027477741241455
0.5835531949996948,5.075247764587402,1.0272270441055298
0.5577868819236755,5.177999019622803,1.0487407445907593
0.4112221598625183,4.088059425354004,0.8285845518112183
0.38239628076553345,4.0906219482421875,0.8297415375709534
0.3608073890209198,4.173059940338135,0.8471468687057495
0.3318154811859131,4.175229072570801,0.8483092188835144
0.3011340796947479,4.161960601806641,0.8463884592056274
0.2725503146648407,4.171437740325928,0.8487531542778015
0.24426451325416565,4.188406944274902,0.852458655834198
0.3976840674877167,7.75283145904541,1.578465223312378
0.34210747480392456,7.724606037139893,1.5733377933502197
0.2861842215061188,7.692180633544922,1.5674349069595337
0.2321946918964386,7.678459644317627,1.5654038190841675
0.17822499573230743,7.656721115112305,1.561750054359436
0.12420081347227097,7.619503021240234,1.5539731979370117
0.07082737982273102,7.585731029510498,1.5469765663146973
0.016895992681384087,7.555417537689209,1.5407607555389404
-0.035475634038448334,7.524726867675781,1.5345441102981567
-0.08755376189947128,7.505156993865967,1.530669093132019
-0.1389194130897522,7.466094970703125,1.5228908061981201
-0.19036506116390228,7.449734210968018,1.5193336009979248
-0.24115364253520966,7.421656608581543,1.5128904581069946
-0.29452866315841675,7.44674825668335,1.5173486471176147
-0.24766850471496582,5.326402187347412,1.084897518157959
-0.288547545671463,5.397324085235596,1.0989799499511719
-0.3260365426540375,5.395334243774414,1.0982648134231567
-0.36248207092285156,5.377806663513184,1.0944405794143677
-0.39915093779563904,5.3601298332214355,1.0899782180786133
-0.4345715045928955,5.3384599685668945,1.084670901298523
-0.4164734482765198,4.713960647583008,0.9570344686508179
-0.43934133648872375,4.608301639556885,0.9348902106285095
-0.47061458230018616,4.597766399383545,0.9321033358573914
-0.4997847378253937,4.564126014709473,0.9246731400489807
-0.5296463966369629,4.545622825622559,0.9201729893684387
-0.5599095821380615,4.5346479415893555,0.9168003797531128
-0.5930707454681396,4.546252727508545,0.9180324077606201
-0.6206803917884827,4.515873432159424,0.9108325242996216
-0.6493593454360962,4.488995552062988,0.9043641686439514
-0.6828832030296326,4.4998908042907715,0.905569851398468
-0.7093758583068848,4.4651288986206055,0.8976346254348755
-0.7387744188308716,4.453053951263428,0.8938096165657043
-0.7692461609840393,4.44837760925293,0.8913901448249817
-0.7942573428153992,4.413314342498779,0.8829331994056702
-0.8252936005592346,4.40811014175415,0.8804634213447571
-0.7162209749221802,3.6840078830718994,0.7346855998039246
-0.7358247637748718,3.6492674350738525,0.7266513109207153
-0.756337583065033,3.6220126152038574,0.7199608087539673
-0.9299663305282593,4.3069748878479,0.8542816042900085
-0.9698373079299927,4.345937252044678,0.860167920589447
-0.997904896736145,4.332299709320068,0.8556885719299316
-1.0245260000228882,4.310912132263184,0.8497005105018616
-1.0527230501174927,4.296811103820801,0.8451991081237793
-1.0788606405258179,4.275101661682129,0.8391873240470886
-1.1064382791519165,4.260824680328369,0.8341257572174072
-1.1373788118362427,4.261310577392578,0.8320279121398926
-1.1591955423355103,4.228260517120361,0.8234333395957947
-1.1887017488479614,4.220766067504883,0.8198080658912659
-1.2138923406600952,4.198306083679199,0.813323438167572
-1.2437291145324707,4.190276622772217,0.8096440434455872
-1.2631417512893677,4.153147220611572,0.7998672127723694
-1.2912369966506958,4.1452860832214355,0.7957744002342224
-1.316947340965271,4.129908561706543,0.7902798056602478
-1.3457815647125244,4.121409893035889,0.7860626578330994
-1.3751096725463867,4.112536430358887,0.7817641496658325
-1.3988598585128784,4.0890727043151855,0.7747669219970703
-1.4251911640167236,4.076783180236816,0.7693966627120972
-1.4500845670700073,4.060708522796631,0.763359785079956
-1.4749044179916382,4.044450283050537,0.7573249936103821
-1.4844069480895996,3.9844374656677246,0.7430724501609802
-1.529200792312622,4.017824172973633,0.7462297081947327
-1.559794306755066,4.015225410461426,0.7426092624664307
-1.5839331150054932,3.998452663421631,0.7360406517982483
-1.610798954963684,3.9886691570281982,0.730798065662384
-1.638094425201416,3.978515148162842,0.725458025932312
-1.6634728908538818,3.960627794265747,0.7186053395271301
-1.6942559480667114,3.956932544708252,0.714425802230835
-1.7179477214813232,3.939337730407715,0.7073767781257629
-1.737998366355896,3.9147162437438965,0.6990006566047668
-1.7578285932540894,3.8899738788604736,0.690657377243042
-1.782593011856079,3.8713083267211914,0.6831508278846741
-1.8164787292480469,3.873659133911133,0.6794595122337341
-1.8365075588226318,3.848217725753784,0.6706880927085876
-1.8723760843276978,3.8577818870544434,0.667809247970581
-1.8879808187484741,3.82548189163208,0.6577076315879822
-1.9152967929840088,3.8130669593811035,0.6507862210273743
-1.9421662092208862,3.800615072250366,0.6439546942710876
-1.971706509590149,3.795267105102539,0.6381134986877441
-1.9860526323318481,3.7627806663513184,0.6275301575660706
-2.01475191116333,3.7574572563171387,0.621504545211792
-2.028447151184082,3.7205429077148438,0.6099711060523987
-1.7158650159835815,3.0948421955108643,0.5027909278869629
-1.7328436374664307,3.077544927597046,0.4952004551887512
-0.844939649105072,1.4780795574188232,0.23549789190292358
-0.8550748825073242,1.4727575778961182,0.23223622143268585
-0.8576496839523315,1.4538370370864868,0.22678162157535553
-0.8718051314353943,1.4549646377563477,0.22436746954917908
-0.8853846192359924,1.4563466310501099,0.22192350029945374
-0.8829451203346252,1.4311164617538452,0.21540220081806183
-0.8931421041488647,1.425331711769104,0.21168719232082367
-0.907211422920227,1.4261702299118042,0.2089037448167801
-0.8956791758537292,1.3880674839019775,0.20032811164855957
-0.9007750153541565,1.3760517835617065,0.19557642936706543
-0.9105399250984192,1.3701777458190918,0.19155681133270264
-0.9089338779449463,1.3484631776809692,0.18529611825942993
-2.411231756210327,3.5292749404907227,0.47633811831474304
-1.2524034976959229,1.8062816858291626,0.2389080971479416
-1.2137151956558228,1.7251136302947998,0.22342175245285034
-1.3417202234268188,1.921851634979248,-0.1332756131887436
-1.431390643119812,2.287712574005127,-0.21333183348178864
-1.3592149019241333,2.208045721054077,-0.2125931978225708
-1.2852537631988525,2.155858278274536,-0.22007988393306732
-0.8139125108718872,1.411828637123108,-0.15210063755512238
-0.817322850227356,1.440764307975769,-0.15901397168636322
-1.098657250404358,1.9688894748687744,-0.2224479764699936
-1.0504505634307861,1.914934515953064,-0.22130607068538666
-1.0200282335281372,1.89102041721344,-0.22329260408878326
-0.9645093679428101,1.8187408447265625,-0.21930943429470062
-0.9099332094192505,1.7458975315093994,-0.21475492417812347
-0.9041852355003357,1.7657302618026733,-0.221441388130188
-0.8741747736930847,1.7368286848068237,-0.22184644639492035
-0.8428454399108887,1.7041542530059814,-0.22159640491008759
-0.8132063150405884,1.6748719215393066,-0.22164054214954376
-0.7810215950012207,1.6381251811981201,-0.22043636441230774
-0.7512927651405334,1.6044330596923828,-0.21940122544765472
-0.7332944869995117,1.5951272249221802,-0.2215621918439865
-0.7152923345565796,1.585731029510498,-0.22360984981060028
-0.6929136514663696,1.5654737949371338,-0.22401124238967896
-0.6785377264022827,1.5627585649490356,-0.22687765955924988
-0.6461083292961121,1.517162799835205,-0.22330515086650848
-0.6351319551467896,1.5212570428848267,-0.22691068053245544
-0.6110585331916809,1.492998480796814,-0.2256067544221878
-0.5918225049972534,1.4752299785614014,-0.22577184438705444
-0.5782485604286194,1.4717743396759033,-0.2280665636062622
-0.5565353035926819,1.446529507637024,-0.22682441771030426
-0.5462031960487366,1.4499601125717163,-0.23001305758953094
-0.5159053206443787,1.3989152908325195,-0.22444631159305573
-0.5111851692199707,1.4165986776351929,-0.22978267073631287
0.5442837476730347,1.4221272468566895,-0.22365793585777283
0.551392138004303,1.4115772247314453,-0.2194150984287262
0.5640627145767212,1.4153786897659302,-0.21737033128738403
0.587089478969574,1.4441255331039429,-0.21907135844230652
0.6152458190917969,1.483262300491333,-0.22214935719966888
0.628602921962738,1.4865723848342896,-0.21976418793201447
0.6496202349662781,1.507582187652588,-0.21989360451698303
0.6695063710212708,1.5247929096221924,-0.219357430934906
0.686617374420166,1.5346853733062744,-0.21767428517341614
0.7184063792228699,1.576142430305481,-0.22025151550769806
0.7358099222183228,1.5857460498809814,-0.21827982366085052
0.7568426132202148,1.6021316051483154,-0.21713173389434814
0.7749086022377014,1.6112573146820068,-0.21489526331424713
0.8048701882362366,1.6447030305862427,-0.2157547026872635
0.8371506929397583,1.6812666654586792,-0.21675826609134674
0.8682241439819336,1.714012622833252,-0.21709975600242615
0.90167635679245,1.749821424484253,-0.21762508153915405
0.9299427270889282,1.7751110792160034,-0.21663616597652435
0.9676503539085388,1.8172873258590698,-0.21751640737056732
0.9934094548225403,1.8349390029907227,-0.2151709645986557
1.0478101968765259,1.9032764434814453,-0.21843644976615906
1.0930378437042236,1.9543837308883667,-0.21943724155426025
1.1237486600875854,1.9778778553009033,-0.21708694100379944
1.1649627685546875,2.0176706314086914,-0.21618619561195374
1.2202417850494385,2.0806727409362793,-0.21746066212654114
1.280342698097229,2.1497786045074463,-0.2188733071088791
1.3154914379119873,2.1747565269470215,-0.21541231870651245
1.3328496217727661,2.169412851333618,-0.2087787240743637
1.3638960123062134,2.1874918937683105,-0.20430245995521545
1.37051522731781,2.1655941009521484,-0.19594937562942505
1.3776518106460571,2.143225908279419,-0.18731281161308289
1.385703682899475,2.1247124671936035,-0.17920126020908356
1.7870807647705078,2.7009871006011963,-0.21939781308174133
1.8734911680221558,2.789393901824951,-0.21740376949310303
1.811029314994812,2.6582581996917725,-0.19836962223052979
1.866737961769104,2.701158046722412,-0.19226674735546112
1.8835548162460327,2.685433864593506,-0.18143396079540253
1.4355946779251099,2.018697500228882,-0.12904568016529083
1.4582840204238892,2.022153854370117,-0.12160058319568634
1.4678384065628052,2.0060720443725586,-0.1125560998916626
1.4760947227478027,1.9907619953155518,-0.10361616313457489
2.1875827312469482,3.070934295654297,0.41286203265190125
2.1674399375915527,3.092980146408081,0.4261658191680908
2.149531841278076,3.113328218460083,0.43827763199806213
2.1409637928009033,3.1505215167999268,0.4526636004447937
2.4217262268066406,3.623663902282715,0.5309348106384277
2.2975945472717285,3.4903252124786377,0.5202723145484924
1.517051339149475,2.341517925262451,0.35497045516967773
1.6047673225402832,2.5188698768615723,0.3878988027572632
1.627004623413086,2.5952847003936768,0.4055703282356262
3.0459654331207275,4.934733867645264,0.7818468809127808
3.0065996646881104,4.9521260261535645,0.7949143648147583
2.985238790512085,5.0034050941467285,0.8134906888008118
2.9721763134002686,5.062982559204102,0.8328080773353577
2.957286834716797,5.1187944412231445,0.8514789342880249
2.9112181663513184,5.125298976898193,0.8615891337394714
2.9057788848876953,5.206117153167725,0.884117066860199
2.868722438812256,5.228984832763672,0.8967320919036865
2.8534815311431885,5.288055896759033,0.9152650237083435
2.832921266555786,5.340860843658447,0.932604193687439
2.8119797706604004,5.397870063781738,0.9504165053367615
2.774878978729248,5.423736572265625,0.9627934694290161
2.768559694290161,5.507201194763184,0.985248327255249
2.746507167816162,5.559360027313232,1.002156138420105
1.236480951309204,2.549532175064087,0.4627942144870758
1.2073462009429932,2.53702449798584,0.46364524960517883
1.1805492639541626,2.527531147003174,0.46495166420936584
1.170666217803955,2.552530527114868,0.4725189208984375
1.1649036407470703,2.588165044784546,0.4821852743625641
1.1425940990447998,2.588900089263916,0.48503103852272034
2.5629379749298096,5.9243950843811035,1.1160765886306763
2.5315778255462646,5.969572067260742,1.1306898593902588
2.5086050033569336,6.031763553619385,1.148445963859558
2.481224298477173,6.087038993835449,1.1651325225830078
2.4510979652404785,6.139007568359375,1.1806057691574097
2.419771194458008,6.191089153289795,1.195981502532959
2.383686065673828,6.232241153717041,1.2093636989593506
2.3612256050109863,6.3048930168151855,1.228758692741394
2.3304293155670166,6.359729766845703,1.2449228763580322
2.3031797409057617,6.425217151641846,1.2629621028900146
2.2725179195404053,6.487551689147949,1.2798515558242798
2.2373335361480713,6.538852214813232,1.2946925163269043
2.208542585372925,6.607876777648926,1.3130838871002197
2.1732587814331055,6.658446788787842,1.3279067277908325
2.1148810386657715,6.635469436645508,1.3280459642410278
2.0502946376800537,6.594083309173584,1.3239470720291138
1.9913145303726196,6.570751190185547,1.323096752166748
1.9316929578781128,6.543243408203125,1.3214294910430908
1.8746657371520996,6.5186448097229,1.3202873468399048
1.8178085088729858,6.49364709854126,1.3191101551055908
1.7591989040374756,6.456885814666748,1.3154890537261963
1.6982877254486084,6.4125895500183105,1.3097152709960938
0.8370082974433899,3.2544655799865723,0.6662191152572632
1.5751591920852661,6.31157112121582,1.2950475215911865
0.8053795695304871,3.328381299972534,0.6845558881759644
1.4871238470077515,6.338674068450928,1.3067429065704346
1.429976224899292,6.291886329650879,1.3001823425292969
1.3754297494888306,6.25607442855835,1.2953732013702393
1.3258702754974365,6.242438793182373,1.2948018312454224
1.2703006267547607,6.202335834503174,1.2888280153274536
1.2189795970916748,6.172788143157959,1.2850091457366943
1.1730453968048096,6.165285587310791,1.2857898473739624
1.1183172464370728,6.108516693115234,1.2763277292251587
1.0727416276931763,6.100392818450928,1.276784062385559
1.0203837156295776,6.058300495147705,1.269577145576477
0.9749151468276978,6.049659252166748,1.2694001197814941
0.9273617267608643,6.025550365447998,1.266026258468628
0.8825434446334839,6.012339115142822,1.2649632692337036
0.8364350199699402,5.987429141998291,1.2614835500717163
0.787966251373291,5.94710111618042,1.2548264265060425
0.7460329532623291,5.952062129974365,1.2569341659545898
0.5949857831001282,5.034191608428955,1.0639891624450684
0.5683166980743408,5.117685317993164,1.082590103149414
0.5407964587211609,5.2010087966918945,1.1012312173843384
0.39581236243247986,4.082005023956299,0.8651320338249207
0.3685806393623352,4.103443622589111,0.8705708980560303
0.34626099467277527,4.181842803955078,0.887893557548523
0.3157309889793396,4.168755531311035,0.8854719400405884
0.2849261462688446,4.147819995880127,0.8814228177070618
0.25814440846443176,4.187685489654541,0.8903400301933289
0.4236876368522644,7.768014430999756,1.6524653434753418
0.3682210445404053,7.739920616149902,1.6474642753601074
0.3131655752658844,7.711435794830322,1.642451524734497
0.25839757919311523,7.686575889587402,1.6373683214187622
0.20353132486343384,7.642276763916016,1.627997875213623
0.14862553775310516,7.612887859344482,1.6218851804733276
0.09539438784122467,7.598374366760254,1.6190173625946045
0.04235360026359558,7.564388751983643,1.6120765209197998
-0.010225360281765461,7.541496276855469,1.6075751781463623
-0.06241525337100029,7.510636329650879,1.601264476776123
-0.11507770419120789,7.4834160804748535,1.5948688983917236
-0.16658011078834534,7.459663391113281,1.5893034934997559
-0.21789534389972687,7.443196773529053,1.5853701829910278
-0.2690761089324951,7.4263739585876465,1.581438422203064
-0.3223418593406677,7.462640762329102,1.5888876914978027
-0.2709769010543823,5.403520584106445,1.1503334045410156
-0.30860963463783264,5.394040107727051,1.1478040218353271
-0.3444201946258545,5.369164943695068,1.141684889793396
-0.38017258048057556,5.347862720489502,1.1363862752914429
-0.41653889417648315,5.3377509117126465,1.13352370262146
-0.451086163520813,5.304524898529053,1.125807285308838
-0.42616987228393555,4.624037742614746,0.9808467030525208
-0.45608019828796387,4.598369121551514,0.9749234318733215
-0.4869770407676697,4.587862014770508,0.9716607928276062
-0.5177186131477356,4.5771636962890625,0.9683406949043274
-0.5465126037597656,4.551074981689453,0.9618172645568848
-0.5785378217697144,4.547482013702393,0.9600787162780762
-0.6081410646438599,4.528549671173096,0.9551626443862915
-0.6369218826293945,4.505643367767334,0.9494627118110657
-0.6669459939002991,4.493966102600098,0.9459658861160278
-0.695347249507904,4.474666118621826,0.9404681921005249
-0.7265206575393677,4.470205307006836,0.9381135106086731
-0.7520474195480347,4.43543004989624,0.9294735789299011
-0.7815709710121155,4.423042297363281,0.9255613684654236
-0.8096240758895874,4.402921676635742,0.920080304145813
-0.8367161750793457,4.378861427307129,0.9138304591178894
-0.7238476276397705,3.65281081199646,0.7608917355537415
-0.7507852911949158,3.6556973457336426,0.7599886059761047
-0.9221153259277344,4.3399977684021,0.9005347490310669
-0.9521058201789856,4.334122180938721,0.8976198434829712
-0.9839924573898315,4.335456371307373,0.8962251543998718
-1.0089550018310547,4.306726455688477,0.8886647820472717
-1.0373352766036987,4.2927680015563965,0.883884608745575
-1.0683608055114746,4.293765544891357,0.8819222450256348
-1.0937453508377075,4.272269248962402,0.8753839731216431
-1.121066689491272,4.2579755783081055,0.8703569173812866
-1.148790955543518,4.243368625640869,0.8652755618095398
-1.1778937578201294,4.232142925262451,0.8608969449996948
-1.2009165287017822,4.202498435974121,0.85271817445755
-1.2315161228179932,4.202449798583984,0.8501476049423218
-1.255592703819275,4.180126190185547,0.8431106209754944
-1.284022331237793,4.17230224609375,0.839038074016571
-1.309091329574585,4.149271011352539,0.8318428993225098
-1.3334214687347412,4.126224517822266,0.824745237827301
-1.3596714735031128,4.110414028167725,0.8190429210662842
-1.3923280239105225,4.116605758666992,0.8172870874404907
-1.4151335954666138,4.093500137329102,0.8097475171089172
-1.4429699182510376,4.084696292877197,0.805067241191864
-1.4721089601516724,4.075252532958984,0.8001567125320435
-1.491378903388977,4.040531158447266,0.790393054485321
-1.5139201879501343,4.016683101654053,0.7826381921768188
-1.540981650352478,4.00739860534668,0.7774040699005127
-1.5539467334747314,3.9621331691741943,0.7652559280395508
-1.6015708446502686,4.0022077560424805,0.7694973349571228
-1.6267623901367188,3.9847779273986816,0.7626584768295288
-1.6547046899795532,3.9743001461029053,0.7571988701820374
-1.6786787509918213,3.956969738006592,0.750101625919342
-1.7082363367080688,3.9537973403930664,0.7455700039863586
-1.7351986169815063,3.9431660175323486,0.7395880222320557
-1.7471765279769897,3.8968629837036133,0.7268635630607605
-1.765093207359314,3.864529848098755,0.7168234586715698
-1.801626205444336,3.874298334121704,0.7144589424133301
-1.8341702222824097,3.87726092338562,0.7104810476303101
-1.860587477684021,3.865873336791992,0.7038127183914185
-1.884115219116211,3.8471150398254395,0.6957437992095947
-1.9078713655471802,3.828019857406616,0.6875948309898376
-1.9345970153808594,3.815835475921631,0.680608332157135
-1.9565272331237793,3.797246217727661,0.6721535325050354
-1.9818705320358276,3.785357713699341,0.664924144744873
-1.9977840185165405,3.7521016597747803,0.6536902785301208
-2.0150961875915527,3.7222113609313965,0.6431421041488647
-1.6999439001083374,3.0901851654052734,0.5293386578559875
-1.7279136180877686,3.093471050262451,0.525071382522583
-1.716025948524475,3.025879383087158,0.5088484287261963
-0.8380584716796875,1.4536831378936768,0.2419661581516266
-0.860120415687561,1.4682554006576538,0.24191069602966309
-0.8580108880996704,1.443120002746582,0.23517386615276337
-0.8795328736305237,1.4578522443771362,0.23492588102817535
-0.8856490254402161,1.445665955543518,0.23017968237400055
-0.8961292505264282,1.4398000240325928,0.2263518124818802
-0.8975198268890381,1.4212396144866943,0.22050030529499054
-0.9026577472686768,1.4093769788742065,0.21568939089775085
-0.8998001217842102,1.3841608762741089,0.20871582627296448
-0.9054331183433533,1.3718143701553345,0.20366625487804413
-0.9405550360679626,1.4049615859985352,0.20511895418167114
-2.402585983276367,3.5402441024780273,0.5081676840782166
-1.349504828453064,1.9312732219696045,0.2666580080986023
-1.3587861061096191,2.1897709369659424,-0.21372026205062866
-1.3468379974365234,2.205503225326538,-0.22208565473556519
-1.2626953125,2.1010234355926514,-0.21797820925712585
-1.2232794761657715,2.069422960281372,-0.22084732353687286
-0.8340925574302673,1.4577676057815552,-0.1638890653848648
-1.0712456703186035,1.9036134481430054,-0.2192833423614502
-1.0399290323257446,1.880319595336914,-0.2218569815158844
-1.0079154968261719,1.8528879880905151,-0.22349713742733002
-0.9671877026557922,1.8079873323440552,-0.22279123961925507
-0.9267541766166687,1.7628363370895386,-0.22175368666648865
-0.8960754871368408,1.7343947887420654,-0.22256244719028473
-0.8694576621055603,1.7124942541122437,-0.22403453290462494
-0.8276506066322327,1.659069299697876,-0.22107234597206116
-0.8120712041854858,1.6574876308441162,-0.22483447194099426
-0.7749262452125549,1.6102571487426758,-0.2222032994031906
-0.7468950748443604,1.5800799131393433,-0.22169406712055206
-0.7289173007011414,1.5707858800888062,-0.2239529937505722
-0.706012487411499,1.550862431526184,-0.2246634066104889
-0.6854871511459351,1.5340476036071777,-0.22558698058128357
-0.6683948636054993,1.5240966081619263,-0.22743768990039825
-0.6421037316322327,1.4927542209625244,-0.22591568529605865
-0.6237846612930298,1.478964924812317,-0.22693754732608795
-0.6071621775627136,1.4685723781585693,-0.2284281998872757
-0.5764074921607971,1.422126293182373,-0.22412897646427155
-0.5661489367485046,1.425704836845398,-0.22751633822917938
-0.5516628623008728,1.4184051752090454,-0.2291470766067505
-0.5333378911018372,1.4000970125198364,-0.2289058417081833
0.5658473968505859,1.40538489818573,-0.22234347462654114
0.5785694718360901,1.409087896347046,-0.22009581327438354
0.6018034815788269,1.4376620054244995,-0.2216426283121109
0.6180030107498169,1.4481546878814697,-0.22027941048145294
0.6284394264221191,1.4442081451416016,-0.2166323959827423
0.6510438919067383,1.4686462879180908,-0.21717490255832672
0.6787511110305786,1.5034613609313965,-0.2190999835729599
0.7022961974143982,1.527349591255188,-0.21924340724945068
0.7229647636413574,1.5439555644989014,-0.2182312160730362
0.755545437335968,1.5848729610443115,-0.22038543224334717
0.7664906978607178,1.5801931619644165,-0.21615378558635712
0.7982161045074463,1.6170647144317627,-0.21744921803474426
0.8253152370452881,1.643166422843933,-0.21712292730808258
0.8577830195426941,1.6795179843902588,-0.21792878210544586
0.8854008913040161,1.7051924467086792,-0.21718333661556244
0.9158472418785095,1.733710765838623,-0.21643392741680145
0.9556306004524231,1.779149055480957,-0.2176591157913208
0.9938725233078003,1.820923089981079,-0.2181556075811386
1.019661545753479,1.838422417640686,-0.21552446484565735
1.072751760482788,1.9029064178466797,-0.21805384755134583
1.1170663833618164,1.9499460458755493,-0.2181507647037506
1.1713740825653076,2.013558864593506,-0.21984483301639557
1.2151579856872559,2.0562193393707275,-0.2187596559524536
1.2677299976348877,2.1116526126861572,-0.21866250038146973
1.3103312253952026,2.1502628326416016,-0.21649104356765747
1.3396462202072144,2.16495680809021,-0.21151627600193024
1.3674249649047852,2.1758835315704346,-0.2059353142976761
1.3780790567398071,2.160616159439087,-0.19784501194953918
1.3777644634246826,2.1290791034698486,-0.1883522868156433
1.3992328643798828,2.129711627960205,-0.18139566481113434
1.792441487312317,2.6879868507385254,-0.2198764830827713
1.8517253398895264,2.7381772994995117,-0.2148381918668747
1.800413966178894,2.622993230819702,-0.19639864563941956
1.894065260887146,2.7201895713806152,-0.19380708038806915
1.9029678106307983,2.69564151763916,-0.18218229711055756
1.456516981124878,2.0325896739959717,-0.12916508316993713
1.4470666646957397,1.9918287992477417,-0.11861880123615265
1.4649975299835205,1.9888877868652344,-0.11016785353422165
2.1831908226013184,3.0891165733337402,0.44319799542427063
2.159522771835327,3.103942632675171,0.45539820194244385
2.149744987487793,3.1418557167053223,0.47091153264045715
1.533255934715271,2.2753069400787354,0.3475421965122223
1.5334075689315796,2.311278820037842,0.3593905568122864
1.5150539875030518,2.3221237659454346,0.3672345280647278
1.550023078918457,2.413595199584961,0.38768208026885986
1.623647689819336,2.567387104034424,0.4184964597225189
1.5871310234069824,2.5524775981903076,0.42195501923561096
3.0253796577453613,4.948922157287598,0.8291676640510559
3.001681327819824,4.988161087036133,0.8459558486938477
2.981605052947998,5.03386116027832,0.8639473915100098
2.9718945026397705,5.104493618011475,0.88578200340271
2.9393537044525146,5.13875150680542,0.9016355276107788
2.9100677967071533,5.170948028564453,0.9163452386856079
2.8899667263031006,5.219756603240967,0.9340823292732239
2.8543341159820557,5.245956897735596,0.9473157525062561
2.8360800743103027,5.306220531463623,0.9666758179664612
2.81082820892334,5.352358341217041,0.9834304451942444
2.795719623565674,5.414642810821533,1.002929925918579
2.7756552696228027,5.470442295074463,1.0212000608444214
2.7617881298065186,5.544354438781738,1.0424749851226807
1.2398501634597778,2.5358495712280273,0.48022592067718506
1.214722990989685,2.529994487762451,0.48241323232650757
1.196732997894287,2.537656545639038,0.48710864782333374
1.1750255823135376,2.538425922393799,0.49032893776893616
1.1559889316558838,2.5462961196899414,0.4947504699230194
1.1556631326675415,2.596174716949463,0.5074101686477661
2.5775434970855713,5.900991439819336,1.159745693206787
2.547079086303711,5.945738792419434,1.175130009651184
2.5146098136901855,5.986859321594238,1.1894896030426025
2.4964866638183594,6.067479610443115,1.2112668752670288
2.464322805404663,6.116069793701172,1.2268152236938477
2.4345438480377197,6.167501449584961,1.2428619861602783
2.4054722785949707,6.22238826751709,1.2597465515136719
2.3778274059295654,6.2804789543151855,1.277324914932251
2.3462870121002197,6.335694313049316,1.2935467958450317
2.315314769744873,6.394381999969482,1.310588002204895
2.285275459289551,6.456411838531494,1.328413963317871
2.2490432262420654,6.499924659729004,1.342465877532959
2.2266767024993896,6.582903861999512,1.3647181987762451
2.1917951107025146,6.633359432220459,1.3800543546676636
2.1458327770233154,6.654915809631348,1.3888144493103027
2.0812125205993652,6.617696285247803,1.3853600025177002
2.020545482635498,6.590911388397217,1.3841099739074707
1.9566205739974976,6.544801712036133,1.3786500692367554
1.9009391069412231,6.52386999130249,1.378502368927002
1.8460310697555542,6.506444454193115,1.3786590099334717
1.7835839986801147,6.463059902191162,1.3728080987930298
1.7248352766036987,6.430217742919922,1.3692166805267334
1.667549729347229,6.4005961418151855,1.3663430213928223
0.8174481391906738,3.229562520980835,0.6911203265190125
1.5568575859069824,6.335501194000244,1.359174132347107
1.5085545778274536,6.330345630645752,1.361141562461853
1.4614286422729492,6.332547187805176,1.3641748428344727
1.4010164737701416,6.278608798980713,1.3552038669586182
1.3482167720794678,6.250082969665527,1.3516809940338135
1.2951635122299194,6.213498115539551,1.3463977575302124
1.2449477910995483,6.187726974487305,1.3434898853302002
1.192857265472412,6.150362491607666,1.337971568107605
1.1461256742477417,6.146816253662109,1.3390566110610962
1.0927972793579102,6.101451873779297,1.3310518264770508
1.0467087030410767,6.093277931213379,1.3312042951583862
0.9961056113243103,6.05072021484375,1.3238495588302612
0.9526807069778442,6.049249649047852,1.325530767440796
0.9040339589118958,6.017368316650391,1.3206348419189453
0.8589246869087219,6.004108905792236,1.3191512823104858
0.8102124929428101,5.964122772216797,1.3116108179092407
0.7650319337844849,5.946467399597168,1.309032678604126
0.6155179142951965,5.0647430419921875,1.1160887479782104
0.5793543457984924,5.060880661010742,1.1164352893829346
0.5536261200904846,5.159248352050781,1.1394333839416504
0.405329167842865,4.042746067047119,0.8937616348266602
0.380417138338089,4.083256721496582,0.9031823873519897
0.3585537075996399,4.165415287017822,0.9218747019767761
0.3298451602458954,4.17520809173584,0.9246074557304382
0.29749250411987305,4.139163494110107,0.9172362089157104
0.2692028880119324,4.148515701293945,0.9199529886245728
0.449972003698349,7.770893573760986,1.7245241403579712
0.3943999409675598,7.746902942657471,1.7198634147644043
0.3384649157524109,7.71120023727417,1.7121962308883667
0.28280365467071533,7.690369129180908,1.7079181671142578
0.2282373309135437,7.66530179977417,1.7027757167816162
0.17439407110214233,7.636029243469238,1.6967740058898926
0.1208789274096489,7.606382846832275,1.6907676458358765
0.0678180605173111,7.580176830291748,1.6856027841567993
0.014194938354194164,7.5500168800354,1.6785705089569092
-0.038113899528980255,7.534757614135742,1.6748368740081787
-0.09002338349819183,7.4962568283081055,1.6660195589065552
-0.14176100492477417,7.476463794708252,1.6614418029785156
-0.19293148815631866,7.4448771476745605,1.6543246507644653
-0.24400703608989716,7.42056131362915,1.6489033699035645
-0.29709407687187195,7.434021472930908,1.651706337928772
-0.25189992785453796,5.3712263107299805,1.1926730871200562
-0.2898992598056793,5.384814262390137,1.1950281858444214
-0.3267730176448822,5.375289440155029,1.1923091411590576
