X,Y,Z
-1.3737852573394775,3.713742733001709,0.5933750867843628
-1.3962275981903076,3.697762966156006,0.5881007313728333
-1.4211260080337524,3.688931703567505,0.5839082598686218
-1.4402788877487183,3.6655526161193848,0.5774542689323425
-1.4532579183578491,3.6236588954925537,0.5680047869682312
-1.464013695716858,3.5782625675201416,0.5581142902374268
-1.4678715467453003,3.518773317337036,0.5460060238838196
-1.4914461374282837,3.5095441341400146,0.5415005087852478
-1.5211068391799927,3.5143516063690186,0.5391727685928345
-1.5518181324005127,3.5185396671295166,0.5366302728652954
-1.625672459602356,3.617684841156006,0.5484593510627747
-1.660646915435791,3.6280643939971924,0.5467167496681213
-1.6880985498428345,3.6247003078460693,0.5425463318824768
-1.7139496803283691,3.6176156997680664,0.537827730178833
-1.7523871660232544,3.6343815326690674,0.5365204811096191
-1.7813668251037598,3.6297171115875244,0.531968355178833
-2.685947895050049,5.378408432006836,0.7825058102607727
-2.712899923324585,5.344408988952637,0.7713227868080139
-4.912291526794434,9.52198314666748,1.3631240129470825
-2.7667267322540283,5.275535583496094,0.7488893866539001
-2.7971537113189697,5.2432098388671875,0.7376928925514221
-2.8443422317504883,5.245532512664795,0.7313483357429504
-1.1878598928451538,2.1570794582366943,0.29786211252212524
-1.1774711608886719,2.1057136058807373,0.28794682025909424
-2.526233673095703,4.445522785186768,0.601567268371582
-2.544512987136841,4.404929161071777,0.5896193981170654
-6.04443883895874,10.308298110961914,1.3640917539596558
-1.272430658340454,2.1382832527160645,0.2796635329723358
-1.2489482164382935,2.066936492919922,0.26698794960975647
-2.943540096282959,4.795734882354736,0.6114457845687866
-2.959672212600708,4.750601291656494,0.5972570180892944
-2.9781692028045654,4.712808132171631,0.5841478705406189
-3.014686346054077,4.700148105621338,0.5737594366073608
-3.0394704341888428,4.667019367218018,0.5606281757354736
-3.0506343841552734,4.619246006011963,0.5455303192138672
-3.059379816055298,4.568115711212158,0.529975414276123
-3.082839012145996,4.534965515136719,0.5159379243850708
-3.102668523788452,4.499238014221191,0.501537561416626
-3.126931667327881,4.474313259124756,0.48821672797203064
-2.862586736679077,4.038415431976318,0.43043118715286255
-2.87971568107605,4.003632068634033,0.4158526659011841
-2.921032190322876,4.008666038513184,0.40539124608039856
-2.927339553833008,3.961932897567749,0.3889274597167969
-2.48494553565979,3.4808740615844727,-0.19407092034816742
-2.4460856914520264,3.478978395462036,-0.20577217638492584
-2.879991054534912,4.160131454467773,-0.2596726417541504
-2.3146207332611084,3.3976521492004395,-0.22298653423786163
-2.2275424003601074,3.319261312484741,-0.2276461124420166
-2.2434580326080322,3.3969099521636963,-0.24290242791175842
-2.2135426998138428,3.406385898590088,-0.25339093804359436
-2.1537299156188965,3.3653314113616943,-0.25933945178985596
-2.1285173892974854,3.3805429935455322,-0.2694605588912964
-1.2724107503890991,2.0537502765655518,-0.16899383068084717
-1.2193408012390137,1.999000906944275,-0.16939161717891693
-2.088000774383545,3.4807419776916504,-0.3035305142402649
-2.0958595275878906,3.552257537841797,-0.3182505965232849
-2.0902645587921143,3.5998051166534424,-0.3306763470172882
-1.2009828090667725,2.1028225421905518,-0.19788506627082825
-2.5937204360961914,4.619393825531006,-0.44496381282806396
-1.8490837812423706,3.3491029739379883,-0.32985004782676697
-1.8345915079116821,3.3784008026123047,-0.33979031443595886
-1.8097459077835083,3.3909425735473633,-0.34799838066101074
-1.7994376420974731,3.430755853652954,-0.3590303063392639
-1.7858644723892212,3.4632740020751953,-0.36919623613357544
-2.443920612335205,4.824609756469727,-0.5237672328948975
-2.4155032634735107,4.855074405670166,-0.5362681746482849
-2.390834093093872,4.8920369148254395,-0.5494105219841003
-2.3747572898864746,4.946113109588623,-0.564457893371582
-1.7161622047424316,3.6405997276306152,-0.4219217002391815
-1.6847400665283203,3.6415088176727295,-0.42842531204223633
-1.6583836078643799,3.652679920196533,-0.43609732389450073
-1.637378215789795,3.6740024089813232,-0.4448562264442444
-1.6139881610870361,3.691920042037964,-0.45305588841438293
-2.0154430866241455,4.70134973526001,-0.5845573544502258
-1.9444748163223267,4.624954700469971,-0.5824097394943237
-1.9231081008911133,4.666320323944092,-0.5951068997383118
-1.8416045904159546,4.56022310256958,-0.5884761810302734
-1.8229786157608032,4.608334541320801,-0.6016148924827576
-1.3308067321777344,3.434300184249878,-0.4534226953983307
-1.306596279144287,3.442765712738037,-0.45959582924842834
-1.7321317195892334,4.664771556854248,-0.6293802857398987
-2.013495683670044,5.542722702026367,-0.7555118203163147
-0.961158037185669,2.7047770023345947,-0.3723806142807007
-0.8671121597290039,2.49499773979187,-0.3468891978263855
-0.8506519198417664,2.5041861534118652,-0.35142502188682556
-0.8190233111381531,2.4693164825439453,-0.34971606731414795
-0.8134341835975647,2.511333465576172,-0.35882893204689026
-0.7969794869422913,2.520108461380005,-0.3632270097732544
-0.7814986705780029,2.532504081726074,-0.3680869936943054
-0.7723942995071411,2.5670993328094482,-0.37606680393218994
-0.7585225701332092,2.586818218231201,-0.38193100690841675
-0.7559476494789124,2.6473941802978516,-0.39395126700401306
-0.7456412315368652,2.681875705718994,-0.402141809463501
-0.7306393980979919,2.7014997005462646,-0.40786775946617126
-0.7114646434783936,2.7060844898223877,-0.4113589823246002
-0.6972100734710693,2.7292096614837646,-0.4176838994026184
-0.6730908155441284,2.7148189544677734,-0.41832810640335083
-0.6575646996498108,2.734015941619873,-0.4238855838775635
-0.6426189541816711,2.7569117546081543,-0.42995017766952515
-0.6282969117164612,2.783475637435913,-0.43663761019706726
-0.6138069033622742,2.809927463531494,-0.44334763288497925
-0.5969982743263245,2.8288333415985107,-0.44887638092041016
-0.5825161933898926,2.8589820861816406,-0.45589902997016907
-0.5639194846153259,2.870122194290161,-0.4599396884441376
-0.5510019659996033,2.9114530086517334,-0.4688693881034851
-0.5320285558700562,2.922360897064209,-0.4729561507701874
-0.5144650936126709,2.94466233253479,-0.47864386439323425
-0.49502164125442505,2.955410957336426,-0.48236092925071716
-0.4755455553531647,2.9660146236419678,-0.48607930541038513
-0.46068641543388367,3.006965160369873,-0.494818776845932
-0.4419148862361908,3.024975061416626,-0.49971163272857666
-0.42514994740486145,3.0620615482330322,-0.5074858665466309
-0.6559129357337952,4.979048728942871,-0.8278653025627136
-0.6264275312423706,5.025010108947754,-0.838229775428772
-0.5319736003875732,4.523525238037109,-0.7570601105690002
-0.5003499388694763,4.5267133712768555,-0.7595646977424622
-0.4944561719894409,4.778804302215576,-0.8038023114204407
-0.47194600105285645,4.900647163391113,-0.8263537883758545
-0.43207842111587524,4.8381571769714355,-0.8178398609161377
-0.3880310356616974,4.713974952697754,-0.798675000667572
-0.34973224997520447,4.643307685852051,-0.7879476547241211
-0.3200496733188629,4.683774948120117,-0.7961084246635437
-0.2840065360069275,4.639515399932861,-0.7899301648139954
-0.24998846650123596,4.610342979431152,-0.7863144874572754
-0.2173120677471161,4.60024881362915,-0.7854302525520325
-0.18536026775836945,4.605356693267822,-0.7869304418563843
-0.15082372725009918,4.533275604248047,-0.7752686142921448
-0.11996534466743469,4.580272674560547,-0.7840160727500916
-0.08670414984226227,4.507731914520264,-0.7722134590148926
-0.05637378618121147,4.589062690734863,-0.7861233949661255
-0.024203337728977203,4.5431318283081055,-0.7782704830169678
0.007283368147909641,4.493127822875977,-0.7697566151618958
0.03666361793875694,4.219603538513184,-0.7229824066162109
0.06435719132423401,4.1153645515441895,-0.7048265933990479
0.09164831787347794,4.057186603546143,-0.6943134069442749
0.12151233851909637,4.1142897605896,-0.7035630941390991
0.1530490517616272,4.194261074066162,-0.7167397737503052
0.1800197809934616,4.1431965827941895,-0.7075514793395996
0.2155301719903946,4.265117645263672,-0.7271973490715027
0.2422686517238617,4.2137675285339355,-0.7173364162445068
0.2680897116661072,4.158403396606445,-0.706852376461029
0.2962051033973694,4.14513635635376,-0.7035735845565796
0.3232237696647644,4.120213031768799,-0.6980404853820801
0.35927146673202515,4.198764324188232,-0.7096285223960876
0.40265020728111267,4.34994649887085,-0.7334637641906738
0.2405070811510086,2.41521954536438,-0.4063056707382202
0.2548600733280182,2.3906972408294678,-0.4012730121612549
0.4767879247665405,4.19627571105957,-0.7021706104278564
0.5230449438095093,4.330996513366699,-0.7224076986312866
0.5551306009292603,4.343007564544678,-0.7221645712852478
0.6528477668762207,4.839920520782471,-0.8023237586021423
0.6913574934005737,4.870176315307617,-0.8046137690544128
0.7251677513122559,4.865895748138428,-0.8007378578186035
0.7607174515724182,4.8689188957214355,-0.7980442643165588
0.7933584451675415,4.8565287590026855,-0.7929096221923828
0.8220120668411255,4.821096897125244,-0.78407222032547
0.8426523804664612,4.743831634521484,-0.7679359912872314
0.8741518259048462,4.7310075759887695,-0.7622190117835999
0.9128983616828918,4.755845546722412,-0.7625768780708313
0.9436195492744446,4.734845161437988,-0.7555413842201233
0.9633132815361023,4.664649963378906,-0.7405943870544434
0.8133116364479065,3.8054516315460205,-0.6008055806159973
0.8347060084342957,3.7777483463287354,-0.5931002497673035
0.8542113304138184,3.74235463142395,-0.5842404365539551
0.8825576901435852,3.7443621158599854,-0.5812131762504578
0.9048836827278137,3.7238306999206543,-0.5743665099143982
0.9306926131248474,3.718167304992676,-0.5697948932647705
0.9498018026351929,3.6861047744750977,-0.5612187385559082
0.9765738248825073,3.6837973594665527,-0.5572022795677185
1.0047212839126587,3.6849656105041504,-0.5534796118736267
1.025028944015503,3.6600444316864014,-0.5457019805908203
1.0504087209701538,3.6535825729370117,-0.5407189130783081
1.073809266090393,3.639451265335083,-0.5345953106880188
1.0926001071929932,3.6103463172912598,-0.5263184905052185
1.1157302856445312,3.5959553718566895,-0.5197973847389221
1.142963171005249,3.5962860584259033,-0.5155060887336731
1.1656782627105713,3.5816197395324707,-0.509052038192749
1.18590247631073,3.5594213008880615,-0.501560389995575
1.20808744430542,3.544557809829712,-0.4949341118335724
1.230027198791504,3.5295944213867188,-0.4882255792617798
1.2510669231414795,3.5106568336486816,-0.48091065883636475
1.2730664014816284,3.4952785968780518,-0.4741613566875458
1.3150062561035156,3.5343177318573,-0.4746505618095398
1.6160694360733032,4.25435209274292,-0.5653559565544128
1.6412715911865234,4.2331953048706055,-0.5565661191940308
1.6686415672302246,4.2151336669921875,-0.5480398535728455
1.695189356803894,4.197132110595703,-0.5396214127540588
1.7181333303451538,4.171998977661133,-0.5300987362861633
1.752792477607727,4.175365924835205,-0.5242289900779724
1.779043197631836,4.1567888259887695,-0.5154803395271301
1.8087379932403564,4.144943714141846,-0.5074626803398132
1.8276636600494385,4.1121344566345215,-0.49682745337486267
1.8494216203689575,4.086313724517822,-0.4871171712875366
1.881317138671875,4.081254482269287,-0.479761004447937
1.9001164436340332,4.047762393951416,-0.4690786600112915
1.928249478340149,4.035414218902588,-0.46059533953666687
1.9541023969650269,4.019583225250244,-0.4518670439720154
1.9788352251052856,3.9997482299804688,-0.442542165517807
2.010326862335205,3.9936630725860596,-0.4347311854362488
2.030337333679199,3.9669981002807617,-0.42458075284957886
2.046532392501831,3.9332990646362305,-0.4137464761734009
2.0819921493530273,3.933208703994751,-0.4060869812965393
2.1019928455352783,3.9058103561401367,-0.39571908116340637
2.1321754455566406,3.8991928100585938,-0.38741064071655273
2.1191959381103516,3.813913345336914,-0.37134072184562683
2.1536338329315186,3.8133530616760254,-0.3634629249572754
2.160717725753784,3.765401840209961,-0.3509339690208435
2.1820716857910156,3.744900941848755,-0.3411712050437927
2.220008373260498,3.7505736351013184,-0.3334962725639343
2.2341537475585938,3.715764045715332,-0.32213130593299866
2.246783971786499,3.6815998554229736,-0.3108852505683899
2.2968502044677734,3.7065269947052,-0.3043033480644226
2.310438394546509,3.671290636062622,-0.2925994098186493
2.3182334899902344,3.6302144527435303,-0.2805316746234894
2.3635687828063965,3.6481688022613525,-0.272975355386734
2.3849599361419678,3.6256771087646484,-0.2618120610713959
2.3967721462249756,3.5905468463897705,-0.2496510148048401
2.4379148483276367,3.6012074947357178,-0.2407965213060379
2.4587743282318115,3.5782809257507324,-0.22901847958564758
2.469132661819458,3.543353319168091,-0.21656501293182373
2.5239546298980713,3.572295665740967,-0.20779168605804443
2.5131332874298096,3.5040664672851562,-0.19246289134025574
2.5677859783172607,3.5326414108276367,-0.18270279467105865
2.17012357711792,2.9439902305603027,-0.1422237753868103
2.7676632404327393,3.9171481132507324,0.3951496481895447
2.748131036758423,3.9485974311828613,0.40883535146713257
2.727221965789795,3.980678081512451,0.4223475754261017
2.6777474880218506,3.9753339290618896,0.431907057762146
2.657890558242798,4.006126403808594,0.44425398111343384
2.63244891166687,4.030971527099609,0.45582115650177
2.596768856048584,4.043583869934082,0.4658466875553131
2.5671539306640625,4.061279773712158,0.4759388267993927
2.5460009574890137,4.091722011566162,0.48744750022888184
2.52459979057312,4.12660026550293,0.49906837940216064
2.491075277328491,4.141228675842285,0.5082265138626099
2.475621461868286,4.1810197830200195,0.5199913382530212
2.4453976154327393,4.197664260864258,0.528831958770752
2.405169725418091,4.20184326171875,0.5359356999397278
2.3679206371307373,4.208499431610107,0.5431479811668396
2.3155388832092285,4.183356761932373,0.5458584427833557
2.2631638050079346,4.157955646514893,0.5483409762382507
2.2390003204345703,4.187614440917969,0.5577762126922607
2.2067975997924805,4.203637599945068,0.5655326247215271
2.1806800365448,4.225014686584473,0.5735890865325928
2.1508231163024902,4.239320278167725,0.5807281732559204
2.129608631134033,4.2750773429870605,0.5904574990272522
2.094165802001953,4.28297233581543,0.5963562726974487
2.069214105606079,4.311338901519775,0.6050810813903809
2.0355021953582764,4.317881107330322,0.6105643510818481
2.0045626163482666,4.331429958343506,0.6169237494468689
1.965968132019043,4.331202983856201,0.6210152506828308
2.0062215328216553,4.5075459480285645,0.6505998373031616
1.9895092248916626,4.556349754333496,0.6618331074714661
1.9629729986190796,4.583802223205566,0.6700547337532043
1.9181066751480103,4.5683274269104,0.6717520952224731
1.8991622924804688,4.617280960083008,0.6826773285865784
1.8651394844055176,4.630288600921631,0.6883536577224731
1.8335676193237305,4.646224021911621,0.6943807005882263
1.7989418506622314,4.654767990112305,0.6993526220321655
1.8014960289001465,4.7606611251831055,0.7188485860824585
1.3504788875579834,3.6486167907714844,0.5533939599990845
1.3211650848388672,3.650522470474243,0.5561593770980835
1.2975125312805176,3.6666200160980225,0.5610734820365906
1.6517388820648193,4.774831771850586,0.733860194683075
1.6133636236190796,4.770875930786133,0.7364165186882019
1.599470853805542,4.844107627868652,0.7504850029945374
1.5536361932754517,4.8217949867248535,0.7497398853302002
1.5290595293045044,4.865426063537598,0.7592880129814148
1.5157911777496338,4.94572114944458,0.7746133208274841
1.4689719676971436,4.914823055267334,0.7725237607955933
1.438617467880249,4.939237117767334,0.7789912223815918
1.402946949005127,4.9488911628723145,0.7827690243721008
1.369263768196106,4.965729713439941,0.7877274751663208
1.3046748638153076,4.866663932800293,0.7742769122123718
1.273988127708435,4.890166759490967,0.7803030610084534
1.2341188192367554,4.875918865203857,0.7803040742874146
1.2245217561721802,4.985182762145996,0.7998580932617188
1.1852543354034424,4.978299140930176,0.8005461692810059
1.156498670578003,5.016245365142822,0.8084925413131714
1.1244726181030273,5.042783737182617,0.814673900604248
1.0884222984313965,5.046248435974121,0.8171123266220093
1.0571542978286743,5.072103500366211,0.8232191205024719
1.017533540725708,5.0600786209106445,0.8229150772094727
0.9814404845237732,5.066797256469727,0.8254052400588989
1.82585608959198,9.805469512939453,1.6001828908920288
1.739478349685669,9.72244930267334,1.5894428491592407
1.6730319261550903,9.741168022155762,1.5953447818756104
1.6138184070587158,9.805102348327637,1.6087522506713867
1.5342646837234497,9.746916770935059,1.6017283201217651
1.4565411806106567,9.70755672454834,1.5972049236297607
1.3845529556274414,9.694135665893555,1.5969799757003784
1.3237075805664062,9.760407447814941,1.6099706888198853
0.2870168089866638,2.2328712940216064,0.3687942922115326
1.1876369714736938,9.776740074157715,1.6169791221618652
1.110183596611023,9.703824996948242,1.6069624423980713
1.0397889614105225,9.703473091125488,1.6080753803253174
0.21369436383247375,2.1360838413238525,0.35426604747772217
0.4037037193775177,4.34397554397583,0.7210269570350647
0.3727729618549347,4.338831424713135,0.7207859754562378
0.33864668011665344,4.291204929351807,0.713513195514679
0.30992692708969116,4.316382884979248,0.7183886170387268
0.13923579454421997,2.1495609283447266,0.35788610577583313
0.32433104515075684,5.6165337562561035,0.9354082345962524
0.2873331904411316,5.664734363555908,0.9437808990478516
0.24812035262584686,5.674187660217285,0.9457464218139648
0.20976994931697845,5.725743293762207,0.9547865986824036
0.1704472303390503,5.742353916168213,0.958042562007904
0.13175246119499207,5.801122188568115,0.9680460095405579
0.09189192205667496,5.840420722961426,0.9744989275932312
0.051152102649211884,5.840915203094482,0.9745239019393921
0.009704395197331905,5.810303211212158,0.9694065451622009
-0.04677250236272812,8.854044914245605,1.4772899150848389
-0.07382342219352722,6.033324241638184,1.0067428350448608
-0.11702033877372742,6.098158836364746,1.0176421403884888
-0.16014693677425385,6.128127098083496,1.0221037864685059
-0.2024211883544922,6.119279384613037,1.0201385021209717
-0.24378573894500732,6.071610927581787,1.0117472410202026
-0.16607776284217834,3.525691270828247,0.5872807502746582
-0.19416213035583496,3.58992600440979,0.5977792143821716
-0.21723687648773193,3.557785987854004,0.5922567844390869
-0.5328713655471802,7.835412979125977,1.303410530090332
-0.5844665765762329,7.785661697387695,1.293931245803833
-0.547499418258667,6.6755452156066895,1.1084749698638916
-0.5892260670661926,6.621945381164551,1.098671317100525
-0.6260373592376709,6.522029876708984,1.081250786781311
-0.6556352376937866,6.3644022941589355,1.0543447732925415
-0.7052191495895386,6.402037620544434,1.0596227645874023
-0.748412013053894,6.38973331451416,1.056158185005188
-0.7890249490737915,6.358017921447754,1.0495446920394897
-0.8237945437431335,6.283988952636719,1.0360139608383179
-0.8626714944839478,6.24410343170166,1.0281733274459839
-0.9045572280883789,6.2229533195495605,1.0234562158584595
-0.953572690486908,6.254992961883545,1.0275537967681885
-1.004316806793213,6.29827880859375,1.0328335762023926
-1.0511614084243774,6.314561367034912,1.0336774587631226
-1.1042771339416504,6.364686965942383,1.040083885192871
-1.157858967781067,6.410519123077393,1.0457903146743774
-1.211107611656189,6.4443488121032715,1.0495195388793945
-1.2655994892120361,6.485462188720703,1.0544918775558472
-1.3208717107772827,6.530117988586426,1.059546709060669
-1.3757528066635132,6.570640563964844,1.0637167692184448
-1.4287992715835571,6.599410057067871,1.0660021305084229
-1.4631997346878052,6.5371527671813965,1.0535823106765747
-1.5026062726974487,6.501107215881348,1.0454808473587036
-1.5424082279205322,6.468593597412109,1.0380185842514038
-0.6879568696022034,2.8000662326812744,0.4482021927833557
-0.6993933916091919,2.7657010555267334,0.44146475195884705
-0.7223727107048035,2.7760627269744873,0.44187355041503906
-0.737401008605957,2.756436824798584,0.4375392198562622
-0.7525341510772705,2.7366435527801514,0.4331904649734497
-0.7800531387329102,2.761359691619873,0.4359003007411957
-1.7722920179367065,6.113494873046875,0.9620606303215027
-1.8067913055419922,6.075992107391357,0.9528506398200989
-1.8366879224777222,6.027434349060059,0.9420475959777832
-1.8642468452453613,5.971202373504639,0.9300897717475891
-1.9000139236450195,5.940430641174316,0.922124981880188
-1.2702070474624634,3.8784282207489014,0.5999959111213684
-1.2872374057769775,3.840775966644287,0.5918194055557251
-1.3156358003616333,3.8398799896240234,0.589269757270813
-1.336376428604126,3.816892385482788,0.5833646655082703
-1.3653472661972046,3.8154139518737793,0.580717146396637
-1.3734049797058105,3.7555012702941895,0.5692045092582703
-1.3873969316482544,3.7137887477874756,0.5605074167251587
-1.4100253582000732,3.697598695755005,0.5552994608879089
-1.4320480823516846,3.6814301013946533,0.5501798391342163
-1.4511988162994385,3.65788197517395,0.5439833402633667
-1.4739172458648682,3.6410608291625977,0.5387292504310608
-1.462525486946106,3.541797399520874,0.5213727951049805
-1.4840580224990845,3.5250675678253174,0.5159910917282104
-1.5000321865081787,3.497882127761841,0.5090413689613342
-1.5374356508255005,3.5203001499176025,0.5093174576759338
-1.5744857788085938,3.538482666015625,0.5088452696800232
-1.6424697637557983,3.6232614517211914,0.5178377628326416
-1.6677618026733398,3.612395763397217,0.5128884315490723
-1.6984070539474487,3.615931749343872,0.5098508596420288
-1.7308412790298462,3.622715711593628,0.5072630643844604
-1.7660890817642212,3.632277727127075,0.5049092769622803
-1.7881344556808472,3.6135706901550293,0.4985866844654083
-1.823732852935791,3.622568368911743,0.49586525559425354
-2.7416374683380127,5.358007431030273,0.7273843288421631
-2.739583730697632,5.268545150756836,0.7093092203140259
-2.7945475578308105,5.284689903259277,0.705203115940094
-2.7930710315704346,5.194303512573242,0.6869319677352905
-1.1608738899230957,2.1251587867736816,0.2783493995666504
-1.1864131689071655,2.1381709575653076,0.27723920345306396
-2.508481502532959,4.450544357299805,0.5711396336555481
-2.5225348472595215,4.403430938720703,0.5589522123336792
-2.552849054336548,4.386984348297119,0.5505812168121338
-6.056160926818848,10.253969192504883,1.2716397047042847
-1.2426429986953735,2.072387933731079,0.25382623076438904
-2.928741455078125,4.808535099029541,0.581234872341156
-2.924992799758911,4.7299723625183105,0.5640298128128052
-2.9556477069854736,4.712078094482422,0.5539116263389587
-2.9948959350585938,4.70687198638916,0.5451904535293579
-3.0286946296691895,4.686490535736084,0.5339393615722656
-3.060439348220825,4.667080879211426,0.5228275656700134
-3.058180332183838,4.599893569946289,0.506292462348938
-3.0849220752716064,4.573889255523682,0.49396708607673645
-3.099668264389038,4.527529239654541,0.47909849882125854
-3.1048543453216553,4.47324800491333,0.4630862772464752
-3.1384918689727783,4.460499286651611,0.4514204263687134
-2.866708278656006,4.014945030212402,0.39619317650794983
-2.865164041519165,3.95967698097229,0.38048484921455383
-2.9136149883270264,3.9737348556518555,0.3711793124675751
-2.9325058460235596,3.9416632652282715,0.3564004600048065
-2.4542484283447266,3.464442491531372,-0.1918383091688156
-2.7938272953033447,4.002467155456543,-0.2341095507144928
-2.2816715240478516,3.3218395709991455,-0.20455333590507507
-2.2679121494293213,3.354130983352661,-0.21648842096328735
-2.219834804534912,3.334038496017456,-0.22451606392860413
-2.2265422344207764,3.3989944458007812,-0.23830623924732208
-2.2064590454101562,3.4206440448760986,-0.24866870045661926
-2.1502487659454346,3.386467218399048,-0.2547578513622284
-1.2758268117904663,2.04321026802063,-0.1589183658361435
-1.265333652496338,2.058445692062378,-0.16495874524116516
-2.085503578186035,3.4473047256469727,-0.2842370271682739
-2.083686351776123,3.5021510124206543,-0.29677098989486694
-2.099799871444702,3.5868616104125977,-0.3118167519569397
-1.1895275115966797,2.0654871463775635,-0.1840515434741974
-1.2087478637695312,2.134765625,-0.1947227269411087
-2.5775725841522217,4.629664421081543,-0.43185651302337646
-1.8549336194992065,3.3868494033813477,-0.3226402997970581
-1.8230351209640503,3.3857030868530273,-0.3291400074958801
-1.8086496591567993,3.419069290161133,-0.33909597992897034
-1.7842152118682861,3.4311232566833496,-0.34670397639274597
-1.759892463684082,3.4428951740264893,-0.3542388081550598
-2.4273672103881836,4.834834575653076,-0.5061637163162231
-2.3988327980041504,4.865306377410889,-0.5180519223213196
-2.3775134086608887,4.909246444702148,-0.5312902927398682
-1.7331904172897339,3.6436452865600586,-0.4004894196987152
-1.7001515626907349,3.6412205696105957,-0.40623173117637634
-1.6738615036010742,3.6525681018829346,-0.413473904132843
-1.6512665748596191,3.6705539226531982,-0.42136695981025696
-1.631363868713379,3.6956214904785156,-0.4300457835197449
-2.086865186691284,4.822290897369385,-0.5686646103858948
-1.9915488958358765,4.69310188293457,-0.5605366826057434
-1.9256937503814697,4.627114295959473,-0.5595109462738037
-1.8884611129760742,4.628859043121338,-0.5664383172988892
-1.8291839361190796,4.576472759246826,-0.5664684772491455
-1.8453346490859985,4.715118408203125,-0.5903350710868835
-1.34005606174469,3.495408535003662,-0.44241926074028015
-1.7788041830062866,4.738619804382324,-0.6061655282974243
-1.7314783334732056,4.713849067687988,-0.6090832948684692
-2.0018904209136963,5.571634292602539,-0.7271075248718262
-1.0304765701293945,2.9331212043762207,-0.3865632116794586
-0.9808751940727234,2.855381488800049,-0.37992024421691895
-0.9345558881759644,2.784607410430908,-0.37378862500190735
-0.9170714616775513,2.7980167865753174,-0.378890722990036
-0.8772851824760437,2.7411324977874756,-0.3743829131126404
-0.7976757884025574,2.554534435272217,-0.3519219756126404
-0.7727779150009155,2.537418842315674,-0.3523135781288147
-0.770169734954834,2.594329595565796,-0.36297714710235596
-0.7518343329429626,2.59921932220459,-0.36642077565193176
-0.751448929309845,2.6672682762145996,-0.3788321614265442
-0.7387901544570923,2.6944029331207275,-0.3854142129421234
-0.7153552174568176,2.684232473373413,-0.3865682780742645
-0.7070058584213257,2.7299551963806152,-0.39576855301856995
-0.6756764650344849,2.685590982437134,-0.3918837308883667
-0.6706634163856506,2.746131658554077,-0.4033271372318268
-0.6495104432106018,2.742835521697998,-0.405137836933136
-0.6384814381599426,2.7846615314483643,-0.4136984050273895
-0.622282087802887,2.8037281036376953,-0.4188936650753021
-0.6075124144554138,2.83024525642395,-0.42524921894073486
-0.5876291394233704,2.834023952484131,-0.42801398038864136
-0.5661190152168274,2.8301236629486084,-0.42947787046432495
-0.5568015575408936,2.890603542327881,-0.4408024251461029
-0.5394136309623718,2.9092116355895996,-0.4457647502422333
-0.5245169401168823,2.9429221153259277,-0.45306187868118286
-0.5057852864265442,2.957602024078369,-0.4571058452129364
-0.4900175929069519,2.9912075996398926,-0.4641207456588745
-0.47231990098953247,3.0171382427215576,-0.47002580761909485
-0.45466503500938416,3.0429091453552246,-0.4759238362312317
-0.4361041188240051,3.064793109893799,-0.48101118206977844
-0.41566744446754456,3.075122117996216,-0.48411890864372253
-0.3970681428909302,3.100623607635498,-0.489654004573822
-0.38103798031806946,3.1489810943603516,-0.4988475739955902
-0.3587336242198944,3.1512868404388428,-0.5008201599121094
-0.34122002124786377,3.1956801414489746,-0.5090222358703613
-0.3219546973705292,3.22845721244812,-0.5154229998588562
-0.3026563227176666,3.264951229095459,-0.5224635601043701
-0.2786620259284973,3.2513575553894043,-0.5215170979499817
-0.25624823570251465,3.2607245445251465,-0.52408766746521
-0.23848426342010498,3.331512689590454,-0.5362544059753418
-0.21999485790729523,3.4060494899749756,-0.5490849018096924
-0.26523470878601074,4.604704856872559,-0.7434794902801514
-0.23198625445365906,4.583099365234375,-0.7411816120147705
-0.19880442321300507,4.569079399108887,-0.7395556569099426
-0.16552947461605072,4.531703948974609,-0.7340291738510132
-0.133619025349617,4.521069526672363,-0.732863187789917
-0.10167583078145981,4.498644828796387,-0.7298158407211304
-0.07028894871473312,4.491442680358887,-0.729117214679718
-0.03821955621242523,4.460984230041504,-0.7240988612174988
-0.007160996552556753,4.434154033660889,-0.7197068333625793
0.02362554520368576,4.426386833190918,-0.7184439301490784
0.053984105587005615,4.395273685455322,-0.7134263515472412
0.07971496880054474,4.144277572631836,-0.6723449230194092
0.11100766062736511,4.240097522735596,-0.6873018145561218
0.1391933411359787,4.18536376953125,-0.677871584892273
0.16564781963825226,4.118902206420898,-0.6665996313095093
0.19700069725513458,4.175537586212158,-0.6752833127975464
0.2341529130935669,4.324462413787842,-0.6982120275497437
0.255470335483551,4.180522918701172,-0.6738830208778381
0.28345513343811035,4.155741214752197,-0.6688181757926941
0.3108939826488495,4.1346516609191895,-0.6644089221954346
0.34438246488571167,4.190304279327393,-0.6720995903015137
0.3748207688331604,4.203497409820557,-0.6725953221321106
0.22968602180480957,2.3885653018951416,-0.38128745555877686
0.5165939331054688,5.000547409057617,-0.7963457107543945
0.5513674020767212,4.997207164764404,-0.7939927577972412
0.5815343260765076,4.955402374267578,-0.7849822044372559
0.6149758696556091,4.944071292877197,-0.7807029485702515
0.6397378444671631,4.867459774017334,-0.7661929726600647
0.6816464066505432,4.916813373565674,-0.7715089321136475
0.7102603912353516,4.874257564544678,-0.7623264789581299
0.7417401075363159,4.854525089263916,-0.7562269568443298
0.6296912431716919,3.9385910034179688,-0.611127495765686
0.6532946228981018,3.911724328994751,-0.6045716404914856
0.6752286553382874,3.877103805541992,-0.5968790650367737
0.7026181221008301,3.8727519512176514,-0.5935079455375671
0.7280014753341675,3.8607332706451416,-0.5888557434082031
0.7577656507492065,3.8712828159332275,-0.5876622796058655
0.7747670412063599,3.8172059059143066,-0.5766986012458801
0.799807071685791,3.8046727180480957,-0.5720294117927551
0.8265970945358276,3.7995452880859375,-0.5680118203163147
0.8495147824287415,3.779228687286377,-0.5618181228637695
0.8740856647491455,3.766270875930786,-0.5567464232444763
0.8931732177734375,3.7305715084075928,-0.5483644008636475
0.9209598898887634,3.7323904037475586,-0.5452795028686523
0.9415017366409302,3.7039647102355957,-0.5375828742980957
0.9671889543533325,3.6979691982269287,-0.5332404375076294
0.9910280108451843,3.6842682361602783,-0.5277925133705139
1.0136542320251465,3.6666946411132812,-0.5217826962471008
1.0411170721054077,3.6677117347717285,-0.518096923828125
1.0625944137573242,3.6461009979248047,-0.5111796855926514
1.0813754796981812,3.6170003414154053,-0.50331050157547
1.1066936254501343,3.609994649887085,-0.49855124950408936
1.1270750761032104,3.588134527206421,-0.49153152108192444
1.154221773147583,3.588327169418335,-0.4874623715877533
1.1747223138809204,3.5660574436187744,-0.4802798330783844
1.2046524286270142,3.573110818862915,-0.4771062433719635
1.234593152999878,3.5799806118011475,-0.4737893342971802
1.2437970638275146,3.528223752975464,-0.4625724256038666
1.2654844522476196,3.5129666328430176,-0.45622631907463074
1.3088723421096802,3.5556561946868896,-0.45729729533195496
1.6031960248947144,4.262166500091553,-0.5426969528198242
1.638038158416748,4.266410827636719,-0.537541389465332
1.6645176410675049,4.24869441986084,-0.5296347737312317
1.6870027780532837,4.219809055328369,-0.5202983617782593
1.7137126922607422,4.201524257659912,-0.5122988820075989
1.7431423664093018,4.190301418304443,-0.5048707723617554
1.7688348293304443,4.171967029571533,-0.49668043851852417
1.7978817224502563,4.16041374206543,-0.48923757672309875
1.8208240270614624,4.1343302726745605,-0.48008081316947937
1.8493043184280396,4.122550010681152,-0.47246286273002625
1.874739408493042,4.103392601013184,-0.46385475993156433
1.896627426147461,4.077055931091309,-0.4545098841190338
1.9152463674545288,4.043419361114502,-0.44435182213783264
1.9497324228286743,4.045036315917969,-0.4379833936691284
1.9738060235977173,4.025541305541992,-0.42927566170692444
1.9865736961364746,3.981048107147217,-0.4177379906177521
2.0180957317352295,3.974740505218506,-0.4102891981601715
2.0452678203582764,3.9616732597351074,-0.40203920006752014
2.068521738052368,3.9416282176971436,-0.39308181405067444
2.0922818183898926,3.9210853576660156,-0.3839379847049713
2.1198127269744873,3.907100200653076,-0.37540048360824585
2.142827033996582,3.8864688873291016,-0.3660263419151306
2.136698007583618,3.8149492740631104,-0.35211312770843506
2.1557931900024414,3.7870829105377197,-0.34208133816719055
2.189724922180176,3.786360502243042,-0.33448895812034607
2.195354700088501,3.7387638092041016,-0.3227643668651581
2.225444793701172,3.730787754058838,-0.3142070174217224
2.2677698135375977,3.742478370666504,-0.3072100281715393
2.2682607173919678,3.6881351470947266,-0.2947845458984375
2.288782835006714,3.666973829269409,-0.2850739061832428
2.3312599658966064,3.6778390407562256,-0.27739936113357544
2.343902111053467,3.642740488052368,-0.2660980224609375
2.3679239749908447,3.627864360809326,-0.25647488236427307
2.4062187671661377,3.6313953399658203,-0.24759386479854584
2.409031629562378,3.58331036567688,-0.23520058393478394
2.4368319511413574,3.5745649337768555,-0.22545722126960754
2.4710652828216553,3.570665121078491,-0.21518093347549438
2.490406036376953,3.548316240310669,-0.20389872789382935
2.513552665710449,3.5325734615325928,-0.19292540848255157
2.55659556388855,3.5407626628875732,-0.1824265718460083
2.5608632564544678,3.499645471572876,-0.16942043602466583
2.1796324253082275,2.9374139308929443,-0.13245832920074463
2.7857537269592285,3.9074270725250244,0.36297187209129333
2.7455894947052,3.9155492782592773,0.3744678199291229
2.738813638687134,3.9665632247924805,0.3893168270587921
2.700847625732422,3.9725708961486816,0.39939084649086
2.6651549339294434,3.9860999584198,0.41001594066619873
2.6403281688690186,4.010827541351318,0.4211217164993286
2.6278483867645264,4.055064678192139,0.43418943881988525
2.592214822769165,4.067629337310791,0.44353726506233215
2.580436944961548,4.115419864654541,0.4564969539642334
2.5369999408721924,4.109355926513672,0.46312215924263
2.502117395401001,4.120569229125977,0.4714135527610779
2.4799022674560547,4.155571937561035,0.4825047254562378
2.4401698112487793,4.155522346496582,0.4889995753765106
2.4321274757385254,4.208688735961914,0.5017115473747253
2.4116883277893066,4.246283054351807,0.5123247504234314
2.3680262565612793,4.243124961853027,0.5180389285087585
2.269953489303589,4.136653900146484,0.5106959939002991
2.2444088459014893,4.158483505249023,0.5189093947410583
2.2223060131073,4.19142484664917,0.5282202363014221
2.1978909969329834,4.220888137817383,0.5371196866035461
2.163900136947632,4.228821754455566,0.543097734451294
2.1370456218719482,4.250266075134277,0.5508114695549011
2.1129860877990723,4.278742790222168,0.5591691732406616
2.077669858932495,4.28654146194458,0.5646761059761047
2.0559332370758057,4.321951866149902,0.5738304853439331
2.025477647781372,4.335498332977295,0.5799182057380676
1.9981632232666016,4.355871677398682,0.5869548320770264
1.9750267267227173,4.391131401062012,0.5957286953926086
1.9862638711929321,4.504145622253418,0.6150826215744019
1.9596701860427856,4.531879425048828,0.622847318649292
1.927774429321289,4.544762134552002,0.6284887194633484
1.8987680673599243,4.564568996429443,0.6351248025894165
1.8821492195129395,4.620933532714844,0.6465015411376953
1.8452668190002441,4.626701831817627,0.6508052349090576
1.8272732496261597,4.678865432739258,0.6616362929344177
1.8027111291885376,4.712543964385986,0.6698290109634399
1.7492872476577759,4.6699395179748535,0.6671833992004395
1.3286854028701782,3.627849817276001,0.5206883549690247
1.3126544952392578,3.666069746017456,0.528501570224762
1.2731622457504272,3.6384685039520264,0.5268460512161255
1.6447802782058716,4.807458400726318,0.6990872025489807
1.6197015047073364,4.843869209289551,0.7073980569839478
1.5737897157669067,4.821717262268066,0.7069867253303528
1.5423651933670044,4.843441009521484,0.7127095460891724
1.5164430141448975,4.883425712585449,0.7211783528327942
1.4795011281967163,4.886064529418945,0.7241306304931641
1.4475138187408447,4.903110504150391,0.729214072227478
1.4260495901107788,4.9571027755737305,0.7398552894592285
1.3877736330032349,4.959380149841309,0.7423916459083557
1.3378432989120483,4.91648530960083,0.7380762100219727
1.2935429811477661,4.8918256759643555,0.736499547958374
1.2514785528182983,4.870327949523926,0.7353565692901611
1.2174652814865112,4.878437042236328,0.7386947870254517
1.2036054134368896,4.97286319732666,0.7551519870758057
1.1768314838409424,5.018525123596191,0.7637675404548645
1.1391490697860718,5.018845081329346,0.7655342221260071
1.1048879623413086,5.033966541290283,0.7695951461791992
1.0729230642318726,5.056238651275635,0.774753987789154
1.0377871990203857,5.067065715789795,0.778233528137207
1.0038161277770996,5.081355571746826,0.7821545600891113
1.9157298803329468,10.073593139648438,1.553153157234192
1.8426707983016968,10.078654289245605,1.5565643310546875
0.9338247776031494,5.321162223815918,0.8232386112213135
0.8896257877349854,5.289203643798828,0.8197487592697144
1.6146275997161865,10.025640487670898,1.5566036701202393
1.549318552017212,10.06651782989502,1.565697193145752
1.468522548675537,10.011768341064453,1.5589585304260254
1.4013772010803223,10.048151016235352,1.5664818286895752
1.3233686685562134,10.015357971191406,1.563332438468933
0.2787593901157379,2.2292206287384033,0.3484063744544983
1.1790827512741089,9.993471145629883,1.5639262199401855
1.1078522205352783,9.985572814941406,1.564797282218933
1.0391806364059448,10.008115768432617,1.5694891214370728
0.20475925505161285,2.11667537689209,0.33217835426330566
0.38710281252861023,4.32443904876709,0.6791805028915405
0.35371270775794983,4.288429260253906,0.6740692853927612
0.3238901197910309,4.290639877319336,0.6749907732009888
0.2979618012905121,4.3503947257995605,0.6850067377090454
0.3481007516384125,5.661800384521484,0.891940176486969
0.3056902587413788,5.625510215759277,0.8864695429801941
0.266622394323349,5.635129928588867,0.8882722854614258
0.2308240383863449,5.725439548492432,0.9028422832489014
0.19101178646087646,5.726812839508057,0.903435230255127
0.1518024504184723,5.751051425933838,0.907680869102478
0.11183632910251617,5.790493965148926,0.9141859412193298
0.07212039828300476,5.841294288635254,0.922067403793335
0.03130773454904556,5.81851053237915,0.9183770418167114
-0.009587585926055908,6.050102233886719,0.9548797607421875
-0.051463302224874496,6.026744842529297,0.9511885046958923
-0.09410969913005829,6.026236057281494,0.9511504769325256
-0.13688594102859497,6.064016819000244,0.9572023153305054
-0.1823795586824417,6.178734302520752,0.974779486656189
-0.22370077669620514,6.135019302368164,0.9673567414283752
-0.26281774044036865,6.052475452423096,0.9538674354553223
-0.18113818764686584,3.595686197280884,0.5664246082305908
-0.2061198651790619,3.586678981781006,0.5647753477096558
-0.2324923276901245,3.608335494995117,0.5679855346679688
-0.5583560466766357,7.821664810180664,1.2303290367126465
-0.6078220009803772,7.76019287109375,1.2194736003875732
-0.566874623298645,6.648632526397705,1.0438319444656372
-0.606900155544281,6.5717034339904785,1.0308290719985962
-0.6327764391899109,6.367843151092529,0.9980127811431885
-0.6746302247047424,6.340486526489258,0.9929371476173401
-0.7251541614532471,6.393434047698975,1.0003167390823364
-0.7658975720405579,6.361806869506836,0.9939510226249695
-0.8074865341186523,6.333657264709473,0.9881633520126343
-0.8412743806838989,6.255591869354248,0.9746793508529663
-0.8814646601676941,6.226996421813965,0.968957245349884
-0.9258395433425903,6.228694438934326,0.9679988622665405
-0.97153639793396,6.237696170806885,0.9682161211967468
-0.5693239569664001,3.4948036670684814,0.5414474010467529
-1.0764731168746948,6.334939479827881,0.9796682596206665
-1.13130784034729,6.392501354217529,0.9867938756942749
-1.181102991104126,6.415356636047363,0.9885660409927368
-1.2365549802780151,6.464348316192627,0.9943814277648926
-1.2875497341156006,6.486349105834961,0.996067225933075
-1.3443517684936523,6.534526824951172,1.0012271404266357
-1.4008886814117432,6.582462310791016,1.0062167644500732
-1.4490803480148315,6.588413715362549,1.0048060417175293
-1.4815715551376343,6.522333145141602,0.9924501180648804
-1.5164787769317627,6.467259883880615,0.9818211197853088
-0.675315260887146,2.7908523082733154,0.422720730304718
-0.6982012987136841,2.801424026489258,0.423179030418396
-0.7115088701248169,2.7744252681732178,0.4178888499736786
-0.7244809865951538,2.7473702430725098,0.412629097700119
-0.7393355369567871,2.727675676345825,0.4084978699684143
-0.775236964225769,2.782254934310913,0.4154573082923889
-1.7509022951126099,6.11923360824585,0.9111546277999878
-1.784960389137268,6.081881523132324,0.9025777578353882
-1.817143201828003,6.040759563446045,0.8933398723602295
-1.8487908840179443,5.999488353729248,0.8841559886932373
-1.8804007768630981,5.953889846801758,0.874286949634552
-1.2527544498443604,3.872530937194824,0.566633939743042
-1.2749478816986084,3.8494510650634766,0.5612677931785583
-1.2985022068023682,3.833914041519165,0.5566698312759399
-1.3243896961212158,3.8255627155303955,0.5531253218650818
-1.3528040647506714,3.8243319988250732,0.5506311655044556
-1.374612808227539,3.8006205558776855,0.5448194146156311
-1.3863579034805298,3.7515034675598145,0.5354623794555664
-1.4039617776870728,3.7206602096557617,0.5286462306976318
-1.4261196851730347,3.704479455947876,0.5237162113189697
-1.450953483581543,3.6953744888305664,0.5198150873184204
-1.4679714441299438,3.6641879081726074,0.512754499912262
-1.4569768905639648,3.5647177696228027,0.4962235689163208
-1.4685463905334473,3.5227646827697754,0.48780959844589233
-1.4921666383743286,3.513401508331299,0.4836406409740448
-1.5156852006912231,3.503894090652466,0.4794612526893616
-1.544450044631958,3.5046091079711914,0.4766181707382202
-1.6214014291763306,3.6109964847564697,0.48800399899482727
-1.6595960855484009,3.628354072570801,0.4872579574584961
-1.6774357557296753,3.6036784648895264,0.4806011915206909
-1.714691400527954,3.6211044788360596,0.47950103878974915
-1.7393920421600342,3.609962224960327,0.4745265245437622
-1.7647444009780884,3.5983083248138428,0.46940430998802185
-1.7917487621307373,3.589942693710327,0.46473073959350586
-2.7095108032226562,5.34017276763916,0.6855502724647522
-2.737821578979492,5.309272766113281,0.6758087277412415
-2.7845304012298584,5.312269687652588,0.6702938079833984
-2.793153762817383,5.238519668579102,0.6548502445220947
-2.8255906105041504,5.21331262588501,0.645576536655426
-1.1892647743225098,2.1606051921844482,0.26487722992897034
-1.1750209331512451,2.102311849594116,0.25512391328811646
-2.548187017440796,4.486301898956299,0.5385100841522217
-2.531729221343994,4.384756088256836,0.5203554034233093
-6.013669013977051,10.25990104675293,1.2030856609344482
-6.106650352478027,10.265891075134277,1.1891440153121948
-1.2543002367019653,2.0764808654785156,0.23741252720355988
-2.9465835094451904,4.802255153656006,0.5416277050971985
-2.9542038440704346,4.743797302246094,0.5272545218467712
-3.001647710800171,4.751847267150879,0.5203732848167419
-3.0091419219970703,4.692871570587158,0.505740761756897
-3.0506086349487305,4.685735702514648,0.4965793192386627
-3.0442731380462646,4.611907482147217,0.48013755679130554
-3.0746829509735107,4.592811107635498,0.46929022669792175
-3.1026694774627686,4.56571626663208,0.4570475220680237
-3.1044442653656006,4.504317760467529,0.4413386881351471
-3.115262985229492,4.460010528564453,0.42735376954078674
-2.9208016395568848,4.121771335601807,0.38521963357925415
-2.867234230041504,3.9888129234313965,0.3628506064414978
-2.8968751430511475,3.9780142307281494,0.3519389033317566
-2.9498157501220703,3.993447780609131,0.3422541320323944
-2.4630484580993652,3.4493305683135986,-0.17794917523860931
-2.4603147506713867,3.498481273651123,-0.19126789271831512
-2.778838872909546,4.013052463531494,-0.231260284781456
-2.243013620376587,3.2917447090148926,-0.1992313265800476
-1.3283811807632446,1.9789372682571411,-0.12504920363426208
-2.2121658325195312,3.348785161972046,-0.22043853998184204
-2.214552879333496,3.407176971435547,-0.2331194132566452
-2.1715872287750244,3.3924851417541504,-0.24028907716274261
-2.141986608505249,3.401378631591797,-0.24902476370334625
-1.2730506658554077,2.0544447898864746,-0.1551661193370819
-1.2585471868515015,2.062964677810669,-0.16035868227481842
-2.0549423694610596,3.425417423248291,-0.2738485038280487
-2.0672426223754883,3.5035560131073,-0.28758805990219116
-2.0874674320220947,3.594857931137085,-0.3023912012577057
-1.190017819404602,2.0836730003356934,-0.17945270240306854
-1.1650184392929077,2.075026273727417,-0.18282493948936462
-1.8821487426757812,3.4091196060180664,-0.30693113803863525
-1.8393689393997192,3.3874716758728027,-0.311279833316803
-1.810794711112976,3.3933265209198,-0.3180135190486908
-1.7897465229034424,3.4125802516937256,-0.3259483575820923
-1.776424765586853,3.4451465606689453,-0.3350273072719574
-2.449251413345337,4.835391044616699,-0.4786060154438019
-2.4173741340637207,4.859120845794678,-0.48911458253860474
-2.3928651809692383,4.896252632141113,-0.5008699297904968
-2.3768582344055176,4.950562477111816,-0.5143901109695435
-1.7210030555725098,3.651076078414917,-0.3850744962692261
-1.686286211013794,3.6451003551483154,-0.3900878429412842
-1.661510944366455,3.659993886947632,-0.3973061740398407
-1.6420167684555054,3.68507981300354,-0.4055365025997162
-1.6185030937194824,3.70322847366333,-0.4128594994544983
-2.029348611831665,4.735502243041992,-0.5347205400466919
-1.955187439918518,4.652110576629639,-0.5317922234535217
-1.8820081949234009,4.568052291870117,-0.5286030173301697
-1.8492038249969482,4.5805583000183105,-0.5361026525497437
-1.8133667707443237,4.585636138916016,-0.5427160263061523
-1.3462382555007935,3.4752376079559326,-0.4157736003398895
-1.3190817832946777,3.4766738414764404,-0.4203919470310211
-1.7625383138656616,4.74796199798584,-0.5800105333328247
-2.0106444358825684,5.536427974700928,-0.6829867362976074
-1.0467358827590942,2.9465761184692383,-0.3670039772987366
-1.02093505859375,2.9386537075042725,-0.36948755383491516
-0.9913594722747803,2.9195785522460938,-0.3704092502593994
-0.9603317975997925,2.8967442512512207,-0.3707508444786072
-0.9421111941337585,2.9103622436523438,-0.3756774365901947
-0.9018604159355164,2.85353946685791,-0.37142226099967957
-0.7824307680130005,2.5370795726776123,-0.33291932940483093
-0.7755595445632935,2.5792641639709473,-0.34099867939949036
-0.763748824596405,2.606593370437622,-0.347192645072937
-0.7504428029060364,2.6301686763763428,-0.35295605659484863
-0.7464981079101562,2.6871821880340576,-0.36324864625930786
-0.7335053086280823,2.714421033859253,-0.369364470243454
-0.7171754240989685,2.7303786277770996,-0.3739503026008606
-0.6950615644454956,2.7236886024475098,-0.37543439865112305
-0.6701142191886902,2.7055890560150146,-0.37535592913627625
-0.6592836976051331,2.7436938285827637,-0.38292959332466125
-0.6416705250740051,2.7554361820220947,-0.38669270277023315
