X,Y,Z
-1.5179603099822998,2.0449705123901367,0.021561825647950172
-1.5150285959243774,2.138686180114746,-0.029008330777287483
-1.5089415311813354,2.1620469093322754,-0.030545910820364952
-1.4702645540237427,2.141296625137329,-0.03145007789134979
-1.4895970821380615,2.203725814819336,-0.03353334963321686
-1.482064127922058,2.227569341659546,-0.03501264378428459
-1.4650967121124268,2.2387452125549316,-0.03629737347364426
-1.4579458236694336,2.2619996070861816,-0.03769291937351227
-1.4475258588790894,2.2825489044189453,-0.03904623165726662
-1.4342684745788574,2.3000926971435547,-0.04036599025130272
-1.4182478189468384,2.309985876083374,-0.04146959260106087
-1.4175441265106201,2.346978187561035,-0.04306424409151077
-1.4040307998657227,2.3641562461853027,-0.04430776461958885
-1.3913310766220093,2.3806843757629395,-0.045494742691516876
-1.3817600011825562,2.4042673110961914,-0.04683093726634979
-1.3485440015792847,2.387211561203003,-0.04735146090388298
-1.3427170515060425,2.4173152446746826,-0.048782654106616974
-1.3296233415603638,2.433426856994629,-0.04991545528173447
-1.315510630607605,2.449934482574463,-0.05103170871734619
-1.331809163093567,2.525298595428467,-0.05340887978672981
-1.2960686683654785,2.499894857406616,-0.05362066626548767
-1.2855197191238403,2.5228614807128906,-0.05485702306032181
-1.2897546291351318,2.5775794982910156,-0.05678543448448181
-1.277794361114502,2.6009252071380615,-0.0580412819981575
-1.2763512134552002,2.645045042037964,-0.05975395068526268
-1.2409663200378418,2.6186559200286865,-0.05985632166266441
-1.2104160785675049,2.6027777194976807,-0.060166358947753906
-1.1996151208877563,2.6292316913604736,-0.06145631521940231
-1.197251796722412,2.6731386184692383,-0.06314337253570557
-1.1596208810806274,2.638545513153076,-0.062968909740448
-1.146354079246521,2.6613340377807617,-0.0641363114118576
-1.1680971384048462,2.7666714191436768,-0.06731126457452774
-1.1576181650161743,2.796429395675659,-0.0686592236161232
-1.1439701318740845,2.818885326385498,-0.06983523815870285
-1.1279700994491577,2.8379170894622803,-0.07089447975158691
-1.1297633647918701,2.9043312072753906,-0.07316350936889648
-1.111952781677246,2.9195361137390137,-0.07413842529058456
-1.0998564958572388,2.949115037918091,-0.0754760205745697
-1.088372826576233,2.9824681282043457,-0.07690343260765076
-1.074853539466858,3.0122368335723877,-0.07823329418897629
-1.052879810333252,3.0199673175811768,-0.07900853455066681
-1.039415717124939,3.049373149871826,-0.08033265173435211
-1.0243340730667114,3.0750391483306885,-0.08157020062208176
-1.0120117664337158,3.1119654178619385,-0.08305759727954865
-0.9897452592849731,3.1190996170043945,-0.08375678956508636
-0.9741718173027039,3.1485135555267334,-0.08506640791893005
-0.9611958265304565,3.1851255893707275,-0.08656704425811768
-0.946533739566803,3.2179975509643555,-0.08796170353889465
-0.9299679398536682,3.2471842765808105,-0.08922361582517624
-0.9130606651306152,3.276289701461792,-0.09049373865127563
-0.8920637369155884,3.2901434898376465,-0.09134412556886673
-0.8816947340965271,3.345442771911621,-0.09336124360561371
-0.858210563659668,3.3515267372131348,-0.09397278726100922
-0.8419721126556396,3.387824773788452,-0.09539975970983505
-0.8234321475028992,3.416466474533081,-0.09662237763404846
-0.805715799331665,3.448746919631958,-0.09795355796813965
-0.782978355884552,3.461970567703247,-0.09875771403312683
-0.765302300453186,3.4978888034820557,-0.10016939043998718
-0.7526245713233948,3.5605106353759766,-0.10232482105493546
-0.7274219989776611,3.565729856491089,-0.10284107178449631
-0.7130511999130249,3.6243464946746826,-0.10490335524082184
-0.6939380764961243,3.6638121604919434,-0.10643035918474197
-0.6738696098327637,3.6992979049682617,-0.10780420899391174
-0.6525300741195679,3.7308590412139893,-0.10903606563806534
-0.6301001906394958,3.7584564685821533,-0.11016208678483963
-0.6100255846977234,3.801304578781128,-0.11174293607473373
-0.5884473919868469,3.8402464389801025,-0.11322502791881561
-0.5694922804832458,3.898343324661255,-0.11523952335119247
-0.5480063557624817,3.9447782039642334,-0.11686969548463821
-0.525385856628418,3.987230062484741,-0.11839299649000168
-0.5023052096366882,4.029542922973633,-0.11992214620113373
-0.47838616371154785,4.067826271057129,-0.12134044617414474
-0.45551595091819763,4.1254401206970215,-0.1233246922492981
-0.43020346760749817,4.163476943969727,-0.12465711683034897
-0.40658602118492126,4.224682807922363,-0.12669406831264496
-0.3791259825229645,4.250748157501221,-0.12768656015396118
-0.3489188551902771,4.245489597320557,-0.12774400413036346
-0.31825006008148193,4.240058898925781,-0.12779775261878967
-0.2912498414516449,4.281129837036133,-0.12915292382240295
-0.3091055452823639,5.066399574279785,-0.15298901498317719
-0.27052071690559387,5.009947776794434,-0.15143615007400513
-0.23604005575180054,5.01950216293335,-0.15188345313072205
-0.19959332048892975,4.997631549835205,-0.15138958394527435
-0.16423211991786957,4.983288288116455,-0.1510315090417862
-0.12926557660102844,4.976503849029541,-0.15088976919651031
-0.0945499911904335,4.97728157043457,-0.15098454058170319
-0.059780463576316833,4.966103553771973,-0.15072359144687653
-0.024597689509391785,4.958590507507324,-0.15058238804340363
0.005278099328279495,2.6433072090148926,-0.08028104901313782
0.023644860833883286,2.643207311630249,-0.08025971800088882
0.04253152757883072,2.674211263656616,-0.08118651807308197
0.06095824018120766,2.666044235229492,-0.08092792332172394
0.08034582436084747,2.6928744316101074,-0.08173554390668869
0.09941179305315018,2.69223952293396,-0.08169452100992203
0.11843133717775345,2.699288845062256,-0.081844262778759
0.24482597410678864,4.815792083740234,-0.14591042697429657
0.27737656235694885,4.7983880043029785,-0.1452827751636505
0.30898380279541016,4.769073009490967,-0.14430224895477295
0.34271788597106934,4.766772270202637,-0.144142284989357
0.37380948662757874,4.740943908691406,-0.1431599110364914
0.4052712619304657,4.722692012786865,-0.14241449534893036
0.43577688932418823,4.696455955505371,-0.14143674075603485
0.4683932960033417,4.693323135375977,-0.1411617547273636
0.4994678497314453,4.670493125915527,-0.14029894769191742
0.5308288335800171,4.659183502197266,-0.13971030712127686
0.5619593262672424,4.647676944732666,-0.1390990912914276
0.592998743057251,4.635957717895508,-0.13848863542079926
0.6251570582389832,4.631742000579834,-0.13810771703720093
0.6535173058509827,4.596288681030273,-0.1367989033460617
0.6840974688529968,4.58395528793335,-0.13612331449985504
0.7167947292327881,4.586874961853027,-0.13585136830806732
0.7445703744888306,4.5587263107299805,-0.13466641306877136
0.7728517651557922,4.534228801727295,-0.13359665870666504
0.8030398488044739,4.521063327789307,-0.13286754488945007
0.8292275071144104,4.484586715698242,-0.13141797482967377
0.7230638861656189,3.7655675411224365,-0.10998768359422684
0.750443160533905,3.768184185028076,-0.10970824211835861
0.9066446423530579,4.393905162811279,-0.12751354277133942
0.9403841495513916,4.402797698974609,-0.127361461520195
0.9755805730819702,4.41514778137207,-0.12727652490139008
1.0074453353881836,4.416016578674316,-0.12679852545261383
1.03582763671875,4.4014434814453125,-0.12588240206241608
1.0660897493362427,4.39423131942749,-0.1251804530620575
1.0966453552246094,4.386725902557373,-0.12447051703929901
1.1226725578308105,4.360000133514404,-0.1231890469789505
1.1504144668579102,4.344707012176514,-0.12216766923666
1.1779999732971191,4.3292388916015625,-0.12114909291267395
1.2035467624664307,4.306013584136963,-0.11991781741380692
1.235659122467041,4.305057048797607,-0.119306281208992
1.263709306716919,4.288788795471191,-0.11824513226747513
1.288347840309143,4.265161991119385,-0.11695095896720886
1.317306399345398,4.256331920623779,-0.1160709336400032
1.3466293811798096,4.247169494628906,-0.1151779517531395
1.373759150505066,4.230286121368408,-0.11407601088285446
1.4008941650390625,4.213173866271973,-0.11292169243097305
1.4256731271743774,4.192507743835449,-0.11164329200983047
1.4553653001785278,4.1864542961120605,-0.11076042056083679
1.482934594154358,4.172650337219238,-0.10966474562883377
1.5132182836532593,4.165944576263428,-0.10875660926103592
1.5401191711425781,4.151937484741211,-0.10760767012834549
1.560273289680481,4.119388103485107,-0.10595164448022842
1.5937135219573975,4.123345851898193,-0.10525313019752502
1.6166261434555054,4.097656726837158,-0.10377953946590424
1.6420594453811646,4.079140663146973,-0.10248754918575287
1.6635583639144897,4.053569793701172,-0.10095974057912827
1.6972764730453491,4.056535720825195,-0.1001332625746727
1.7250770330429077,4.044820308685303,-0.09894287586212158
2.0194103717803955,4.645188808441162,-0.11257938295602798
2.0556399822235107,4.642120361328125,-0.11140439659357071
2.083467960357666,4.621166229248047,-0.10978139936923981
2.1151773929595947,4.60677433013916,-0.10829155892133713
2.145503520965576,4.58845329284668,-0.10670194774866104
2.178536891937256,4.5772223472595215,-0.10526035726070404
2.2089598178863525,4.5626540184021,-0.10371075570583344
2.239316940307617,4.5478668212890625,-0.10215950012207031
2.2714247703552246,4.531952381134033,-0.10051323473453522
2.306069850921631,4.523227214813232,-0.09903641790151596
2.3324129581451416,4.500940322875977,-0.09722176939249039
2.369481086730957,4.499237060546875,-0.09585396945476532
1.7442450523376465,3.257033586502075,-0.06837713718414307
1.7553174495697021,3.2244505882263184,-0.06667409092187881
1.7466622591018677,3.157947301864624,-0.06425146758556366
1.746543049812317,3.108853340148926,-0.06222742050886154
1.797155499458313,3.1475424766540527,-0.06190980598330498
1.338276982307434,2.30761456489563,-0.04457227513194084
1.3157130479812622,2.2348697185516357,-0.04236125573515892
0.9541522860527039,1.5956159830093384,-0.029638752341270447
0.9713037014007568,1.5989731550216675,-0.029082030057907104
0.9817184805870056,1.592613697052002,-0.028326643630862236
0.9920778274536133,1.5861947536468506,-0.02757023461163044
1.003077745437622,1.579275369644165,-0.02676365338265896
1.0221834182739258,1.5856117010116577,-0.026162561029195786
1.0281131267547607,1.5724613666534424,-0.025248263031244278
1.0345573425292969,1.558875560760498,-0.024289445951581
1.0536669492721558,1.5649075508117676,-0.023619405925273895
1.0548373460769653,1.5452511310577393,-0.02255929820239544
2.5604567527770996,3.695432662963867,-0.051947299391031265
2.584564447402954,3.678643226623535,-0.049688152968883514
2.616943836212158,3.674907922744751,-0.0475730262696743
2.6423375606536865,3.656723737716675,-0.04507822170853615
2.618920087814331,3.577185869216919,-0.04186317324638367
2.6798272132873535,3.6099584102630615,-0.03981897979974747
2.62821102142334,3.6810507774353027,0.062119875103235245
2.5971384048461914,3.698218822479248,0.06490994244813919
2.561457633972168,3.7039945125579834,0.06730785965919495
1.057216763496399,1.5529755353927612,0.029136691242456436
1.0540136098861694,1.573968529701233,0.030446579679846764
1.0344102382659912,1.5682196617126465,0.031161779537796974
1.0310189723968506,1.5890870094299316,0.0324140265583992
1.0064525604248047,1.5770092010498047,0.032967809587717056
0.9996104836463928,1.5905697345733643,0.033994123339653015
0.9837623834609985,1.5912249088287354,0.03473198413848877
0.9717894196510315,1.598546028137207,0.03560837730765343
0.9684159159660339,1.6188045740127563,0.0367429256439209
0.9884780049324036,1.6795414686203003,0.03880205377936363
1.349514365196228,2.332491159439087,0.05481278896331787
1.8000787496566772,3.163567304611206,0.07555211335420609
1.7569702863693237,3.138533592224121,0.07611101865768433
1.750300645828247,3.1823952198028564,0.0783206969499588
1.7656525373458862,3.267396926879883,0.08155862987041473
1.7572731971740723,3.3072969913482666,0.08365155756473541
2.3722939491271973,4.5413994789123535,0.11634179204702377
2.335263967514038,4.551727294921875,0.11802802234888077
2.297585964202881,4.562069416046143,0.11974312365055084
2.255324125289917,4.556933403015137,0.12094994634389877
2.226698398590088,4.579628944396973,0.1228862851858139
2.189800977706909,4.588687896728516,0.12440773099660873
2.1595144271850586,4.611597537994385,0.12631136178970337
2.1270782947540283,4.626602649688721,0.1279565691947937
2.1006810665130615,4.65574312210083,0.13001354038715363
2.066868782043457,4.670809268951416,0.1315697878599167
2.026644706726074,4.671336650848389,0.13271404802799225
1.7472280263900757,4.107089042663574,0.11765599995851517
1.7065678834915161,4.090284824371338,0.11812160164117813
1.675490379333496,4.098857402801514,0.11929696053266525
1.653032898902893,4.128967761993408,0.12105850875377655
1.6202855110168457,4.133504390716553,0.12207790464162827
1.5970107316970825,4.159252643585205,0.12370012700557709
1.5679926872253418,4.170242786407471,0.12489145994186401
1.5401170253753662,4.188905715942383,0.126257061958313
1.5098508596420288,4.199875354766846,0.12737718224525452
1.4797931909561157,4.210526943206787,0.1284867227077484
1.4479120969772339,4.213305950164795,0.12934048473834991
1.4209532737731934,4.230680465698242,0.130635604262352
1.3924710750579834,4.248327255249023,0.13188204169273376
1.364368200302124,4.265604019165039,0.13311365246772766
1.3341007232666016,4.275136470794678,0.13410384953022003
1.3088412284851074,4.299234867095947,0.1355479657649994
1.2787095308303833,4.308262825012207,0.13650724291801453
1.2521936893463135,4.332275390625,0.13787207007408142
1.2238322496414185,4.352512359619141,0.13913753628730774
1.1919490098953247,4.357275485992432,0.1399003565311432
1.1616532802581787,4.365421772003174,0.1407664716243744
1.1321643590927124,4.37716817855835,0.1417457014322281
1.1029284000396729,4.3926520347595215,0.14276184141635895
1.0766538381576538,4.423254013061523,0.14428964257240295
1.0434792041778564,4.423149585723877,0.14481410384178162
1.0179319381713867,4.453106880187988,0.1463213562965393
0.985228955745697,4.452434062957764,0.14683175086975098
0.9520472288131714,4.4516401290893555,0.14724811911582947
0.9245855212211609,4.481323719024658,0.14867793023586273
0.7541294097900391,3.790846109390259,0.1261471062898636
0.7299190163612366,3.807490348815918,0.1270780861377716
0.834475040435791,4.522732257843018,0.15140332281589508
0.8088123202323914,4.563061237335205,0.15314772725105286
0.7772991061210632,4.576436996459961,0.1539503037929535
0.7474579811096191,4.597209930419922,0.15500514209270477
0.7163834571838379,4.610038757324219,0.15579919517040253
0.6854303479194641,4.622617721557617,0.15659065544605255
0.6542807817459106,4.634997367858887,0.1573670208454132
0.6236695051193237,4.658895969390869,0.15844520926475525
0.590838611125946,4.663159370422363,0.15886034071445465
0.5598324537277222,4.68269681930542,0.15980462729930878
0.5281162261962891,4.694223403930664,0.16048124432563782
0.4970855116844177,4.71329927444458,0.1614251434803009
0.4656253755092621,4.73219108581543,0.16229592263698578
0.43326371908187866,4.75093412399292,0.16313166916370392
0.4005615711212158,4.761628150939941,0.16369691491127014
0.36787018179893494,4.772086143493652,0.16426189243793488
0.33660367131233215,4.801778793334961,0.165497288107872
0.302714467048645,4.796200752258301,0.16551512479782104
0.26902127265930176,4.806023120880127,0.16595184803009033
0.23658081889152527,4.831174850463867,0.16692502796649933
0.2041293829679489,4.863908290863037,0.1681695431470871
0.17119145393371582,4.892517566680908,0.1692807376384735
0.13714736700057983,4.893584251403809,0.169447660446167
0.10264718532562256,4.902235507965088,0.16982316970825195
0.06878875941038132,4.9262518882751465,0.1706715077161789
0.03460037708282471,4.950033187866211,0.1715201884508133
0.00013263194705359638,4.977480411529541,0.1725044846534729
-0.03447723016142845,4.977359771728516,0.17254187166690826
-0.06978125125169754,4.98479700088501,0.1728505939245224
-0.10500456392765045,5.015420913696289,0.1738506406545639
-0.13977976143360138,5.014575481414795,0.17375028133392334
-0.17459745705127716,5.013486862182617,0.17364978790283203
-0.2104339301586151,5.035558700561523,0.1743595004081726
-0.24658578634262085,5.057372570037842,0.17506827414035797
-0.28518351912498474,5.106178283691406,0.1766849309206009
-0.32052212953567505,5.104090213775635,0.1764439195394516
-0.2990732192993164,4.287813186645508,0.1480911374092102
-0.3258023262023926,4.2467193603515625,0.14654506742954254
-0.3572275936603546,4.267704010009766,0.14714859426021576
-0.38672059774398804,4.257299900054932,0.14667432010173798
-0.41269245743751526,4.219568252563477,0.1451951563358307
-0.43770745396614075,4.177806377410889,0.1435437649488449
-0.4608657658100128,4.12426233291626,0.1414988934993744
-0.483845978975296,4.074466705322266,0.13959354162216187
-0.5063347220420837,4.020596504211426,0.13755548000335693
-0.5270190238952637,3.9628169536590576,0.1353946328163147
-0.5510131120681763,3.9359142780303955,0.13420912623405457
-0.5706873536109924,3.8818323612213135,0.13210809230804443
-0.592579185962677,3.846966028213501,0.13067294657230377
-0.6128848195075989,3.8003034591674805,0.1288413256406784
-0.6353716850280762,3.772869110107422,0.1276760846376419
-0.6525851488113403,3.71842622756958,0.12555725872516632
-0.6766085028648376,3.706209182739258,0.12482713907957077
-0.6946760416030884,3.663151264190674,0.12306801229715347
-0.7153724431991577,3.635310411453247,0.12182898074388504
-0.7325624227523804,3.588080406188965,0.11994253098964691
-0.7453938722610474,3.5256166458129883,0.11756069958209991
-0.7678104639053345,3.512828826904297,0.11675096303224564
-0.7866483926773071,3.484666109085083,0.11543898284435272
-0.8015943169593811,3.4412009716033936,0.11363199353218079
-0.8195077776908875,3.40889573097229,0.11219359189271927
-0.8393836617469788,3.387986898422241,0.11114706844091415
-0.8567594885826111,3.3594839572906494,0.10980601608753204
-0.8736299872398376,3.3309438228607178,0.10845035314559937
-0.8901224732398987,3.3023383617401123,0.1071038469672203
-0.9080809950828552,3.2772128582000732,0.10586623102426529
-0.9265046715736389,3.2558374404907227,0.1047646775841713
-0.9400853514671326,3.219435930252075,0.1031556949019432
-0.95512455701828,3.190582275390625,0.10175427794456482
-0.9663816690444946,3.150474786758423,0.10000695288181305
-0.9813125133514404,3.1213290691375732,0.09860612452030182
-0.9981957674026489,3.099588632583618,0.09745147079229355
-1.0170973539352417,3.0852386951446533,0.09651991724967957
-1.031663417816162,3.059825897216797,0.09520650655031204
-1.0497502088546753,3.0454318523406982,0.09424465894699097
-1.067949652671814,3.0308420658111572,0.09327708929777145
-1.078755497932434,2.993854284286499,0.09161366522312164
-1.0872215032577515,2.9533939361572266,0.08984740823507309
-1.107028603553772,2.9460511207580566,0.08904720842838287
-1.1072382926940918,2.887523651123047,0.08671320229768753
-1.118423342704773,2.8580901622772217,0.08526147902011871
-1.1328587532043457,2.83561110496521,0.08400805294513702
-1.1449092626571655,2.809720039367676,0.08264947682619095
-1.1607184410095215,2.7947959899902344,0.0815921276807785
-1.1611828804016113,2.743816375732422,0.07949624210596085
-1.1475695371627808,2.6604840755462646,0.07647747546434402
-1.1631828546524048,2.6451897621154785,0.07542164623737335
-1.177738070487976,2.630211591720581,0.07435190677642822
-1.195226788520813,2.622335433959961,0.07347500324249268
-1.2094957828521729,2.6072022914886475,0.07239531725645065
-1.2342573404312134,2.6128828525543213,0.07187110930681229
-1.2524895668029785,2.6042182445526123,0.07092632353305817
-1.2765693664550781,2.6099252700805664,0.07035066932439804
-1.2746943235397339,2.562978744506836,0.0683656856417656
-1.2782397270202637,2.5262744426727295,0.06664591282606125
-1.2922271490097046,2.510392904281616,0.06548188626766205
-1.3051843643188477,2.4948954582214355,0.06429850310087204
-1.3109064102172852,2.4654128551483154,0.06275209039449692
-1.3239718675613403,2.4495723247528076,0.06155247986316681
-1.3353207111358643,2.4300708770751953,0.060254089534282684
-1.3474889993667603,2.4144299030303955,0.05901956930756569
-1.351702332496643,2.385202646255493,0.05746025964617729
-1.3643372058868408,2.3690154552459717,0.05617533251643181
-1.392610788345337,2.379723310470581,0.05552130192518234
-1.4041203260421753,2.363896369934082,0.05422127619385719
-1.4114500284194946,2.3413307666778564,0.052776940166950226
-1.4194482564926147,2.31821870803833,0.051278140395879745
-1.4352784156799316,2.308478355407715,0.05005012825131416
-1.4459331035614014,2.2926158905029297,0.04869398847222328
-1.4506794214248657,2.2664904594421387,0.04709414020180702
-1.45365571975708,2.2367122173309326,0.045389000326395035
-1.4765722751617432,2.2404115200042725,0.04434427246451378
-1.4784103631973267,2.211089849472046,0.0426105335354805
-1.4937304258346558,2.200795888900757,0.04120411351323128
-1.498866319656372,2.178389310836792,0.039570581167936325
-1.4838829040527344,2.127023935317993,0.037413738667964935
-1.4895367622375488,2.103980541229248,0.03569673001766205
-1.4937710762023926,2.0818023681640625,0.03395931422710419
-1.5075442790985107,2.0718753337860107,0.03237214684486389
-1.5119291543960571,2.0493195056915283,0.03051932156085968
-1.4979625940322876,2.0980000495910645,-0.03511417284607887
-1.4918391704559326,2.1214561462402344,-0.0371367409825325
-1.4782297611236572,2.135681629180908,-0.038967836648225784
-1.4929866790771484,2.1918463706970215,-0.041562389582395554
-1.4862480163574219,2.2152280807495117,-0.043468672782182693
-1.4693900346755981,2.226412534713745,-0.045135289430618286
-1.4572185277938843,2.243684768676758,-0.046888068318367004
-1.4453637599945068,2.2605841159820557,-0.04856560751795769
-1.4345585107803345,2.281275749206543,-0.05032685026526451
-1.4223077297210693,2.2980918884277344,-0.05195097625255585
-1.414114236831665,2.3214216232299805,-0.05369659140706062
-1.4045003652572632,2.3454437255859375,-0.05548510327935219
-1.3955137729644775,2.3689169883728027,-0.057214997708797455
-1.386867642402649,2.3920302391052246,-0.05891067907214165
-1.3575952053070068,2.3817968368530273,-0.059766847640275955
-1.3438950777053833,2.3984766006469727,-0.061290595680475235
-1.3381078243255615,2.428463935852051,-0.06313587725162506
-1.326208233833313,2.4482812881469727,-0.06469754874706268
-1.3117960691452026,2.4648501873016357,-0.06617070734500885
-1.2977043390274048,2.48108172416687,-0.06761614233255386
-1.2839601039886475,2.496974229812622,-0.06903237104415894
-1.2795854806900024,2.534230947494507,-0.07104688882827759
-1.2870359420776367,2.5959653854370117,-0.07376165688037872
-1.2755259275436401,2.618990898132324,-0.07537072896957397
-1.2741237878799438,2.6629936695098877,-0.07759179174900055
-1.2248866558074951,2.6085145473480225,-0.07689235359430313
-1.2353287935256958,2.6811416149139404,-0.07994142919778824
-1.1967813968658447,2.647193431854248,-0.07981252670288086
-1.1815074682235718,2.6625585556030273,-0.08113658428192139
-1.1529507637023926,2.649484157562256,-0.08155135065317154
-1.1490979194641113,2.6936280727386475,-0.08373203873634338
-1.164686918258667,2.784499406814575,-0.08738718181848526
-1.1479203701019287,2.799860715866089,-0.08870461583137512
-1.133773684501648,2.8224241733551025,-0.0902106761932373
-1.1205787658691406,2.848644733428955,-0.09183107316493988
-1.1198742389678955,2.9075427055358887,-0.09452168643474579
-1.110626459121704,2.9444615840911865,-0.0965050458908081
-1.0935935974121094,2.963284492492676,-0.09790370613336563
-1.082916259765625,3.000399112701416,-0.09986057132482529
-1.0639675855636597,3.0154190063476562,-0.10109615325927734
-1.047867774963379,3.0375442504882812,-0.10256467759609222
-1.0353995561599731,3.0706393718719482,-0.10441332310438156
-1.0180062055587769,3.092862606048584,-0.10586072504520416
-0.9934628009796143,3.092601776123047,-0.106516532599926
-0.9807528853416443,3.129370927810669,-0.10845491290092468
-0.9612671732902527,3.1435463428497314,-0.10960718989372253
-0.9516071677207947,3.1912920475006104,-0.1119358241558075
-0.9397817850112915,3.2354393005371094,-0.11409232020378113
-0.9163428544998169,3.2421250343322754,-0.11495157331228256
-0.9017966985702515,3.2785744667053223,-0.11686012893915176
-0.8860532641410828,3.311131238937378,-0.11863883584737778
-0.8706923127174377,3.347454786300659,-0.12053794413805008
-0.8488572239875793,3.361084222793579,-0.12157372385263443
-0.8301806449890137,3.3898379802703857,-0.12317706644535065
-0.8127116560935974,3.422133445739746,-0.12490793317556381
-0.7888795733451843,3.427678108215332,-0.12566867470741272
-0.7732739448547363,3.4712109565734863,-0.12778887152671814
-0.7552648782730103,3.507101058959961,-0.12959270179271698
-0.7419126629829407,3.5697519779205322,-0.13241268694400787
-0.7215196490287781,3.5977954864501953,-0.1339527666568756
-0.7031514644622803,3.6371941566467285,-0.1359269917011261
-0.6819472312927246,3.665032148361206,-0.13742586970329285
-0.6629641056060791,3.7081527709960938,-0.1394570916891098
-0.6409294605255127,3.7397279739379883,-0.1410764753818512
-0.6211084127426147,3.7826123237609863,-0.14312522113323212
-0.5995755195617676,3.817676544189453,-0.1448918730020523
-0.5780583620071411,3.8565006256103516,-0.14675907790660858
-0.5564240217208862,3.899096965789795,-0.1487218737602234
-0.535260021686554,3.9532532691955566,-0.15114764869213104
-0.512611448764801,3.9955923557281494,-0.15312771499156952
-0.48997604846954346,4.041667461395264,-0.15526440739631653
-0.4671168625354767,4.091504096984863,-0.15751145780086517
-0.4421541392803192,4.1295952796936035,-0.15923675894737244
-0.41939833760261536,4.194723606109619,-0.16201864182949066
-0.39356186985969543,4.240334987640381,-0.1640651673078537
-0.36408600211143494,4.242952346801758,-0.16445292532444
-0.3339412808418274,4.237586498260498,-0.16451238095760345
-0.3065428137779236,4.27095365524292,-0.1659875214099884
-0.32787519693374634,5.063697338104248,-0.19701945781707764
-0.2919134199619293,5.065885543823242,-0.19734032452106476
-0.25410744547843933,5.01710319519043,-0.19567805528640747
-0.21779896318912506,4.987542629241943,-0.1947680413722992
-0.18359139561653137,5.004537582397461,-0.1955064982175827
-0.14776667952537537,4.974478721618652,-0.19441598653793335
-0.11301945149898529,4.998809814453125,-0.19546224176883698
-0.04157724604010582,2.6577982902526855,-0.10397940129041672
-0.022774621844291687,2.626795768737793,-0.10282576829195023
-0.004472666420042515,2.6268906593322754,-0.10282955318689346
0.014061929658055305,2.665890693664551,-0.10434557497501373
0.03307495266199112,2.673529863357544,-0.10463897138834
0.050726164132356644,2.626405954360962,-0.10279420018196106
0.06854452192783356,2.6103832721710205,-0.1021716296672821
0.08739262074232101,2.6332554817199707,-0.10302292555570602
0.10782089084386826,2.687192916870117,-0.10505358129739761
0.22698941826820374,4.823017597198486,-0.18841798603534698
0.25898268818855286,4.782323837280273,-0.18670184910297394
0.2920377254486084,4.776515960693359,-0.18635983765125275
0.32417234778404236,4.758802890777588,-0.18551085889339447
0.35655635595321655,4.7486701011657715,-0.18487142026424408
0.3881770968437195,4.7305378913879395,-0.18393060564994812
0.419467955827713,4.704366683959961,-0.18268388509750366
0.45069023966789246,4.6858062744140625,-0.181746706366539
0.4832426905632019,4.68257474899292,-0.18138942122459412
0.514675498008728,4.671389579772949,-0.18059490621089935
0.5464731454849243,4.663865566253662,-0.1799509972333908
0.5763701796531677,4.636684417724609,-0.17855308949947357
0.6075726747512817,4.624845027923584,-0.17776092886924744
0.638638436794281,4.612795352935791,-0.17697039246559143
0.6692245602607727,4.600591659545898,-0.17605164647102356
0.6973508596420288,4.572746276855469,-0.17454098165035248
0.7281137704849243,4.560067176818848,-0.17361323535442352
0.757888674736023,4.543365478515625,-0.1725454181432724
0.7881354689598083,4.530316352844238,-0.1716264933347702
0.8137320876121521,4.494083881378174,-0.16972726583480835
0.7088672518730164,3.7672019004821777,-0.14182037115097046
0.7347226738929749,3.762268543243408,-0.14118586480617523
0.7628872990608215,3.7646496295928955,-0.14081810414791107
0.9285828471183777,4.424026012420654,-0.1649610698223114
0.9606749415397644,4.425189971923828,-0.16438505053520203
0.9884047508239746,4.407111167907715,-0.16307035088539124
1.0194534063339233,4.4040727615356445,-0.16232097148895264
1.050552248954773,4.396791458129883,-0.16140249371528625
1.0829722881317139,4.396993160247803,-0.16077585518360138
1.106353521347046,4.36301851272583,-0.15881888568401337
1.1341488361358643,4.347844123840332,-0.15752831101417542
1.1657962799072266,4.347586154937744,-0.15678644180297852
1.1903364658355713,4.316677093505859,-0.15492117404937744
1.220370888710022,4.308319091796875,-0.15388940274715424
1.2454224824905396,4.284924507141113,-0.15223422646522522
1.2746002674102783,4.276376247406006,-0.15109553933143616
1.299192190170288,4.252683639526367,-0.14943069219589233
1.3339476585388184,4.258318901062012,-0.14877229928970337
1.3611536026000977,4.241541862487793,-0.14735104143619537
1.3874763250350952,4.224830150604248,-0.14582903683185577
1.4111484289169312,4.200554847717285,-0.14405764639377594
1.4385982751846313,4.1871490478515625,-0.14266200363636017
1.4689594507217407,4.180776119232178,-0.1414983868598938
1.4916892051696777,4.1520280838012695,-0.13954181969165802
1.5224326848983765,4.149219036102295,-0.13841313123703003
1.5476945638656616,4.131570816040039,-0.13679693639278412
1.5761291980743408,4.120852947235107,-0.1353980153799057
1.59626042842865,4.088004112243652,-0.13327325880527496
1.6274330615997314,4.084150314331055,-0.13202179968357086
1.6549320220947266,4.0731329917907715,-0.13053244352340698
1.6824495792388916,4.061892032623291,-0.129038006067276
1.7137339115142822,4.057319641113281,-0.12772610783576965
1.9841101169586182,4.6085076332092285,-0.14373630285263062
2.034339189529419,4.637825965881348,-0.14321409165859222
2.067026376724243,4.627683162689209,-0.14148880541324615
2.0988686084747314,4.6133856773376465,-0.13960470259189606
2.1292409896850586,4.595201015472412,-0.13759838044643402
2.161653995513916,4.584419250488281,-0.13572624325752258
2.192767381668091,4.569678783416748,-0.13370457291603088
2.2239086627960205,4.55466365814209,-0.13167445361614227
2.255493402481079,4.539165496826172,-0.12960852682590485
2.284108877182007,4.5205183029174805,-0.12741619348526
2.3140528202056885,4.505321979522705,-0.1253119707107544
2.3500163555145264,4.499948501586914,-0.12344323843717575
1.7644269466400146,3.3210339546203613,-0.0897722840309143
1.7476661205291748,3.2370259761810303,-0.0861823707818985
1.7690643072128296,3.2254247665405273,-0.08454252034425735
1.747275948524475,3.1348795890808105,-0.08083187788724899
1.7689815759658813,3.1227259635925293,-0.07915592938661575
1.8268067836761475,3.175198793411255,-0.07901941239833832
1.3374462127685547,2.2897675037384033,-0.055937688797712326
0.9546579122543335,1.6087684631347656,-0.03852158412337303
0.9695932269096375,1.6089603900909424,-0.03773415461182594
0.9760030508041382,1.5959534645080566,-0.0366324782371521
0.9848226308822632,1.5859535932540894,-0.03556958585977554
1.0020869970321655,1.5889935493469238,-0.03478112444281578
1.016579508781433,1.5890640020370483,-0.03390086442232132
1.018466830253601,1.5692847967147827,-0.03259288892149925
1.0335988998413086,1.5687450170516968,-0.03163982555270195
1.0395797491073608,1.5554232597351074,-0.03040253557264805
1.0495967864990234,1.548702597618103,-0.02930387668311596
1.0692099332809448,1.5542502403259277,-0.02835332788527012
2.5716943740844727,3.6874189376831055,-0.06472377479076385
2.6002542972564697,3.676957607269287,-0.06190672516822815
2.625727653503418,3.658862590789795,-0.05873874947428703
2.634812593460083,3.6234376430511475,-0.05535411089658737
2.6500422954559326,3.5929677486419678,-0.05184023827314377
2.6105618476867676,3.6884429454803467,0.08073564618825912
2.584401845932007,3.7067453861236572,0.08407168835401535
1.0760244131088257,1.5683529376983643,0.03677290305495262
1.0553110837936401,1.563520073890686,0.037826694548130035
1.0400069952011108,1.5643402338027954,0.038905251771211624
1.0238051414489746,1.565636396408081,0.03997404873371124
1.0207594633102417,1.5862014293670654,0.041503287851810455
1.0054117441177368,1.5867050886154175,0.042464930564165115
0.989051342010498,1.58772873878479,0.04343467950820923
0.9753098487854004,1.5915982723236084,0.04443783685564995
0.9662302136421204,1.6016600131988525,0.045567918568849564
0.9663090705871582,1.6288858652114868,0.04718261957168579
1.347572922706604,2.310673952102661,0.06811079382896423
1.8382481336593628,3.204209804534912,0.09600137174129486
1.7884520292282104,3.169588088989258,0.09644050896167755
1.7497265338897705,3.155400037765503,0.0974389910697937
1.7696868181228638,3.2468576431274414,0.10170038789510727
1.7544358968734741,3.272800922393799,0.10389156639575958
2.3835368156433105,4.525834560394287,0.145540252327919
2.33937668800354,4.522380828857422,0.14722518622875214
2.3174331188201904,4.559885025024414,0.15020757913589478
2.2821309566497803,4.568853855133057,0.15220870077610016
2.2456672191619873,4.578116416931152,0.15416614711284637
2.2114267349243164,4.594679832458496,0.1563744992017746
2.178312301635742,4.610398292541504,0.15850266814231873
2.14941668510437,4.632478713989258,0.1608099490404129
2.109912157058716,4.633379936218262,0.16233275830745697
2.0856096744537354,4.669967174530029,0.16506144404411316
2.0484673976898193,4.677785396575928,0.1667817384004593
1.9921410083770752,4.6383137702941895,0.16677017509937286
1.723236083984375,4.090789794921875,0.14828424155712128
1.690537691116333,4.095907688140869,0.14958487451076508
1.666635274887085,4.122483253479004,0.15167896449565887
1.6373324394226074,4.134152412414551,0.15321218967437744
1.6051923036575317,4.138307094573975,0.15447016060352325
1.5813684463500977,4.164122581481934,0.15648028254508972
1.5540037155151367,4.182688236236572,0.15818490087985992
1.5211204290390015,4.186398983001709,0.15933597087860107
1.497036099433899,4.211594104766846,0.1612834483385086
1.4646244049072266,4.214656352996826,0.16240505874156952
1.4370737075805664,4.232325553894043,0.1639891415834427
1.4090800285339355,4.249904632568359,0.16554652154445648
1.3833115100860596,4.274726390838623,0.16739919781684875
1.353499174118042,4.284210681915283,0.16863559186458588
1.3208699226379395,4.2861647605896,0.16959546506404877
1.297091007232666,4.317835807800293,0.17162731289863586
1.2639696598052979,4.319469451904297,0.17244844138622284
1.2351690530776978,4.3358659744262695,0.1738678365945816
1.208027958869934,4.355615139007568,0.17541421949863434
1.1766822338104248,4.360101222991943,0.17635375261306763
1.1462513208389282,4.372193336486816,0.1775359809398651
1.122728705406189,4.410481929779053,0.17974305152893066
1.0912302732467651,4.41834020614624,0.180723637342453
1.0584726333618164,4.41823673248291,0.1813734769821167
1.0276583433151245,4.4254655838012695,0.18232952058315277
1.0011074542999268,4.455515384674072,0.18418551981449127
0.9677899479866028,4.454848766326904,0.18469548225402832
0.9360931515693665,4.461582183837891,0.18552140891551971
0.7683643102645874,3.7947587966918945,0.15826012194156647
0.741904079914093,3.799992084503174,0.15894760191440582
0.7257376909255981,3.86266827583313,0.16204775869846344
0.8204601407051086,4.5436601638793945,0.19105972349643707
0.7936309576034546,4.580085754394531,0.1930462270975113
0.761214017868042,4.585555553436279,0.19374069571495056
0.7330064177513123,4.613831996917725,0.1954023838043213
0.6991825103759766,4.611155033111572,0.1957726925611496
0.6679562926292419,4.623642921447754,0.1966935694217682
0.6390981674194336,4.655273914337158,0.19839327037334442
0.6062570810317993,4.659640789031982,0.19894345104694366
0.5746113061904907,4.671490669250488,0.19982047379016876
0.5448553562164307,4.698605537414551,0.2013600468635559
0.5123796463012695,4.710086345672607,0.20222757756710052
0.4801410436630249,4.721312046051025,0.20293478667736053
0.4484589695930481,4.740090847015381,0.20397815108299255
0.41653677821159363,4.7586565017700195,0.20502394437789917
0.3843441903591156,4.77309513092041,0.20590125024318695
0.3510740101337433,4.783466815948486,0.20661914348602295
0.3181799352169037,4.793577194213867,0.20725244283676147
0.285942018032074,4.819055557250977,0.20849034190177917
0.25341007113456726,4.844313144683838,0.2097301334142685
0.22028130292892456,4.8615498542785645,0.21063369512557983
0.18649041652679443,4.878574371337891,0.21154159307479858
0.15341578423976898,4.907048225402832,0.21295493841171265
0.1194021999835968,4.915797233581543,0.21337884664535522
0.08526410907506943,4.924311637878418,0.21378447115421295
0.051304321736097336,4.9560017585754395,0.21520692110061646
0.016263702884316444,4.971848011016846,0.21595333516597748
-0.018348466604948044,4.971837997436523,0.21602080762386322
-0.05302967503666878,4.983295917510986,0.21656139194965363
-0.08805727958679199,5.006223201751709,0.21748049557209015
-0.12326418608427048,5.021100044250488,0.21805967390537262
-0.15863245725631714,5.03572940826416,0.2186383754014969
-0.1948595643043518,5.050083637237549,0.21921464800834656
-0.23029114305973053,5.05640983581543,0.21945370733737946
-0.26681122183799744,5.081978797912598,0.22044222056865692
-0.30380743741989136,5.111189365386963,0.22151507437229156
-0.286935418844223,4.322381973266602,0.18717336654663086
-0.31541913747787476,4.293015956878662,0.18575330078601837
-0.34214380383491516,4.251827716827393,0.18383504450321198
-0.37511247396469116,4.288232803344727,0.18528063595294952
-0.40029212832450867,4.238933563232422,0.18291370570659637
-0.4236411452293396,4.17784309387207,0.18003499507904053
-0.4504378139972687,4.15150260925293,0.17866310477256775
-0.4715961813926697,4.082388401031494,0.17546691000461578
-0.4937564730644226,4.028672695159912,0.1729469746351242
-0.5206801295280457,4.01742696762085,0.17222952842712402
-0.5419231653213501,3.967374801635742,0.1697593331336975
-0.5624408721923828,3.913288116455078,0.16712671518325806
-0.5835262537002563,3.870755434036255,0.16500785946846008
-0.6037410497665405,3.8242177963256836,0.16272911429405212
-0.6265140175819397,3.7968411445617676,0.1612786054611206
-0.6433815360069275,3.7386112213134766,0.15844695270061493
-0.666914165019989,3.7226154804229736,0.1573745757341385
-0.6842466592788696,3.671862840652466,0.15483993291854858
-0.7036638855934143,3.636418342590332,0.15296947956085205
-0.7205257415771484,3.589360475540161,0.15062227845191956
-0.7406426072120667,3.5613725185394287,0.1490740031003952
-0.7559287548065186,3.514284610748291,0.1466485559940338
-0.7702134251594543,3.463244676589966,0.1440678834915161
-0.7973830103874207,3.473137617111206,0.14404071867465973
-0.8142210245132446,3.437175750732422,0.14211517572402954
-0.8315570950508118,3.4049317836761475,0.14035676419734955
-0.8490684032440186,3.3764946460723877,0.13868758082389832
-0.8664551973342896,3.34792160987854,0.13698628544807434
-0.8811169266700745,3.3118221759796143,0.13500003516674042
-0.9008666276931763,3.2943971157073975,0.13377885520458221
-0.9174606204032898,3.2655258178710938,0.13209980726242065
-0.9291117191314697,3.2216572761535645,0.12979359924793243
-0.9469037652015686,3.200227975845337,0.12833993136882782
-0.9651801586151123,3.1825616359710693,0.12705861032009125
-0.9776946306228638,3.146087169647217,0.12503370642662048
-0.9924285411834717,3.1169333457946777,0.12330705672502518
-1.0114890336990356,3.102623701095581,0.12216328084468842
-1.024106502532959,3.069725751876831,0.12022578716278076
-1.0397332906723022,3.0480103492736816,0.11875157803297043
-1.0578943490982056,3.033522605895996,0.11756257712841034
-1.0789469480514526,3.0261342525482178,0.11664310097694397
-1.0891505479812622,2.9892959594726562,0.11458688229322433
-1.0915316343307495,2.9343783855438232,0.1117846667766571
-1.1004674434661865,2.8976938724517822,0.10968926548957825
-1.1088814735412598,2.8610522747039795,0.10761716961860657
-1.1230655908584595,2.8387649059295654,0.10608381778001785
-1.1382379531860352,2.82012677192688,0.10467857867479324
-1.1541756391525269,2.80523943901062,0.10336356610059738
-1.1551789045333862,2.75413179397583,0.10071977227926254
-1.144840121269226,2.6779944896698,0.09719438850879669
-1.14004647731781,2.6163175106048584,0.09422026574611664
-1.1641106605529785,2.6228322982788086,0.0936841294169426
-1.2120773792266846,2.6826682090759277,0.09500371664762497
-1.2008594274520874,2.6105868816375732,0.09163983911275864
-1.2289011478424072,2.6234357357025146,0.09125442057847977
-1.243779182434082,2.6078052520751953,0.08987446129322052
-1.2780883312225342,2.6346683502197266,0.08989465981721878
-1.2920982837677002,2.6191623210906982,0.0884624719619751
-1.2769088745117188,2.5438992977142334,0.08500432223081589
-1.2874506711959839,2.521096706390381,0.08332831412553787
-1.31510329246521,2.533249616622925,0.08277445286512375
-1.309895634651184,2.4831316471099854,0.08018195629119873
-1.3191159963607788,2.460578441619873,0.07848826795816422
-1.3268359899520874,2.4342527389526367,0.0766540989279747
-1.3434723615646362,2.42515230178833,0.07532506436109543
-1.3478167057037354,2.39593505859375,0.07338070124387741
-1.359911322593689,2.380141019821167,0.07184065133333206
-1.37253737449646,2.3638978004455566,0.07025077939033508
-1.4001662731170654,2.3749191761016846,0.06944403052330017
-1.4199029207229614,2.372321128845215,0.06819655001163483
-1.4156197309494019,2.3293423652648926,0.06578315794467926
-1.4235401153564453,2.306215524673462,0.06392338871955872
-1.4342279434204102,2.290414810180664,0.06224533170461655
-1.4489847421646118,2.2811484336853027,0.060748834162950516
-1.4503341913223267,2.247868537902832,0.058504026383161545
-1.4694759845733643,2.2447850704193115,0.05706179141998291
-1.479539394378662,2.2288365364074707,0.05528107285499573
-1.4860095977783203,2.205758810043335,0.05324963480234146
-1.4742248058319092,2.1571600437164307,0.05060315877199173
-1.5014219284057617,2.1669304370880127,0.04930362105369568
-1.4869970083236694,2.115123748779297,0.04652750864624977
-1.4962905645370483,2.0990142822265625,0.04452482983469963
-1.5049138069152832,2.0832505226135254,0.04251997917890549
-1.5054864883422852,2.0538926124572754,0.04009079933166504
-1.5181070566177368,2.0446207523345947,0.038067229092121124
-1.4947837591171265,2.1096935272216797,-0.04343438893556595
-1.4797563552856445,2.120215654373169,-0.04559684172272682
-1.496633768081665,2.1797354221343994,-0.04885340854525566
-1.4939751625061035,2.2098536491394043,-0.05140155926346779
-1.4819425344467163,2.227280378341675,-0.05361166596412659
-1.4694631099700928,2.2448248863220215,-0.05581580474972725
-1.4580286741256714,2.261519193649292,-0.05788356065750122
-1.4432878494262695,2.275531768798828,-0.05987739562988281
-1.4302812814712524,2.292888641357422,-0.061971016228199005
-1.4265165328979492,2.322726249694824,-0.0643058642745018
-1.4093337059020996,2.333142042160034,-0.06610187888145447
-1.4039384126663208,2.3636345863342285,-0.06847408413887024
-1.3913967609405518,2.3800406455993652,-0.07036437094211578
-1.377774715423584,2.3969128131866455,-0.07229191064834595
-1.3523340225219727,2.3933825492858887,-0.07357165962457657
-1.3391180038452148,2.4096903800964355,-0.07540492713451385
-1.329677700996399,2.4326770305633545,-0.07743223756551743
-1.3173198699951172,2.4526453018188477,-0.07934784144163132
-1.3027222156524658,2.469210386276245,-0.08118041604757309
-1.2962716817855835,2.498974084854126,-0.08338573575019836
-1.3049957752227783,2.560292959213257,-0.08666537702083588
-1.2897294759750366,2.576700448989868,-0.08843658119440079
-1.281522512435913,2.6068692207336426,-0.0906759575009346
-1.2732208967208862,2.6369192600250244,-0.09291774034500122
-1.234273076057434,2.6035654544830322,-0.09287185221910477
-1.2120554447174072,2.6053218841552734,-0.09404604136943817
-1.2063926458358765,2.642271041870117,-0.09648673236370087
-1.1879336833953857,2.6505706310272217,-0.09787222743034363
-1.1517210006713867,2.6196110248565674,-0.09775448590517044
-1.1617554426193237,2.696089267730713,-0.10165068507194519
-1.1652071475982666,2.7582309246063232,-0.10502968728542328
-1.1519404649734497,2.7806572914123535,-0.1068989634513855
-1.1440119743347168,2.817613124847412,-0.10932662338018417
-1.1265770196914673,2.8329827785491943,-0.11090362071990967
-1.1099989414215088,2.8520374298095703,-0.11265606433153152
-1.1096519231796265,2.9106853008270264,-0.11594389379024506
-1.101678729057312,2.95119047164917,-0.11853701621294022
-1.0832419395446777,2.966271162033081,-0.1200452446937561
-1.0698965787887573,2.9959418773651123,-0.12215902656316757
-1.0560855865478516,3.025604486465454,-0.12429630011320114
-1.0449844598770142,3.0624194145202637,-0.12672553956508636
-1.0269231796264648,3.080820083618164,-0.12835995852947235
-1.0168958902359009,3.125168561935425,-0.1310569941997528
-0.9897243976593018,3.117454767227173,-0.13158446550369263
-0.9814959764480591,3.169072389602661,-0.13461929559707642
-0.961693286895752,3.1832447052001953,-0.13606932759284973
-0.9423163533210754,3.2011971473693848,-0.13759903609752655
-0.9280976057052612,3.2377960681915283,-0.13994479179382324
-0.9073300957679749,3.2517364025115967,-0.1413198560476303
-0.8928760290145874,3.2880537509918213,-0.14367224276065826
-0.8744716644287109,3.3131368160247803,-0.1455376297235489
-0.8606802225112915,3.357008695602417,-0.1481490284204483
-0.8425123691558838,3.385707139968872,-0.15011142194271088
-0.8223815560340881,3.4066717624664307,-0.1517394334077835
-0.8030914664268494,3.431271553039551,-0.1535378396511078
-0.7837520241737366,3.4597115516662598,-0.15548716485500336
-0.7642589807510376,3.488006114959717,-0.1573634296655655
-0.7467986941337585,3.527655601501465,-0.15977062284946442
-0.7299048900604248,3.570990800857544,-0.16235774755477905
-0.714138388633728,3.621879816055298,-0.16530629992485046
-0.6934085488319397,3.6536760330200195,-0.16735002398490906
-0.6718339323997498,3.68147349357605,-0.16914977133274078
-0.6525954008102417,3.7245211601257324,-0.17166750133037567
-0.6323677897453308,3.7635908126831055,-0.17401620745658875
-0.6136186718940735,3.814094066619873,-0.17691104114055634
-0.5905802249908447,3.84533429145813,-0.17886985838413239
-0.569193422794342,3.887970209121704,-0.1812952607870102
-0.5472361445426941,3.930492639541626,-0.18373318016529083
-0.5253964066505432,3.976741313934326,-0.18636083602905273
-0.5025957226753235,4.018984317779541,-0.18881700932979584
-0.4795478582382202,4.064995288848877,-0.19139795005321503
-0.45655348896980286,4.122584819793701,-0.1944558471441269
-0.43123659491539,4.160593509674072,-0.19660167396068573
-0.40747249126434326,4.217848777770996,-0.19967199862003326
-0.38060805201530457,4.247757911682129,-0.20146305859088898
-0.34907713532447815,4.226953029632568,-0.20080538094043732
-0.31904640793800354,4.229309558868408,-0.20114967226982117
-0.291587233543396,4.262563228607178,-0.20297162234783173
-0.3096678853034973,5.0433783531188965,-0.24044694006443024
-0.27329447865486145,5.02201509475708,-0.23973286151885986
-0.23753803968429565,5.0081915855407715,-0.23935024440288544
-0.20099924504756927,4.98635196685791,-0.23843029141426086
-0.16588525474071503,4.979825973510742,-0.23825150728225708
-0.13091719150543213,4.973052978515625,-0.23807188868522644
-0.09739524126052856,5.028448104858398,-0.24088089168071747
