X,Y,Z
0.6935104131698608,4.70581579208374,1.1199809312820435
0.6638613939285278,4.736489295959473,1.1282585859298706
0.6323093175888062,4.7556657791137695,1.1338629722595215
0.6005188226699829,4.774628639221191,1.1394798755645752
0.5669222474098206,4.778254508972168,1.1414895057678223
0.5353226661682129,4.796718597412109,1.1470919847488403
0.5021460056304932,4.807461261749268,1.1509305238723755
0.4695757031440735,4.821821689605713,1.1552484035491943
0.4352957010269165,4.820919513702393,1.1556051969528198
0.4055192768573761,4.872776508331299,1.168670654296875
0.3718051016330719,4.882778644561768,1.1717641353607178
0.33710357546806335,4.884987831115723,1.1730543375015259
0.30524951219558716,4.9210309982299805,1.182516098022461
0.27264371514320374,4.953071594238281,1.1910855770111084
0.23804201185703278,4.954707145690918,1.1917022466659546
0.20365935564041138,4.963716983795166,1.1940468549728394
0.16934920847415924,4.9952802658081055,1.2018815279006958
0.1348419189453125,5.011402606964111,1.2060582637786865
0.100160151720047,5.0234856605529785,1.209322214126587
0.06546434760093689,5.046720027923584,1.2153319120407104
0.030368363484740257,5.04695463180542,1.2157410383224487
-0.005413665436208248,5.054704189300537,1.2172971963882446
-0.040891215205192566,5.084989547729492,1.2243434190750122
-0.07661706209182739,5.107430458068848,1.2295584678649902
-0.11240704357624054,5.118229866027832,1.2320290803909302
-0.14861992001533508,5.1401686668396,1.2372403144836426
-0.18541528284549713,5.169441223144531,1.2442762851715088
-0.2222597301006317,5.175736904144287,1.2454956769943237
-0.25768911838531494,5.166746616363525,1.2425998449325562
-0.24388334155082703,4.292870044708252,1.0318739414215088
-0.27358466386795044,4.291293621063232,1.030984878540039
-0.30578842759132385,4.3236083984375,1.0382826328277588
-0.33429932594299316,4.295044422149658,1.031002402305603
-0.367752343416214,4.33446741104126,1.0400978326797485
-0.3938940763473511,4.290524959564209,1.0287727117538452
-0.41973012685775757,4.250266075134277,1.0181620121002197
-0.44063544273376465,4.168279647827148,0.9976292848587036
-0.4707515239715576,4.173003673553467,0.9978972673416138
-0.4893573522567749,4.083197593688965,0.9756324291229248
-0.5139147639274597,4.0498857498168945,0.9669357538223267
-0.5345459580421448,3.9900457859039307,0.9519660472869873
-0.5577189326286316,3.95664644241333,0.9427469968795776
-0.5781107544898987,3.904252052307129,0.9290299415588379
-0.6060976386070251,3.9081830978393555,0.9287935495376587
-0.6196028590202332,3.8218061923980713,0.9071589112281799
-0.6430392265319824,3.7991225719451904,0.9007025361061096
-0.6602413058280945,3.7425758838653564,0.8862813115119934
-0.6799555420875549,3.7047481536865234,0.876150369644165
-0.698562741279602,3.6631572246551514,0.8647722601890564
-0.7265534996986389,3.6738152503967285,0.8658043146133423
-0.7295140027999878,3.561206579208374,0.8378632664680481
-0.7470736503601074,3.5231239795684814,0.8275335431098938
-0.7700071930885315,3.51096248626709,0.8233394026756287
-0.7899119257926941,3.483696460723877,0.8156297206878662
-0.808522641658783,3.4566237926483154,0.8075848817825317
-0.824072003364563,3.418369770050049,0.7969057559967041
-0.8400171995162964,3.3837568759918213,0.787147045135498
-0.859412431716919,3.3638176918029785,0.7808526158332825
-0.8755791783332825,3.3288114070892334,0.7710574865341187
-0.8958683013916016,3.312230348587036,0.7656169533729553
-0.9064320921897888,3.2626006603240967,0.7523583769798279
-0.9265046119689941,3.249785900115967,0.7473755478858948
-0.9378786087036133,3.207549810409546,0.7356882095336914
-0.9589227437973022,3.1980955600738525,0.7315483689308167
-0.9745798110961914,3.1701743602752686,0.7232080698013306
-0.9807825088500977,3.113032102584839,0.7082757949829102
-1.0024116039276123,3.106905698776245,0.7048856019973755
-1.023465871810913,3.1008710861206055,0.7011928558349609
-1.0338692665100098,3.0620007514953613,0.6900902390480042
-1.047147274017334,3.0340652465820312,0.6815662980079651
-1.0658025741577148,3.0202975273132324,0.6762110590934753
-1.0766258239746094,2.984802484512329,0.6660413146018982
-1.0973567962646484,2.9780948162078857,0.6622217297554016
-1.099956750869751,2.924978733062744,0.6478185653686523
-1.1118274927139282,2.8968191146850586,0.6389877200126648
-1.142548680305481,2.9186275005340576,0.6412478685379028
-1.141799807548523,2.858100652694702,0.6253635287284851
-1.1503690481185913,2.822514533996582,0.615041196346283
-1.1360065937042236,2.7340922355651855,0.5931257605552673
-1.1323145627975464,2.674268960952759,0.577321469783783
-1.1351423263549805,2.6322944164276123,0.5655365586280823
-1.1469999551773071,2.611319065093994,0.5582944750785828
-1.1717708110809326,2.6180453300476074,0.5569067597389221
-1.2062145471572876,2.645505428314209,0.5599088072776794
-1.2356622219085693,2.662541151046753,0.5602132081985474
-1.247013807296753,2.641279458999634,0.5525257587432861
-1.261479139328003,2.6268808841705322,0.5463200211524963
-1.271620512008667,2.6016645431518555,0.5377624034881592
-1.2797999382019043,2.572955369949341,0.5285497903823853
-1.2871625423431396,2.5445332527160645,0.5191370844841003
-1.3006738424301147,2.5300610065460205,0.5125940442085266
-1.3087025880813599,2.5052826404571533,0.5040199160575867
-1.3264110088348389,2.4970364570617676,0.49862027168273926
-1.3259236812591553,2.454726219177246,0.4864632487297058
-1.3425410985946655,2.446772813796997,0.48092371225357056
-1.3516780138015747,2.4252331256866455,0.47260478138923645
-1.360365629196167,2.4037671089172363,0.4644198417663574
-1.3736947774887085,2.388428211212158,0.4572173058986664
-1.386722207069397,2.373095989227295,0.45001354813575745
-1.3926464319229126,2.348381757736206,0.4408186972141266
-1.404524326324463,2.333444595336914,0.43344801664352417
-1.4127329587936401,2.3115804195404053,0.4247044026851654
-1.4252299070358276,2.295997142791748,0.4170413017272949
-1.4323807954788208,2.2744956016540527,0.40811458230018616
-1.439058780670166,2.2531330585479736,0.39923059940338135
-1.471656084060669,2.2701480388641357,0.3968166410923004
-1.4518333673477173,2.205840587615967,0.3801371455192566
-1.4858615398406982,2.2262706756591797,0.37791335582733154
-1.4679254293441772,2.169618606567383,0.36262279748916626
-1.483070969581604,2.1605515480041504,0.3550541400909424
-1.5207425355911255,2.1828770637512207,0.35222917795181274
-1.503612756729126,2.1299264430999756,0.33720964193344116
-1.5087379217147827,2.1085262298583984,0.32721102237701416
-1.5126090049743652,2.0831775665283203,0.3161084055900574
-1.5262433290481567,2.0745158195495605,0.3074166476726532
-1.5351533889770508,2.059554100036621,0.297681987285614
-1.4906965494155884,2.1075096130371094,-0.15264196693897247
-1.4799233675003052,2.123849630355835,-0.16318108141422272
-1.4636129140853882,2.1343235969543457,-0.1733156144618988
-1.4891451597213745,2.205678939819336,-0.18837198615074158
-1.4469784498214722,2.1768107414245605,-0.19463016092777252
-1.4708400964736938,2.248828649520874,-0.21002128720283508
-1.4271900653839111,2.2159321308135986,-0.21521709859371185
-1.4546154737472534,2.2945048809051514,-0.2312658578157425
-1.4060709476470947,2.2551028728485107,-0.2356526106595993
-1.3816298246383667,2.2509946823120117,-0.2430008202791214
-1.345078945159912,2.226773977279663,-0.24794934689998627
-1.3184220790863037,2.219118356704712,-0.25458961725234985
-1.3042030334472656,2.231050491333008,-0.26322314143180847
-1.2956299781799316,2.253000020980835,-0.2730792462825775
-1.2864837646484375,2.275096893310547,-0.2829182744026184
-1.2810286283493042,2.3038394451141357,-0.29362618923187256
-1.2645468711853027,2.3119056224823,-0.3015640079975128
-1.2549481391906738,2.333719253540039,-0.31131377816200256
-1.2446064949035645,2.3557167053222656,-0.32129180431365967
-1.2365233898162842,2.3807566165924072,-0.331499844789505
-1.2299811840057373,2.409183979034424,-0.3422315716743469
-1.325095772743225,2.642137289047241,-0.38265639543533325
-1.4186184406280518,2.8798177242279053,-0.4250142276287079
-1.2577292919158936,2.599466562271118,-0.39070549607276917
-1.2223316431045532,2.5723047256469727,-0.39341872930526733
-1.2018450498580933,2.5764546394348145,-0.4007851481437683
-1.1799215078353882,2.576841354370117,-0.40749695897102356
-1.1551607847213745,2.5698742866516113,-0.4129122197628021
-1.1537106037139893,2.6158175468444824,-0.4268054962158203
-1.2171036005020142,2.814417839050293,-0.4662618339061737
-1.1968047618865967,2.8217620849609375,-0.4743492901325226
-1.142587661743164,2.746919870376587,-0.46837466955184937
-1.089241862297058,2.671637773513794,-0.46179893612861633
-1.0341339111328125,2.5886573791503906,-0.4534671902656555
-0.9773443937301636,2.497955799102783,-0.4434143602848053
-0.9361577033996582,2.442479372024536,-0.43912413716316223
-0.8996846675872803,2.3975024223327637,-0.4363115131855011
-0.8545947670936584,2.3268842697143555,-0.4285396933555603
-0.8184320330619812,2.2775111198425293,-0.4243987500667572
-0.7828218936920166,2.2278361320495605,-0.4200456738471985
-0.7543767094612122,2.1959848403930664,-0.41858914494514465
-0.72517991065979,2.16023588180542,-0.41621264815330505
-0.6905922293663025,2.1059482097625732,-0.4100702106952667
-0.6709234714508057,2.095187187194824,-0.4122571349143982
-0.6362239718437195,2.03676176071167,-0.40479806065559387
-0.6126956343650818,2.0109784603118896,-0.4035404622554779
-0.5907445549964905,1.9886374473571777,-0.4028647840023041
-0.5681593418121338,1.962400197982788,-0.4012913107872009
-0.5428211092948914,1.9249470233917236,-0.3971143066883087
-0.5109297633171082,1.8614305257797241,-0.3873032331466675
-0.4994828999042511,1.8716357946395874,-0.3928048014640808
-0.4814473092556,1.8557775020599365,-0.3927716612815857
-0.45710545778274536,1.813841462135315,-0.38695043325424194
-0.4388101100921631,1.7940020561218262,-0.3856298327445984
-0.42613649368286133,1.796317458152771,-0.3890487253665924
-0.40726444125175476,1.7725048065185547,-0.38683053851127625
-0.3798377811908722,1.7075188159942627,-0.3752964735031128
-0.3726346492767334,1.7318989038467407,-0.38317903876304626
-0.35578417778015137,1.711398959159851,-0.3811507225036621
-0.33850133419036865,1.6870187520980835,-0.3782030940055847
-0.32354655861854553,1.6737823486328125,-0.3776422441005707
-0.3173671364784241,1.7054253816604614,-0.386979877948761
-0.2960044741630554,1.6544992923736572,-0.3775689899921417
-0.28697922825813293,1.6709827184677124,-0.38351160287857056
-0.2728056311607361,1.6573542356491089,-0.382489413022995
-0.25331780314445496,1.6098518371582031,-0.3733273446559906
-0.23980176448822021,1.5960432291030884,-0.37189480662345886
-0.2318480908870697,1.6198045015335083,-0.3792490065097809
-0.22202439606189728,1.6322133541107178,-0.38397902250289917
-0.19796966016292572,1.535240888595581,-0.3625560402870178
-0.1895311325788498,1.5550730228424072,-0.36866495013237
-0.1746000051498413,1.5219894647598267,-0.3622533082962036
-0.16236482560634613,1.5076700448989868,-0.3602546155452728
-0.15682819485664368,1.557608962059021,-0.37329262495040894
-0.14068381488323212,1.5016181468963623,-0.3609340488910675
-0.12957949936389923,1.4946955442428589,-0.36034274101257324
-0.11777230352163315,1.4801329374313354,-0.35793185234069824
-0.10748329013586044,1.4806939363479614,-0.358847439289093
-0.0961906760931015,1.4660464525222778,-0.35601770877838135
-0.08687399327754974,1.481633186340332,-0.36054831743240356
-0.07732346653938293,1.4971563816070557,-0.3650979697704315
-0.06503313034772873,1.4596072435379028,-0.3564426302909851
-0.05658131465315819,1.5054149627685547,-0.3680310547351837
-0.04495064541697502,1.4677292108535767,-0.3592267334461212
-0.0347340889275074,1.4678922891616821,-0.35969308018684387
-0.024340296164155006,1.4566582441329956,-0.3571474254131317
-0.014295387081801891,1.4833277463912964,-0.3637489676475525
-0.004017090890556574,1.4985445737838745,-0.36756065487861633
0.006288863718509674,1.4757519960403442,-0.362066388130188
0.01662958227097988,1.4832826852798462,-0.3638337552547455
0.026938647031784058,1.4832029342651367,-0.36354103684425354
0.037818972021341324,1.5058094263076782,-0.36882245540618896
0.04800153896212578,1.4904083013534546,-0.3648063540458679
0.0592668242752552,1.512895941734314,-0.36992955207824707
0.0687553659081459,1.4898687601089478,-0.3636872172355652
0.08074496686458588,1.5198403596878052,-0.37039703130722046
0.08995607495307922,1.496675968170166,-0.3641725182533264
0.10105933248996735,1.5037708282470703,-0.36521613597869873
0.11800883710384369,1.5903798341751099,-0.38524845242500305
0.12449072301387787,1.5330121517181396,-0.3704032897949219
0.13616392016410828,1.5437207221984863,-0.372054785490036
0.15592949092388153,1.6375573873519897,-0.39363351464271545
0.16911952197551727,1.65190851688385,-0.395667165517807
0.17900967597961426,1.6359500885009766,-0.39048445224761963
0.19570988416671753,1.6803442239761353,-0.3997032344341278
0.20371617376804352,1.6491297483444214,-0.3909303545951843
0.21723169088363647,1.6632119417190552,-0.3925318121910095
0.23427718877792358,1.699784278869629,-0.3993750512599945
0.24999091029167175,1.7249404191970825,-0.40352174639701843
0.26091811060905457,1.7161003351211548,-0.39971596002578735
0.2789302468299866,1.7523878812789917,-0.406044602394104
0.29497912526130676,1.7735021114349365,-0.40876835584640503
0.3113114833831787,1.7944908142089844,-0.4114328622817993
0.321382611989975,1.7778126001358032,-0.4054369628429413
0.3472326695919037,1.8473455905914307,-0.41878002882003784
0.36165833473205566,1.8530246019363403,-0.41747796535491943
0.3814918100833893,1.8847675323486328,-0.4220087230205536
0.40257158875465393,1.9200769662857056,-0.4272603392601013
0.414681077003479,1.9104410409927368,-0.422201931476593
0.43899640440940857,1.9566881656646729,-0.42936787009239197
0.4579448997974396,1.9766602516174316,-0.4306788742542267
0.4772093892097473,1.9964698553085327,-0.43190351128578186
0.5004160404205322,2.031010150909424,-0.4360608458518982
0.5178095698356628,2.039372444152832,-0.43429967761039734
0.5544292330741882,2.12170147895813,-0.4482124149799347
0.5813177227973938,2.1629998683929443,-0.45325496792793274
0.6047048568725586,2.1893177032470703,-0.45492592453956604
0.6378942728042603,2.2486495971679688,-0.46310004591941833
0.663638710975647,2.278160572052002,-0.46490931510925293
0.7017126679420471,2.3479015827178955,-0.4748062491416931
0.7373952865600586,2.406291961669922,-0.4820927679538727
0.7785024642944336,2.4790427684783936,-0.49175888299942017
0.8159464597702026,2.536771774291992,-0.4981994032859802
0.8570572733879089,2.6013243198394775,-0.5056288242340088
0.9110616445541382,2.7019858360290527,-0.5197876691818237
0.9588919878005981,2.7803733348846436,-0.5290331840515137
1.0027483701705933,2.84377121925354,-0.5351325869560242
1.068582534790039,2.964601993560791,-0.5516046285629272
1.128240704536438,3.063054323196411,-0.5634058713912964
1.196284294128418,3.17891788482666,-0.5775503516197205
1.2587510347366333,3.276193857192993,-0.5879534482955933
1.3002458810806274,3.3153717517852783,-0.587586522102356
1.4512629508972168,3.6261942386627197,-0.6345452070236206
1.5495721101760864,3.7962019443511963,-0.6554660201072693
1.6389092206954956,3.936487913131714,-0.6703751087188721
1.7150843143463135,4.040318012237549,-0.678533136844635
1.8802475929260254,4.34536075592041,-0.719464123249054
1.9433528184890747,4.408376693725586,-0.719131588935852
1.9313966035842896,4.3015289306640625,-0.6911863088607788
1.936713695526123,4.233238220214844,-0.6694914698600769
1.5387884378433228,3.3027260303497314,-0.5140345096588135
1.5551552772521973,3.2794549465179443,-0.5020177960395813
1.5813542604446411,3.2769970893859863,-0.4932296872138977
1.6012437343597412,3.2602033615112305,-0.4821278154850006
1.6212306022644043,3.2431583404541016,-0.47084853053092957
1.6542800664901733,3.2539939880371094,-0.4636588990688324
1.603961706161499,3.1026337146759033,-0.4336740970611572
1.6206094026565552,3.0822196006774902,-0.42225077748298645
1.6513338088989258,3.0892412662506104,-0.4145350456237793
1.7059738636016846,3.1404807567596436,-0.4125092327594757
1.7451915740966797,3.160212755203247,-0.4058188498020172
1.7201951742172241,3.0643856525421143,-0.38444483280181885
1.7817397117614746,3.1245837211608887,-0.382656455039978
1.326083779335022,2.289783477783203,-0.27354273200035095
0.9717164635658264,1.6515082120895386,-0.19214801490306854
0.9376034140586853,1.568463683128357,-0.17744958400726318
0.8857312798500061,1.459593415260315,-0.16048717498779297
0.8917496204376221,1.4473735094070435,-0.15442943572998047
0.9742766618728638,1.557021141052246,-0.16088619828224182
1.0035842657089233,1.5805554389953613,-0.15796276926994324
1.0102750062942505,1.567633867263794,-0.15119609236717224
1.019287347793579,1.5577340126037598,-0.14459389448165894
1.0255895853042603,1.544818639755249,-0.13775505125522614
1.0468116998672485,1.554608702659607,-0.13291384279727936
1.0424251556396484,1.5251734256744385,-0.12441616505384445
2.525752305984497,3.642374038696289,-0.28244298696517944
2.572305917739868,3.6586105823516846,-0.2690918445587158
2.6072354316711426,3.654196262359619,-0.2530438303947449
2.6177027225494385,3.618989944458008,-0.23494037985801697
2.6187024116516113,3.5710701942443848,-0.21589328348636627
2.6902596950531006,3.6162960529327393,-0.20127123594284058
2.6311938762664795,3.705828905105591,0.611941933631897
2.600857973098755,3.724424123764038,0.6285122036933899
2.5924811363220215,3.76997709274292,0.6487095952033997
1.0598821640014648,1.5652856826782227,0.27427560091018677
1.0386943817138672,1.559823989868164,0.27805039286613464
1.056310772895813,1.611956000328064,0.2919909358024597
1.0234827995300293,1.5862212181091309,0.29168829321861267
1.027608036994934,1.619238018989563,0.30190789699554443
1.0025376081466675,1.6066524982452393,0.303628146648407
1.0068334341049194,1.6393178701400757,0.3136516213417053
0.9949160814285278,1.645622968673706,0.31862372159957886
0.9818151593208313,1.6525133848190308,0.3235611915588379
0.9533604383468628,1.6325702667236328,0.3231441378593445
1.3268184661865234,2.309384822845459,0.4617127776145935
1.840329885482788,3.255380630493164,0.6572232842445374
1.7761062383651733,3.197091817855835,0.6512411236763
1.7767810821533203,3.256450891494751,0.6692849397659302
1.7725062370300293,3.3051652908325195,0.6850258708000183
1.745227336883545,3.3093466758728027,0.6914137005805969
2.3815743923187256,4.59553337097168,0.9674621224403381
2.3500142097473145,4.618196487426758,0.9792027473449707
2.321087598800659,4.647737979888916,0.9926049113273621
2.280688524246216,4.648515224456787,0.9994528293609619
2.254122495651245,4.676405429840088,1.0120991468429565
2.222672939300537,4.697892665863037,1.0229448080062866
2.1872076988220215,4.7125115394592285,1.032104253768921
2.151597261428833,4.726866245269775,1.0412718057632446
2.1233327388763428,4.754453182220459,1.053226351737976
2.0864076614379883,4.760495185852051,1.060327410697937
2.0515859127044678,4.773756980895996,1.0686213970184326
1.7769094705581665,4.2195820808410645,0.9490265250205994
1.7308428287506104,4.195760250091553,0.9481246471405029
1.6999576091766357,4.206800937652588,0.9550561308860779
1.6757476329803467,4.231429100036621,0.9649758338928223
1.6427689790725708,4.234645843505859,0.9699273705482483
1.6141858100891113,4.2523908615112305,0.9776891469955444
1.5853829383850098,4.269947052001953,0.985478401184082
1.5534058809280396,4.280247211456299,0.9917008876800537
1.5231199264526367,4.289754867553711,0.9975801706314087
1.4853109121322632,4.277406215667725,0.9984026551246643
1.4691919088363647,4.330033779144287,1.0140676498413086
1.443457841873169,4.3575263023376465,1.0236107110977173
1.4097604751586914,4.363267421722412,1.0281693935394287
1.3781301975250244,4.372122287750244,1.033422589302063
1.3451348543167114,4.373209476470947,1.03679358959198
1.321993350982666,4.406893730163574,1.047961711883545
1.2903175354003906,4.415151596069336,1.052673101425171
1.262398362159729,4.4379801750183105,1.0606554746627808
1.2357051372528076,4.46809196472168,1.0704991817474365
1.1995428800582886,4.461101531982422,1.0714515447616577
1.1721216440200806,4.483072280883789,1.0793408155441284
1.1425278186798096,4.49750280380249,1.0854851007461548
1.110520601272583,4.504541873931885,1.089507818222046
1.0810425281524658,4.526432037353516,1.0968650579452515
1.0484387874603271,4.533193111419678,1.1005853414535522
1.0199425220489502,4.558261394500732,1.1088159084320068
0.9912622570991516,4.579254150390625,1.1160657405853271
0.956113874912262,4.570309638977051,1.1160733699798584
0.7783644199371338,3.8575403690338135,0.9437844157218933
0.7587808966636658,3.9034054279327393,0.9562931656837463
0.8635401725769043,4.617321014404297,1.132771372795105
0.8358868360519409,4.6525492668151855,1.1430596113204956
0.8069673776626587,4.680049896240234,1.1515014171600342
0.774338960647583,4.68867826461792,1.1553807258605957
0.7428133487701416,4.70074462890625,1.1601368188858032
0.7118197679519653,4.720306396484375,1.166203260421753
0.6815881133079529,4.747226238250732,1.1739617586135864
0.6468544006347656,4.743882179260254,1.1743003129959106
0.6155890226364136,4.7704386711120605,1.1821223497390747
0.5841735601425171,4.789134979248047,1.1880245208740234
0.5507953763008118,4.7925496101379395,1.190197467803955
0.5173403024673462,4.7957658767700195,1.1922534704208374
0.48626768589019775,4.825342655181885,1.2002339363098145
0.45368653535842896,4.843394756317139,1.2054136991500854
0.4209558367729187,4.868821144104004,1.2125076055526733
0.38737550377845764,4.87885856628418,1.215819001197815
0.35451018810272217,4.896205902099609,1.22100830078125
0.32161176204681396,4.9171142578125,1.227152705192566
0.2881741225719452,4.934105396270752,1.2320090532302856
0.2533550262451172,4.943441390991211,1.234559416770935
0.22006776928901672,4.975223064422607,1.242774486541748
0.18522009253501892,4.976479530334473,1.2434272766113281
0.1509416550397873,4.992640495300293,1.247864842414856
0.11609536409378052,4.985828876495361,1.246619462966919
0.08150046318769455,5.02803897857666,1.2577053308486938
0.0467638336122036,5.0511956214904785,1.2634902000427246
0.011650261469185352,5.081752300262451,1.270924687385559
-0.023543450981378555,5.051431655883789,1.263195514678955
-0.05929970368742943,5.100443363189697,1.2753657102584839
-0.09599632769823074,5.130244255065918,1.2827935218811035
-0.10968984663486481,4.273312091827393,1.068554162979126
-0.14279015362262726,4.37474250793457,1.094003438949585
-0.17196495831012726,4.343540668487549,1.0856716632843018
-0.20241302251815796,4.3500237464904785,1.0867348909378052
-0.23098625242710114,4.318443298339844,1.0783430337905884
-0.2619294226169586,4.324481010437012,1.0793921947479248
-0.2945520877838135,4.360581398010254,1.0880000591278076
-0.32430827617645264,4.351074695587158,1.0852786302566528
-0.34498897194862366,4.231810569763184,1.0551722049713135
-0.3811870217323303,4.3090033531188965,1.073459267616272
-0.4081636369228363,4.272632122039795,1.0634812116622925
-0.4322187006473541,4.217274188995361,1.0488613843917847
-0.4543403387069702,4.1504669189453125,1.0314650535583496
-0.48321208357810974,4.147566795349121,1.0300074815750122
-0.5032764077186584,4.072938919067383,1.0107976198196411
-0.5260554552078247,4.024575233459473,0.9979212284088135
-0.5479915738105774,3.980034589767456,0.9856327176094055
-0.5677107572555542,3.924107313156128,0.9705996513366699
-0.5935161709785461,3.9131064414978027,0.9667426943778992
-0.6188281774520874,3.8981542587280273,0.9619514346122742
-0.6321594715118408,3.8080544471740723,0.938664972782135
-0.6522334218025208,3.7666351795196533,0.927474856376648
-0.6714041829109192,3.725268602371216,0.9159493446350098
-0.6892275810241699,3.6801400184631348,0.9033660292625427
-0.7100450992584229,3.653576135635376,0.8954100012779236
-0.732072651386261,3.634331703186035,0.8893020749092102
-0.7492577433586121,3.5887668132781982,0.8767726421356201
-0.7630637288093567,3.532055139541626,0.8616177439689636
-0.775233805179596,3.471622943878174,0.8455826640129089
-0.7971853613853455,3.4595589637756348,0.8408586978912354
-0.8075461983680725,3.3992743492126465,0.8244882822036743
-0.8293257355690002,3.3869059085845947,0.8197773694992065
-0.8526436686515808,3.3818113803863525,0.8168835639953613
-0.8743947148323059,3.36910343170166,0.8121671080589294
-0.8812881112098694,3.3011105060577393,0.7941969037055969
-0.9019567966461182,3.288398027420044,0.7892469167709351
-0.9144023656845093,3.246246099472046,0.7770735025405884
-0.9385733604431152,3.2480578422546387,0.7755175828933716
-0.9477688074111938,3.198544979095459,0.7617560625076294
-0.9690245389938354,3.18898868560791,0.7575299739837646
-0.9822611808776855,3.1538236141204834,0.7472773790359497
-0.997451901435852,3.125901460647583,0.738572359085083
-1.011499285697937,3.0982158184051514,0.7297149896621704
-1.0216256380081177,3.0596086978912354,0.7183557152748108
-1.0398664474487305,3.0462605953216553,0.712992787361145
-1.0587036609649658,3.0325732231140137,0.7075161933898926
-1.0723308324813843,3.004368305206299,0.6987021565437317
-1.0844402313232422,2.972517728805542,0.6889076828956604
-1.0965429544448853,2.944599151611328,0.6798161268234253
-1.111058235168457,2.923765182495117,0.6724192500114441
-1.1197872161865234,2.8886189460754395,0.6618031859397888
-1.1429834365844727,2.888707399368286,0.6592007279396057
-1.1422792673110962,2.828225612640381,0.6428036689758301
-1.14142906665802,2.7717461585998535,0.6272714734077454
-1.121699571609497,2.6732594966888428,0.60218346118927
-1.1277532577514648,2.6384212970733643,0.5915862321853638
-1.1458072662353516,2.6315925121307373,0.5872948169708252
-1.167837142944336,2.6312756538391113,0.5843381285667419
-1.1896133422851562,2.6308982372283936,0.5814290642738342
-1.2217862606048584,2.655162811279297,0.583560585975647
-1.2331113815307617,2.6340670585632324,0.5756961703300476
-1.2574124336242676,2.6405975818634033,0.5738915205001831
-1.268013596534729,2.615353584289551,0.564994215965271
-1.2730774879455566,2.5798141956329346,0.5539860725402832
-1.2873753309249878,2.565241575241089,0.5473150014877319
-1.2976603507995605,2.543959617614746,0.5391066074371338
-1.3006435632705688,2.508999824523926,0.5280831456184387
-1.3217639923095703,2.5077667236328125,0.52407306432724
-1.3271944522857666,2.4755918979644775,0.5135196447372437
-1.3404508829116821,2.460850238800049,0.5065118074417114
-1.345696210861206,2.4328205585479736,0.4966871440410614
-1.3581362962722778,2.4182276725769043,0.48967793583869934
-1.3638033866882324,2.3896937370300293,0.47966474294662476
-1.3773157596588135,2.374255418777466,0.47223594784736633
-1.3913013935089111,2.3628435134887695,0.4654061496257782
-1.3951480388641357,2.3348982334136963,0.4553488790988922
-1.4110703468322754,2.3265345096588135,0.4490508437156677
-1.4156779050827026,2.2978806495666504,0.43864166736602783
-1.4236711263656616,2.2760486602783203,0.42937740683555603
-1.4387667179107666,2.2677998542785645,0.4226529002189636
-1.4414446353912354,2.239863157272339,0.4122631549835205
-1.4512033462524414,2.221048593521118,0.4032701849937439
-1.4537380933761597,2.1929402351379395,0.3925444185733795
-1.5093278884887695,2.2454404830932617,0.3958950638771057
-1.4743770360946655,2.163052558898926,0.3754484951496124
-1.4900234937667847,2.1536824703216553,0.367460697889328
-1.517774224281311,2.164011001586914,0.3625950515270233
-1.504968285560608,2.117532968521118,0.3482200503349304
-1.504380464553833,2.086050510406494,0.3358149528503418
-1.5142240524291992,2.070732593536377,0.3259824216365814
-1.5275626182556152,2.0622940063476562,0.31712606549263
-1.5182933807373047,2.131103277206421,-0.152696892619133
-1.4874145984649658,2.1187384128570557,-0.16150566935539246
-1.473490595817566,2.13236403465271,-0.1722422093153
-1.4662681818008423,2.1553657054901123,-0.18356522917747498
-1.4811056852340698,2.210296630859375,-0.1974140852689743
-1.4685508012771606,2.2270750999450684,-0.2080879509449005
-1.4560006856918335,2.2436370849609375,-0.21870183944702148
-1.4459869861602783,2.263024091720581,-0.2292429655790329
-1.4018813371658325,2.2300992012023926,-0.2343771904706955
-1.3813071250915527,2.232778787612915,-0.24284926056861877
-1.3389525413513184,2.1984825134277344,-0.24688720703125
-1.3101494312286377,2.1876156330108643,-0.2534811794757843
-1.3096898794174194,2.2230384349823,-0.265239417552948
-1.2957249879837036,2.234689474105835,-0.2740038335323334
-1.2830666303634644,2.249886989593506,-0.28322622179985046
-1.2814950942993164,2.285379648208618,-0.295122355222702
-1.264697551727295,2.29362416267395,-0.3035030663013458
-1.255374550819397,2.3153069019317627,-0.3135533630847931
-1.2454358339309692,2.3371291160583496,-0.32368767261505127
-1.2391037940979004,2.3656346797943115,-0.3347558081150055
-1.3091236352920532,2.5420475006103516,-0.36714884638786316
-1.4091116189956665,2.7854206562042236,-0.41048288345336914
-1.4300055503845215,2.8774948120117188,-0.4323044419288635
-1.3837721347808838,2.834132194519043,-0.43374913930892944
-1.2379411458969116,2.5809826850891113,-0.4021730422973633
-1.2009021043777466,2.550196647644043,-0.40432390570640564
-1.178948163986206,2.5506086349487305,-0.41132572293281555
-1.1699340343475342,2.5789220333099365,-0.42284131050109863
-1.1513670682907104,2.5859556198120117,-0.4307745695114136
-1.1494883298873901,2.6318726539611816,-0.4452102482318878
-1.1561824083328247,2.6990914344787598,-0.4635014832019806
-1.1085172891616821,2.6383330821990967,-0.4597039818763733
-1.0466467142105103,2.5416111946105957,-0.44926339387893677
-0.9950628280639648,2.4656317234039307,-0.44183576107025146
-0.9503434896469116,2.40342116355896,-0.4365161657333374
-0.9039854407310486,2.333507776260376,-0.4294060468673706
-0.8722140192985535,2.2991580963134766,-0.42848512530326843
-0.8312408328056335,2.239391803741455,-0.42258432507514954
-0.7980778217315674,2.1971776485443115,-0.4196510910987854
-0.7656983137130737,2.154599905014038,-0.416410356760025
-0.7301200032234192,2.1008658409118652,-0.4106820523738861
-0.7076385021209717,2.083177089691162,-0.41173267364501953
-0.6743433475494385,2.0325605869293213,-0.40619760751724243
-0.6445127725601196,1.9888321161270142,-0.40173593163490295
-0.621088981628418,1.9631332159042358,-0.40064746141433716
-0.6025500297546387,1.9519070386886597,-0.40230169892311096
-0.5786919593811035,1.922176718711853,-0.4000621736049652
-0.5564321279525757,1.8958888053894043,-0.3984135389328003
-0.5248597264289856,1.8363584280014038,-0.3895687460899353
-0.5097564458847046,1.831804633140564,-0.39204341173171997
-0.4887450933456421,1.8049813508987427,-0.3897022008895874
-0.47014951705932617,1.7853533029556274,-0.38881948590278625
-0.4527991712093353,1.7692878246307373,-0.3885646164417267
-0.4253373444080353,1.7123926877975464,-0.37907254695892334
-0.41324344277381897,1.714585781097412,-0.38252145051956177
-0.39329928159713745,1.6832488775253296,-0.37845703959465027
-0.3797261416912079,1.677794337272644,-0.3800888657569885
-0.36461594700813293,1.6648385524749756,-0.3797515332698822
-0.352658748626709,1.6667065620422363,-0.3828369975090027
-0.3424471616744995,1.6759153604507446,-0.3875885307788849
-0.3078235387802124,1.5617623329162598,-0.36362001299858093
-0.30538031458854675,1.6081759929656982,-0.37664663791656494
-0.300236314535141,1.6433637142181396,-0.3871736526489258
-0.2773202657699585,1.581135869026184,-0.3747653663158417
-0.26370713114738464,1.567440390586853,-0.37371882796287537
-0.24910905957221985,1.5462100505828857,-0.37049564719200134
-0.2382907122373581,1.5474003553390503,-0.3726361393928528
-0.21806031465530396,1.4846192598342896,-0.3593160808086395
-0.20537564158439636,1.4705839157104492,-0.3577471375465393
-0.19611778855323792,1.4790902137756348,-0.36129528284072876
-0.17366643249988556,1.4657797813415527,-0.3609776198863983
0.061619833111763,1.4527772665023804,-0.3682953119277954
0.07192420959472656,1.452467918395996,-0.3676462471485138
0.0921277105808258,1.4516924619674683,-0.36619868874549866
0.10225598514080048,1.4512721300125122,-0.36517518758773804
0.11266512423753738,1.454559087753296,-0.3651008605957031
0.12424902617931366,1.4690916538238525,-0.36784109473228455
0.13795039057731628,1.5062354803085327,-0.37608346343040466
0.14772817492485046,1.4980491399765015,-0.3727569580078125
0.15738752484321594,1.4897958040237427,-0.3694460690021515
0.16864845156669617,1.496553659439087,-0.36987462639808655
0.18291433155536652,1.5258467197418213,-0.3757088780403137
0.2089138925075531,1.645471215248108,-0.4034039080142975
0.21743027865886688,1.6218736171722412,-0.39590129256248474
0.22611042857170105,1.6019878387451172,-0.3893747627735138
0.2423313409090042,1.6346778869628906,-0.39553481340408325
0.25516873598098755,1.640994668006897,-0.3949442207813263
0.27277666330337524,1.6772551536560059,-0.4015614092350006
0.2870858311653137,1.6908749341964722,-0.4027119278907776
0.3015919327735901,1.7043966054916382,-0.40376392006874084
0.3142639994621277,1.706644892692566,-0.401812344789505
0.331990122795105,1.7349714040756226,-0.40597179532051086
0.3547994792461395,1.7855316400527954,-0.415190726518631
0.3681337237358093,1.787416696548462,-0.4130510687828064
0.3886892795562744,1.822819471359253,-0.4182663857936859
0.4048343300819397,1.83570396900177,-0.4182506203651428
0.43047356605529785,1.8893733024597168,-0.4274403750896454
0.44226816296577454,1.8796192407608032,-0.42217251658439636
0.47173336148262024,1.9440945386886597,-0.433198481798172
0.4863795340061188,1.9453089237213135,-0.4300136864185333
0.5039077997207642,1.9575128555297852,-0.4292503297328949
0.5294740200042725,1.9991297721862793,-0.4348503053188324
0.5609069466590881,2.058976173400879,-0.4438895285129547
0.5929756760597229,2.1185851097106934,-0.4526737928390503
0.6164113879203796,2.144777536392212,-0.45415961742401123
0.6500260829925537,2.203810691833496,-0.4624377489089966
0.6811259984970093,2.2515830993652344,-0.46791350841522217
0.7120833992958069,2.2953484058380127,-0.47221338748931885
0.7503995895385742,2.360811948776245,-0.480836421251297
0.7920665740966797,2.4331917762756348,-0.490587443113327
0.8286821246147156,2.487006664276123,-0.4961265027523041
0.8722400069236755,2.5586729049682617,-0.5048667192459106
0.9219605326652527,2.644399881362915,-0.5160261392593384
0.9797813296318054,2.7476091384887695,-0.5300670266151428
1.0255210399627686,2.8142547607421875,-0.5365965962409973
1.0909688472747803,2.9309589862823486,-0.5521354675292969
1.148598313331604,3.021777868270874,-0.5623006224632263
1.2230374813079834,3.151434898376465,-0.5791324377059937
1.2896846532821655,3.25518536567688,-0.5903641581535339
1.4035605192184448,3.4727590084075928,-0.6214685440063477
1.4794931411743164,3.5892550945281982,-0.6336460709571838
1.5932635068893433,3.7901864051818848,-0.6598600745201111
1.6929703950881958,3.9509758949279785,-0.6780391335487366
1.8200631141662598,4.1671905517578125,-0.7044632434844971
1.9216880798339844,4.318606376647949,-0.7191003561019897
1.952431082725525,4.306945323944092,-0.7061086893081665
1.9568305015563965,4.239066123962402,-0.6839128732681274
1.5490220785140991,3.296504020690918,-0.5231556296348572
1.5693312883377075,3.2799553871154785,-0.5116233825683594
1.5927013158798218,3.270275354385376,-0.5012673139572144
1.6052824258804321,3.239802122116089,-0.4876951277256012
1.6347824335098267,3.243926763534546,-0.47935205698013306
1.6400307416915894,3.199352979660034,-0.4637487232685089
1.601942777633667,3.072228193283081,-0.4365403950214386
1.630877137184143,3.076003313064575,-0.42800700664520264
1.644832730293274,3.0523738861083984,-0.4158284068107605
1.7168419361114502,3.133887529373169,-0.4175334870815277
1.7238473892211914,3.0959832668304443,-0.4031029939651489
1.7451354265213013,3.085426092147827,-0.3923019468784332
1.3779274225234985,2.397559642791748,-0.29727935791015625
1.3225202560424805,2.2645974159240723,-0.2735418975353241
0.9654646515846252,1.6279313564300537,-0.19138769805431366
0.8883586525917053,1.4754300117492676,-0.1686641424894333
0.8906503915786743,1.456475853919983,-0.16158194839954376
0.9215918183326721,1.4837251901626587,-0.15942050516605377
0.9876917004585266,1.566904902458191,-0.16293856501579285
1.0216145515441895,1.596714735031128,-0.16036829352378845
1.0138816833496094,1.5606508255004883,-0.15100544691085815
1.0265214443206787,1.5576379299163818,-0.14494478702545166
1.0416382551193237,1.5575531721115112,-0.13895034790039062
1.048295259475708,1.5442601442337036,-0.1316404640674591
1.0519686937332153,1.5281422138214111,-0.12417129427194595
2.5551583766937256,3.660057544708252,-0.282484233379364
2.590193748474121,3.6557741165161133,-0.266232967376709
2.614745855331421,3.6394870281219482,-0.2488098293542862
2.607208490371704,3.5786962509155273,-0.2283657044172287
2.6598105430603027,3.5992918014526367,-0.21238456666469574
2.621295690536499,3.725397825241089,0.6516097187995911
2.5896434783935547,3.7353196144104004,0.6660898923873901
2.5690176486968994,3.7654733657836914,0.6838834881782532
1.0474584102630615,1.5615290403366089,0.2887381911277771
1.048653244972229,1.5874621868133545,0.29820048809051514
1.036696195602417,1.5942025184631348,0.3039953410625458
1.0322555303573608,1.61431884765625,0.3122200667858124
1.0196932554244995,1.6211950778961182,0.3178207576274872
0.9955750703811646,1.607958436012268,0.31922414898872375
0.9993652701377869,1.640762209892273,0.3295789062976837
0.986484169960022,1.647513508796692,0.3346673548221588
0.9700065851211548,1.6473407745361328,0.3382515013217926
1.3456010818481445,2.3219757080078125,0.48159095644950867
2.568352699279785,4.507924556732178,0.9440991878509521
1.8465734720230103,3.2982871532440186,0.6970518231391907
1.7711511850357056,3.2196927070617676,0.6865484714508057
1.7936108112335205,3.3150219917297363,0.712745189666748
1.769607424736023,3.326120138168335,0.7209933400154114
2.4041497707366943,4.6025848388671875,1.005216121673584
2.361786127090454,4.604853630065918,1.0131301879882812
2.3344533443450928,4.633617877960205,1.0266907215118408
2.301252841949463,4.647937297821045,1.0368674993515015
2.267397880554199,4.662314414978027,1.046858787536621
2.2380738258361816,4.6912312507629395,1.059755802154541
2.202517509460449,4.705848217010498,1.0694012641906738
2.1712019443511963,4.726673126220703,1.0803216695785522
2.134382486343384,4.732949733734131,1.0877987146377563
2.1002581119537354,4.7461395263671875,1.0967161655426025
2.0738842487335205,4.780767917633057,1.1100348234176636
2.0135324001312256,4.7381696701049805,1.1055500507354736
1.745203971862793,4.190556526184082,0.9824312329292297
1.715417504310608,4.20119047164917,0.9894497990608215
1.6940693855285645,4.232856273651123,1.0014945268630981
1.6600337028503418,4.236575603485107,1.006365418434143
1.6280181407928467,4.247416019439697,1.0129534006118774
1.5991742610931396,4.264957904815674,1.0211317539215088
1.5712988376617432,4.281928539276123,1.0290961265563965
1.5460985898971558,4.305793762207031,1.0387552976608276
1.5103083848953247,4.300872802734375,1.0413408279418945
1.478143334388733,4.310661315917969,1.0470067262649536
1.4512996673583984,4.334477424621582,1.0560914278030396
1.4230014085769653,4.354498863220215,1.0643278360366821
1.3945863246917725,4.3703532218933105,1.0714821815490723
1.3660629987716675,4.386000156402588,1.078644871711731
1.3287241458892822,4.3763017654418945,1.0794132947921753
1.300066590309143,4.395625114440918,1.0868483781814575
1.2743995189666748,4.425694465637207,1.09701406955719
1.2483623027801514,4.455605506896973,1.107225775718689
1.2189455032348633,4.470464706420898,1.1136865615844727
1.1856335401535034,4.470407009124756,1.1164731979370117
1.1553773880004883,4.485029220581055,1.1228513717651367
1.1248356103897095,4.499627113342285,1.1286296844482422
1.090566873550415,4.4992594718933105,1.130712866783142
1.0659011602401733,4.539259910583496,1.1430128812789917
1.0354975461959839,4.553094863891602,1.1487563848495483
1.0030122995376587,4.559372425079346,1.1526763439178467
0.9758403301239014,4.58755350112915,1.1621580123901367
0.9399850964546204,4.578744411468506,1.1615936756134033
0.7688605785369873,3.88553786277771,0.9871307015419006
0.7375278472900391,3.871647596359253,0.9850396513938904
0.8493391275405884,4.640265464782715,1.1823971271514893
0.8215097188949585,4.671416759490967,1.1921411752700806
0.788245439529419,4.672513008117676,1.194282054901123
0.758394718170166,4.695921421051025,1.2018522024154663
0.7284406423568726,4.72304630279541,1.2099697589874268
0.6953816413879395,4.7350616455078125,1.2143059968948364
0.6607043147087097,4.7317705154418945,1.2147562503814697
0.6335133910179138,4.780711650848389,1.2286691665649414
0.5983009338378906,4.769384860992432,1.22715425491333
0.5667802691459656,4.787872791290283,1.2333730459213257
0.5343455076217651,4.802574634552002,1.238023281097412
0.5006787180900574,4.813396453857422,1.2415666580200195
0.46739864349365234,4.823936939239502,1.245091199874878
0.4360816776752472,4.856847763061523,1.2544569969177246
0.4035387933254242,4.87443733215332,1.2599231004714966
0.370200514793396,4.884263038635254,1.2634475231170654
0.3355753421783447,4.886360168457031,1.265007734298706
0.30035534501075745,4.873293876647949,1.2618752717971802
0.2674553692340851,4.89773416519165,1.268517017364502
0.23512651026248932,4.940837860107422,1.2800590991973877
0.16878686845302582,4.160029411315918,1.0781406164169312
0.13884761929512024,4.145829200744629,1.0748875141143799
0.11016271263360977,4.154086589813232,1.0775022506713867
0.04569214582443237,2.336268186569214,0.6061858534812927
0.0531032457947731,4.219371318817139,1.0946400165557861
0.023904090747237206,4.257456302642822,1.1044228076934814
-0.0062646083533763885,4.212152004241943,1.0926265716552734
-0.03582949936389923,4.242260932922363,1.100447416305542
-0.06523127853870392,4.234354496002197,1.0984601974487305
-0.0946432426571846,4.2338056564331055,1.0984344482421875
-0.12517359852790833,4.2709197998046875,1.1079366207122803
-0.15507356822490692,4.277697563171387,1.10916006565094
-0.1856968253850937,4.288027286529541,1.1113486289978027
-0.21658159792423248,4.309488296508789,1.1164803504943848
-0.2424231320619583,4.23633337020874,1.0971564054489136
-0.26895448565483093,4.1894450187683105,1.0846976041793823
-0.3045128881931305,4.278205871582031,1.1074104309082031
-0.3355640470981598,4.28756046295166,1.109195351600647
-0.3616039454936981,4.244053840637207,1.0970430374145508
-0.3940529525279999,4.275725841522217,1.104376196861267
-0.42093512415885925,4.246919631958008,1.09614098072052
-0.4439949691295624,4.184064865112305,1.0791816711425781
-0.4723253548145294,4.16990852355957,1.074833869934082
-0.49586817622184753,4.121800899505615,1.061808705329895
-0.5122926235198975,4.024908065795898,1.0357755422592163
-0.5358810424804688,3.9917972087860107,1.0260605812072754
-0.553215742111206,3.9173104763031006,1.0057878494262695
-0.5794470906257629,3.9063704013824463,1.0018830299377441
-0.6066702008247375,3.902742385864258,0.9999062418937683
-0.6211082935333252,3.8204216957092285,0.9778366684913635
-0.6433011293411255,3.7903525829315186,0.9692148566246033
-0.6639811992645264,3.7566566467285156,0.959071934223175
-0.6814852952957153,3.7079410552978516,0.9451627135276794
-0.6995266079902649,3.662792682647705,0.9322150945663452
-0.7173328995704651,3.621342420578003,0.9203043580055237
-0.7357762455940247,3.583446741104126,0.909345269203186
-0.7497826218605042,3.5269153118133545,0.8937327265739441
-0.7701295018196106,3.5037779808044434,0.8864400386810303
-0.7877506017684937,3.46950626373291,0.875972330570221
-0.8062757849693298,3.4426116943359375,0.8674639463424683
-0.8262501358985901,3.422992467880249,0.8608475923538208
-0.8417201042175293,3.3847708702087402,0.8495953679084778
-0.8597126603126526,3.357473850250244,0.8411399126052856
-0.8816100358963013,3.3446786403656006,0.8363478183746338
-0.8915138244628906,3.2917633056640625,0.8211243748664856
-0.9077746868133545,3.26450252532959,0.8123042583465576
-0.9153647422790527,3.207929849624634,0.796272873878479
-0.9437156319618225,3.2242908477783203,0.7983876466751099
-0.9525477290153503,3.170987367630005,0.7832211256027222
-0.9725654721260071,3.1577794551849365,0.7780671119689941
-0.989773690700531,3.137364149093628,0.7709092497825623
-1.0040706396102905,3.1097702980041504,0.7618010640144348
-1.0144565105438232,3.0712711811065674,0.7500969767570496
-1.0308425426483154,3.0506694316864014,0.7427918314933777
-1.0473442077636719,3.0298686027526855,0.7354580760002136
-1.0610319375991821,3.001802921295166,0.7264273166656494
-1.0740541219711304,2.9738337993621826,0.7172868847846985
-1.0875757932662964,2.949622392654419,0.708816409111023
-1.0995044708251953,2.9217705726623535,0.6995345950126648
-1.1250993013381958,2.92935848236084,0.6987342238426208
-1.129083514213562,2.8797483444213867,0.6842847466468811
-1.1437879800796509,2.8585219383239746,0.676662027835846
-1.147688865661621,2.8127126693725586,0.6630753874778748
-1.1241933107376099,2.7037250995635986,0.634537935256958
-1.123443365097046,2.651243209838867,0.6193947196006775
-1.132491946220398,2.623460054397583,0.6101419925689697
-1.1541303396224976,2.6234049797058105,0.6072877645492554
-1.1664401292800903,2.6022441387176514,0.5995857119560242
-1.2047244310379028,2.6405768394470215,0.6052205562591553
-1.2292340993881226,2.6472702026367188,0.6034384369850159
-1.2470533847808838,2.6400370597839355,0.598546028137207
-1.2622698545455933,2.625458240509033,0.5918868780136108
-1.2657990455627441,2.5866007804870605,0.5797883868217468
-1.2871358394622803,2.5857837200164795,0.5760805606842041
-1.2909549474716187,2.5507850646972656,0.5645275712013245
-1.2975698709487915,2.5227677822113037,0.5546783804893494
-1.3115408420562744,2.508084774017334,0.5477029085159302
-1.324068307876587,2.4896931648254395,0.5398616194725037
-1.3304842710494995,2.4613583087921143,0.5297863483428955
-1.343271017074585,2.446894407272339,0.5225347876548767
-1.3524973392486572,2.4254887104034424,0.5137777924537659
-1.3656522035598755,2.410548686981201,0.5063539743423462
-1.3713610172271729,2.3820109367370605,0.4960517883300781
-1.383765459060669,2.3672144412994385,0.4884512722492218
-1.3936201333999634,2.3493094444274902,0.4801282286643982
-1.4095677137374878,2.3410801887512207,0.4737277925014496
-1.4103361368179321,2.305947780609131,0.4616803824901581
-1.4266835451126099,2.297215461730957,0.45493608713150024
-1.4295912981033325,2.2694780826568604,0.4442289173603058
-1.4363511800765991,2.248255968093872,0.4348861873149872
-1.4525710344314575,2.2392332553863525,0.4275003671646118
-1.494059681892395,2.26883864402771,0.4273830056190491
-1.496120810508728,2.24111270904541,0.4161487817764282
-1.474072813987732,2.1782243251800537,0.398595929145813
-1.513798713684082,2.204054117202759,0.3967922329902649
-1.49199378490448,2.1407501697540283,0.37871992588043213
-1.5015822649002075,2.12601900100708,0.36938008666038513
-1.5115667581558228,2.1108925342559814,0.359765887260437
-1.5177972316741943,2.0888381004333496,0.34858834743499756
-1.5244673490524292,2.071065902709961,0.33797019720077515
-1.5334948301315308,2.056224822998047,0.3277280628681183
-1.5107204914093018,2.135874032974243,-0.1609291285276413
-1.4813966751098633,2.127032518386841,-0.17033620178699493
-1.4913904666900635,2.17606782913208,-0.18447265028953552
-1.4581224918365479,2.1601006984710693,-0.19256941974163055
