X,Y,Z
0.2515755593776703,5.657180309295654,0.740155816078186
0.21274684369564056,5.6974711418151855,0.7456963062286377
0.17364589869976044,5.714235782623291,0.7481901049613953
0.13477616012096405,5.750091552734375,0.7532224655151367
0.0954003781080246,5.789573669433594,0.758625864982605
0.05512557178735733,5.790106773376465,0.7585504055023193
0.014194648712873459,5.805854320526123,0.7605031132698059
-0.039881035685539246,8.819117546081543,1.155098795890808
-0.01938285119831562,1.6885937452316284,0.22115634381771088
-0.15914027392864227,8.631858825683594,1.1305240392684937
-0.21907617151737213,8.626689910888672,1.1298730373382568
-0.05909035727381706,1.8272167444229126,0.2391682267189026
-0.2370002567768097,6.01444149017334,0.7867796421051025
-0.2783677279949188,6.004997730255127,0.7851276397705078
-0.1895395666360855,3.554612159729004,0.46452558040618896
-0.21353890001773834,3.5416595935821533,0.46263113617897034
-0.11647380888462067,1.7314218282699585,0.22608011960983276
-0.2871968746185303,3.862947940826416,0.5039243698120117
-0.3132377862930298,3.853250741958618,0.5021500587463379
-0.3364343047142029,3.8125076293945312,0.4963597357273102
-0.35883766412734985,3.7677597999572754,0.4900795519351959
-0.3810705244541168,3.726734161376953,0.4843160808086395
-0.40364784002304077,3.689382314682007,0.4790542721748352
-0.42913129925727844,3.6866302490234375,0.47809165716171265
-0.44781479239463806,3.6299009323120117,0.4700394868850708
-0.4702845811843872,3.607661008834839,0.4664883017539978
-0.4941278398036957,3.596787929534912,0.4644321799278259
-0.5096193552017212,3.524308443069458,0.4544408321380615
-0.5353299379348755,3.5284693241119385,0.45437565445899963
-0.5633587837219238,3.5478038787841797,0.45610758662223816
-0.5851548314094543,3.528740167617798,0.452759712934494
-1.0932104587554932,6.324062347412109,0.8098466396331787
-1.1470134258270264,6.373921871185303,0.8146762251853943
-1.2020522356033325,6.419314861297607,0.8189054727554321
-1.2548248767852783,6.452974319458008,0.8216806650161743
-1.3099559545516968,6.497737407684326,0.8256199359893799
-1.3629157543182373,6.530801773071289,0.8277674317359924
-1.4189071655273438,6.574801921844482,0.8313069343566895
-1.4596302509307861,6.54246187210083,0.8251816034317017
-1.491199016571045,6.472102165222168,0.8143295645713806
-1.5298646688461304,6.435580253601074,0.807803750038147
-0.685547411441803,2.7983765602111816,0.35030269622802734
-0.7007508873939514,2.7788174152374268,0.3467949330806732
-0.7140762805938721,2.7515950202941895,0.3423442840576172
-0.7309497594833374,2.739335298538208,0.3397890329360962
-0.7469632029533386,2.723151922225952,0.3367539644241333
-0.7775160670280457,2.7591474056243896,0.3401767909526825
-1.7640944719314575,6.100508689880371,0.7495287656784058
-1.7973552942276,6.058946132659912,0.741640567779541
-1.8293627500534058,6.01743221282959,0.7338706851005554
-1.860434651374817,5.971841812133789,0.7256201505661011
-1.8902469873428345,5.9222636222839355,0.7169215083122253
-1.9241987466812134,5.887335300445557,0.7100523114204407
-1.9534744024276733,5.8414306640625,0.701381266117096
-1.9852659702301025,5.806645393371582,0.6941627264022827
-2.012943983078003,5.760660171508789,0.6856573224067688
-2.040025234222412,5.710476875305176,0.6766250729560852
-2.0691661834716797,5.66748046875,0.6685125827789307
-2.099736213684082,5.631942272186279,0.6610864996910095
-2.131249189376831,5.599923610687256,0.6538378596305847
-2.160358428955078,5.564355850219727,0.6462894678115845
-1.5406793355941772,3.8889057636260986,0.4492575228214264
-1.5707567930221558,3.8856570720672607,0.44642946124076843
-1.5946756601333618,3.8679263591766357,0.4418916702270508
-1.5547713041305542,3.6998291015625,0.4200427830219269
-1.552008032798767,3.625455856323242,0.40905553102493286
-1.5627620220184326,3.58313250541687,0.401721715927124
-1.578268051147461,3.5512521266937256,0.3955610394477844
-1.590020775794983,3.5123250484466553,0.38862964510917664
-1.6072523593902588,3.487804889678955,0.3830564022064209
-1.6270931959152222,3.4704394340515137,0.37835589051246643
-1.6072494983673096,3.368445634841919,0.36444738507270813
-1.6240564584732056,3.3435282707214355,0.35890883207321167
-1.643682837486267,3.3256871700286865,0.35409167408943176
-1.6661288738250732,3.3149497509002686,0.34984326362609863
-1.6987310647964478,3.325029134750366,0.34784233570098877
-1.768375277519226,3.403372287750244,0.35275912284851074
-1.7994143962860107,3.405144214630127,0.3496265411376953
-1.8332180976867676,3.414064645767212,0.3470405042171478
-1.1402037143707275,2.0906429290771484,0.21032236516475677
-1.1771303415298462,2.1239356994628906,0.21134591102600098
-2.5253376960754395,4.482822895050049,0.4410304129123688
-2.5520825386047363,4.459349155426025,0.43358296155929565
-2.573427438735962,4.429731369018555,0.42541399598121643
-2.626375198364258,4.453533172607422,0.42231664061546326
-1.232944369316101,2.0573933124542236,0.19240455329418182
-1.255085825920105,2.062539577484131,0.19017967581748962
-2.673914670944214,4.331413745880127,0.39350566267967224
-2.729346990585327,4.357251167297363,0.38979262113571167
-2.9773976802825928,4.680489540100098,0.4117351174354553
-3.0220489501953125,4.680419921875,0.40446406602859497
-3.054344654083252,4.664828777313232,0.3958605229854584
-3.0407423973083496,4.5765557289123535,0.38081878423690796
-3.0725605487823486,4.556040287017822,0.37130433320999146
-3.0970823764801025,4.530738830566406,0.3612263798713684
-3.107329845428467,4.481881141662598,0.34893566370010376
-3.1477932929992676,4.473449230194092,0.3393903374671936
-2.845738410949707,3.9905645847320557,0.29461926221847534
-2.880835771560669,3.9852793216705322,0.2857505679130554
-2.913276433944702,3.9720535278320312,0.27560997009277344
-2.9192252159118652,3.9295966625213623,0.263376921415329
-2.451984405517578,3.4581055641174316,-0.15947243571281433
-2.448495626449585,3.5078248977661133,-0.17069649696350098
-2.7691779136657715,4.030589580535889,-0.20600785315036774
-2.770759344100952,4.0950927734375,-0.2188001573085785
-2.190378427505493,3.2904052734375,-0.18322746455669403
-2.1836297512054443,3.331822395324707,-0.19263488054275513
-1.3030201196670532,2.0192978382110596,-0.12088951468467712
-2.1470017433166504,3.3823726177215576,-0.2093479186296463
-2.1264498233795166,3.4040591716766357,-0.21731315553188324
-1.2788461446762085,2.079768657684326,-0.13663135468959808
-2.0443239212036133,3.380344867706299,-0.22826255857944489
-2.013963460922241,3.384443521499634,-0.23448793590068817
-1.9900730848312378,3.3980743885040283,-0.241225466132164
-1.9663258790969849,3.415879487991333,-0.24830885231494904
-1.2097395658493042,2.1371729373931885,-0.15885783731937408
-1.1681807041168213,2.0976290702819824,-0.1592007875442505
-2.036466360092163,3.719188928604126,-0.2879910171031952
-2.5298824310302734,4.701185703277588,-0.3711721897125244
-1.7762434482574463,3.358179807662964,-0.27013906836509705
-1.7417534589767456,3.3494014739990234,-0.27425214648246765
-1.713624119758606,3.354663372039795,-0.2793753743171692
-1.6856433153152466,3.3596227169036865,-0.2844431698322296
-1.6724525690078735,3.3918209075927734,-0.29166099429130554
-1.7141659259796143,3.539996385574341,-0.3091120719909668
-1.6901079416275024,3.555368661880493,-0.3149915933609009
-1.6777126789093018,3.5951433181762695,-0.3230416476726532
-2.299539804458618,5.018406867980957,-0.45707690715789795
-2.276592254638672,5.062337875366211,-0.46716585755348206
-2.243076801300049,5.085101127624512,-0.47521790862083435
-2.1750667095184326,5.029173851013184,-0.47591274976730347
-2.2188057899475098,5.229887008666992,-0.5008165240287781
-2.213050603866577,5.320230484008789,-0.5153536796569824
-1.9162510633468628,4.701286315917969,-0.4604223668575287
-1.843579888343811,4.616736888885498,-0.45704588294029236
-1.796470046043396,4.592926025390625,-0.45953884720802307
-1.3300178050994873,3.4718105792999268,-0.35091230273246765
-1.7760677337646484,4.7369771003723145,-0.4834006428718567
-2.035301446914673,5.548398017883301,-0.571608304977417
-1.9780915975570679,5.510569095611572,-0.5729438066482544
-1.874497652053833,5.34039831161499,-0.5604130029678345
-1.5904221534729004,4.636077404022217,-0.4905737638473511
-1.559781789779663,4.654121398925781,-0.4965716004371643
-1.8679192066192627,5.7059006690979,-0.6137464642524719
-0.9725286364555359,3.0422840118408203,-0.3298707902431488
-0.9633362889289856,3.089649200439453,-0.3375745117664337
-0.924347996711731,3.0403380393981934,-0.33458587527275085
-0.7791751027107239,2.6293509006500244,-0.2914266586303711
-0.7510988116264343,2.600853443145752,-0.2902917265892029
-0.7444216012954712,2.6468918323516846,-0.2974594533443451
-0.7461430430412292,2.7267415523529053,-0.3083258271217346
-0.7144779562950134,2.686739921569824,-0.30570998787879944
-0.7121535539627075,2.7553088665008545,-0.315420538187027
-0.6768514513969421,2.6959187984466553,-0.3104892373085022
-0.6716472506523132,2.756929636001587,-0.31926706433296204
-1.48723304271698,6.297084808349609,-0.7330384254455566
-1.4420866966247559,6.30698823928833,-0.738081693649292
-1.3804868459701538,6.2367401123046875,-0.7336282730102539
-1.3247848749160767,6.188730239868164,-0.7317127585411072
-1.2662148475646973,6.125217437744141,-0.7273548245429993
-1.2108819484710693,6.0726141929626465,-0.7242597937583923
-1.1522523164749146,6.000576019287109,-0.7188422679901123
-1.097089409828186,5.935486316680908,-0.7141395807266235
-1.0325777530670166,5.812698841094971,-0.7021802067756653
-0.953954815864563,5.597641468048096,-0.6785910129547119
-0.9484235048294067,5.810505390167236,-0.7069031596183777
-0.9345273375511169,5.992967128753662,-0.7317574620246887
-0.8972059488296509,6.0296220779418945,-0.7388869524002075
-0.8597582578659058,6.069967269897461,-0.7460463643074036
-0.8180373907089233,6.083218574523926,-0.7497333288192749
-0.6205692887306213,4.873083591461182,-0.602258563041687
-0.7186669707298279,5.974048614501953,-0.7403855323791504
-0.6716054081916809,5.936271667480469,-0.7378205060958862
-0.6277399659156799,5.917435169219971,-0.7369149923324585
-0.5825901627540588,5.882853031158447,-0.7340629696846008
-0.5376476049423218,5.844069480895996,-0.7307004928588867
-0.49501243233680725,5.824253559112549,-0.729724645614624
-0.44986316561698914,5.777148723602295,-0.7252224683761597
-0.2476312518119812,3.49505877494812,-0.4392818212509155
-0.2207581251859665,3.457928419113159,-0.4351668059825897
-0.19645266234874725,3.455418825149536,-0.4354217052459717
-0.2815486490726471,5.643597602844238,-0.7121203541755676
-0.2407214194536209,5.625973224639893,-0.7106121182441711
-0.20072786509990692,5.604206562042236,-0.7082155346870422
-0.16100220382213593,5.582158088684082,-0.7058150768280029
-0.12109309434890747,5.5327067375183105,-0.699977695941925
-0.08235390484333038,5.517848968505859,-0.6985461115837097
-0.043167248368263245,5.502778053283691,-0.696699857711792
-0.003907385282218456,4.394618034362793,-0.5562794208526611
0.026930829510092735,4.4333038330078125,-0.5610846877098083
0.07059578597545624,5.4211530685424805,-0.686029314994812
0.10748080164194107,5.381800651550293,-0.6810042262077332
0.11105887591838837,4.12582540512085,-0.5216593742370605
0.17932188510894775,5.275367736816406,-0.6663841605186462
0.21293091773986816,5.200514793395996,-0.6563596725463867
0.20141223073005676,4.204106330871582,-0.5301672220230103
0.22875389456748962,4.167849540710449,-0.5251775979995728
0.2557370364665985,4.135350227355957,-0.5202164649963379
0.28332772850990295,4.110376834869385,-0.5162234306335449
0.3118610382080078,4.108442783355713,-0.5151680111885071
0.3455740511417389,4.168112277984619,-0.5218482613563538
0.370387464761734,4.119426727294922,-0.5148753523826599
0.39408421516418457,4.06679105758667,-0.5070890784263611
0.4219486713409424,4.056391716003418,-0.5045909881591797
0.4501376152038574,4.053548336029053,-0.5030768513679504
0.47554585337638855,4.027410507202148,-0.49870380759239197
0.5044311285018921,4.031920433044434,-0.49795177578926086
0.6415082216262817,4.855048656463623,-0.5977596044540405
0.676705539226532,4.858392238616943,-0.5963146090507507
0.7082489728927612,4.838508129119873,-0.5920701622962952
0.7383716702461243,4.810750961303711,-0.5869052410125732
0.7692064046859741,4.790534019470215,-0.5823443531990051
0.7997217774391174,4.7701497077941895,-0.5776425004005432
0.8420509099960327,4.8183417320251465,-0.5812522172927856
0.8775867819786072,4.820237159729004,-0.5792220830917358
0.9082283973693848,4.7991132736206055,-0.5744993090629578
0.9413713216781616,4.793121337890625,-0.5711591839790344
0.9667229652404785,4.748881816864014,-0.5632906556129456
0.9964253902435303,4.7272725105285645,-0.5581533312797546
1.0257377624511719,4.701541900634766,-0.552521288394928
1.060078740119934,4.7022809982299805,-0.5499494671821594
1.0853843688964844,4.6650710105896,-0.5426486730575562
1.113887071609497,4.642817974090576,-0.5371387004852295
1.1442961692810059,4.627856731414795,-0.5324850082397461
1.1752575635910034,4.612522125244141,-0.5277601480484009
1.2002748250961304,4.578442573547363,-0.5207374095916748
1.2317970991134644,4.570533752441406,-0.51658695936203
1.2571208477020264,4.539928913116455,-0.5099043250083923
1.2929917573928833,4.546465873718262,-0.507393479347229
1.3143584728240967,4.50036096572876,-0.4989660680294037
1.3430283069610596,4.484278202056885,-0.4936264455318451
1.3692227602005005,4.460590839385986,-0.4874946177005768
1.397834062576294,4.444057464599609,-0.4821453392505646
1.4288722276687622,4.4346699714660645,-0.47757667303085327
1.456405758857727,4.413944721221924,-0.4715842008590698
1.4792089462280273,4.382266998291016,-0.46438175439834595
1.5067847967147827,4.365150451660156,-0.45876145362854004
1.2590993642807007,3.5668535232543945,-0.37170103192329407
1.2839738130569458,3.5583958625793457,-0.3676506578922272
1.3190579414367676,3.579148769378662,-0.3663938641548157
1.6111057996749878,4.280013561248779,-0.43400320410728455
1.638060212135315,4.261965274810791,-0.42805781960487366
1.6678085327148438,4.2509355545043945,-0.4228273928165436
1.696935772895813,4.239927768707275,-0.41742998361587524
1.7243313789367676,4.225193500518799,-0.41162392497062683
1.7479832172393799,4.199154853820801,-0.40462368726730347
1.7742395401000977,4.180209159851074,-0.398373007774353
1.7999310493469238,4.16126823425293,-0.39205050468444824
1.821889042854309,4.1352314949035645,-0.38499823212623596
1.85334050655365,4.130298614501953,-0.379902720451355
1.8730051517486572,4.096296787261963,-0.3719799220561981
1.9013022184371948,4.083773136138916,-0.3660708963871002
1.9255871772766113,4.064297199249268,-0.35945719480514526
1.956623911857605,4.058624744415283,-0.35405102372169495
1.9815630912780762,4.038369655609131,-0.3472553789615631
2.00292706489563,4.010949611663818,-0.33974453806877136
2.028169631958008,3.9944050312042236,-0.33317580819129944
2.0445783138275146,3.960266590118408,-0.3251405656337738
2.075888156890869,3.953277587890625,-0.31921520829200745
2.0955989360809326,3.9257266521453857,-0.3116050362586975
2.1292943954467773,3.9258110523223877,-0.3061443865299225
2.149075984954834,3.8977508544921875,-0.29828500747680664
2.1287174224853516,3.7980942726135254,-0.28506970405578613
2.154348850250244,3.784114360809326,-0.27835795283317566
2.1873793601989746,3.7836320400238037,-0.27261871099472046
2.197808265686035,3.7419521808624268,-0.26371699571609497
2.240079641342163,3.753675699234009,-0.2584199607372284
2.264908790588379,3.739229202270508,-0.25134292244911194
2.2860872745513916,3.7176454067230225,-0.24367637932300568
2.3038086891174316,3.688790798187256,-0.2353621870279312
2.3324391841888428,3.6804633140563965,-0.22834189236164093
2.348775863647461,3.6519861221313477,-0.21992303431034088
2.370030641555786,3.629380702972412,-0.21164874732494354
2.415748119354248,3.646463394165039,-0.20563244819641113
2.4178032875061035,3.5986223220825195,-0.195932537317276
2.442918062210083,3.5820705890655518,-0.1875242441892624
2.4713618755340576,3.572439432144165,-0.17933623492717743
2.4812958240509033,3.53739595413208,-0.16990254819393158
2.5150551795959473,3.533082962036133,-0.16144461929798126
2.5284368991851807,3.504683494567871,-0.15188616514205933
2.5519626140594482,3.487990379333496,-0.1424020230770111
2.1797163486480713,2.938194990158081,-0.11220963299274445
2.7763588428497314,3.8931398391723633,0.2653546631336212
2.764857530593872,3.938796043395996,0.2772383987903595
2.7278096675872803,3.944922685623169,0.28576263785362244
2.7057061195373535,3.9783012866973877,0.29611992835998535
2.663536310195923,3.9778754711151123,0.3034650683403015
2.647751569747925,4.015791416168213,0.31343644857406616
2.624551773071289,4.048907279968262,0.3230586051940918
2.5780324935913086,4.041110038757324,0.32893532514572144
2.549527406692505,4.058527946472168,0.3365802764892578
2.5102972984313965,4.0639729499816895,0.3430044651031494
2.5079243183135986,4.12875509262085,0.3544202744960785
2.4783639907836914,4.1459527015686035,0.3615303039550781
2.448157548904419,4.163254737854004,0.368449330329895
2.4087822437286377,4.167567253112793,0.37408462166786194
2.3898887634277344,4.204733371734619,0.38250312209129333
2.3736350536346436,4.244604110717773,0.39104923605918884
2.266981363296509,4.1250786781311035,0.3847154676914215
2.236032724380493,4.141372203826904,0.39073723554611206
2.2242045402526855,4.191300868988037,0.39984607696533203
2.1911439895629883,4.199356555938721,0.40486904978752136
2.160658597946167,4.2145843505859375,0.41043800115585327
2.1409337520599365,4.254611015319824,0.41837969422340393
2.109680414199829,4.2696614265441895,0.4237845540046692
2.0763485431671143,4.276808738708496,0.4282423257827759
2.052823543548584,4.304881572723389,0.4347788393497467
2.020967960357666,4.3194260597229,0.439734548330307
1.9825540781021118,4.319575309753418,0.44323334097862244
1.9640580415725708,4.3616623878479,0.4509989619255066
1.9995325803756714,4.524186134338379,0.4712654948234558
1.973203182220459,4.552193641662598,0.4774866998195648
1.9230190515518188,4.526706695556641,0.47793081402778625
1.897216796875,4.558160781860352,0.484397828578949
4.22856330871582,10.365946769714355,1.1085599660873413
1.847124695777893,4.619636058807373,0.4970860779285431
1.822381615638733,4.654051780700684,0.5036383271217346
1.7953954935073853,4.684898376464844,0.5097206830978394
1.7693761587142944,4.719245433807373,0.5162377953529358
1.338276982307434,3.647860527038574,0.40114638209342957
1.3075001239776611,3.6421592235565186,0.40259507298469543
1.271167278289795,3.6217541694641113,0.4022531807422638
1.6203588247299194,4.72561502456665,0.5271879434585571
1.588528037071228,4.744200229644775,0.5316205620765686
1.5677801370620728,4.7956671714782715,0.5397613048553467
1.556742787361145,4.876384735107422,0.5512123703956604
1.5247488021850586,4.89422607421875,0.5555233955383301
1.4985110759735107,4.9344353675842285,0.5621098875999451
1.4464349746704102,4.888874053955078,0.5589438080787659
1.4255256652832031,4.947201251983643,0.567661702632904
1.3861784934997559,4.941878318786621,0.5691102743148804
1.3362631797790527,4.894911766052246,0.5657303333282471
1.2914122343063354,4.866461753845215,0.5641638040542603
1.254551887512207,4.867768287658691,0.5659537315368652
1.2309237718582153,4.92151403427124,0.5738824605941772
1.1975899934768677,4.93740701675415,0.5774376392364502
1.169379711151123,4.971771717071533,0.5831524133682251
1.1285570859909058,4.953033447265625,0.5826314687728882
1.1040838956832886,5.009957313537598,0.5906475782394409
1.0731991529464722,5.040208339691162,0.595568060874939
1.0366305112838745,5.047586917877197,0.5978465676307678
1.0074971914291382,5.0848708152771,0.6036491990089417
0.9815323352813721,5.141042709350586,0.6117455363273621
2.1084835529327393,11.477951049804688,1.3687450885772705
2.0115861892700195,11.404258728027344,1.3622193336486816
1.8943825960159302,11.211434364318848,1.3415132761001587
1.7915871143341064,11.078559875488281,1.3279277086257935
1.6948717832565308,10.96380615234375,1.3164880275726318
1.598030686378479,10.836763381958008,1.3035832643508911
1.5037614107131958,10.716692924499512,1.29118013381958
1.4036129713058472,10.5538911819458,1.273030400276184
1.3087695837020874,10.401593208312988,1.2561367750167847
1.2240251302719116,10.313960075378418,1.2470753192901611
1.1333802938461304,10.152321815490723,1.229066014289856
1.0643020868301392,10.175093650817871,1.2334203720092773
0.9884459972381592,10.131820678710938,1.229535698890686
0.39332547783851624,4.3527607917785645,0.5285820960998535
0.3556445837020874,4.270313739776611,0.5189411640167236
0.3274852931499481,4.29581880569458,0.5224379897117615
0.2986813187599182,4.31338357925415,0.5249952077865601
0.2700844407081604,4.338497638702393,0.5285012125968933
0.30940350890159607,5.6101603507995605,0.6839169859886169
0.27148643136024475,5.6392502784729,0.6876091957092285
0.2335948646068573,5.679708480834961,0.6927233338356018
0.19388897716999054,5.681154727935791,0.6931142210960388
0.1554105132818222,5.721079349517822,0.698233962059021
0.11508151143789291,5.729741096496582,0.6995790004730225
0.07577086985111237,5.773007869720459,0.7051362991333008
0.03560929000377655,5.781166076660156,0.7059543132781982
-0.004656005650758743,5.781290054321289,0.7058252096176147
-0.06860214471817017,8.82873249053955,1.0777130126953125
-0.025858649984002113,1.740796685218811,0.21247391402721405
-0.18838070333003998,8.636996269226074,1.054132342338562
-0.24656201899051666,8.573488235473633,1.046371340751648
-0.06585726141929626,1.8445383310317993,0.2249816209077835
-0.1703561544418335,3.9941749572753906,0.4868684411048889
-0.17881104350090027,3.6056630611419678,0.4392540454864502
-0.2025291621685028,3.5733861923217773,0.43508362770080566
-0.22636713087558746,3.556460380554199,0.4328104555606842
-0.12186656147241592,1.7252029180526733,0.20985887944698334
-0.29756391048431396,3.8353397846221924,0.46609926223754883
-0.3220466375350952,3.81010365486145,0.46252575516700745
-0.34416332840919495,3.7576394081115723,0.45567044615745544
-0.3679073452949524,3.7320985794067383,0.45211729407310486
-0.39106476306915283,3.702536106109619,0.44810202717781067
-0.41335463523864746,3.6689820289611816,0.44363266229629517
-0.43690818548202515,3.650739908218384,0.4408436417579651
-0.4615165889263153,3.6400206089019775,0.43884971737861633
-0.4778594672679901,3.571521520614624,0.42993593215942383
-0.5014307498931885,3.5605783462524414,0.42798346281051636
-0.5261210203170776,3.5571377277374268,0.4269518554210663
-0.5448461174964905,3.5151920318603516,0.42132559418678284
-0.5837461948394775,3.5995047092437744,0.4306659400463104
-0.5863212943077087,3.4655396938323975,0.41379332542419434
-1.1176989078521729,6.3424482345581055,0.7557872533798218
-1.1689667701721191,6.376878261566162,0.7583916783332825
-1.2234708070755005,6.422239303588867,0.7622922658920288
-1.2779767513275146,6.463333606719971,0.7656973600387573
-1.3341556787490845,6.507767200469971,0.7691863179206848
-1.3858269453048706,6.533024311065674,0.7701830267906189
-1.4403315782546997,6.569266319274902,0.7724894881248474
-1.4734445810317993,6.5065836906433105,0.763187050819397
-1.512539267539978,6.4700727462768555,0.756989061832428
-1.541969895362854,6.391643047332764,0.7459185123443604
-0.699272871017456,2.813955307006836,0.3274371922016144
-0.7125908136367798,2.786760091781616,0.32325488328933716
-0.723624587059021,2.75199556350708,0.318227082490921
-0.7405402064323425,2.7396295070648193,0.3158048391342163
-0.7661511301994324,2.7569475173950195,0.3167871832847595
-0.785319447517395,2.751730442047119,0.3152045011520386
-1.7792414426803589,6.078154563903809,0.6936679482460022
-1.8091650009155273,6.029232025146484,0.6854958534240723
-1.839648962020874,5.983888626098633,0.6777923703193665
-1.8748835325241089,5.948974609375,0.67121422290802
-1.9067579507827759,5.906642913818359,0.663890540599823
-1.9341286420822144,5.853212356567383,0.655259370803833
-1.9611518383026123,5.803713798522949,0.646777331829071
-1.993882417678833,5.772487163543701,0.6403930187225342
-2.025416374206543,5.737267971038818,0.6335834264755249
-2.052990674972534,5.6866679191589355,0.6250093579292297
-2.084641218185425,5.65078592300415,0.6181652545928955
-2.11873722076416,5.626150131225586,0.6122545599937439
-2.1426219940185547,5.576002597808838,0.6035424470901489
-2.182948350906372,5.569202899932861,0.5995668172836304
-1.5552066564559937,3.8868143558502197,0.41607412695884705
-1.5763710737228394,3.8618571758270264,0.41109347343444824
-1.5996317863464355,3.844240188598633,0.4067586362361908
-1.5812366008758545,3.73005747795105,0.39217960834503174
-1.5506312847137451,3.5912702083587646,0.3751836121082306
-1.5602525472640991,3.5450334548950195,0.3678521513938904
-1.5786349773406982,3.5202128887176514,0.3628177046775818
-1.5993520021438599,3.5026752948760986,0.35843876004219055
-1.6226390600204468,3.4923293590545654,0.3547065854072571
-1.627570390701294,3.443138599395752,0.34707432985305786
-1.6131181716918945,3.3512868881225586,0.33508458733558655
-1.629704236984253,3.326308488845825,0.32990676164627075
-1.6554973125457764,3.3226287364959717,0.3267044425010681
-1.688038945198059,3.332796573638916,0.3247917592525482
-1.7477701902389526,3.394453287124634,0.3277944326400757
-1.7787222862243652,3.3963351249694824,0.3248303532600403
-1.815448522567749,3.4081714153289795,0.32270801067352295
-1.8563848733901978,3.430799722671509,0.32145726680755615
-1.170120120048523,2.1291465759277344,0.19738389551639557
-1.1848326921463013,2.1212668418884277,0.19443534314632416
-2.5531234741210938,4.497299671173096,0.4074496328830719
-2.5832810401916504,4.480639934539795,0.4008464813232422
-2.604644775390625,4.450791835784912,0.3931477665901184
-2.619121551513672,4.40667200088501,0.38401639461517334
-1.2524913549423218,2.074338674545288,0.1782301515340805
-2.644179582595825,4.3153862953186035,0.36531350016593933
-2.6767778396606445,4.3050150871276855,0.35881417989730835
-2.974703550338745,4.7121758460998535,0.3863103687763214
-3.0031638145446777,4.685502529144287,0.3775562345981598
-3.0289323329925537,4.660256385803223,0.3687315881252289
-3.046396493911743,4.621532917022705,0.3587839901447296
-3.0512189865112305,4.558195114135742,0.34636569023132324
-3.0835349559783936,4.541787147521973,0.33761122822761536
-3.105846405029297,4.513028144836426,0.3279085159301758
-3.141502857208252,4.498498916625977,0.31861424446105957
-2.907644748687744,4.105803489685059,0.2830731272697449
-2.86784029006958,3.9958906173706055,0.26771125197410583
-2.9047374725341797,3.98911714553833,0.2587253749370575
-2.921344757080078,3.9582266807556152,0.24800199270248413
-2.48231840133667,3.4754300117492676,-0.14747492969036102
-2.439548969268799,3.4670748710632324,-0.15539678931236267
-2.7750205993652344,4.008394241333008,-0.18911322951316833
-2.7816126346588135,4.079167366027832,-0.20129047334194183
-1.3702945709228516,2.041438102722168,-0.10505986213684082
-2.1872308254241943,3.311584234237671,-0.17728595435619354
-1.3062342405319214,2.00844144821167,-0.11143561452627182
-1.2808042764663696,2.001387119293213,-0.11482498794794083
-2.105821132659912,3.3443078994750977,-0.19803833961486816
-1.2621103525161743,2.0357260704040527,-0.12409285455942154
-2.073679208755493,3.4001224040985107,-0.21309764683246613
-2.0259363651275635,3.3784244060516357,-0.21753385663032532
-1.9982578754425049,3.3854081630706787,-0.22334769368171692
-1.9795879125595093,3.409477949142456,-0.2302606999874115
-1.186904788017273,2.079213857650757,-0.1436302363872528
-1.1950678825378418,2.128103494644165,-0.150135338306427
-1.9787535667419434,3.5833992958068848,-0.258066862821579
-2.532470941543579,4.66635799407959,-0.3426617383956909
-2.5353171825408936,4.752772808074951,-0.35559406876564026
-1.7615506649017334,3.3581960201263428,-0.2557299733161926
-1.733826994895935,3.3634181022644043,-0.26052483916282654
-1.7017773389816284,3.361868143081665,-0.26480600237846375
-1.6708850860595703,3.359524726867676,-0.26881957054138184
-1.6780586242675781,3.4337666034698486,-0.2789791226387024
-1.7071019411087036,3.5577917098999023,-0.29328542947769165
-1.6844720840454102,3.5767438411712646,-0.29906898736953735
-1.6755354404449463,3.623469352722168,-0.30710917711257935
-2.3015246391296387,5.071086406707764,-0.4356236755847931
-2.266432762145996,5.090537071228027,-0.44279778003692627
-2.227999448776245,5.102627754211426,-0.4493425190448761
-2.17057728767395,5.0674872398376465,-0.45154663920402527
-2.1938908100128174,5.221924781799316,-0.47072601318359375
-2.1897852420806885,5.31998872756958,-0.48491373658180237
-2.164543867111206,5.367491722106934,-0.4945096969604492
-2.120901584625244,5.367548942565918,-0.4996740221977234
-1.3401689529418945,3.4619667530059814,-0.32557791471481323
-1.3265221118927002,3.5001494884490967,-0.33233821392059326
-2.050187587738037,5.53031063079834,-0.5300930142402649
-2.025517225265503,5.584339618682861,-0.5401774048805237
-1.9291912317276,5.436468124389648,-0.530585527420044
-1.6127965450286865,4.648334980010986,-0.45756635069847107
-1.579548954963684,4.659262657165527,-0.4623781740665436
-1.8805205821990967,5.6816582679748535,-0.5684724450111389
-1.8684202432632446,5.779140472412109,-0.5827597975730896
-0.972565770149231,3.0811047554016113,-0.313105046749115
-0.9552340507507324,3.102504253387451,-0.3174950182437897
-0.8516157269477844,2.837110757827759,-0.29236558079719543
-0.79563307762146,2.71964693069458,-0.28219524025917053
-0.7645658254623413,2.6838550567626953,-0.28041815757751465
-0.747697651386261,2.6964268684387207,-0.2835254669189453
-0.7366535663604736,2.7314417362213135,-0.28893202543258667
-0.715319037437439,2.7288341522216797,-0.29038557410240173
-0.7010564208030701,2.7523488998413086,-0.29461467266082764
-0.6749523282051086,2.7306172847747803,-0.2940392792224884
-1.4923604726791382,6.225772380828857,-0.6738162636756897
-1.4588426351547241,6.281086444854736,-0.6832666397094727
-1.4190117120742798,6.3096208572387695,-0.6898451447486877
-1.372555136680603,6.307474136352539,-0.6930826902389526
-1.316454291343689,6.263395309448242,-0.6915425062179565
-1.2676945924758911,6.249246120452881,-0.6928719282150269
-1.2110016345977783,6.1928019523620605,-0.6895055174827576
-1.1612690687179565,6.166342735290527,-0.6894415020942688
-1.1057876348495483,6.105102062225342,-0.6854702830314636
-1.0103176832199097,5.814107894897461,-0.6552183032035828
-0.9400447607040405,5.644583702087402,-0.6382759213447571
-0.9541043639183044,5.988080978393555,-0.6794370412826538
-0.9147846698760986,6.009576797485352,-0.6842070817947388
-0.8779488205909729,6.050024509429932,-0.6911903619766235
-0.8380134105682373,6.078907012939453,-0.6963462829589844
-0.6379231810569763,4.879795074462891,-0.5604493021965027
-0.737122654914856,5.962376594543457,-0.6865981221199036
-0.6942253708839417,5.955527305603027,-0.6876446008682251
-0.6485142707824707,5.9213786125183105,-0.6854519844055176
-0.6018919944763184,5.875386714935303,-0.6813909411430359
-0.5585213303565979,5.863871097564697,-0.6813710927963257
-0.516281247138977,5.851958751678467,-0.6813021302223206
-0.4696207344532013,5.7817254066467285,-0.6744527816772461
-0.25592663884162903,3.4475908279418945,-0.40284255146980286
-0.2342132329940796,3.484058141708374,-0.4075573980808258
-0.3407740592956543,5.669836521148682,-0.6640281677246094
-0.3029106557369232,5.702944278717041,-0.6687115430831909
-0.26040682196617126,5.642779350280762,-0.6624836921691895
-0.22003372013568878,5.617234706878662,-0.6600170135498047
-0.18036778271198273,5.603071212768555,-0.6586272120475769
-0.13966412842273712,5.565374851226807,-0.654505729675293
-0.10065103322267532,5.54676628112793,-0.6526513695716858
-0.061772894114255905,5.516247272491455,-0.6494238972663879
-0.01896757446229458,4.4729766845703125,-0.5265848636627197
0.012089841067790985,4.461378574371338,-0.5250736474990845
0.05273859202861786,5.3883514404296875,-0.6340240836143494
0.09066178649663925,5.418907165527344,-0.6375045776367188
0.1275881677865982,5.387139320373535,-0.633683443069458
0.16071246564388275,5.246601104736328,-0.6166191697120667
0.1984403133392334,5.280338287353516,-0.6199769973754883
0.23284688591957092,5.228534698486328,-0.6133227944374084
0.22463715076446533,4.351182460784912,-0.5099465847015381
0.2530955672264099,4.318600654602051,-0.5057033896446228
0.27084633708000183,4.131027698516846,-0.48292213678359985
0.3023216128349304,4.1678667068481445,-0.48641660809516907
0.33063042163848877,4.15805196762085,-0.4844837188720703
0.358672559261322,4.140270233154297,-0.4816364645957947
0.3859769105911255,4.122351169586182,-0.47875580191612244
0.407863050699234,4.054114818572998,-0.46969863772392273
0.4350852966308594,4.043642997741699,-0.4673755466938019
0.4622498154640198,4.0329813957214355,-0.46505436301231384
0.49173861742019653,4.037479400634766,-0.46448200941085815
0.6288700103759766,4.881010055541992,-0.5600971579551697
0.6599918007850647,4.857570648193359,-0.5556631684303284
0.6936057209968567,4.853140354156494,-0.5534349083900452
0.726159393787384,4.840780258178711,-0.5503256320953369
0.7543956637382507,4.797425746917725,-0.5437036156654358
0.7864023447036743,4.784692287445068,-0.5403885841369629
0.8247021436691284,4.810055732727051,-0.5411690473556519
0.8633495569229126,4.8351263999938965,-0.5419183969497681
0.8955731391906738,4.821667671203613,-0.5383483171463013
0.9246684908866882,4.792747974395752,-0.5330933928489685
0.9522726535797119,4.756001949310303,-0.5266382098197937
0.9818546175956726,4.734464168548584,-0.521838903427124
1.0137455463409424,4.724109649658203,-0.5182982087135315
1.0416038036346436,4.694520473480225,-0.512665867805481
1.0759997367858887,4.695069313049316,-0.5103572010993958
1.1053073406219482,4.672680377960205,-0.5051195621490479
1.1300688982009888,4.635149002075195,-0.4983479678630829
1.162198543548584,4.627575874328613,-0.4948165714740753
1.186645269393921,4.5896453857421875,-0.48806795477867126
1.218492865562439,4.5816802978515625,-0.4844200015068054
1.2474592924118042,4.562209129333496,-0.47929200530052185
1.2767176628112793,4.5464396476745605,-0.4746410548686981
1.299719214439392,4.507971286773682,-0.46763303875923157
1.3311405181884766,4.499195098876953,-0.4637410044670105
1.3621169328689575,4.490339279174805,-0.4596060812473297
1.384188175201416,4.451461315155029,-0.45229294896125793
1.4148756265640259,4.442230224609375,-0.4480738043785095
1.442231297492981,4.421584129333496,-0.4426957368850708
1.4680448770523071,4.3971147537231445,-0.43691378831863403
1.4930983781814575,4.3726806640625,-0.4309505820274353
1.512723445892334,4.333425998687744,-0.4235864579677582
1.2726541757583618,3.5646796226501465,-0.34546688199043274
1.3002029657363892,3.563371181488037,-0.3424104154109955
1.5950095653533936,4.2802629470825195,-0.40757638216018677
1.6242047548294067,4.269723415374756,-0.4027957618236542
1.6522090435028076,4.255244731903076,-0.39762821793556213
1.6866891384124756,4.254720687866211,-0.3936651647090912
1.7130872011184692,4.236223220825195,-0.38803431391716003
1.7373957633972168,4.214146614074707,-0.3819717466831207
1.7570490837097168,4.181124210357666,-0.37495285272598267
1.7923636436462402,4.183518886566162,-0.3710348308086395
1.8094767332077026,4.142646312713623,-0.36320701241493225
1.8406888246536255,4.137864112854004,-0.35848721861839294
1.8623050451278687,4.111546516418457,-0.35192108154296875
1.887695074081421,4.091841697692871,-0.3458384573459625
1.916251540184021,4.079007625579834,-0.3403492867946625
1.9409006834030151,4.059176921844482,-0.33405688405036926
1.9648644924163818,4.039427280426025,-0.3278861939907074
1.9929609298706055,4.02610445022583,-0.3221169412136078
2.012305498123169,3.995129108428955,-0.3149443566799164
2.0391201972961426,3.981968402862549,-0.3090900480747223
2.05867338180542,3.9547793865203857,-0.302172988653183
2.086699962615967,3.9405312538146973,-0.2960110306739807
2.113982677459717,3.9264161586761475,-0.2899296283721924
2.1439247131347656,3.9194865226745605,-0.2842971086502075
2.119166374206543,3.813378095626831,-0.271552711725235
2.15347957611084,3.8124732971191406,-0.266221821308136
2.1721386909484863,3.784343957901001,-0.2588741183280945
2.1933326721191406,3.763502359390259,-0.25211843848228455
2.2270236015319824,3.762235641479492,-0.24651142954826355
2.2492544651031494,3.740318536758423,-0.23944191634655
2.2698581218719482,3.7191340923309326,-0.2323952168226242
2.299129009246826,3.7107131481170654,-0.22599801421165466
2.308403253555298,3.6685492992401123,-0.2174023687839508
2.337165355682373,3.659963369369507,-0.21081037819385529
2.3738303184509277,3.6646134853363037,-0.2049335241317749
2.390744924545288,3.6353447437286377,-0.1967654973268509
2.4112823009490967,3.6127781867980957,-0.18885059654712677
2.430325746536255,3.5909550189971924,-0.1811135858297348
2.442007541656494,3.5550377368927,-0.17224803566932678
2.474536180496216,3.5518949031829834,-0.16494780778884888
2.506535530090332,3.5488836765289307,-0.1575402319431305
2.513530969619751,3.505953550338745,-0.1476893126964569
2.5244016647338867,3.4743824005126953,-0.13855591416358948
2.174715518951416,2.951671600341797,-0.11064968258142471
2.772160053253174,3.9164512157440186,0.2481156438589096
2.742081642150879,3.9369657039642334,0.2575055658817291
2.7056190967559814,3.942639112472534,0.26522237062454224
2.687586784362793,3.982621192932129,0.2752441167831421
2.6579933166503906,4.001861572265625,0.28342923521995544
2.6298086643218994,4.019885063171387,0.291186660528183
2.586170196533203,4.019750118255615,0.2974121868610382
2.572740077972412,4.064760208129883,0.30682775378227234
2.556018829345703,4.102334022521973,0.31549590826034546
2.5213260650634766,4.1140666007995605,0.3219684958457947
2.481919050216675,4.119223117828369,0.32786381244659424
2.4606635570526123,4.149570465087891,0.3353986144065857
2.4429755210876465,4.186578750610352,0.3434457778930664
2.3991992473602295,4.184365749359131,0.34816452860832214
2.367985725402832,4.2015910148620605,0.3543575406074524
2.3045156002044678,4.156249046325684,0.3549440801143646
2.2505581378936768,4.127643585205078,0.3567907214164734
2.21968412399292,4.1438493728637695,0.3623025715351105
2.202976942062378,4.187502861022949,0.3702908754348755
2.1735522747039795,4.202388763427734,0.37550342082977295
2.152557611465454,4.234567165374756,0.3822525143623352
2.1210062503814697,4.250000476837158,0.3873106837272644
2.084238052368164,4.254689693450928,0.39139822125434875
2.0621330738067627,4.286607265472412,0.3978877365589142
2.0354416370391846,4.3075127601623535,0.40330854058265686
2.0007338523864746,4.314733505249023,0.4072398543357849
1.9785593748092651,4.350182056427002,0.4138007164001465
1.999403476715088,4.481208324432373,0.4295138120651245
4.479183197021484,10.22968864440918,0.9876747727394104
1.955762505531311,4.554662227630615,0.442966490983963
1.9118638038635254,4.5433197021484375,0.44473350048065186
1.8978486061096191,4.603527545928955,0.4535454213619232
1.8650100231170654,4.616520881652832,0.45768189430236816
1.8441846370697021,4.657959461212158,0.46462249755859375
1.8022682666778564,4.648911476135254,0.4665178954601288
1.7518205642700195,4.617896556854248,0.4658939838409424
1.3420872688293457,3.6166090965270996,0.36683061718940735
1.327000617980957,3.654994010925293,0.3726617991924286
1.2962225675582886,3.649233102798462,0.37398821115493774
1.2752504348754883,3.6727912425994873,0.378324955701828
1.6319999694824219,4.811916351318359,0.497842937707901
1.6056746244430542,4.849087715148926,0.5039036870002747
1.5782079696655273,4.882265567779541,0.5095653533935547
1.5393942594528198,4.877997875213623,0.5113005638122559
1.4898273944854736,4.840173721313477,0.5095536112785339
1.4595577716827393,4.86530876159668,0.5140737891197205
1.4223136901855469,4.867922782897949,0.5161886811256409
1.4010523557662964,4.926318168640137,0.5242609977722168
1.370759129524231,4.950660228729248,0.5287036299705505
1.3149737119674683,4.881008625030518,0.5231072306632996
1.276049256324768,4.874975204467773,0.5242027640342712
1.243029236793518,4.891254901885986,0.5274506211280823
1.2135610580444336,4.922396183013916,0.532337486743927
1.1858631372451782,4.960838317871094,0.5380422472953796
1.151315450668335,4.968709945678711,0.5404387712478638
1.1203186511993408,4.995430946350098,0.5449472665786743
1.0866169929504395,5.010587215423584,0.5479009747505188
1.0556904077529907,5.040783405303955,0.552431046962738
1.019774317741394,5.047948360443115,0.5544705390930176
0.9843776226043701,5.054749488830566,0.5564777851104736
2.1801934242248535,11.634318351745605,1.2838177680969238
2.063976287841797,11.453805923461914,1.2668465375900269
1.9622926712036133,11.349116325378418,1.257338047027588
1.8487001657485962,11.163158416748047,1.238795280456543
1.7416051626205444,10.999176025390625,1.2226803302764893
1.641343116760254,10.865002632141113,1.2098850011825562
1.5464097261428833,10.741272926330566,1.198210597038269
1.4504731893539429,10.597558975219727,1.1842560768127441
1.3592172861099243,10.48020076751709,1.1724416017532349
1.2644957304000854,10.319705963134766,1.1558220386505127
1.1876813173294067,10.29339599609375,1.1542621850967407
1.1026233434677124,10.189360618591309,1.1440300941467285
1.0301433801651,10.181081771850586,1.1445616483688354
0.40647661685943604,4.317043304443359,0.4859400689601898
0.37683022022247314,4.327457904815674,0.48741304874420166
0.3414848744869232,4.268016815185547,0.481037974357605
0.31209516525268555,4.2857666015625,0.4833897054195404
0.28635168075561523,4.349740982055664,0.49097582697868347
0.3295714557170868,5.599287986755371,0.6325244903564453
0.2918158769607544,5.624617576599121,0.6359211802482605
0.2537730634212494,5.653625965118408,0.6392958164215088
0.21475836634635925,5.686281681060791,0.6431177854537964
0.17578573524951935,5.710885047912598,0.6460596919059753
0.13654130697250366,5.735218524932861,0.6490036249160767
0.09663543850183487,5.735994815826416,0.6493136882781982
0.05684051290154457,5.7481369972229,0.650942325592041
0.016003470867872238,5.7212395668029785,0.647737443447113
-0.024854807183146477,5.965762138366699,0.6752434372901917
-0.06622336804866791,5.949939727783203,0.6733077168464661
-0.030880408361554146,1.7075777053833008,0.19320093095302582
-0.10362949222326279,4.140269756317139,0.46838846802711487
-0.13142061233520508,4.108427047729492,0.4647536277770996
-0.07042749226093292,1.803551197052002,0.2038978785276413
-0.27225515246391296,5.920962333679199,0.6689140200614929
-0.1879308819770813,3.5506293773651123,0.4008640944957733
-0.21210956573486328,3.541534662246704,0.39959239959716797
-0.23957565426826477,3.582623243331909,0.4039996564388275
-0.12774191796779633,1.7265665531158447,0.1945960521697998
-0.3059849441051483,3.7802321910858154,0.4256458580493927
-0.33414316177368164,3.801311731338501,0.4275224506855011
-0.35596805810928345,3.752622127532959,0.4215761721134186
-0.3787887692451477,3.719252586364746,0.41737934947013855
-0.39964553713798523,3.666388750076294,0.4110148251056671
-0.42602723836898804,3.671314239501953,0.4111615717411041
-0.44524964690208435,3.618285655975342,0.4046671986579895
-0.4701158106327057,3.6152501106262207,0.4036732316017151
-0.48863592743873596,3.565883159637451,0.3975331783294678
-0.5103756785392761,3.539412498474121,0.39396288990974426
-0.5337972044944763,3.528211832046509,0.39212411642074585
-0.558302640914917,3.5245261192321777,0.391140878200531
-0.5876353979110718,3.5513722896575928,0.39339521527290344
-0.6020111441612244,3.490009307861328,0.38577762246131897
-1.139191746711731,6.34503698348999,0.6999040842056274
-1.1943060159683228,6.3944220542907715,0.7038735747337341
-1.2491624355316162,6.439584732055664,0.7073959708213806
-1.300808072090149,6.465269088745117,0.708795428276062
-1.3603110313415527,6.5287065505981445,0.7140153646469116
-1.4146060943603516,6.565162658691406,0.7160843014717102
-1.4550585746765137,6.532764434814453,0.71063631772995
-1.490449070930481,6.48126220703125,0.7031766772270203
-1.530072569847107,6.448389053344727,0.6977739334106445
-0.6895737051963806,2.8189473152160645,0.30424508452415466
-0.7012042999267578,2.784191131591797,0.29956144094467163
-0.714564859867096,2.7568769454956055,0.2956450581550598
-0.731260359287262,2.74461030960083,0.29338347911834717
-0.7522771954536438,2.7471413612365723,0.2926996350288391
-0.7840230464935303,2.7868833541870117,0.29596975445747375
-1.767453670501709,6.11935567855835,0.6477634906768799
-1.7918541431427002,6.047833442687988,0.6376429200172424
-1.8248307704925537,6.009930610656738,0.6311749219894409
-1.8563357591629028,5.968108654022217,0.6243401169776917
-1.8825901746749878,5.907262325286865,0.6155084371566772
-1.918996810913086,5.879575729370117,0.6101847887039185
-1.0693615674972534,3.200537919998169,0.33069708943367004
-1.9795441627502441,5.794615745544434,0.5959587097167969
-2.0071475505828857,5.748481273651123,0.5884743332862854
-2.0388243198394775,5.712982177734375,0.5820837020874023
-2.0651981830596924,5.6625518798828125,0.5741984248161316
-2.0976040363311768,5.630307197570801,0.5681682825088501
-2.124894380569458,5.587250709533691,0.560667872428894
-2.1566295623779297,5.558841705322266,0.554745078086853
-2.185708522796631,5.522830963134766,0.548068106174469
-1.5600425004959106,3.863088607788086,0.3811454772949219
-1.5810831785202026,3.8380208015441895,0.3764779269695282
-1.613341212272644,3.841799020767212,0.3743896484375
-1.5977106094360352,3.7346596717834473,0.3615805506706238
-1.5700534582138062,3.602825164794922,0.34651461243629456
-1.5730170011520386,3.542328119277954,0.3383639454841614
-1.597700834274292,3.531583547592163,0.3350121080875397
-1.6151297092437744,3.5068514347076416,0.3301108777523041
-1.6317700147628784,3.4822821617126465,0.3252873122692108
-1.6016379594802856,3.359076738357544,0.31131407618522644
-1.6183043718338013,3.3341076374053955,0.3064643144607544
-1.6414141654968262,3.3231184482574463,0.3028956949710846
-1.6742608547210693,3.3331968784332275,0.30102473497390747
-1.7228658199310303,3.37438702583313,0.3019644021987915
-1.7603676319122314,3.390467405319214,0.3005006015300751
-1.7967702150344849,3.4025330543518066,0.2985984981060028
-1.8343796730041504,3.418170690536499,0.2968572974205017
-2.4999794960021973,4.586331367492676,0.3940267264842987
-1.1891533136367798,2.1468288898468018,0.18235541880130768
-2.549682140350342,4.528628349304199,0.3801475465297699
-2.5650711059570312,4.484560966491699,0.3718668222427368
-2.5786633491516113,4.4412522315979,0.3635738492012024
-2.619795799255371,4.4447736740112305,0.3590884804725647
-1.237580418586731,2.066162109375,0.16451798379421234
-1.2597335577011108,2.071242094039917,0.16250738501548767
-2.6711349487304688,4.328889846801758,0.33444085717201233
-2.6998257637023926,4.3115668296813965,0.3277716338634491
-2.970561981201172,4.671379566192627,0.34899386763572693
-3.006307363510132,4.658321857452393,0.3416309654712677
-3.0447490215301514,4.652502536773682,0.3348243832588196
-3.0549819469451904,4.599637985229492,0.3242585062980652
-3.095219135284424,4.592070579528809,0.31675201654434204
-3.0957369804382324,4.531020164489746,0.30547645688056946
-3.1263532638549805,4.51054573059082,0.29654842615127563
-3.144216537475586,4.470126152038574,0.28607824444770813
-1.3789564371109009,1.9347318410873413,0.12035888433456421
-2.854382276535034,3.9496192932128906,0.2381952852010727
