X,Y,Z
1.5567935705184937,4.204493522644043,0.4287189245223999
1.529488444328308,4.222435474395752,0.4327911138534546
1.4988692998886108,4.23307466506958,0.43597662448883057
1.4764832258224487,4.269405364990234,0.4418846368789673
1.441259741783142,4.264689922332764,0.44348371028900146
1.416359305381775,4.289081573486328,0.4481014907360077
1.3884750604629517,4.306044578552246,0.45187240839004517
1.3597112894058228,4.3230671882629395,0.4554704427719116
1.3279999494552612,4.332611560821533,0.45833662152290344
1.297088861465454,4.341670513153076,0.4611244201660156
1.2667779922485352,4.350321292877197,0.4638524353504181
1.2448921203613281,4.3886637687683105,0.46978163719177246
1.2134002447128296,4.397214412689209,0.4722129702568054
1.181840181350708,4.40554141998291,0.47464078664779663
1.151619791984558,4.421300888061523,0.47792425751686096
1.1245267391204834,4.4440436363220215,0.4819265604019165
1.0944350957870483,4.455292224884033,0.484710156917572
1.0630269050598145,4.462649822235107,0.4869231581687927
1.0346312522888184,4.485042095184326,0.49062424898147583
1.0036917924880981,4.499797344207764,0.4935450553894043
0.970176100730896,4.4989728927612305,0.4947478771209717
0.9388473033905029,4.505394458770752,0.4967477023601532
0.7649984955787659,3.803455352783203,0.4204654395580292
0.7424900531768799,3.8314895629882812,0.42444536089897156
0.8470840454101562,4.546651363372803,0.5046916604042053
0.8216657042503357,4.590581893920898,0.5106042623519897
0.7913963794708252,4.607532024383545,0.5135419964790344
0.7592733502388,4.61275053024292,0.5151921510696411
0.7283474206924438,4.625413417816162,0.5176817178726196
0.6984838843345642,4.653426170349121,0.5215861797332764
0.6655899286270142,4.6580986976623535,0.5228902101516724
0.6326163411140442,4.662544250488281,0.5241961479187012
0.6040089726448059,4.697505950927734,0.5289533138275146
0.5741544365882874,4.72456693649292,0.5328524708747864
0.5412446856498718,4.728310585021973,0.5340874791145325
0.5094773173332214,4.751255512237549,0.5371944904327393
0.47762244939804077,4.770064830780029,0.5398554801940918
0.44408997893333435,4.773200035095215,0.5407708883285522
0.41278284788131714,4.799282073974609,0.5443111062049866
0.37996116280555725,4.809675216674805,0.5461013913154602
0.3480287194252014,4.843127250671387,0.550466001033783
0.31425830721855164,4.84926700592041,0.551422119140625
0.281141459941864,4.866791725158691,0.5537007451057434
0.2474009394645691,4.87633752822876,0.5551002025604248
0.2144249975681305,4.901149749755859,0.5582648515701294
0.17997516691684723,4.910243511199951,0.5596746802330017
0.14670175313949585,4.9423627853393555,0.5636502504348755
0.11234796047210693,4.947132587432861,0.5641994476318359
0.07818762212991714,4.971067905426025,0.5669620037078857
0.04363077133893967,4.987004280090332,0.5688402056694031
0.008313420228660107,4.994937896728516,0.5698351860046387
-0.0265085157006979,5.018148422241211,0.5725997686386108
-0.06151082366704941,5.025599002838135,0.5735335350036621
-0.09690722078084946,5.052249431610107,0.5763195753097534
-0.13222312927246094,5.059249401092529,0.57688969373703
-0.1681007444858551,5.081520080566406,0.5792279243469238
-0.20437157154083252,5.087995529174805,0.579789400100708
-0.2404082715511322,5.101998329162598,0.5812394022941589
-0.2781560719013214,5.142876148223877,0.5857450366020203
-0.31063637137413025,5.090550422668457,0.5792798399925232
-0.2947695255279541,4.337113380432129,0.49313482642173767
-0.32089731097221375,4.276947498321533,0.4859088063240051
-0.3518226444721222,4.290163040161133,0.4870522618293762
-0.3826929032802582,4.299280166625977,0.4877508282661438
-0.4062783420085907,4.230900764465332,0.4796742796897888
-0.4322580099105835,4.197216987609863,0.4752228260040283
-0.45614612102508545,4.144032001495361,0.4685881733894348
-0.4788413643836975,4.0907721519470215,0.4619918763637543
-0.5042963027954102,4.064347267150879,0.4584559500217438
-0.5254541635513306,4.006961822509766,0.4514583647251129
-0.5474660396575928,3.9610116481781006,0.44577455520629883
-0.5717120170593262,3.9341862201690674,0.44195637106895447
-0.5911161303520203,3.8804056644439697,0.4351573884487152
-0.6103805303573608,3.830383539199829,0.4288199841976166
-0.6324076652526855,3.7993903160095215,0.42464056611061096
-0.648212730884552,3.7338180541992188,0.416628897190094
-0.6700059175491333,3.7064285278320312,0.4128868579864502
-0.6893354654312134,3.667492389678955,0.40758833289146423
-0.7084223031997681,3.63236665725708,0.4027673006057739
-0.7247897386550903,3.5857224464416504,0.39670467376708984
-0.7432615756988525,3.550360679626465,0.3919152617454529
-0.7556291818618774,3.4883203506469727,0.38421741127967834
-0.7818536162376404,3.49066162109375,0.3835584223270416
-0.8003755807876587,3.462728977203369,0.379402756690979
-0.820320188999176,3.4422688484191895,0.37609684467315674
-0.8317214846611023,3.387735366821289,0.36910369992256165
-0.8533225655555725,3.374525785446167,0.3666283190250397
-0.8693383932113647,3.3385114669799805,0.3616858422756195
-0.882187008857727,3.29512619972229,0.3558728098869324
-0.9065629243850708,3.2967631816864014,0.354827344417572
-0.9214696288108826,3.264573812484741,0.3501659333705902
-0.9329573512077332,3.2210724353790283,0.34431883692741394
-0.9491199254989624,3.192232847213745,0.34003469347953796
-0.9667907357215881,3.170875310897827,0.33659934997558594
-0.9847787022590637,3.153338670730591,0.3333778977394104
-0.9966224431991577,3.117204189300537,0.3281983733177185
-1.0104107856750488,3.0884475708007812,0.32383501529693604
-1.0296818017959595,3.07409930229187,0.3209536373615265
-1.0485715866088867,3.0597071647644043,0.3181045651435852
-1.0631194114685059,3.034317970275879,0.31403714418411255
-1.0756661891937256,3.0053606033325195,0.3095141351222992
-1.079862356185913,2.954455852508545,0.3027782738208771
-1.0932551622390747,2.9290122985839844,0.298673152923584
-1.1056993007659912,2.8996148109436035,0.2941449284553528
-1.1201187372207642,2.8776206970214844,0.2903878688812256
-1.1279175281524658,2.8413660526275635,0.28506267070770264
-1.1411168575286865,2.8195533752441406,0.28122466802597046
-1.1557520627975464,2.80120587348938,0.27774283289909363
-1.1454299688339233,2.721466541290283,0.2681595981121063
-1.1412935256958008,2.6600542068481445,0.26048094034194946
-1.1527907848358154,2.6383612155914307,0.25658613443374634
-1.1624672412872314,2.61307430267334,0.2523747384548187
-1.1817270517349243,2.608935594558716,0.25020280480384827
-1.2035449743270874,2.607771158218384,0.24822717905044556
-1.2380776405334473,2.634873390197754,0.24891731142997742
-1.2840956449508667,2.6865499019622803,0.2517402768135071
-1.2900290489196777,2.653705358505249,0.2466248720884323
-1.2701916694641113,2.568312883377075,0.23665860295295715
-1.279713749885559,2.542074680328369,0.23214541375637054
-1.2897870540618896,2.5197603702545166,0.22796890139579773
-1.3028391599655151,2.5045270919799805,0.22440087795257568
-1.312160849571228,2.4823131561279297,0.22022795677185059
-1.318419337272644,2.4527692794799805,0.21533074975013733
-1.3315691947937012,2.43705153465271,0.21165697276592255
-1.3459162712097168,2.424980401992798,0.2081630527973175
-1.350308895111084,2.396010637283325,0.20329509675502777
-1.3668408393859863,2.3868956565856934,0.20001119375228882
-1.3756181001663208,2.3641111850738525,0.19556547701358795
-1.3830909729003906,2.341939687728882,0.19110241532325745
-1.4186567068099976,2.3664000034332275,0.1903820037841797
-1.4268709421157837,2.3435111045837402,0.18572859466075897
-1.4430097341537476,2.333894729614258,0.18209102749824524
-1.4332232475280762,2.285170555114746,0.1753610074520111
-1.4480706453323364,2.276069164276123,0.1717107892036438
-1.464308500289917,2.2659573554992676,0.16770128905773163
-1.4473302364349365,2.2075142860412598,0.16019174456596375
-1.4895776510238647,2.240644693374634,0.15930670499801636
-1.4895201921463013,2.2081236839294434,0.15354694426059723
-1.5000807046890259,2.191810369491577,0.14885273575782776
-1.4830290079116821,2.137535572052002,0.14154593646526337
-1.515256404876709,2.1533753871917725,0.1387750208377838
-1.5004478693008423,2.1020078659057617,0.13149967789649963
-1.5044775009155273,2.080179452896118,0.12612682580947876
-1.5139247179031372,2.0639381408691406,0.12081778049468994
-1.5227662324905396,2.047999620437622,0.1153656467795372
-1.4849681854248047,2.0958876609802246,-0.09290465712547302
-1.503482460975647,2.1542043685913086,-0.10045580565929413
-1.4957348108291626,2.1782946586608887,-0.10655983537435532
-1.479819893836975,2.1888771057128906,-0.11178489774465561
-1.4809256792068481,2.225463628768921,-0.11822127550840378
-1.4726907014846802,2.24932599067688,-0.12402398884296417
-1.4484096765518188,2.2462236881256104,-0.12804442644119263
-1.440043568611145,2.2698235511779785,-0.13357511162757874
-1.4228934049606323,2.280327558517456,-0.13837873935699463
-1.4211844205856323,2.3132264614105225,-0.14429132640361786
-1.4161993265151978,2.343383550643921,-0.15008029341697693
-1.394842267036438,2.346797466278076,-0.15415897965431213
-1.390162467956543,2.3764355182647705,-0.15978921949863434
-1.3764442205429077,2.393110752105713,-0.16463585197925568
-1.3663972616195679,2.416494369506836,-0.16989871859550476
-1.3340985774993896,2.398554801940918,-0.1720922291278839
-1.3283089399337769,2.4281668663024902,-0.17764079570770264
-1.3197197914123535,2.454695701599121,-0.18298375606536865
-1.3016122579574585,2.464036226272583,-0.18709687888622284
-1.295071005821228,2.493558406829834,-0.1926187425851822
-1.2805876731872559,2.5094757080078125,-0.19707326591014862
-1.2726995944976807,2.539353609085083,-0.2026444524526596
-1.2614630460739136,2.562027931213379,-0.20761539041996002
-1.207514762878418,2.4970102310180664,-0.20542597770690918
-1.169280767440796,2.463198661804199,-0.20552951097488403
-1.161198616027832,2.492523670196533,-0.21088628470897675
-1.1922029256820679,2.6065945625305176,-0.22347699105739594
-1.1722593307495117,2.611046552658081,-0.22676612436771393
-1.1549345254898071,2.6227052211761475,-0.23058319091796875
-1.1448564529418945,2.652266263961792,-0.23606635630130768
-1.117093563079834,2.638425588607788,-0.23756787180900574
-1.0940817594528198,2.6351051330566406,-0.23997002840042114
-1.102949619293213,2.711113691329956,-0.2495417445898056
-1.1194418668746948,2.8090474605560303,-0.26129665970802307
-1.109198808670044,2.8420464992523193,-0.2671262323856354
-1.0976152420043945,2.8712270259857178,-0.27259308099746704
-1.0851956605911255,2.900569438934326,-0.2779579162597656
-1.0563496351242065,2.8860392570495605,-0.2791275084018707
-1.054318904876709,2.9443793296813965,-0.2873438894748688
-1.025651454925537,2.929450750350952,-0.2884688973426819
-1.007358193397522,2.9437096118927,-0.29228293895721436
-0.9937256574630737,2.9726483821868896,-0.2975400388240814
-0.9653881788253784,2.9571337699890137,-0.2983473241329193
-0.951831042766571,2.9857187271118164,-0.3035798966884613
-0.9339364767074585,3.003277540206909,-0.30769097805023193
-0.9170738458633423,3.0244333744049072,-0.3120318651199341
-0.9065899848937988,3.067854642868042,-0.3187207579612732
-0.8915743827819824,3.0962345600128174,-0.32387131452560425
-0.8751803636550903,3.120798110961914,-0.32866525650024414
-0.8633056879043579,3.164125680923462,-0.3352559208869934
-0.8484106063842773,3.2000370025634766,-0.3411427140235901
-0.8219766020774841,3.1906001567840576,-0.3421717584133148
-0.5969208478927612,2.385681629180908,-0.2573662996292114
-0.7983022928237915,3.2880733013153076,-0.35669365525245667
-0.7812406420707703,3.319847345352173,-0.36198484897613525
-0.7625004649162292,3.3478379249572754,-0.36694127321243286
-0.7474496364593506,3.390747547149658,-0.3735296130180359
-0.729462206363678,3.422194719314575,-0.37890496850013733
-0.7084705829620361,3.4422175884246826,-0.38280022144317627
-0.6978050470352173,3.515439987182617,-0.39262306690216064
-0.6711864471435547,3.512462854385376,-0.39400970935821533
-0.655807614326477,3.5664525032043457,-0.4017830193042755
-0.6376640796661377,3.6089305877685547,-0.40824174880981445
-0.6181093454360962,3.6475584506988525,-0.4140368402004242
-0.5974208116531372,3.6822516918182373,-0.41943129897117615
-0.5747801661491394,3.7092015743255615,-0.4240032434463501
-0.5574480295181274,3.7704899311065674,-0.4325224757194519
-0.5332089066505432,3.78947114944458,-0.43603837490081787
-0.5163836479187012,3.8660242557525635,-0.4460522532463074
-0.4955894351005554,3.9194159507751465,-0.45345431566238403
-0.4659886360168457,3.90331768989563,-0.45283976197242737
-0.4474363327026367,3.9873077869415283,-0.46390077471733093
-0.4224298894405365,4.017195224761963,-0.4683528244495392
-0.41329169273376465,4.212984085083008,-0.4921411871910095
-0.37719547748565674,4.14219856262207,-0.4848393499851227
-0.34964919090270996,4.160040378570557,-0.48791903257369995
-0.3172135651111603,4.1235809326171875,-0.4846372604370117
-0.2951577305793762,4.222353935241699,-0.496846467256546
-0.31751325726509094,5.048922538757324,-0.5948557257652283
-0.23295272886753082,4.167762756347656,-0.49167701601982117
-0.2024860680103302,4.138184547424316,-0.48884209990501404
-0.17288507521152496,4.131678581237793,-0.4886324107646942
-0.1438649594783783,4.124983310699463,-0.4880899488925934
-0.11462171375751495,4.106451034545898,-0.486168771982193
-0.0850745141506195,4.060565948486328,-0.48102810978889465
-0.05682262405753136,4.061016082763672,-0.4813963770866394
-0.02794409915804863,4.045782089233398,-0.479713499546051
0.0002185138437198475,4.034249782562256,-0.47826525568962097
0.028300851583480835,4.034158229827881,-0.4781968295574188
0.05616508051753044,4.018356800079346,-0.47628942131996155
0.08406831324100494,4.01787805557251,-0.4762214422225952
0.1115492433309555,4.001729965209961,-0.47401800751686096
0.13818372786045074,3.9543800354003906,-0.4680045545101166
0.1648346334695816,3.9340035915374756,-0.46521949768066406
0.19218865036964417,3.9328205585479736,-0.4647279977798462
0.21956703066825867,3.9314451217651367,-0.4642358720302582
0.24634917080402374,3.9221861362457275,-0.462454229593277
0.2735275328159332,3.9127159118652344,-0.4606145918369293
0.3000963032245636,3.903092622756958,-0.4587949812412262
0.3259284496307373,3.8855538368225098,-0.456070214509964
0.3508169651031494,3.8601226806640625,-0.45240187644958496
0.37833017110824585,3.8654727935791016,-0.4520036280155182
0.40395334362983704,3.8474280834198,-0.44887685775756836
0.428927481174469,3.8292577266693115,-0.44578075408935547
0.4541592299938202,3.814774513244629,-0.4431411325931549
0.4806133806705475,3.8116979598999023,-0.4417126774787903
0.5069761872291565,3.808476686477661,-0.44002383947372437
0.5316006541252136,3.789639949798584,-0.43653571605682373
0.557905912399292,3.786050796508789,-0.43484750390052795
0.5842806100845337,3.7822647094726562,-0.4331531822681427
0.6080350279808044,3.7630107402801514,-0.4294874370098114
0.6327642798423767,3.7512927055358887,-0.4265613555908203
0.6573603749275208,3.739410400390625,-0.4236435294151306
0.6824333071708679,3.727259635925293,-0.4206855893135071
0.7069099545478821,3.715022325515747,-0.4177722930908203
0.7310295104980469,3.7027010917663574,-0.4145582914352417
0.7550156712532043,3.690225839614868,-0.41131356358528137
0.780503511428833,3.6851861476898193,-0.4089187979698181
0.8041499257087708,3.6684436798095703,-0.40520209074020386
0.8313490152359009,3.6706137657165527,-0.4035595953464508
0.8513481020927429,3.6423959732055664,-0.39835360646247864
0.878248929977417,3.6442906856536865,-0.3964711129665375
0.897901177406311,3.6157822608947754,-0.3912939727306366
0.9293032884597778,3.6322054862976074,-0.3909528851509094
0.9633010625839233,3.6598238945007324,-0.391647607088089
1.0330731868743896,3.8184900283813477,-0.40613141655921936
1.1852242946624756,4.264688014984131,-0.45080986618995667
1.215004801750183,4.256683826446533,-0.44715702533721924
1.2397493124008179,4.229686260223389,-0.4414826035499573
1.2743638753890991,4.240095615386963,-0.439471036195755
1.3012008666992188,4.224211692810059,-0.43474334478378296
1.3269052505493164,4.204387664794922,-0.4296235144138336
1.3538535833358765,4.188024520874023,-0.4248639941215515
1.3857135772705078,4.186211109161377,-0.42138415575027466
1.4143850803375244,4.177042007446289,-0.41709500551223755
1.4379045963287354,4.152970790863037,-0.411349356174469
1.4668573141098022,4.143263339996338,-0.4069982171058655
1.4956661462783813,4.1333794593811035,-0.40261778235435486
1.5211509466171265,4.116220951080322,-0.3973217308521271
1.5524559020996094,4.113283634185791,-0.393353670835495
1.5753966569900513,4.088321685791016,-0.3873048424720764
1.6067931652069092,4.084891319274902,-0.3832974135875702
1.6231797933578491,4.045334339141846,-0.3757418394088745
1.6566418409347534,4.049025058746338,-0.3721860647201538
1.6790038347244263,4.023397922515869,-0.3658450245857239
1.7162106037139893,4.033517360687256,-0.3627820611000061
1.9250702857971191,4.440020561218262,-0.3948337733745575
1.9457041025161743,4.405997276306152,-0.38723990321159363
1.9693738222122192,4.378895282745361,-0.38027605414390564
2.006943702697754,4.379459857940674,-0.3755471706390381
2.053499221801758,4.401348114013672,-0.3725966513156891
2.1300196647644043,4.486385345458984,-0.3747475743293762
2.1808245182037354,4.514402389526367,-0.37196844816207886
2.2295076847076416,4.534545421600342,-0.36832988262176514
2.2628653049468994,4.522890090942383,-0.3619045317173004
2.2914814949035645,4.504617214202881,-0.35497498512268066
2.322096109390259,4.489439964294434,-0.3482452929019928
2.353492498397827,4.4735941886901855,-0.34131917357444763
1.7387934923171997,3.251533031463623,-0.2438550740480423
1.7493959665298462,3.219627857208252,-0.23722602427005768
1.736028790473938,3.1428799629211426,-0.22724419832229614
1.7465254068374634,3.110630750656128,-0.2206009179353714
1.7846592664718628,3.1297388076782227,-0.217518150806427
1.3384943008422852,2.311596155166626,-0.15735596418380737
1.3011887073516846,2.211726665496826,-0.14723841845989227
0.956413984298706,1.600260853767395,-0.10405170172452927
0.9690201282501221,1.5974068641662598,-0.1014055535197258
0.9778367280960083,1.5876305103302002,-0.09825458377599716
0.9950817227363586,1.5908855199813843,-0.09583421051502228
1.0013444423675537,1.5778977870941162,-0.09241057187318802
1.0204890966415405,1.584362268447876,-0.09003222733736038
1.0208582878112793,1.5610445737838745,-0.08589156717061996
1.0375392436981201,1.564249873161316,-0.08320938050746918
1.0413053035736084,1.5478246212005615,-0.07944560796022415
1.054311752319336,1.5438969135284424,-0.07616335898637772
2.4200687408447266,3.4945223331451416,-0.1652306169271469
2.409566879272461,3.430830240249634,-0.15504761040210724
2.442150592803955,3.427273988723755,-0.14727026224136353
2.5027964115142822,3.4657976627349854,-0.14115554094314575
2.6186554431915283,3.5750021934509277,-0.13695071637630463
2.6604912281036377,3.5833165645599365,-0.12829212844371796
2.2876524925231934,3.2115352153778076,0.22139333188533783
2.3158528804779053,3.300879716873169,0.2346159964799881
2.5534653663635254,3.700227975845337,0.27074170112609863
1.0627856254577637,1.5639516115188599,0.11743519455194473
1.06853187084198,1.597427487373352,0.12287494540214539
1.0432449579238892,1.5858657360076904,0.12482606619596481
1.0316579341888428,1.5931710004806519,0.12806127965450287
1.0200320482254028,1.6003878116607666,0.13116809725761414
0.9994825124740601,1.5946823358535767,0.13315562903881073
0.9919036030769348,1.608323335647583,0.13664378225803375
0.9764922261238098,1.6083773374557495,0.1388988196849823
0.9640393853187561,1.6156266927719116,0.141725555062294
0.9636050462722778,1.642790675163269,0.14629031717777252
1.3434016704559326,2.3271968364715576,0.21008643507957458
1.8207638263702393,3.206712245941162,0.2933156192302704
1.7529950141906738,3.14164400100708,0.2909799814224243
1.759227991104126,3.2089312076568604,0.30090320110321045
1.768090009689331,3.2790088653564453,0.31097492575645447
1.748103141784668,3.298085927963257,0.3162021338939667
2.372246742248535,4.556807518005371,0.4414321184158325
2.3384292125701904,4.573655605316162,0.4475940763950348
2.3057193756103516,4.589649200439453,0.4535323977470398
2.2696127891540527,4.598361968994141,0.4586223363876343
2.238856792449951,4.621501445770264,0.4649280905723572
2.2045397758483887,4.637403964996338,0.47053733468055725
2.1715757846832275,4.652385234832764,0.47590723633766174
2.1406188011169434,4.670445442199707,0.4815615713596344
2.106100082397461,4.68557596206665,0.4867548644542694
2.08105206489563,4.721737384796143,0.4940283000469208
2.0404043197631836,4.721980094909668,0.49755096435546875
1.7872965335845947,4.216618061065674,0.44730496406555176
1.7174431085586548,4.131654262542725,0.4412268102169037
1.6924985647201538,4.158298015594482,0.44677722454071045
1.6592108011245728,4.162901401519775,0.4499368369579315
1.6319663524627686,4.181581497192383,0.454609215259552
1.6027309894561768,4.192463397979736,0.45837628841400146
1.5760000944137573,4.210473537445068,0.4629209041595459
1.544822335243225,4.221621990203857,0.4664709270000458
1.5141500234603882,4.232334136962891,0.46995431184768677
1.4849588871002197,4.246396541595459,0.4738156199455261
1.4603164196014404,4.2709832191467285,0.47881680727005005
1.4280157089233398,4.273324012756348,0.4813511371612549
1.40143883228302,4.298102855682373,0.4861597418785095
1.3680282831192017,4.300355434417725,0.4883940815925598
1.341561198234558,4.324603080749512,0.493155300617218
1.3158096075057983,4.348397254943848,0.49783945083618164
1.2876343727111816,4.364577293395996,0.5016835927963257
1.2544275522232056,4.365837574005127,0.5036184787750244
1.2245750427246094,4.382054805755615,0.5071843862533569
1.1909979581832886,4.382946968078613,0.5089756846427917
1.1659184694290161,4.413475036621094,0.5142123103141785
1.1389713287353516,4.436234474182129,0.5185600519180298
1.1088799238204956,4.447551727294922,0.5215694308280945
1.08195161819458,4.477870464324951,0.5265130400657654
1.048153281211853,4.47766637802124,0.5278746485710144
1.0178428888320923,4.492346286773682,0.5310180187225342
0.9898080229759216,4.514237880706787,0.5350132584571838
0.9535160064697266,4.497986316680908,0.5345094203948975
0.8109403252601624,3.9646668434143066,0.4722842574119568
0.7557259202003479,3.8331053256988525,0.4575399160385132
0.7241256833076477,3.815324306488037,0.4563613831996918
0.8384841084480286,4.594886779785156,0.5507634878158569
0.8078114986419678,4.60803747177124,0.5535050630569458
0.7776655554771423,4.628730773925781,0.5572086572647095
0.7450971007347107,4.633893966674805,0.5587931871414185
0.7099452018737793,4.62354040145874,0.5583773851394653
0.6827901005744934,4.666657447814941,0.5644527673721313
0.6509798765182495,4.678858280181885,0.5668203234672546
0.6208651065826416,4.706246852874756,0.5710673332214355
0.5890646576881409,4.717976093292236,0.5734318494796753
0.5558944940567017,4.721859455108643,0.5745793581008911
0.5239147543907166,4.737093925476074,0.5770186185836792
0.49369335174560547,4.771402359008789,0.5818162560462952
0.4601898193359375,4.774623870849609,0.5828531980514526
0.42848190665245056,4.800804615020752,0.5867299437522888
0.3950790464878082,4.8035430908203125,0.5877624750137329
0.363750696182251,4.837034702301025,0.5922865867614746
0.3298402428627014,4.839388847351074,0.5929070115089417
0.2975704073905945,4.86859655380249,0.5968484878540039
0.2637602388858795,4.88599967956543,0.599381685256958
0.2301342636346817,4.8953857421875,0.6009536385536194
0.19701097905635834,4.920035362243652,0.6044313311576843
0.16321861743927002,4.9367475509643555,0.60667884349823
0.12875501811504364,4.937742710113525,0.6068715453147888
0.09416850656270981,4.965643882751465,0.6104032397270203
0.059783924371004105,4.989416599273682,0.6134568452835083
0.02507620118558407,4.981934070587158,0.6126969456672668
-0.00958404690027237,5.005226135253906,0.615752100944519
-0.04461335390806198,5.02830696105957,0.6185585260391235
-0.08061248809099197,5.0550336837768555,0.6216329336166382
-0.11536617577075958,5.03887939453125,0.619467556476593
-0.150824636220932,5.053490161895752,0.6211143732070923
-0.1871161013841629,5.083346366882324,0.6246636509895325
-0.22281277179718018,5.089700222015381,0.6253542304039001
-0.2599071264266968,5.1229376792907715,0.6291741728782654
-0.29730793833732605,5.1442952156066895,0.6312954425811768
-0.28256598114967346,4.364487648010254,0.5352063179016113
-0.31000399589538574,4.323826789855957,0.5298559665679932
-0.3376372456550598,4.290716171264648,0.525460422039032
-0.3687976598739624,4.303791522979736,0.5267477035522461
-0.39734265208244324,4.281871318817139,0.5236352682113647
-0.4207048714160919,4.217411041259766,0.5151187777519226
-0.44360867142677307,4.1566877365112305,0.5071008205413818
-0.46963801980018616,4.130526542663574,0.5033349990844727
-0.49042996764183044,4.061827659606934,0.4944175183773041
-0.5141962170600891,4.019908905029297,0.48878899216651917
-0.5373466610908508,3.9817872047424316,0.483557790517807
-0.5591626167297363,3.9397659301757812,0.4776439964771271
-0.5787547826766968,3.8861162662506104,0.47035959362983704
-0.5994301438331604,3.843879222869873,0.46449610590934753
-0.6197178959846497,3.7975869178771973,0.4581585228443146
-0.6422096490859985,3.770388603210449,0.45417138934135437
-0.6615085601806641,3.7278170585632324,0.4482673108577728
-0.682094156742096,3.6966774463653564,0.4435447156429291
-0.7000571489334106,3.6540050506591797,0.4374774992465973
-0.718980610370636,3.618867874145508,0.4323505461215973
-0.7375147342681885,3.5796732902526855,0.42674508690834045
-0.7510502934455872,3.5215110778808594,0.41893723607063293
-0.7677927613258362,3.482332944869995,0.41331538558006287
-0.7880340814590454,3.4620954990386963,0.40979939699172974
-0.8133918642997742,3.464402437210083,0.40897172689437866
-0.8227956295013428,3.398531913757324,0.40011268854141235
-0.8436042070388794,3.3816304206848145,0.3970579206943512
-0.8613205552101135,3.3533248901367188,0.3926939070224762
-0.8783376216888428,3.325043201446533,0.3882003724575043
-0.8947722315788269,3.2967586517333984,0.38362815976142883
-0.9102031588554382,3.264559030532837,0.3786153495311737
-0.9282793998718262,3.2435410022735596,0.37494197487831116
-0.9442987442016602,3.2148687839508057,0.3703950047492981
-0.9622038006782532,3.193563222885132,0.3667289614677429
-0.9758156538009644,3.1612420082092285,0.3615918755531311
-0.992885947227478,3.1398861408233643,0.35770025849342346
-1.0045408010482788,3.1037819385528564,0.3521910607814789
-1.023604154586792,3.0896129608154297,0.34916919469833374
-1.0401407480239868,3.067931890487671,0.3453175723552704
-1.0586577653884888,3.05362606048584,0.34221702814102173
-1.067530632019043,3.0137362480163574,0.33614441752433777
-1.0855224132537842,2.9993090629577637,0.332920640707016
-1.1033114194869995,2.9847934246063232,0.3297148048877716
-1.1213867664337158,2.9700140953063965,0.326469361782074
-1.1126679182052612,2.886265277862549,0.31568050384521484
-1.1234843730926514,2.857311248779297,0.31075024604797363
-1.1371785402297974,2.8354263305664062,0.3065955638885498
-1.1504523754119873,2.813551664352417,0.30249008536338806
-1.1535969972610474,2.7662713527679443,0.2956473231315613
-1.1439677476882935,2.69045352935791,0.285837322473526
-1.1402859687805176,2.6330840587615967,0.27789306640625
-1.161277413368225,2.6326775550842285,0.27596521377563477
-1.1757651567459106,2.6179933547973633,0.2725719213485718
-1.2005149126052856,2.6241400241851807,0.2712807357311249
-1.2319090366363525,2.644202947616577,0.2714034616947174
-1.2677701711654663,2.6749277114868164,0.272408664226532
-1.2571053504943848,2.607032060623169,0.26336169242858887
-1.30387544631958,2.658130168914795,0.26634255051612854
-1.2929147481918335,2.5900661945343018,0.2573254406452179
-1.3177032470703125,2.5953209400177,0.25557824969291687
-1.3009371757507324,2.521153450012207,0.24595561623573303
-1.3067433834075928,2.492114543914795,0.24082604050636292
-1.3206079006195068,2.476294755935669,0.23686136305332184
-1.3305082321166992,2.4536027908325195,0.23228436708450317
-1.3391757011413574,2.4314351081848145,0.22765719890594482
-1.3494489192962646,2.412684917449951,0.22337102890014648
-1.361947774887085,2.397014617919922,0.21931886672973633
-1.3711755275726318,2.3741023540496826,0.2145121693611145
-1.3829706907272339,2.358546257019043,0.21034525334835052
-1.4062837362289429,2.363187313079834,0.2079448252916336
-1.4262166023254395,2.360645055770874,0.20479989051818848
-1.4223926067352295,2.317695140838623,0.19807037711143494
-1.4296669960021973,2.295207977294922,0.19301186501979828
-1.4487167596817017,2.2927799224853516,0.18968884646892548
-1.4497092962265015,2.260145425796509,0.18372002243995667
-1.4610402584075928,2.2438766956329346,0.17903822660446167
-1.494762659072876,2.2640466690063477,0.17714270949363708
-1.4968727827072144,2.234895944595337,0.17123503983020782
-1.5103815793991089,2.2214255332946777,0.16638560593128204
-1.476035714149475,2.141322374343872,0.15660062432289124
-1.516545295715332,2.1704938411712646,0.15483300387859344
-1.4978787899017334,2.1124467849731445,0.14651426672935486
-1.5024957656860352,2.090322256088257,0.14066967368125916
-1.5112638473510742,2.074678897857666,0.1352623999118805
-1.516397476196289,2.0519070625305176,0.12901099026203156
-1.4923439025878906,2.0905356407165527,-0.09527385234832764
-1.5110530853271484,2.1487627029418945,-0.10337038338184357
-1.4992902278900146,2.1661975383758545,-0.10955588519573212
-1.491932988166809,2.1898906230926514,-0.11594301462173462
-1.4849376678466797,2.213167667388916,-0.12209191918373108
-1.4680875539779663,2.2240726947784424,-0.12758372724056244
-1.456007480621338,2.2410011291503906,-0.13326837122440338
-1.4502414464950562,2.267615556716919,-0.13938869535923004
-1.43313729763031,2.278141975402832,-0.14455462992191315
-1.4210097789764404,2.2945926189422607,-0.14986790716648102
-1.41664457321167,2.3244168758392334,-0.156034454703331
-1.3990229368209839,2.3347294330596924,-0.16098865866661072
-1.394156575202942,2.3645095825195312,-0.16710036993026733
-1.3811877965927124,2.38079571723938,-0.17222723364830017
-1.355797529220581,2.377073049545288,-0.17586465179920197
-1.3499505519866943,2.4069101810455322,-0.18192775547504425
-1.3327407836914062,2.41614031791687,-0.18641039729118347
-1.318762183189392,2.4323272705078125,-0.19133023917675018
-1.1835824251174927,2.2215213775634766,-0.1780809611082077
-1.2963242530822754,2.474501848220825,-0.20188863575458527
-1.2894518375396729,2.5040640830993652,-0.20781844854354858
-1.274370789527893,2.5201475620269775,-0.21268817782402039
-1.2561445236206055,2.5289266109466553,-0.21687044203281403
-1.2246984243392944,2.5093319416046143,-0.2184983640909195
-1.1847670078277588,2.4720659255981445,-0.21844440698623657
-1.173387885093689,2.494364023208618,-0.22358404099941254
-1.1669366359710693,2.527090311050415,-0.2296675741672516
-1.189050316810608,2.6236343383789062,-0.24169418215751648
-1.1559312343597412,2.599748373031616,-0.24255798757076263
-1.1728620529174805,2.68973970413208,-0.2540883421897888
-1.1292481422424316,2.6403939723968506,-0.25244054198265076
-1.116753101348877,2.662233352661133,-0.2575197219848633
-1.1003323793411255,2.677119255065918,-0.2618953585624695
-1.1057451963424683,2.745955467224121,-0.2715555429458618
-1.1005184650421143,2.789548873901367,-0.2787947654724121
-1.075368046760559,2.78230619430542,-0.2809506356716156
-1.0473055839538574,2.7677035331726074,-0.2822272777557373
-1.0324931144714355,2.789496660232544,-0.2872140109539032
-1.0232387781143188,2.8256523609161377,-0.2936660051345825
-1.0112252235412598,2.8543753623962402,-0.2993689179420471
-0.9910632371902466,2.8610877990722656,-0.30270251631736755
-0.981846272945404,2.9008727073669434,-0.3094651997089386
-0.9680927991867065,2.9297022819519043,-0.31516802310943604
-0.9571050405502319,2.9656424522399902,-0.3216056525707245
-0.9409598708152771,2.986750841140747,-0.3264545202255249
-0.9230716228485107,3.004185914993286,-0.3307468295097351
-0.915036141872406,3.054994583129883,-0.3387719690799713
-0.8979055881500244,3.075918674468994,-0.3435153663158417
-0.8834940195083618,3.10801100730896,-0.34957993030548096
-0.861567497253418,3.1138322353363037,-0.3524914085865021
-0.8496079444885254,3.1570208072662354,-0.35961028933525085
-0.8381124138832092,3.2039270401000977,-0.3672213554382324
-0.8195078372955322,3.22442889213562,-0.3718435764312744
-0.7983114123344421,3.2374062538146973,-0.37559255957603455
-0.7880072593688965,3.295522451400757,-0.38437411189079285
-0.7725396156311035,3.334735631942749,-0.39102402329444885
-0.7525514364242554,3.35490083694458,-0.39546918869018555
-0.7373364567756653,3.3976798057556152,-0.402625173330307
-0.7185751795768738,3.429155111312866,-0.4082881510257721
-0.7020850777626038,3.4718761444091797,-0.4152187705039978
-0.685798704624176,3.5183277130126953,-0.4226565361022949
-0.6641421318054199,3.5379786491394043,-0.4269064962863922
-0.680805504322052,3.7712595462799072,-0.45703524351119995
-0.7246565222740173,4.18466854095459,-0.5090111494064331
-0.6977954506874084,4.204660415649414,-0.5133159756660461
-0.6811307072639465,4.289571285247803,-0.5256079435348511
-0.6593834161758423,4.347580909729004,-0.5346806049346924
-0.6384263634681702,4.4170403480529785,-0.5450006127357483
-0.6158753037452698,4.486522197723389,-0.5551791191101074
-0.5908867120742798,4.540452480316162,-0.5634763240814209
-0.5639765858650208,4.582675457000732,-0.570368230342865
-0.5378846526145935,4.636283874511719,-0.5787351727485657
-0.5113154649734497,4.693667888641357,-0.587213933467865
-0.480048805475235,4.712347030639648,-0.5908023118972778
-0.4030539393424988,4.2562336921691895,-0.5347920656204224
-0.3686809241771698,4.20469331741333,-0.5294762849807739
-0.3378746807575226,4.187661647796631,-0.5284532308578491
-0.31233710050582886,4.240041255950928,-0.5357828736305237
-0.28170308470726013,4.226524829864502,-0.5348178744316101
-0.3026431202888489,5.083230018615723,-0.6441625952720642
-0.26602068543434143,5.061844348907471,-0.6424012780189514
-0.22844529151916504,5.013130187988281,-0.6369555592536926
-0.1919630765914917,4.975805759429932,-0.6326165795326233
-0.1588273048400879,5.0273003578186035,-0.6396020650863647
-0.12243015319108963,4.9933576583862305,-0.6357560753822327
-0.0877906084060669,4.99401330947876,-0.6363340020179749
-0.052513111382722855,4.940231800079346,-0.629619836807251
-0.018147416412830353,4.921103000640869,-0.6271485090255737
0.015962792560458183,4.905611515045166,-0.6251711249351501
0.05046554282307625,4.882127285003662,-0.6222060322761536
0.08393894881010056,4.850663185119629,-0.6182534098625183
0.11756519973278046,4.846155166625977,-0.6172356009483337
0.1510489284992218,4.8375468254089355,-0.6156700849533081
0.18382695317268372,4.813218116760254,-0.6121366024017334
0.21658369898796082,4.796412944793701,-0.6095932722091675
0.25014081597328186,4.787104606628418,-0.6079335808753967
0.28200599551200867,4.7621846199035645,-0.6038544774055481
0.31456097960472107,4.75252103805542,-0.6017447710037231
0.3469953238964081,4.742634296417236,-0.5996387004852295
0.37992680072784424,4.7402520179748535,-0.5985118746757507
0.40630701184272766,4.656541347503662,-0.5869160294532776
0.4385717213153839,4.653819561004639,-0.5852778553962708
0.39309731125831604,3.88344407081604,-0.48733583092689514
0.41506442427635193,3.834545135498047,-0.4801734983921051
0.43950995802879333,3.8124797344207764,-0.47641080617904663
0.4654524028301239,3.8017961978912354,-0.4737881124019623
0.4907556474208832,3.791013717651367,-0.47107118368148804
0.5159319043159485,3.780061721801758,-0.4683612883090973
0.5422673225402832,3.776592493057251,-0.46659430861473083
0.568579375743866,3.7729387283325195,-0.4648272693157196
0.5939522981643677,3.761446475982666,-0.46169140934944153
0.6199620366096497,3.7575113773345947,-0.45953240990638733
0.6420899033546448,3.730448007583618,-0.4545711278915405
0.669407844543457,3.7337868213653564,-0.45333945751190186
0.6938913464546204,3.7216994762420654,-0.45013660192489624
0.718085765838623,3.709512233734131,-0.44667741656303406
0.7410645484924316,3.6894733905792236,-0.4422720968723297
0.7659313082695007,3.6807334423065186,-0.43927136063575745
0.7915881872177124,3.675605058670044,-0.4367203712463379
0.8136917352676392,3.655205011367798,-0.4321434199810028
0.8406797051429749,3.657397747039795,-0.43014344573020935
0.864591121673584,3.6441879272460938,-0.4263138175010681
0.889999270439148,3.638406753540039,-0.4233969748020172
0.9153145551681519,3.6324622631073,-0.4204587936401367
0.9344762563705444,3.6038944721221924,-0.4146284759044647
0.9572886824607849,3.590235471725464,-0.41055411100387573
0.9805492758750916,3.576275587081909,-0.40641579031944275
1.0055125951766968,3.5697054862976074,-0.4031682014465332
1.0323888063430786,3.570496082305908,-0.40059763193130493
1.0447942018508911,3.522740125656128,-0.39248159527778625
1.0837116241455078,3.564169406890869,-0.39431503415107727
1.1691325902938843,3.749648094177246,-0.4118238091468811
1.3193774223327637,4.130442142486572,-0.45037636160850525
1.3694355487823486,4.188257694244385,-0.4530710279941559
1.3931907415390015,4.164519786834717,-0.4469241499900818
1.4220337867736816,4.155251502990723,-0.442324161529541
1.4458988904953003,4.131030559539795,-0.43613889813423157
1.4748800992965698,4.121285915374756,-0.4312553405761719
1.5030606985092163,4.111602306365967,-0.42636600136756897
1.5340182781219482,4.108962059020996,-0.42220330238342285
1.562699556350708,4.098652362823486,-0.417202353477478
1.5826318264007568,4.066482067108154,-0.40993112325668335
1.610865592956543,4.055913925170898,-0.4046221673488617
1.6356024742126465,4.038127422332764,-0.3986956775188446
1.66675865650177,4.034311771392822,-0.3940695524215698
1.697891116142273,4.030275821685791,-0.3894011080265045
1.8833850622177124,4.387459754943848,-0.41905421018600464
1.9418108463287354,4.4390692710876465,-0.41897326707839966
1.9330649375915527,4.337151527404785,-0.4044246971607208
1.9505623579025269,4.295705795288086,-0.3956332504749298
1.948662519454956,4.215792179107666,-0.38323235511779785
1.5728684663772583,3.343384265899658,-0.2999131977558136
1.6317349672317505,3.4064126014709473,-0.3013123571872711
2.1573104858398438,4.424480438232422,-0.385865718126297
2.216526508331299,4.469740390777588,-0.38407084345817566
2.2747139930725098,4.510918617248535,-0.38178765773773193
2.307732582092285,4.499107360839844,-0.3747996985912323
2.3372514247894287,4.4800591468811035,-0.3671520948410034
2.3806276321411133,4.488676071166992,-0.3615095913410187
1.7414989471435547,3.2313895225524902,-0.25574159622192383
1.7603336572647095,3.2127256393432617,-0.24957318603992462
1.7311944961547852,3.1090328693389893,-0.23692376911640167
1.7673125267028809,3.12493896484375,-0.2334391474723816
1.8141367435455322,3.157006025314331,-0.23090408742427826
1.3231126070022583,2.265885829925537,-0.1621188521385193
0.9564921855926514,1.613283634185791,-0.11281679570674896
0.963188886642456,1.6004098653793335,-0.1093045100569725
0.974309504032135,1.5938793420791626,-0.10612063854932785
0.9853746294975281,1.5872770547866821,-0.10285910964012146
0.9937537312507629,1.5776413679122925,-0.0994502380490303
1.006616473197937,1.5743039846420288,-0.09634341299533844
1.017468810081482,1.5675171613693237,-0.09294533729553223
1.0277067422866821,1.5610222816467285,-0.08955591917037964
1.0362545251846313,1.5508712530136108,-0.08581244200468063
1.0469034910202026,1.5438992977142334,-0.08220289647579193
1.0767731666564941,1.5662237405776978,-0.08009295165538788
2.402435541152954,3.444730520248413,-0.16850776970386505
2.4347033500671387,3.4415621757507324,-0.1603805422782898
2.4570722579956055,3.4260315895080566,-0.15150701999664307
2.6162805557250977,3.5955772399902344,-0.14982356131076813
2.6394248008728027,3.5790274143218994,-0.1398102194070816
2.322648286819458,3.285403251647949,0.24981306493282318
2.3056588172912598,3.315669298171997,0.25975605845451355
1.068416953086853,1.5594922304153442,0.12537145614624023
1.0606224536895752,1.5739001035690308,0.12973161041736603
1.0485312938690186,1.581672191619873,0.1334439367055893
1.05011785030365,1.6083190441131592,0.13854992389678955
1.0210672616958618,1.5897043943405151,0.1396804302930832
1.0087724924087524,1.597236156463623,0.14305132627487183
1.001410961151123,1.6107580661773682,0.14678522944450378
0.981483519077301,1.604465365409851,0.14862306416034698
0.9732680916786194,1.618274211883545,0.15227128565311432
0.961399495601654,1.625077247619629,0.15518952906131744
1.3592922687530518,2.3346080780029297,0.2260807305574417
1.861496925354004,3.2532174587249756,0.31927213072776794
1.7968075275421143,3.1954164505004883,0.3176453113555908
1.7550886869430542,3.1736228466033936,0.3192668557167053
1.7867553234100342,3.2844479084014893,0.3342413306236267
1.7622653245925903,3.2971529960632324,0.3391401767730713
2.395199775695801,4.563620567321777,0.47444942593574524
2.3534750938415527,4.5627312660217285,0.47911474108695984
2.3213717937469482,4.578482627868652,0.48543262481689453
2.2894458770751953,4.598221302032471,0.4919460415840149
2.2535035610198975,4.610961437225342,0.4976614713668823
2.224257469177246,4.637420654296875,0.5048868060112
2.1866419315338135,4.641758918762207,0.5094982981681824
2.1615829467773438,4.6742777824401855,0.5171037316322327
2.123793363571167,4.682426929473877,0.521804690361023
2.092315673828125,4.704471588134766,0.5280827283859253
2.06198787689209,4.725729465484619,0.5341621041297913
2.0023000240325928,4.678973197937012,0.5325518250465393
1.7355867624282837,4.137481689453125,0.4739075303077698
1.7052785158157349,4.149575710296631,0.47818058729171753
1.6719474792480469,4.154251575469971,0.48162299394607544
1.6427408456802368,4.165411472320557,0.485717236995697
1.615849494934082,4.183758735656738,0.4907176196575165
1.5897605419158936,4.205740928649902,0.49587282538414
1.5590732097625732,4.2167649269104,0.4996717870235443
1.5283472537994385,4.227548599243164,0.5034655332565308
1.5012285709381104,4.245052814483643,0.5080001950263977
1.4684730768203735,4.247837543487549,0.5108308792114258
1.4406473636627197,4.265133380889893,0.5151727795600891
1.414639949798584,4.2897748947143555,0.5202898979187012
1.388350486755371,4.31425666809082,0.5254297256469727
1.3577927350997925,4.32357120513916,0.5287104845046997
1.3293204307556152,4.340122699737549,0.5329151749610901
1.3009551763534546,4.356418609619141,0.5369930267333984
1.27175772190094,4.372754096984863,0.5408098697662354
1.2423487901687622,4.388903617858887,0.5446402430534363
1.2088271379470825,4.38985013961792,0.5466020703315735
1.1842044591903687,4.420300006866455,0.552222490310669
1.1527843475341797,4.4282379150390625,0.5551009774208069
1.124109148979187,4.447281837463379,0.559079647064209
1.0941119194030762,4.462432384490967,0.5624853372573853
1.063909888267517,4.477388858795166,0.5659026503562927
1.0357416868209839,4.4995951652526855,0.5702508687973022
1.0038044452667236,4.506516456604004,0.5727024078369141
0.9739795923233032,4.5206828117370605,0.5760656595230103
0.932299792766571,4.481706142425537,0.5722692012786865
0.7677582502365112,3.8267405033111572,0.4896562695503235
0.7404996156692505,3.83189058303833,0.491359680891037
0.8477267622947693,4.560787200927734,0.5860967636108398
0.8220847845077515,4.600657939910889,0.5924990177154541
0.7898740768432617,4.606050491333008,0.5944167971611023
0.7584969997406006,4.618968486785889,0.5970054864883423
0.7269765734672546,4.631670951843262,0.599599301815033
0.6969744563102722,4.659575939178467,0.6042169332504272
0.6666924357414246,4.679453372955322,0.607796847820282
0.6377264261245728,4.710650444030762,0.6128854751586914
0.6033689379692078,4.703263759613037,0.6128672361373901
0.5711179375648499,4.714942455291748,0.6150272488594055
0.5400985479354858,4.737940788269043,0.6186968684196472
0.5077664256095886,4.7569427490234375,0.621893584728241
0.4761517643928528,4.775631904602051,0.6250643134117126
0.44292208552360535,4.778676986694336,0.6262191534042358
0.41093143820762634,4.7969465255737305,0.6292994618415833
0.3796979486942291,4.830508232116699,0.6340668201446533
0.34656181931495667,4.852317810058594,0.6373342871665955
0.3130123019218445,4.862265110015869,0.6390703320503235
0.27999240159988403,4.879701614379883,0.6418214440345764
0.24723924696445465,4.904643535614014,0.6455931067466736
0.21307459473609924,4.906159400939941,0.6462575793266296
0.17904132604599,4.930736541748047,0.6495798826217651
0.14474019408226013,4.935703277587891,0.650349497795105
0.1104118749499321,4.944303035736084,0.651630163192749
0.07660609483718872,4.983640193939209,0.6569942831993103
0.04199763759970665,4.991763591766357,0.6582770347595215
0.006666569970548153,5.022882461547852,0.6626308560371399
-0.02830822765827179,5.026707649230957,0.6629317402839661
-0.06348223239183426,5.041906356811523,0.6647632718086243
-0.09902054071426392,5.064602375030518,0.6676144003868103
-0.1346179097890854,5.079305648803711,0.6694433689117432
-0.17016537487506866,5.08601713180542,0.6702508926391602
-0.20672787725925446,5.100194454193115,0.6720739006996155
-0.24241183698177338,5.106457710266113,0.6724879741668701
-0.2813262641429901,5.17048978805542,0.6804584264755249
-0.3147347569465637,5.129852771759033,0.6746837496757507
-0.29511862993240356,4.32004451751709,0.5678441524505615
-0.3230842351913452,4.2831645011901855,0.5626868605613708
-0.3544978201389313,4.3001861572265625,0.564644992351532
-0.38491564989089966,4.305460453033447,0.564799964427948
-0.40828871726989746,4.237287521362305,0.5552256107330322
-0.4327748715877533,4.188256740570068,0.5482014417648315
-0.4575555622577667,4.142882823944092,0.5416843891143799
-0.47956350445747375,4.082017421722412,0.5331884622573853
-0.5031841397285461,4.040261268615723,0.5272260308265686
-0.5260452032089233,3.998427152633667,0.5210734009742737
-0.5486957430839539,3.9603514671325684,0.5152921676635742
-0.5685902833938599,3.902907609939575,0.5070176720619202
-0.5913587212562561,3.8722527027130127,0.5022770166397095
-0.6109158992767334,3.8223001956939697,0.4950646162033081
-0.6330380439758301,3.7913644313812256,0.4903518259525299
-0.6525405049324036,3.7489125728607178,0.4840049743652344
-0.6712490320205688,3.706432819366455,0.47753486037254333
-0.6934463977813721,3.682830333709717,0.47351720929145813
-0.705345869064331,3.6097123622894287,0.4631912410259247
-0.7281109094619751,3.593522548675537,0.46020179986953735
-0.7466679811477661,3.558229684829712,0.45479992032051086
-0.7628793120384216,3.5153493881225586,0.44828498363494873
-0.7761887907981873,3.4610400199890137,0.4401959776878357
-0.7979839444160461,3.448347806930542,0.4374600648880005
-0.8143817782402039,3.4128596782684326,0.4318581521511078
-0.8334844708442688,3.3885109424591064,0.42768457531929016
-0.8570834398269653,3.382845163345337,0.42589423060417175
-0.8688948154449463,3.332017183303833,0.4182211458683014
-0.8854714632034302,3.3038227558135986,0.41336938738822937
-0.9037964344024658,3.28302264213562,0.40947484970092773
-0.9210492372512817,3.2583303451538086,0.40511414408683777
-0.9372431039810181,3.229738473892212,0.40028584003448486
-0.9556765556335449,3.208402395248413,0.3963698744773865
-0.9660271406173706,3.165044069290161,0.3895118236541748
-0.9862484335899353,3.155015468597412,0.38679078221321106
-0.9980999231338501,3.118987560272217,0.3809156119823456
