X,Y,Z
-1.0402612686157227,4.3023271560668945,0.17311227321624756
-1.0663646459579468,4.279879570007324,0.1716030091047287
-1.0858908891677856,4.23068904876709,0.16902828216552734
-1.1168526411056519,4.230733394622803,0.16838108003139496
-1.1547579765319824,4.256996154785156,0.16872654855251312
-1.1773200035095215,4.226543426513672,0.16683094203472137
-1.2065378427505493,4.21833610534668,0.16581103205680847
-1.235213041305542,4.2060017585754395,0.16462300717830658
-1.2619500160217285,4.189945220947266,0.1632796823978424
-1.2856253385543823,4.166447639465332,0.16156473755836487
-1.3137086629867554,4.157721996307373,0.16043387353420258
-1.34228515625,4.148629188537598,0.1592806726694107
-1.3617833852767944,4.109428882598877,0.15696243941783905
-1.3852638006210327,4.085132598876953,0.15523472428321838
-1.42042875289917,4.097883701324463,0.15483181178569794
-1.4454364776611328,4.08089542388916,0.1533079445362091
-1.460036039352417,4.034249782562256,0.15067429840564728
-1.4960711002349854,4.046055316925049,0.1502229869365692
-1.521759271621704,4.028167247772217,0.1486499011516571
-1.5486587285995483,4.0179524421691895,0.14729225635528564
-1.575522780418396,4.00754451751709,0.14593292772769928
-1.6000076532363892,3.989470958709717,0.14428110420703888
-1.6232693195343018,3.967461585998535,0.142482727766037
-1.65862238407135,3.9740254878997803,0.14167584478855133
-1.6744542121887207,3.937753438949585,0.1392933875322342
-1.7038099765777588,3.933704137802124,0.13806334137916565
-1.7214829921722412,3.900463342666626,0.13578157126903534
-1.748602032661438,3.888434886932373,0.13424189388751984
-1.765687108039856,3.8550102710723877,0.13190899789333344
-1.79790461063385,3.8573827743530273,0.13078927993774414
-1.810388445854187,3.817051887512207,0.12822097539901733
-1.84025239944458,3.8114728927612305,0.12679171562194824
-1.870043396949768,3.8057034015655518,0.12535354495048523
-1.8816224336624146,3.76516056060791,0.12270022183656693
-1.9099938869476318,3.75966477394104,0.12122464179992676
-1.9323477745056152,3.7394938468933105,0.11922168731689453
-1.9583089351654053,3.7260210514068604,0.11743199825286865
-1.983042597770691,3.7129735946655273,0.11561005562543869
-2.0186047554016113,3.720494270324707,0.11441139131784439
-1.7125437259674072,3.104616403579712,0.09420069307088852
-1.7303242683410645,3.0858404636383057,0.09236211329698563
-1.7508097887039185,3.074313163757324,0.0907026156783104
-0.7662135362625122,1.3252016305923462,0.03852353245019913
-0.7752857208251953,1.3199362754821777,0.0377679280936718
-0.8066176176071167,1.351327657699585,0.038026873022317886
-0.8861973881721497,1.462984323501587,0.040470339357852936
-0.8875513672828674,1.443882703781128,0.039243023842573166
-0.8892837762832642,1.424458384513855,0.037977609783411026
-0.8863285779953003,1.3986598253250122,0.0365561880171299
-2.3974597454071045,3.569547414779663,0.08507805317640305
-1.2486824989318848,1.805141806602478,0.040649786591529846
-1.41475510597229,2.0179150104522705,0.044068288058042526
-1.4563125371932983,2.084360361099243,-0.035859499126672745
-1.2756199836730957,1.8531562089920044,-0.03325576335191727
-1.3312124013900757,1.9665066003799438,-0.036743443459272385
-1.4514282941818237,2.177441120147705,-0.04214964434504509
-1.1315476894378662,1.7240408658981323,-0.03448602557182312
-1.3409593105316162,2.077021837234497,-0.04286094754934311
-0.867681622505188,1.4104243516921997,-0.03155390918254852
-0.8617595434188843,1.4231698513031006,-0.0325927808880806
-0.8217400312423706,1.378851056098938,-0.03229108825325966
-0.8075512051582336,1.3781434297561646,-0.03297100588679314
-0.7682063579559326,1.3332339525222778,-0.03255746141076088
-0.8552134037017822,1.5083956718444824,-0.03754282742738724
-1.1237126588821411,2.0160021781921387,-0.0510968379676342
-1.6416666507720947,2.9969091415405273,-0.07730816304683685
-1.6318080425262451,3.0288896560668945,-0.07942000031471252
-1.5918056964874268,3.005941152572632,-0.08010213077068329
-1.6399857997894287,3.1526143550872803,-0.08527974784374237
-1.6100190877914429,3.1504483222961426,-0.0864667221903801
-1.577567458152771,3.1405835151672363,-0.08738403022289276
-1.5588198900222778,3.1586010456085205,-0.08905864506959915
-1.5387810468673706,3.1770496368408203,-0.09074137359857559
-1.519376516342163,3.194984197616577,-0.09237894415855408
-1.4938273429870605,3.1983511447906494,-0.09356851130723953
-1.4745124578475952,3.2158548831939697,-0.09515588730573654
-1.460830807685852,3.2477595806121826,-0.09714079648256302
-1.4343739748001099,3.2509565353393555,-0.09826699644327164
-1.4113147258758545,3.260993003845215,-0.09959090501070023
-1.3961052894592285,3.2887139320373535,-0.10143744200468063
-1.3693526983261108,3.291447639465332,-0.10246564447879791
-1.5976011753082275,3.91949462890625,-0.12314091622829437
-1.5818543434143066,3.9594879150390625,-0.12549343705177307
-1.5566266775131226,3.977813720703125,-0.12719368934631348
-1.5351728200912476,4.007011890411377,-0.12916165590286255
-1.5063483715057373,4.017891883850098,-0.13053259253501892
-1.4914088249206543,4.065032005310059,-0.1330791562795639
-1.4709943532943726,4.097318172454834,-0.13514679670333862
-1.4520381689071655,4.137147903442383,-0.13746784627437592
-1.422380805015564,4.147395133972168,-0.13873128592967987
-1.3926512002944946,4.157430171966553,-0.13999471068382263
-1.363671064376831,4.1669840812683105,-0.14122343063354492
-1.3358476161956787,4.180044174194336,-0.14257749915122986
-1.3080230951309204,4.19697380065918,-0.1440185010433197
-1.2848492860794067,4.228574752807617,-0.14592649042606354
-1.2548898458480835,4.237523078918457,-0.1470576822757721
-1.2275327444076538,4.253617763519287,-0.14843182265758514
-1.2021609544754028,4.277042388916016,-0.15007229149341583
-1.175897479057312,4.300492763519287,-0.15161480009555817
-1.142768144607544,4.301300525665283,-0.15236878395080566
-1.1144417524337769,4.316755771636963,-0.15362948179244995
-1.0824909210205078,4.3167948722839355,-0.1543411761522293
-1.0579938888549805,4.346939563751221,-0.15613329410552979
-1.0280753374099731,4.358092308044434,-0.15713590383529663
-0.9940416216850281,4.353937149047852,-0.15760396420955658
-0.9660109281539917,4.37220573425293,-0.15887506306171417
-0.937225878238678,4.386419296264648,-0.1600039005279541
-0.9082158207893372,4.400458812713623,-0.16112729907035828
-0.8786591291427612,4.4143900871276855,-0.16213653981685638
-0.8425241112709045,4.397556304931641,-0.16203105449676514
-0.809577226638794,4.391806125640869,-0.16232536733150482
-0.7749429941177368,4.37423849105835,-0.16218291223049164
-0.7392749190330505,4.348707675933838,-0.16174353659152985
-0.7086958885192871,4.353774547576904,-0.1623167246580124
-0.6720985770225525,4.324000835418701,-0.16160345077514648
-0.6383767127990723,4.305411338806152,-0.1613018810749054
-0.6051791906356812,4.286529541015625,-0.1609899252653122
-0.5722750425338745,4.267395973205566,-0.16067193448543549
-0.5398447513580322,4.251929759979248,-0.16037021577358246
-0.516957700252533,4.313734531402588,-0.16297897696495056
-0.4761527478694916,4.228077411651611,-0.1600266695022583
-0.4521036148071289,4.281731605529785,-0.16234511137008667
-0.4173761010169983,4.2342529296875,-0.16083675622940063
-0.3916902542114258,4.279812812805176,-0.1627778857946396
-0.3574851453304291,4.231871604919434,-0.16113443672657013
-0.32794755697250366,4.2420830726623535,-0.1617148220539093
-0.2967146039009094,4.220892906188965,-0.16110144555568695
-0.2682589292526245,4.238431930541992,-0.1619737297296524
-0.23863078653812408,4.240194797515869,-0.16217881441116333
-0.19340896606445312,3.9259626865386963,-0.15022805333137512
-0.16638819873332977,3.9506373405456543,-0.15124954283237457
-0.13632632791996002,3.8775746822357178,-0.14853350818157196
-0.1112494021654129,3.9447550773620605,-0.1511967033147812
-0.08485551178455353,3.9922590255737305,-0.15308375656604767
-0.05955858156085014,4.164483547210693,-0.15966781973838806
-0.029903847724199295,4.14138126373291,-0.15876975655555725
-0.001075534033589065,4.133681774139404,-0.1584702879190445
0.027762925252318382,4.149202823638916,-0.15906867384910583
0.05703010410070419,4.180133819580078,-0.16026560962200165
0.08509533852338791,4.132811546325684,-0.15833771228790283
0.11318814009428024,4.108713150024414,-0.15730684995651245
0.13910427689552307,4.018092155456543,-0.15373797714710236
0.16769173741340637,4.032632827758789,-0.15420368313789368
0.20084187388420105,4.136641979217529,-0.15809549391269684
0.22758574783802032,4.100081443786621,-0.15652233362197876
0.25401049852371216,4.067252159118652,-0.15506304800510406
0.2832165062427521,4.073159217834473,-0.15508557856082916
0.31035786867141724,4.0555315017700195,-0.15422262251377106
0.33917999267578125,4.0610671043396,-0.15424856543540955
0.36382871866226196,4.0197529792785645,-0.1524450033903122
0.3968794047832489,4.0715508460998535,-0.15410847961902618
0.4246915578842163,4.060909748077393,-0.15340720117092133
0.4502733051776886,4.034602165222168,-0.15212760865688324
0.48800191283226013,4.112789154052734,-0.15479066967964172
0.5126283168792725,4.078336238861084,-0.1531926989555359
0.5330175757408142,4.016681671142578,-0.15049728751182556
0.569300651550293,4.0708513259887695,-0.1521419733762741
0.593514621257782,4.039794445037842,-0.15061071515083313
0.6352620720863342,4.124325752258301,-0.1533890664577484
0.6551880240440369,4.06588077545166,-0.15085090696811676
0.681830883026123,4.053605556488037,-0.14990687370300293
0.7190828323364258,4.102683067321777,-0.1512339562177658
0.7570427656173706,4.147470951080322,-0.15238584578037262
0.7720465064048767,4.069259166717529,-0.14903415739536285
0.8252614140510559,4.190203666687012,-0.15297695994377136
0.8571450710296631,4.199765205383301,-0.15274791419506073
0.886768639087677,4.197629451751709,-0.15208493173122406
0.9161965250968933,4.191334247589111,-0.15126535296440125
0.9668639302253723,4.2800798416137695,-0.15387441217899323
0.974439263343811,4.17823600769043,-0.1496395468711853
1.0231783390045166,4.25498628616333,-0.15171614289283752
1.0588394403457642,4.274444580078125,-0.15171857178211212
1.0906192064285278,4.274539947509766,-0.1510205864906311
1.113417625427246,4.240443706512451,-0.14912764728069305
1.1694172620773315,4.330606460571289,-0.1515994817018509
1.2052992582321167,4.345107555389404,-0.15132078528404236
1.2498801946640015,4.389389991760254,-0.15205346047878265
1.3056918382644653,4.466782569885254,-0.15389543771743774
1.3187930583953857,4.397796154022217,-0.15069957077503204
1.367677927017212,4.448273658752441,-0.1516057699918747
1.4084750413894653,4.4724202156066895,-0.15149585902690887
1.4615904092788696,4.533391952514648,-0.15261001884937286
1.4981122016906738,4.537948131561279,-0.1517876833677292
1.5396548509597778,4.557047367095947,-0.15145310759544373
1.5877957344055176,4.594278335571289,-0.151699498295784
1.61882746219635,4.5834832191467285,-0.1502780169248581
1.66837477684021,4.6238813400268555,-0.1505286991596222
1.0007166862487793,2.7146236896514893,-0.08773136138916016
1.0405685901641846,2.7623023986816406,-0.08860304206609726
1.0412870645523071,2.707746982574463,-0.08618158847093582
1.0623726844787598,2.707963466644287,-0.0854862630367279
1.0777900218963623,2.69348406791687,-0.08432766050100327
1.0935407876968384,2.678724527359009,-0.08314952999353409
1.1034650802612305,2.649320602416992,-0.08151588588953018
1.1121127605438232,2.6202995777130127,-0.0798833817243576
1.1296727657318115,2.612806558609009,-0.07891388237476349
1.1507424116134644,2.612161636352539,-0.07813531905412674
1.1577006578445435,2.5791831016540527,-0.07638861238956451
1.1836752891540527,2.5888805389404297,-0.07587458938360214
1.1894341707229614,2.556152582168579,-0.07411578297615051
1.1866886615753174,2.5057060718536377,-0.07185657322406769
1.1938802003860474,2.476332187652588,-0.07020674645900726
1.202239990234375,2.4505841732025146,-0.06866452097892761
1.2187869548797607,2.442427158355713,-0.0675845667719841
1.2316263914108276,2.4272525310516357,-0.06632202863693237
1.237719178199768,2.3978431224823,-0.06465402245521545
1.2505457401275635,2.3823912143707275,-0.06336655467748642
1.2552592754364014,2.35341739654541,-0.06170737370848656
1.2709778547286987,2.3449950218200684,-0.060587890446186066
1.2875310182571411,2.3359780311584473,-0.05940454080700874
1.2900387048721313,2.303340435028076,-0.057642631232738495
1.3090002536773682,2.301636219024658,-0.05665241554379463
1.3166738748550415,2.2792611122131348,-0.055133674293756485
1.316660761833191,2.2431437969207764,-0.053273171186447144
1.331827163696289,2.234201669692993,-0.05203640088438988
1.3463960886001587,2.225480318069458,-0.05081638693809509
1.357621431350708,2.209516763687134,-0.04937996342778206
1.364405870437622,2.1869704723358154,-0.047799549996852875
1.3827084302902222,2.184722661972046,-0.04665881767868996
1.397647738456726,2.175224542617798,-0.04529748857021332
1.395673155784607,2.1393089294433594,-0.04338488355278969
1.4029414653778076,2.1205410957336426,-0.04183287173509598
1.3995970487594604,2.085249185562134,-0.039937447756528854
1.418455719947815,2.081953525543213,-0.038613080978393555
1.4274518489837646,2.0663352012634277,-0.03703511878848076
1.4412126541137695,2.0567877292633057,-0.03552820906043053
1.459685206413269,2.053337574005127,-0.03406732156872749
1.4451496601104736,2.006129026412964,-0.03190033510327339
1.458883285522461,1.996190071105957,-0.03022407367825508
1.4809150695800781,1.9994021654129028,-0.02872399613261223
2.267392635345459,3.170822858810425,0.05126936733722687
2.2435858249664307,3.1876704692840576,0.05380157753825188
2.6259703636169434,3.7876389026641846,0.06640331447124481
2.5878207683563232,3.79486083984375,0.06895560771226883
3.1510698795318604,4.691695690155029,0.08797261118888855
3.1279170513153076,4.730534076690674,0.09135199338197708
3.0912866592407227,4.754491329193115,0.094473697245121
3.0874955654144287,4.821953773498535,0.09823409467935562
1.6345643997192383,2.5938615798950195,0.05411957576870918
1.6190520524978638,2.61273455619812,0.055772580206394196
1.596530556678772,2.6173810958862305,0.05704174190759659
2.819666624069214,4.69830846786499,0.10448110848665237
2.83009934425354,4.796571731567383,0.1086973324418068
2.791450023651123,4.810083389282227,0.11096011847257614
2.7192044258117676,4.76149320602417,0.11169322580099106
2.468430757522583,4.396294116973877,0.10477890074253082
2.427643060684204,4.401066303253174,0.10654346644878387
2.4264869689941406,4.472874164581299,0.10983560234308243
2.384274482727051,4.468928813934326,0.11127140372991562
2.4764389991760254,4.7249627113342285,0.11918540298938751
2.4522876739501953,4.763861179351807,0.12170731276273727
2.400831460952759,4.746227264404297,0.12272900342941284
2.3381545543670654,4.703341960906982,0.1230497881770134
1.2023476362228394,2.4636776447296143,0.06515992432832718
1.1657121181488037,2.433652639389038,0.06505874544382095
1.1935452222824097,2.5371296405792236,0.06851343810558319
1.1791231632232666,2.552445650100708,0.06961549073457718
1.1716448068618774,2.585902452468872,0.07120238989591599
1.1591333150863647,2.608612298965454,0.07248508930206299
1.140608310699463,2.6167409420013428,0.07335289567708969
1.1254481077194214,2.6317694187164307,0.07440734654664993
2.0279369354248047,4.83631706237793,0.13785625994205475
2.0129523277282715,4.901681423187256,0.14079739153385162
1.9877257347106934,4.941397190093994,0.14300188422203064
1.9762256145477295,5.013184070587158,0.14612047374248505
2.0159144401550293,5.2198052406311035,0.1532270759344101
1.981359839439392,5.241326808929443,0.15487326681613922
1.9591424465179443,5.2996134757995605,0.1576170176267624
1.9306756258010864,5.339083194732666,0.15979290008544922
1.906429409980774,5.3891825675964355,0.16228610277175903
1.8611078262329102,5.3801751136779785,0.16301119327545166
1.8586097955703735,5.500659465789795,0.1675553321838379
1.925845980644226,5.8404154777526855,0.17887233197689056
1.921621322631836,5.96905517578125,0.18377037346363068
1.880025863647461,5.982244491577148,0.18512721359729767
1.8555244207382202,6.051133632659912,0.18821948766708374
1.8301153182983398,6.124059677124023,0.19131746888160706
1.800427794456482,6.185696125030518,0.19408836960792542
1.760204553604126,6.213457107543945,0.1958182454109192
1.736653447151184,6.2970290184021,0.19930148124694824
1.7058954238891602,6.357959747314453,0.2020951509475708
1.6763743162155151,6.430350303649902,0.20513156056404114
0.8276787400245667,3.2702620029449463,0.10469631850719452
1.5728580951690674,6.40814733505249,0.20590057969093323
0.800313413143158,3.3613710403442383,0.10838615149259567
1.4721609354019165,6.379878520965576,0.20644979178905487
1.4134705066680908,6.32911491394043,0.20543280243873596
1.362721562385559,6.312249183654785,0.20547200739383698
1.3107157945632935,6.291321277618408,0.20539431273937225
1.2553515434265137,6.242847919464111,0.20439715683460236
1.1918097734451294,6.147917747497559,0.20187364518642426
1.1430128812789917,6.125380039215088,0.20166490972042084
1.096840262413025,6.117928504943848,0.20185256004333496
1.0454990863800049,6.083316802978516,0.201157346367836
1.001639723777771,6.082756042480469,0.2015819251537323
0.9592294692993164,6.089565277099609,0.20225819945335388
0.9145087599754333,6.08062744140625,0.2024194598197937
0.8622087240219116,6.021206378936768,0.2007608413696289
0.8089995384216309,5.953717231750488,0.19882732629776
0.7696236968040466,5.97860050201416,0.19997920095920563
0.722859799861908,5.941158771514893,0.19905127584934235
0.576622724533081,5.03065299987793,0.1688283383846283
0.5527884364128113,5.139347076416016,0.172720268368721
0.5206213593482971,5.181933403015137,0.17432105541229248
0.3882520794868469,4.163179397583008,0.1401955932378769
0.3531613051891327,4.095765590667725,0.1380719095468521
0.3329836130142212,4.203195571899414,0.1418500393629074
0.3012033700942993,4.170357704162598,0.14090383052825928
0.2720853388309479,4.1723527908325195,0.14105552434921265
0.24441899359226227,4.209256649017334,0.14237375557422638
0.39825835824012756,7.801787853240967,0.26402899622917175
0.3433402180671692,7.78875732421875,0.263741135597229
0.28760868310928345,7.748033046722412,0.2625269591808319
0.23373594880104065,7.749838829040527,0.2627328038215637
0.1766817569732666,7.661532402038574,0.25971299409866333
0.12305857241153717,7.6469621658325195,0.2592061758041382
0.06971821188926697,7.639825344085693,0.2589639723300934
0.0165247805416584,7.616701126098633,0.2581923007965088
-0.03634358197450638,7.593207359313965,0.25742053985595703
-0.08971606194972992,7.565436840057373,0.25641050934791565
-0.14171193540096283,7.53341007232666,0.2551668584346771
-0.19326695799827576,7.501027584075928,0.25392478704452515
-0.24468787014484406,7.4800028800964355,0.2530805468559265
-0.29536208510398865,7.446922302246094,0.2518415153026581
-0.34857144951820374,7.475893974304199,0.25271299481391907
-0.29107972979545593,5.422700881958008,0.18312044441699982
-0.3294942378997803,5.436156272888184,0.18337544798851013
-0.3660035729408264,5.418177604675293,0.18257884681224823
-0.3865831196308136,5.1858062744140625,0.17457348108291626
-0.4096088409423828,5.023466110229492,0.1689472198486328
-0.43993398547172546,4.962122917175293,0.1667049676179886
-0.44293472170829773,4.6325297355651855,0.15537390112876892
-0.4740789234638214,4.621608734130859,0.1547570377588272
-0.5043331384658813,4.602707862854004,0.15388090908527374
-0.5344827175140381,4.58359432220459,0.15300562977790833
-0.5639663934707642,4.556469917297363,0.151868537068367
-0.5954095721244812,4.552481651306152,0.1514502465724945
-0.6256119608879089,4.540563583374023,0.1507265418767929
-0.6540002822875977,4.516853332519531,0.1496204286813736
-0.6840677857398987,4.504515647888184,0.14889781177043915
-0.7134625315666199,4.484156608581543,0.14791207015514374
-0.7445613741874695,4.4791131019592285,0.14744573831558228
-0.7712159752845764,4.450847148895264,0.14611020684242249
-0.7989023923873901,4.430111885070801,0.14503172039985657
-0.8293020725250244,4.4245405197143555,0.14445681869983673
-0.848852276802063,4.361202716827393,0.14200298488140106
-0.7428657412528992,3.6777303218841553,0.11942259967327118
-0.7657895088195801,3.6610772609710693,0.11852306872606277
-0.7948963046073914,3.6748619079589844,0.1185687780380249
-0.9672743678092957,4.328557968139648,0.13919350504875183
-0.9901480674743652,4.291355609893799,0.13753396272659302
-1.020426630973816,4.284278869628906,0.13683995604515076
-1.0538023710250854,4.292296886444092,0.13663256168365479
-1.0743157863616943,4.250998020172119,0.1347762495279312
-1.1011934280395508,4.2360711097717285,0.13376757502555847
-1.137223243713379,4.254862308502197,0.1338231861591339
-1.1631159782409668,4.231687545776367,0.1325467973947525
-1.194603681564331,4.231046199798584,0.131992906332016
-1.2157971858978271,4.196583271026611,0.13032811880111694
-1.2420185804367065,4.180778503417969,0.12923479080200195
-1.2726681232452393,4.179741382598877,0.12860310077667236
-1.2952059507369995,4.148303508758545,0.12702015042304993
-1.3263657093048096,4.146672248840332,0.12636920809745789
-1.354658842086792,4.13754415512085,0.12543433904647827
-1.3750742673873901,4.106134414672852,0.12379477918148041
-1.4027173519134521,4.096802234649658,0.12283019721508026
-1.4312520027160645,4.08695125579834,0.12183216959238052
-1.46017587184906,4.076736927032471,0.12081804871559143
-1.4853250980377197,4.059357643127441,0.11956573277711868
-1.504441499710083,4.027342319488525,0.11785897612571716
-1.5343902111053467,4.024417400360107,0.11700980365276337
-1.5650744438171387,4.020997047424316,0.11612905561923981
-1.5904542207717896,4.002655506134033,0.11481077969074249
-1.6071808338165283,3.9665238857269287,0.11295749247074127
-1.6410237550735474,3.9738073348999023,0.11232549697160721
-1.6571779251098633,3.937490463256836,0.11045753210783005
-1.675274133682251,3.9043753147125244,0.10866860300302505
-1.706010341644287,3.8996031284332275,0.10766106843948364
-1.7224959135055542,3.8667478561401367,0.10583625733852386
-1.764387607574463,3.890765905380249,0.10556729882955551
-1.7680506706237793,3.829000949859619,0.1029556542634964
-1.7978874444961548,3.823748826980591,0.10186618566513062
-1.8243176937103271,3.8112449645996094,0.10054120421409607
-1.8392527103424072,3.7780516147613525,0.09866306185722351
-1.8714046478271484,3.779702663421631,0.09769103676080704
-1.89417564868927,3.7596349716186523,0.09611786156892776
-1.9201802015304565,3.746455669403076,0.09472256153821945
-1.9448837041854858,3.733726978302002,0.09330108016729355
-1.6903287172317505,3.1925504207611084,0.07881854474544525
-1.6883999109268188,3.136059284210205,0.07644592970609665
-1.7064173221588135,3.1174213886260986,0.0750148817896843
-1.7230256795883179,3.099369764328003,0.07356510311365128
-1.731766939163208,3.067643880844116,0.07180378586053848
-0.7950509190559387,1.385416865348816,0.031934913247823715
-0.7790188789367676,1.3360509872436523,0.030324973165988922
-0.7678012847900391,1.2973588705062866,0.028973758220672607
-0.8487480282783508,1.4128023386001587,0.031026845797896385
-0.8870527148246765,1.453543782234192,0.03134793043136597
-0.9011098146438599,1.4540845155715942,0.03076782450079918
-0.8938652276992798,1.4217890501022339,0.029507003724575043
-0.895099401473999,1.402529239654541,0.028505243360996246
-2.4148917198181152,3.567624568939209,0.06580411642789841
-1.2310086488723755,1.7937690019607544,0.032164741307497025
-1.3699429035186768,1.9683970212936401,0.03424084186553955
-1.3542689085006714,1.9173953533172607,0.03225856274366379
-1.4328162670135498,2.0341744422912598,-0.0267389714717865
-1.4532055854797363,2.0961508750915527,-0.02881995402276516
-1.1756854057312012,1.7228726148605347,-0.024674642831087112
-1.2464097738265991,1.854220986366272,-0.02754630520939827
-1.2861895561218262,1.9450427293777466,-0.029912298545241356
-1.3699852228164673,2.104935646057129,-0.03342156484723091
-0.8647623658180237,1.3940081596374512,-0.02403697930276394
-0.8753355145454407,1.433351755142212,-0.02531486377120018
-0.8423500061035156,1.4030863046646118,-0.025364650413393974
-0.7885511517524719,1.3351036310195923,-0.024660127237439156
-0.7870965600013733,1.3540518283843994,-0.025522099807858467
-0.8081883788108826,1.4140117168426514,-0.027172232046723366
-0.8991485834121704,1.6003800630569458,-0.03133384883403778
-1.616894006729126,2.9262466430664062,-0.058309271931648254
-1.650191068649292,3.03712797164917,-0.061540860682725906
-1.6130694150924683,3.0216076374053955,-0.062212590128183365
-1.6258240938186646,3.098789930343628,-0.0647829920053482
-1.6185615062713623,3.1377627849578857,-0.06655678153038025
-1.5957530736923218,3.1493980884552,-0.06775077432394028
-1.5762088298797607,3.167926788330078,-0.06906017661094666
-1.5502705574035645,3.1719841957092285,-0.0700322613120079
-1.5315638780593872,3.1897010803222656,-0.07129179686307907
-1.5054184198379517,3.1934661865234375,-0.0722174420952797
-1.4854477643966675,3.211388349533081,-0.07344836741685867
-1.4686897993087769,3.236224889755249,-0.07484089583158493
-1.4429798126220703,3.239197254180908,-0.07570314407348633
-1.4200209379196167,3.2493045330047607,-0.07670871913433075
-1.3965131044387817,3.259453535079956,-0.077689528465271
-1.376232624053955,3.2765183448791504,-0.07883217930793762
-1.3530073165893555,3.286153793334961,-0.07979536056518555
-1.3328851461410522,3.302767753601074,-0.08091339468955994
-1.3105041980743408,3.315889596939087,-0.08190858364105225
-1.2865675687789917,3.3252274990081787,-0.08281602710485458
-1.2633832693099976,3.334083318710327,-0.08369256556034088
-1.2424827814102173,3.3502371311187744,-0.08476834744215012
-1.2186741828918457,3.358949661254883,-0.08560355007648468
-1.1945891380310059,3.367569923400879,-0.0864211842417717
-1.1758366823196411,3.3906800746917725,-0.08761081844568253
-1.1521917581558228,3.3987667560577393,-0.08840955048799515
-1.1304690837860107,3.4142606258392334,-0.0894104465842247
-1.1060203313827515,3.422239303588867,-0.09014655649662018
-1.0791664123535156,3.4225945472717285,-0.09068529307842255
-1.0861485004425049,3.5308303833007812,-0.09409061074256897
-1.2534713745117188,4.177857875823975,-0.11196616291999817
-1.2110168933868408,4.141539096832275,-0.11159484833478928
-1.1873948574066162,4.172717094421387,-0.11299832165241241
-1.1618415117263794,4.19609260559082,-0.11419131606817245
-1.138698697090149,4.226680278778076,-0.1155790239572525
-1.112254023551941,4.2458062171936035,-0.11666266620159149
-1.090131402015686,4.283761501312256,-0.11822929978370667
-1.0666834115982056,4.321824073791504,-0.11976965516805649
-1.0360065698623657,4.32926082611084,-0.12046248465776443
-1.0120238065719604,4.362975597381592,-0.12188634276390076
-0.980813205242157,4.3660759925842285,-0.12246280908584595
-0.9526250958442688,4.384283065795898,-0.12342280149459839
-0.927431046962738,4.421587944030762,-0.12489131093025208
-0.8976574540138245,4.4356794357299805,-0.12570688128471375
-0.8652938008308411,4.434133052825928,-0.1260780543088913
-0.8387649059295654,4.4630513191223145,-0.12732301652431488
-0.8089422583580017,4.476473331451416,-0.12808485329151154
-0.7781223058700562,4.489845275878906,-0.12879759073257446
-0.7477618455886841,4.502904415130615,-0.12950269877910614
-0.716356635093689,4.507993698120117,-0.1299820989370346
-0.6867561936378479,4.52443265914917,-0.13079504668712616
-0.6562570333480835,4.536834239959717,-0.13146762549877167
-0.6248409152030945,4.549139022827148,-0.1320767104625702
-0.595881462097168,4.576638698577881,-0.133130744099617
-0.5658223032951355,4.59617805480957,-0.13396023213863373
-0.5356455445289612,4.615504741668701,-0.1347908079624176
-0.5064689517021179,4.646282196044922,-0.135952427983284
-0.4746687710285187,4.657480239868164,-0.13644284009933472
-0.44986584782600403,4.750148773193359,-0.13933341205120087
-0.4265667498111725,4.865967273712158,-0.1429135948419571
-0.39871513843536377,4.942751884460449,-0.14536042511463165
-0.366661012172699,4.976546764373779,-0.146554097533226
-0.3324412703514099,4.9867706298828125,-0.14696398377418518
-0.293755441904068,4.93443489074707,-0.1455206573009491
-0.2589205205440521,4.928560256958008,-0.145451620221138
-0.2230289876461029,4.8951334953308105,-0.14457525312900543
-0.18686223030090332,4.8419389724731445,-0.1431199610233307
-0.15226133167743683,4.815802097320557,-0.1423974186182022
-0.11966870725154877,4.883119106292725,-0.1443876177072525
-0.08546977490186691,4.876026153564453,-0.14418470859527588
-0.051345862448215485,4.8530755043029785,-0.14351974427700043
-0.017417309805750847,4.794745922088623,-0.14181514084339142
0.016183162108063698,4.8689374923706055,-0.14400655031204224
0.05030914768576622,4.841373920440674,-0.14310087263584137
0.08371380716562271,4.825294494628906,-0.14254380762577057
0.11552473157644272,4.754337787628174,-0.14037400484085083
7.125973224639893,228.02381896972656,-6.729296684265137
0.18250535428524017,4.775688171386719,-0.14087657630443573
0.21735213696956635,4.813320636749268,-0.14182013273239136
0.22463451325893402,4.300872325897217,-0.12656773626804352
0.24708029627799988,4.174488067626953,-0.12270782142877579
0.2773975133895874,4.192154407501221,-0.12309135496616364
0.30707883834838867,4.197920322418213,-0.12313070148229599
0.3424125611782074,4.273540019989014,-0.12516574561595917
0.41862040758132935,4.800049304962158,-0.1403435617685318
0.45104581117630005,4.789276599884033,-0.1397971659898758
0.4835621416568756,4.778263092041016,-0.13924966752529144
0.5117021203041077,4.728214740753174,-0.13757413625717163
0.5462796092033386,4.740077018737793,-0.13766920566558838
0.587074339389801,4.79815673828125,-0.13902242481708527
0.6246712803840637,4.828856468200684,-0.13958756625652313
0.6581467390060425,4.824420928955078,-0.13913969695568085
0.6878397464752197,4.7926788330078125,-0.13791151344776154
0.7264017462730408,4.822540283203125,-0.13845497369766235
0.7614172697067261,4.825058460235596,-0.13811622560024261
0.7983909249305725,4.84283971786499,-0.13822638988494873
0.8358641862869263,4.860302925109863,-0.13832762837409973
0.8696182370185852,4.854393005371094,-0.13776688277721405
0.9040893912315369,4.852079391479492,-0.1373140513896942
0.9477636814117432,4.899447917938232,-0.13816992938518524
0.9803935289382935,4.885077476501465,-0.1372632086277008
1.0124355554580688,4.870580196380615,-0.13636742532253265
1.084046721458435,5.039046764373779,-0.14057962596416473
1.101246953010559,4.951363563537598,-0.13764286041259766
1.1422089338302612,4.974153518676758,-0.1377108246088028
1.179490327835083,4.977508068084717,-0.13720357418060303
1.2172770500183105,4.984504222869873,-0.1368090957403183
1.2595499753952026,5.006231307983398,-0.13681112229824066
1.3002694845199585,5.0200395584106445,-0.13659632205963135
1.3387186527252197,5.026113510131836,-0.13610492646694183
1.3756715059280396,5.024249076843262,-0.1353558450937271
1.4173879623413086,5.041065692901611,-0.13512307405471802
1.4611320495605469,5.061110496520996,-0.13496263325214386
0.8751562237739563,2.9541285037994385,-0.07837201654911041
0.903289258480072,2.974243640899658,-0.07845952361822128
0.9157261848449707,2.941838026046753,-0.07714039832353592
0.9334448575973511,2.928084135055542,-0.07632488012313843
0.9586564302444458,2.9363794326782227,-0.07607823610305786
0.969150722026825,2.9000284671783447,-0.07468139380216599
0.9812805652618408,2.871213436126709,-0.07345076650381088
0.9929876923561096,2.8423948287963867,-0.07222449779510498
1.0088411569595337,2.8243865966796875,-0.0712679848074913
1.0284407138824463,2.817326068878174,-0.07059486955404282
1.0342968702316284,2.77355694770813,-0.06900671869516373
1.0474233627319336,2.751936197280884,-0.06794951111078262
1.0659388303756714,2.7448344230651855,-0.06725727021694183
1.0751320123672485,2.711879014968872,-0.0659172534942627
1.0880964994430542,2.6898770332336426,-0.0648605152964592
1.0975197553634644,2.660733699798584,-0.06361785531044006
1.1093195676803589,2.638916254043579,-0.06253907084465027
1.1456197500228882,2.674438238143921,-0.0628114715218544
1.1426174640655518,2.616184949874878,-0.06086137145757675
1.151214599609375,2.586803674697876,-0.059609100222587585
1.1749370098114014,2.5932929515838623,-0.05915737897157669
1.1775176525115967,2.5534846782684326,-0.0576569102704525
1.1851897239685059,2.5240871906280518,-0.056385867297649384
1.1861568689346313,2.480429172515869,-0.054799266159534454
1.1993801593780518,2.4653966426849365,-0.053844746202230453
1.2157520055770874,2.4573819637298584,-0.05304081365466118
1.2237728834152222,2.4315731525421143,-0.051841214299201965
1.2406511306762695,2.423022747039795,-0.05100676044821739
1.2497376203536987,2.4007678031921387,-0.04987400397658348
1.2512589693069458,2.3647007942199707,-0.04844783619046211
1.278456449508667,2.376768112182617,-0.04800325259566307
1.2799433469772339,2.3404345512390137,-0.046572599560022354
1.2917535305023193,2.3250222206115723,-0.04556028172373772
1.3261821269989014,2.35052490234375,-0.045339878648519516
1.3192474842071533,2.300567626953125,-0.0436229445040226
1.321441650390625,2.2677369117736816,-0.042257413268089294
1.3282939195632935,2.245614528656006,-0.0410887785255909
1.3390376567840576,2.2301347255706787,-0.04004378616809845
1.3504250049591064,2.2141306400299072,-0.03895455598831177
1.3449740409851074,2.1716525554656982,-0.03739842027425766
1.3590017557144165,2.1629180908203125,-0.036445800215005875
1.3674236536026,2.1437344551086426,-0.035279177129268646
1.3821181058883667,2.1343066692352295,-0.034261010587215424
1.4022386074066162,2.135190725326538,-0.033396705985069275
1.4016188383102417,2.1028335094451904,-0.031964998692274094
1.416072964668274,2.0931437015533447,-0.030873004347085953
1.4293409585952759,2.0841214656829834,-0.029789872467517853
1.4477827548980713,2.080893039703369,-0.02873198315501213
1.448366641998291,2.051882266998291,-0.02728741057217121
1.4569445848464966,2.03621768951416,-0.026012476533651352
2.285567045211792,3.148280143737793,-0.038432277739048004
2.3010330200195312,3.1273245811462402,-0.03637541085481644
2.2600889205932617,3.1857998371124268,0.038292717188596725
2.253305673599243,3.2239949703216553,0.04038042202591896
2.6024155616760254,3.7851743698120117,0.04927913472056389
3.1510331630706787,4.654433250427246,0.06272580474615097
3.1300957202911377,4.696697235107422,0.065339095890522
3.1180176734924316,4.756150722503662,0.06818734109401703
3.0890698432922363,4.784273147583008,0.07044635713100433
1.6233965158462524,2.554976224899292,0.03859289363026619
1.6327449083328247,2.613698959350586,0.04047008603811264
1.6022133827209473,2.6050353050231934,0.04122747853398323
2.9769175052642822,4.9187541007995605,0.07949931174516678
1.563897967338562,2.6281819343566895,0.0433427132666111
1.5037236213684082,2.568438768386841,0.0431564562022686
1.4698692560195923,2.5519487857818604,0.0436667837202549
1.4335451126098633,2.532196044921875,0.04406023025512695
1.4148874282836914,2.5426523685455322,0.04496287181973457
1.3934669494628906,2.5455377101898193,0.04569133371114731
1.3791792392730713,2.562166213989258,0.04665927216410637
1.3727493286132812,2.5965683460235596,0.04794928431510925
2.4667224884033203,4.748327255249023,0.08884915709495544
2.42287540435791,4.7445244789123535,0.08990046381950378
2.378558874130249,4.740664482116699,0.09092609584331512
1.1925407648086548,2.421037197113037,0.046980973333120346
1.1781737804412842,2.4367268085479736,0.047831304371356964
1.1762751340866089,2.4766013622283936,0.04913964867591858
1.1885104179382324,2.5485265254974365,0.05109629034996033
1.1764087677001953,2.5713114738464355,0.05205857753753662
1.157761812210083,2.579747438430786,0.052732665091753006
1.1508152484893799,2.6127419471740723,0.053896211087703705
1.1446866989135742,2.649489641189575,0.05515865609049797
1.1072193384170532,2.614529848098755,0.05487614870071411
1.09122896194458,2.629689931869507,0.05563959851861
2.0011348724365234,4.920071601867676,0.10491038858890533
1.9784549474716187,4.962863445281982,0.10662955045700073
2.0293519496917725,5.198859691619873,0.11252821981906891
1.9847854375839233,5.195114612579346,0.11321437358856201
1.9514497518539429,5.220214366912842,0.11453128606081009
1.9311180114746094,5.277678489685059,0.11654771119356155
1.9113959074020386,5.33878755569458,0.11866343021392822
1.8752164840698242,5.3598551750183105,0.11985357105731964
1.8365839719772339,5.37319278717041,0.12084002792835236
1.9317976236343384,5.786198616027832,0.13086533546447754
1.937462568283081,5.940579414367676,0.13509932160377502
1.9008294343948364,5.968775272369385,0.13648872077465057
1.8644071817398071,6.004769325256348,0.13797979056835175
1.8496003150939941,6.111403465270996,0.14108209311962128
1.8117622137069702,6.143065929412842,0.1424654871225357
1.7754701375961304,6.178015232086182,0.14392414689064026
1.7429893016815186,6.2277984619140625,0.14574167132377625
1.7203713655471802,6.3190999031066895,0.1484670788049698
1.6954586505889893,6.410675048828125,0.15121272206306458
1.6500258445739746,6.42249870300293,0.15207801759243011
0.8130059838294983,3.258592128753662,0.07745570689439774
1.5374094247817993,6.349935531616211,0.15151667594909668
0.7895187139511108,3.3647046089172363,0.0805525854229927
1.433457851409912,6.314116477966309,0.1516333669424057
1.3868684768676758,6.316499710083008,0.15215903520584106
1.3299055099487305,6.2648606300354,0.1513759344816208
1.2698650360107422,6.193597316741943,0.15011490881443024
1.2211501598358154,6.175507545471191,0.15009768307209015
1.170803427696228,6.153438091278076,0.14992007613182068
1.1244616508483887,6.146182060241699,0.1501016765832901
1.0672553777694702,6.073112964630127,0.1486739069223404
1.0314773321151733,6.118884086608887,0.15015825629234314
0.9851564168930054,6.102766513824463,0.15013200044631958
0.9353934526443481,6.071072578430176,0.14960578083992004
0.8840523362159729,6.019552230834961,0.14859002828598022
0.8341967463493347,5.971456050872803,0.14766035974025726
0.7890517115592957,5.950005531311035,0.14739073812961578
0.75202876329422,5.990211009979248,0.148655965924263
0.4855051338672638,4.098997116088867,0.10187288373708725
0.4604852795600891,4.141171455383301,0.10304634273052216
0.43379664421081543,4.167604446411133,0.10383293032646179
0.40021342039108276,4.123880386352539,0.10287483781576157
0.3683905601501465,4.091552734375,0.10220303386449814
0.3402663767337799,4.097900867462158,0.10250049829483032
0.3152015209197998,4.1547322273254395,0.103981614112854
0.2761630415916443,4.012690544128418,0.10048823058605194
0.24908317625522614,4.030109882354736,0.10099094361066818
0.2206091582775116,4.023943901062012,0.10090737789869308
0.19409938156604767,4.056583404541016,0.10180225223302841
0.3161555230617523,7.760650634765625,0.1948457658290863
0.26024776697158813,7.711931228637695,0.19363141059875488
0.20576699078083038,7.690136909484863,0.19310244917869568
0.1519080102443695,7.675765037536621,0.19276903569698334
0.09845937043428421,7.664918899536133,0.19253331422805786
0.04403643310070038,7.626372337341309,0.19161172211170197
-0.008910944685339928,7.610876560211182,0.19114792346954346
-0.06155911087989807,7.575488567352295,0.19017048180103302
-0.11393588036298752,7.559262275695801,0.1896839141845703
-0.16564808785915375,7.519248008728027,0.1886100471019745
-0.21741467714309692,7.502305030822754,0.18812455236911774
-0.26945099234580994,7.473267078399658,0.18731153011322021
-0.32093432545661926,7.463421821594238,0.18687640130519867
-0.3739742636680603,7.488327503204346,0.18732018768787384
-0.3086051344871521,5.423129558563232,0.13553518056869507
-0.3457609713077545,5.4130659103393555,0.13516616821289062
-0.37661781907081604,5.305314540863037,0.13236463069915771
-0.39176055788993835,5.0261688232421875,0.12523987889289856
-0.4221845865249634,4.97276496887207,0.12371674180030823
-0.4343854486942291,4.728637218475342,0.1174655333161354
-0.45796409249305725,4.632249355316162,0.11490172147750854
-0.4882529377937317,4.605599880218506,0.11407440900802612
-0.5167243480682373,4.5710601806640625,0.113059863448143
-0.5472826361656189,4.5596442222595215,0.11254642903804779
-0.5796326994895935,4.563525676727295,0.11241625249385834
-0.6100746989250183,4.55168342590332,0.11190345883369446
-0.6400304436683655,4.531801700592041,0.11119439452886581
-0.6674532294273376,4.500218868255615,0.11020956933498383
-0.6985112428665161,4.495511531829834,0.10984336584806442
-0.7267788648605347,4.47521448135376,0.10905428230762482
-0.7521917819976807,4.439339637756348,0.10789372026920319
-0.7869883179664612,4.457108497619629,0.10803937911987305
-0.8114044666290283,4.413038730621338,0.10668652504682541
-0.8383612632751465,4.388129234313965,0.10581051558256149
-0.7431092262268066,3.750241756439209,0.09013302624225616
-0.7545716166496277,3.676231622695923,0.08806769549846649
-0.7781417369842529,3.6633403301239014,0.08747544884681702
-0.9381358027458191,4.2680253982543945,0.10157841444015503
-0.9841724634170532,4.333778381347656,0.10281191766262054
-1.0102771520614624,4.311737537384033,0.10192576050758362
-1.039599895477295,4.304774761199951,0.10137630254030228
-1.0585064888000488,4.255924701690674,0.09984882920980453
-1.0826823711395264,4.225667476654053,0.09875448793172836
-1.113987684249878,4.225614070892334,0.09837820380926132
-1.1522942781448364,4.251768589019775,0.09859080612659454
-1.1790063381195068,4.23634672164917,0.09778781980276108
-1.2023446559906006,4.2094926834106445,0.09672819823026657
-1.2296414375305176,4.19347620010376,0.0959099754691124
-1.2520118951797485,4.162403583526611,0.09475921839475632
-1.2854719161987305,4.1685566902160645,0.09445353597402573
-1.311277985572815,4.152336597442627,0.09358454495668411
-1.3249114751815796,4.098797798156738,0.09188501536846161
-1.3608485460281372,4.11171293258667,0.09166635572910309
-1.3893694877624512,4.102179050445557,0.09095145016908646
-1.4075523614883423,4.062941074371338,0.08958277851343155
-1.437471628189087,4.060755729675293,0.08897819370031357
-1.4594570398330688,4.036315441131592,0.08789098262786865
-1.4924426078796387,4.040909290313721,0.08743105828762054
-1.5154139995574951,4.015676021575928,0.08631213009357452
-1.5417144298553467,4.001483917236328,0.0854393020272255
-1.569917917251587,3.9947173595428467,0.0846804529428482
-1.5995527505874634,3.991377592086792,0.08399637043476105
-1.6136393547058105,3.947774648666382,0.08245724439620972
-1.6520158052444458,3.9615254402160645,0.08210344612598419
-1.6775729656219482,3.9465456008911133,0.0811481848359108
-1.7007887363433838,3.9281039237976074,0.08010035753250122
-1.7238333225250244,3.909528970718384,0.0790557935833931
-1.7349951267242432,3.861830234527588,0.07740551233291626
-1.7655327320098877,3.856576442718506,0.07660330832004547
-1.7913875579833984,3.844653606414795,0.07565329223871231
-1.810228705406189,3.8185551166534424,0.07442454993724823
-1.836242437362671,3.8061330318450928,0.07344989478588104
-1.8764245510101318,3.8213438987731934,0.07299282401800156
-1.5606613159179688,3.1234960556030273,0.05901873856782913
-1.924392819404602,3.788693904876709,0.07078762352466583
-1.9461643695831299,3.768786668777466,0.06960548460483551
-1.9578437805175781,3.727494955062866,0.06800753623247147
-1.6706573963165283,3.1282660961151123,0.05636528134346008
-1.6875364780426025,3.110325336456299,0.055318042635917664
-1.7123560905456543,3.105670690536499,0.05448959767818451
-1.674614667892456,2.988138437271118,0.05169204995036125
-0.8348773121833801,1.4662915468215942,0.024998674169182777
-0.7798887491226196,1.3492496013641357,0.02265287935733795
-0.7750067114830017,1.320460319519043,0.021816948428750038
-0.7883555293083191,1.3216460943222046,0.02145824022591114
-0.8700608015060425,1.436599850654602,0.022917242720723152
-0.8916572332382202,1.4508843421936035,0.02273104153573513
-0.8932642936706543,1.4315205812454224,0.021996641531586647
-0.8947943449020386,1.4121109247207642,0.02126244083046913
-1.3919281959533691,2.043482780456543,0.02725175954401493
-1.3352388143539429,1.9308037757873535,0.024978484958410263
-1.506786584854126,2.1493005752563477,0.026948850601911545
-1.438295841217041,2.059040069580078,-0.019744882360100746
-1.2999101877212524,1.88880455493927,-0.018879693001508713
-1.2197641134262085,1.8016239404678345,-0.018737854436039925
-1.2845385074615479,1.9275027513504028,-0.02077271044254303
-1.3739027976989746,2.0931782722473145,-0.02330164425075054
-0.8782853484153748,1.404097318649292,-0.017023997381329536
-0.8677452802658081,1.410629153251648,-0.017529821023344994
-0.8737252354621887,1.4435800313949585,-0.01835707202553749
-0.8296889066696167,1.3925637006759644,-0.018093911930918694
-0.7878407835960388,1.3446944952011108,-0.01783802919089794
-0.793375551700592,1.377610445022583,-0.018648860976099968
-0.8396409749984741,1.4816275835037231,-0.020429108291864395
-1.648703694343567,2.9580256938934326,-0.04151611030101776
-1.6606842279434204,3.0317189693450928,-0.04328196868300438
-1.6167843341827393,3.002211809158325,-0.043560370802879333
-1.5917644500732422,3.0067033767700195,-0.04431987926363945
-1.6366316080093384,3.1463539600372314,-0.047060828655958176
-1.6063672304153442,3.1443653106689453,-0.04769975319504738
-1.587739109992981,3.162544012069702,-0.04861651360988617
-1.5656991004943848,3.1735007762908936,-0.04941973462700844
-1.5355054140090942,3.1708571910858154,-0.04999634250998497
-1.515743613243103,3.1889901161193848,-0.05088627710938454
-1.4933809041976929,3.1995115280151367,-0.05163578316569328
-1.474363088607788,3.216902494430542,-0.052495721727609634
-1.4512391090393066,3.227388381958008,-0.053214043378829956
-1.430995225906372,3.2449429035186768,-0.05404236912727356
-1.407670259475708,3.255117177963257,-0.05474727228283882
-1.3819643259048462,3.2576184272766113,-0.05530773848295212
-1.364856243133545,3.2817389965057373,-0.05621912702918053
-1.341160535812378,3.29148268699646,-0.05687028169631958
-1.320550799369812,3.308206558227539,-0.05764073133468628
-1.297082781791687,3.3174667358398438,-0.05828192085027695
-1.2710793018341064,3.3191421031951904,-0.05877988785505295
-1.256761908531189,3.3537917137145996,-0.0598289929330349
-1.2326022386550903,3.3627352714538574,-0.06042594462633133
-1.2063987255096436,3.3639168739318848,-0.060873668640851974
-1.1851632595062256,3.379725217819214,-0.061593566089868546
-1.1587496995925903,3.380605459213257,-0.062014389783144
-1.1419639587402344,3.4110240936279297,-0.0629606768488884
-1.1176360845565796,3.419062614440918,-0.06349780410528183
-1.091477632522583,3.4192941188812256,-0.06388266384601593
-1.071938157081604,3.441826343536377,-0.06469457596540451
-1.0498157739639282,3.4567933082580566,-0.06532342731952667
-1.025160551071167,3.4641764163970947,-0.06580289453268051
-1.0071524381637573,3.493839979171753,-0.06670825183391571
-0.9827746152877808,3.5007662773132324,-0.06718037277460098
-0.9583490490913391,3.5075223445892334,-0.06765250116586685
-0.9349296689033508,3.521911382675171,-0.06822579354047775
-0.9098246693611145,3.5284721851348877,-0.06864164024591446
-0.8877978324890137,3.546149730682373,-0.0692749172449112
-0.8621907234191895,3.548435688018799,-0.06960789859294891
-0.8419690728187561,3.57334566116333,-0.07038931548595428
-0.8196706771850586,3.5945441722869873,-0.07105405628681183
-0.7942111492156982,3.600248098373413,-0.07141049206256866
-0.7721631526947021,3.62100887298584,-0.07206830382347107
-0.7453948259353638,3.6186318397521973,-0.07226714491844177
