X,Y,Z
1.3037008047103882,2.3605422973632812,0.2371145784854889
1.2934954166412354,2.3835060596466064,0.242126926779747
1.2719509601593018,2.3858888149261475,0.245052307844162
1.2651314735412598,2.4155211448669434,0.25076740980148315
1.251684546470642,2.4309120178222656,0.254919171333313
1.23550283908844,2.4431843757629395,0.25861772894859314
1.2276415824890137,2.472867012023926,0.2641589641571045
1.2128701210021973,2.4884467124938965,0.26819902658462524
1.2085453271865845,2.524728298187256,0.27444714307785034
1.190421462059021,2.5329840183258057,0.277569979429245
1.1782140731811523,2.5554816722869873,0.2821630537509918
1.1625350713729858,2.570847511291504,0.286001592874527
1.145790457725525,2.5822770595550537,0.2893502414226532
1.1338773965835571,2.60416316986084,0.2938672602176666
1.1237499713897705,2.6335906982421875,0.29914551973342896
1.1073912382125854,2.648618221282959,0.30273866653442383
1.0967600345611572,2.6779212951660156,0.3080002963542938
1.0721229314804077,2.67083740234375,0.30901777744293213
1.0590819120407104,2.6924262046813965,0.31336110830307007
1.0545074939727783,2.73974347114563,0.3205733597278595
1.0262895822525024,2.7252635955810547,0.32052671909332275
1.0171242952346802,2.761526107788086,0.3264697194099426
1.0003303289413452,2.775620222091675,0.3297692835330963
0.9680020809173584,2.7456462383270264,0.3278234899044037
0.9415274262428284,2.7340478897094727,0.3278968334197998
0.9142464399337769,2.7184739112854004,0.32741212844848633
0.8993710279464722,2.7395143508911133,0.3313490152359009
0.8847102522850037,2.760331869125366,0.3352576196193695
0.8851248025894165,2.829134702682495,0.34503108263015747
0.8930040597915649,2.9279627799987793,0.35846003890037537
0.8763301372528076,2.948945999145508,0.36226803064346313
0.8604487776756287,2.9735703468322754,0.3665580153465271
0.8413083553314209,2.9868576526641846,0.3694682717323303
0.8286159634590149,3.0223476886749268,0.37513279914855957
0.8114703297615051,3.04280948638916,0.37896937131881714
0.7912037372589111,3.0559356212615967,0.38166436553001404
0.7749256491661072,3.083883285522461,0.3862166106700897
0.7573999762535095,3.1079752445220947,0.3903186023235321
0.7390549778938293,3.128110885620117,0.3939368426799774
0.7206853628158569,3.14808988571167,0.39755427837371826
0.7032034993171692,3.175659656524658,0.4020858705043793
0.6837987899780273,3.195568799972534,0.4054662883281708
0.663361668586731,3.2115633487701416,0.4083777666091919
0.6465162634849548,3.2464334964752197,0.41372182965278625
0.6267576217651367,3.2659084796905518,0.41711878776550293
0.6092005372047424,3.3005735874176025,0.4225045144557953
0.5859975218772888,3.3046040534973145,0.4238152503967285
0.5670853853225708,3.3352713584899902,0.42842090129852295
0.5483897924423218,3.369657516479492,0.4335375130176544
0.5268887877464294,3.388620138168335,0.4367001950740814
0.5062828660011292,3.4151105880737305,0.44086316227912903
0.4873846173286438,3.4529268741607666,0.44650912284851074
0.4662467837333679,3.479170799255371,0.45049843192100525
0.44459521770477295,3.5053224563598633,0.4543738067150116
0.4258576035499573,3.5582621097564697,0.4617539346218109
0.3972969651222229,3.5302600860595703,0.45865577459335327
0.3795967102050781,3.602215528488159,0.46857592463493347
0.3601878881454468,3.6624832153320312,0.4770095944404602
0.33387264609336853,3.657102108001709,0.47672751545906067
0.3130347430706024,3.7171831130981445,0.4848580062389374
0.28749552369117737,3.7269392013549805,0.48645347356796265
0.2635573744773865,3.767460823059082,0.4920990765094757
0.2405182272195816,3.819380760192871,0.4992564618587494
0.2152125984430313,3.8440887928009033,0.5028890371322632
0.1895543485879898,3.8686509132385254,0.5063560009002686
0.16430699825286865,3.9124186038970947,0.5121667385101318
0.13808192312717438,3.959906816482544,0.5184940099716187
0.11127439141273499,3.9917163848876953,0.522794246673584
0.08435844630002975,4.034958362579346,0.5286195278167725
0.0566835030913353,4.066397666931152,0.5329273343086243
0.028748154640197754,4.1170268058776855,0.5396500825881958
-0.00043785577872768044,4.155877113342285,0.544584333896637
-0.029759103432297707,4.206140995025635,0.5510404109954834
-0.059572163969278336,4.244578838348389,0.5559715628623962
-0.09016551077365875,4.29442024230957,0.5624216198921204
-0.12000197917222977,4.2937092781066895,0.5622771978378296
-0.14954650402069092,4.285057544708252,0.5610563158988953
-0.18106672167778015,4.314926624298096,0.5645630955696106
-0.22040265798568726,4.507076263427734,0.589317798614502
-0.2544171214103699,4.55579137802124,0.5953255295753479
-0.2898944616317749,4.615845680236816,0.6028345227241516
-0.36671343445777893,5.255244731903076,0.6859875321388245
-0.40299344062805176,5.241020202636719,0.6837987899780273
-0.4384869933128357,5.230544090270996,0.6816550493240356
-0.47245439887046814,5.204395771026611,0.6775057315826416
-0.5113574862480164,5.232004165649414,0.680385947227478
-0.5721612572669983,5.4635210037231445,0.7097781896591187
-0.6108249425888062,5.459491729736328,0.7085581421852112
-0.6231422424316406,5.239828109741211,0.6794248223304749
-0.6591731905937195,5.235621452331543,0.6778535842895508
-0.6982409358024597,5.254218101501465,0.6792008280754089
-0.7321722507476807,5.23415994644165,0.6755833625793457
-0.7688836455345154,5.2291083335876465,0.6739166975021362
-0.7964839339256287,5.166384220123291,0.6648671627044678
-0.8373861312866211,5.191527843475342,0.6671642065048218
-0.8666284084320068,5.147690773010254,0.6602418422698975
-0.8945820927619934,5.099898338317871,0.6527696847915649
-0.9253472089767456,5.071035385131836,0.6477700471878052
-0.9637138247489929,5.079935073852539,0.647599995136261
-1.0027353763580322,5.0923991203308105,0.6479166746139526
-1.0249202251434326,5.02100944519043,0.6376068592071533
-1.0672252178192139,5.052125453948975,0.6399757266044617
-1.0916781425476074,4.999610900878906,0.6317000389099121
-1.1314266920089722,5.0149383544921875,0.6320045590400696
-1.1675145626068115,5.014942169189453,0.6304170489311218
-1.1833405494689941,4.927849292755127,0.6179103255271912
-1.2120356559753418,4.897223472595215,0.6125437021255493
-1.2050949335098267,4.7313947677612305,0.5899711847305298
-1.23974609375,4.730812072753906,0.5880236625671387
-1.2698028087615967,4.715151309967041,0.58426433801651
-1.3042598962783813,4.714140892028809,0.5823239088058472
-1.3327745199203491,4.690388202667236,0.5775840878486633
-1.3543963432312012,4.644157886505127,0.5700547099113464
-1.3907663822174072,4.650001049041748,0.5685765147209167
-1.120895504951477,3.6578118801116943,0.4455755054950714
-1.142133355140686,3.6393494606018066,0.4416646361351013
-1.1851401329040527,3.6870810985565186,0.4457470774650574
-1.5020270347595215,4.563783645629883,0.5496215224266052
-1.5238484144210815,4.5242204666137695,0.5425268411636353
-1.6048901081085205,4.661075115203857,0.5564233660697937
-1.644038438796997,4.6725568771362305,0.5552874803543091
-1.673211932182312,4.654390811920166,0.550621747970581
-1.6975916624069214,4.6212029457092285,0.5441630482673645
-1.7009698152542114,4.533427715301514,0.531308114528656
-1.7374703884124756,4.5366926193237305,0.5288075804710388
-1.765044927597046,4.518178462982178,0.5238406658172607
-1.7896136045455933,4.49226188659668,0.518048882484436
-1.8296985626220703,4.501745223999023,0.516251266002655
-1.8864067792892456,4.550346374511719,0.5189080834388733
-1.9068695306777954,4.512833595275879,0.5113765597343445
-1.9278044700622559,4.4790825843811035,0.5043454766273499
-1.9514918327331543,4.452363967895508,0.49815428256988525
-1.9792524576187134,4.4321136474609375,0.49259915947914124
-2.0070135593414307,4.411604881286621,0.487029492855072
-2.0370569229125977,4.39837121963501,0.4819566607475281
-4.384523868560791,9.305018424987793,1.01201593875885
-4.471578598022461,9.329366683959961,1.0070606470108032
-4.497567176818848,9.218670845031738,0.9872087836265564
-2.1131458282470703,4.256278991699219,0.4521144926548004
-2.176867723464966,4.3119425773620605,0.45393556356430054
-2.1983091831207275,4.284146785736084,0.4470079839229584
-2.2164032459259033,4.249085903167725,0.43930041790008545
-2.238874912261963,4.220273494720459,0.4321354627609253
-2.2563607692718506,4.185042381286621,0.42422112822532654
-2.2801506519317627,4.163852214813232,0.41765135526657104
-2.2512667179107666,4.047039031982422,0.40154850482940674
-2.275637149810791,4.025046348571777,0.3948102593421936
-2.314892053604126,4.030153274536133,0.3906618058681488
-2.3372673988342285,4.008810997009277,0.38376763463020325
-2.3673887252807617,4.0007429122924805,0.3781605660915375
-2.391451120376587,3.977954626083374,0.3708133101463318
-2.4106991291046143,3.9487037658691406,0.3628629744052887
-2.4362854957580566,3.9335885047912598,0.35607805848121643
-2.4617717266082764,3.918299674987793,0.3492923676967621
-2.4932825565338135,3.908217430114746,0.34256312251091003
-2.507293224334717,3.872076988220215,0.33335569500923157
-2.5322022438049316,3.8564653396606445,0.3259645998477936
-2.53192400932312,3.8012237548828125,0.3150954246520996
-2.6173837184906006,3.871257781982422,0.3141902983188629
-2.064718008041382,3.012723922729492,0.23912133276462555
-2.0711236000061035,2.9804019927978516,0.23102903366088867
-2.069585084915161,2.9344241619110107,0.2215913087129593
-2.083691358566284,2.91536283493042,0.21416445076465607
-2.1023573875427246,2.9024441242218018,0.20709386467933655
-1.0739755630493164,1.4614152908325195,0.10086486488580704
-1.0993373394012451,1.476883888244629,0.09841317683458328
-2.0609936714172363,2.9122180938720703,-0.13572706282138824
-2.491349697113037,3.5777721405029297,-0.17591255903244019
-2.4785187244415283,3.6146225929260254,-0.1864132434129715
-2.462183713912964,3.6488332748413086,-0.19674672186374664
-2.430011749267578,3.6604604721069336,-0.20572338998317719
-2.4021856784820557,3.673631191253662,-0.2141057848930359
-2.381135940551758,3.700726270675659,-0.22328320145606995
-2.349377155303955,3.7112174034118652,-0.23140040040016174
-2.316647529602051,3.717439651489258,-0.23892846703529358
-2.288977861404419,3.7340190410614014,-0.2469492405653
-2.2652523517608643,3.7570364475250244,-0.25537487864494324
-2.2348616123199463,3.765608787536621,-0.26245981454849243
-2.211204767227173,3.7880501747131348,-0.27046629786491394
-2.184540271759033,3.807431936264038,-0.2783835232257843
-2.157501220703125,3.8222861289978027,-0.2856029272079468
-2.137584924697876,3.8507628440856934,-0.2937754690647125
-2.099853754043579,3.8487372398376465,-0.2995639443397522
-2.077510356903076,3.873568058013916,-0.30734050273895264
-2.053466558456421,3.8946287631988525,-0.31478264927864075
-2.028601884841919,3.9158694744110107,-0.32205677032470703
-1.9999483823776245,3.930025577545166,-0.3287618160247803
-1.979074478149414,3.957458972930908,-0.33643800020217896
-1.9476064443588257,3.963813543319702,-0.3422590494155884
-1.921630620956421,3.9845612049102783,-0.3493093252182007
-1.899304986000061,4.0119309425354,-0.3568936884403229
-1.867857575416565,4.0175347328186035,-0.36238807439804077
-1.8457273244857788,4.044322967529297,-0.3697377145290375
-1.8164114952087402,4.057023525238037,-0.3757248520851135
-1.7902218103408813,4.076595306396484,-0.38236215710639954
-1.764160394668579,4.095859050750732,-0.3889549672603607
-1.738015055656433,4.114924430847168,-0.39537981152534485
-1.7127306461334229,4.137601375579834,-0.4020753800868988
-1.6785247325897217,4.138454437255859,-0.4066571295261383
-1.6567034721374512,4.167633533477783,-0.4139271378517151
-1.6295188665390015,4.1861371994018555,-0.4201542139053345
-1.5939297676086426,4.182644844055176,-0.42394310235977173
-1.572059988975525,4.21528959274292,-0.43142372369766235
-1.5424375534057617,4.225688457489014,-0.4365839660167694
-1.5153049230575562,4.243222236633301,-0.44244739413261414
-1.4843862056732178,4.253616809844971,-0.44742047786712646
-1.4589329957962036,4.278326511383057,-0.45387059450149536
-1.185530424118042,3.5579521656036377,-0.3806045353412628
-1.163106918334961,3.573093891143799,-0.38536718487739563
-1.1295040845870972,3.5549256801605225,-0.3862958252429962
-1.1164206266403198,3.6034111976623535,-0.3945179581642151
-1.0864369869232178,3.595928192138672,-0.3965872526168823
-1.061254858970642,3.6030359268188477,-0.4002447724342346
-1.0240448713302612,3.5689711570739746,-0.3991650640964508
-0.9986640214920044,3.5757830142974854,-0.40249496698379517
-0.978327214717865,3.6011481285095215,-0.4079470932483673
-0.9586138129234314,3.6301651000976562,-0.4138692021369934
-0.9370829463005066,3.651440382003784,-0.4188930094242096
-0.9112568497657776,3.657625913619995,-0.4218946397304535
-0.8872131705284119,3.671172857284546,-0.42577114701271057
-0.8649111986160278,3.6920905113220215,-0.43052738904953003
-0.8438376784324646,3.720489978790283,-0.43622300028800964
-0.8185739517211914,3.7297725677490234,-0.43948492407798767
-0.7970720529556274,3.7579174041748047,-0.4448270797729492
-0.7705735564231873,3.76312518119812,-0.44748616218566895
-0.744284451007843,3.768099308013916,-0.4501206576824188
-0.7219157218933105,3.7958245277404785,-0.4555387794971466
-0.6938740015029907,3.7928879261016846,-0.45691511034965515
-0.6725703477859497,3.82796049118042,-0.46287378668785095
-0.645683765411377,3.8323113918304443,-0.46515220403671265
-0.6201921701431274,3.8441014289855957,-0.46834757924079895
-0.5940123796463013,3.855813980102539,-0.4714798629283905
-0.5686312317848206,3.871168851852417,-0.4747547507286072
-0.54356849193573,3.8901994228363037,-0.4785151779651642
-0.5173429846763611,3.9013662338256836,-0.481335312128067
-0.49304765462875366,3.927726984024048,-0.4860581159591675
-0.46467125415802,3.9231765270233154,-0.4867217242717743
-0.43926379084587097,3.9493257999420166,-0.49105894565582275
-0.4167768061161041,4.002253532409668,-0.4987528324127197
-0.38968127965927124,4.012590408325195,-0.50117027759552
-0.36315780878067017,4.030463695526123,-0.5045598149299622
-0.3376336991786957,4.063667297363281,-0.5094854831695557
-0.307621568441391,4.05037260055542,-0.5085672736167908
-0.27831631898880005,4.036825656890869,-0.5076234340667725
-0.2533224821090698,4.0888285636901855,-0.5149528980255127
-0.2282785177230835,4.152289867401123,-0.5236998796463013
-0.1959773600101471,4.08403205871582,-0.5154505968093872
-0.1665136069059372,4.073634624481201,-0.5145289301872253
-0.13906005024909973,4.101739883422852,-0.5184900164604187
-0.10944609344005585,4.059924602508545,-0.513634204864502
-0.08138346672058105,4.06829309463501,-0.5149582624435425
-0.052620779722929,4.030003070831299,-0.5101099610328674
-0.02373409830033779,3.9643876552581787,-0.5018278956413269
0.0038099531084299088,3.9411981105804443,-0.49893951416015625
0.0310031920671463,3.9061920642852783,-0.4945787191390991
0.057727374136447906,3.8749125003814697,-0.4904201924800873
0.08350576460361481,3.8202247619628906,-0.4831613004207611
0.1086375042796135,3.7692408561706543,-0.47640323638916016
0.1341913342475891,3.737443447113037,-0.4720951318740845
0.1601668745279312,3.736469030380249,-0.4717109203338623
0.18278974294662476,3.6695609092712402,-0.46265003085136414
0.20649470388889313,3.6373491287231445,-0.45794811844825745
0.22948503494262695,3.601118564605713,-0.45277437567710876
0.2533367872238159,3.5763068199157715,-0.44905540347099304
0.27426308393478394,3.5243284702301025,-0.4419225752353668
0.2941126227378845,3.4684154987335205,-0.4339800179004669
0.22566786408424377,2.4589333534240723,-0.3070245683193207
0.3372405171394348,3.4141409397125244,-0.425413578748703
0.35730838775634766,3.373262405395508,-0.4194546639919281
0.38770171999931335,3.4324941635131836,-0.4258321225643158
0.4105505645275116,3.4222159385681152,-0.42335274815559387
0.4332755208015442,3.4117846488952637,-0.42088010907173157
0.45490121841430664,3.3935084342956543,-0.41746512055397034
0.47134214639663696,3.336635112762451,-0.4093230962753296
0.4916236698627472,3.3143186569213867,-0.4052448868751526
0.5157095789909363,3.3187320232391357,-0.4043298363685608
0.5324426889419556,3.277026414871216,-0.3978268802165985
0.5513237118721008,3.250523567199707,-0.39320850372314453
0.5712388157844543,3.23154878616333,-0.389534592628479
0.5904677510261536,3.208630084991455,-0.38508689403533936
0.6082475781440735,3.18186616897583,-0.38022688031196594
0.6257370114326477,3.154995918273926,-0.3753921389579773
0.6445984244346619,3.1356043815612793,-0.3714735805988312
0.6647515892982483,3.1237175464630127,-0.3683953881263733
0.682507336139679,3.100306987762451,-0.3637348711490631
0.7021771669387817,3.0882296562194824,-0.36047032475471497
0.7182890772819519,3.0608837604522705,-0.3554480969905853
0.7341766357421875,3.0334298610687256,-0.35044723749160767
0.7532806992530823,3.0210330486297607,-0.34704670310020447
0.7696417570114136,2.997173547744751,-0.3422301709651947
0.7903083562850952,2.9920880794525146,-0.3396221101284027
0.7989412546157837,2.941831588745117,-0.33191293478012085
0.819413959980011,2.9364893436431885,-0.3292977511882782
0.8331834077835083,2.908695697784424,-0.32396450638771057
0.8283205628395081,2.817397117614746,-0.3116194009780884
0.8377076387405396,2.7784247398376465,-0.305193156003952
0.8433026075363159,2.7282698154449463,-0.29759618639945984
0.876224935054779,2.767130136489868,-0.29960137605667114
0.8855893611907959,2.7318015098571777,-0.29349029064178467
0.9046351313591003,2.725870370864868,-0.2905353605747223
0.9211404919624329,2.7124428749084473,-0.28680184483528137
0.9298185110092163,2.6768946647644043,-0.2807466387748718
0.9637417197227478,2.7147486209869385,-0.2822277247905731
0.9876198768615723,2.7230284214019775,-0.2805936336517334
1.0037353038787842,2.70916485786438,-0.2766597270965576
1.0202134847640991,2.6950201988220215,-0.2726561427116394
1.030268669128418,2.666524887084961,-0.26715415716171265
1.0427398681640625,2.64528751373291,-0.262391597032547
1.0550647974014282,2.623960494995117,-0.2576470971107483
1.0719387531280518,2.6132380962371826,-0.2539207637310028
1.0842783451080322,2.5916171073913574,-0.24904583394527435
1.1019203662872314,2.5844974517822266,-0.24557335674762726
1.1102291345596313,2.555828809738159,-0.2400849610567093
1.121782660484314,2.5340921878814697,-0.23522846400737762
1.1328916549682617,2.512402057647705,-0.2303779125213623
1.1534532308578491,2.511932611465454,-0.22736716270446777
1.1589258909225464,2.4796838760375977,-0.22156181931495667
1.1695259809494019,2.457789897918701,-0.21665196120738983
1.1865068674087524,2.449960231781006,-0.21297197043895721
1.1995923519134521,2.4352214336395264,-0.20864488184452057
1.2128232717514038,2.4202706813812256,-0.20427243411540985
1.226193904876709,2.405103921890259,-0.19985511898994446
1.2391295433044434,2.3900091648101807,-0.1954391896724701
1.2515345811843872,2.3750455379486084,-0.19101746380329132
1.2528449296951294,2.339358329772949,-0.18496592342853546
1.2692177295684814,2.3308284282684326,-0.18098923563957214
1.285316824913025,2.3223023414611816,-0.17692677676677704
1.2989351749420166,2.310544967651367,-0.1726660579442978
1.3069761991500854,2.288367986679077,-0.16758842766284943
1.3229233026504517,2.2794878482818604,-0.16343049705028534
1.330139398574829,2.2574963569641113,-0.1583177000284195
1.3453749418258667,2.2487425804138184,-0.15410225093364716
1.3489208221435547,2.2195756435394287,-0.14840355515480042
1.3557096719741821,2.197410821914673,-0.14321252703666687
1.3743317127227783,2.195298433303833,-0.13934075832366943
1.3809826374053955,2.1729345321655273,-0.1340581625699997
1.3960528373718262,2.1635637283325195,-0.12944939732551575
1.3995054960250854,2.1383204460144043,-0.12398281693458557
1.4139565229415894,2.1290576457977295,-0.11934109777212143
1.424120306968689,2.113131046295166,-0.11420615762472153
1.4289634227752686,2.0912303924560547,-0.10879586637020111
1.447799801826477,2.087996482849121,-0.10409557819366455
1.4528361558914185,2.0656847953796387,-0.09838908165693283
1.4275530576705933,2.002509832382202,-0.09088582545518875
1.4664784669876099,2.027658700942993,-0.08710414916276932
1.4794541597366333,2.0184364318847656,-0.0817081406712532
1.478657603263855,1.9901286363601685,-0.07540150731801987
1.4318257570266724,2.011183738708496,0.13799689710140228
1.4718362092971802,2.1019113063812256,0.1489085853099823
1.4651334285736084,2.1251931190490723,0.15495358407497406
1.440726637840271,2.122633457183838,0.15887022018432617
1.441517949104309,2.1593282222747803,0.16569437086582184
1.4301246404647827,2.175872325897217,0.17076779901981354
1.4138646125793457,2.1861162185668945,0.1752740740776062
1.4095759391784668,2.216287612915039,0.18129323422908783
1.3891985416412354,2.2195801734924316,0.18497224152088165
1.3815444707870483,2.2423391342163086,0.19013449549674988
1.364439845085144,2.252445697784424,0.19414354860782623
1.3550951480865479,2.275881767272949,0.1993561089038849
1.348953366279602,2.301800012588501,0.2045632153749466
1.3359495401382446,2.318035364151001,0.20886749029159546
1.3222912549972534,2.334475517272949,0.21315997838974
1.30889093875885,2.350602149963379,0.21738317608833313
1.2920353412628174,2.3595831394195557,0.2208934873342514
1.2856723070144653,2.3892951011657715,0.22621355950832367
1.267722487449646,2.3985462188720703,0.22959274053573608
1.257296085357666,2.4212653636932373,0.2342299371957779
1.24385666847229,2.4366307258605957,0.2380795180797577
1.238040804862976,2.4697866439819336,0.2436468005180359
1.2162526845932007,2.4716131687164307,0.2460470050573349
1.204735517501831,2.4942333698272705,0.25052738189697266
1.1939129829406738,2.5163698196411133,0.25488096475601196
1.189212441444397,2.5526676177978516,0.2606774568557739
1.16714346408844,2.5539932250976562,0.26278552412986755
1.1543148756027222,2.5765745639801025,0.2671368420124054
1.1373693943023682,2.588059902191162,0.27027735114097595
1.1253947019577026,2.6099514961242676,0.27448341250419617
1.106624960899353,2.6176884174346924,0.2771112024784088
1.0963605642318726,2.646996259689331,0.2819657027721405
1.0853720903396606,2.676424741744995,0.2869088053703308
1.0663915872573853,2.683773994445801,0.2894250452518463
1.053236722946167,2.7053842544555664,0.29348137974739075
1.040670394897461,2.7307887077331543,0.2978348731994629
1.0234794616699219,2.745318651199341,0.300967276096344
1.0058033466339111,2.759855031967163,0.30415019392967224
0.9745050668716431,2.7337162494659424,0.30278342962265015
0.9553852081298828,2.7402100563049316,0.3050082325935364
0.9358127117156982,2.7467212677001953,0.3071132004261017
0.9195780754089355,2.7642552852630615,0.31038349866867065
0.883612871170044,2.7226927280426025,0.3070390522480011
0.8841741681098938,2.791623830795288,0.3161314129829407
0.8864444494247437,2.8680009841918945,0.3261224627494812
0.8863683342933655,2.940880537033081,0.3357190787792206
0.8717308640480042,2.969329357147217,0.3401299715042114
0.8514236807823181,2.9790406227111816,0.3424207866191864
0.8317110538482666,2.992446184158325,0.3451780080795288
0.8209824562072754,3.0354323387145996,0.35132554173469543
0.8037698864936829,3.0558812618255615,0.3549021780490875
0.7819991111755371,3.0613350868225098,0.3565378785133362
0.7685031294822693,3.1005663871765137,0.3620927631855011
0.7477640509605408,3.1134252548217773,0.3646165430545807
0.7292635440826416,3.1335642337799072,0.3679906129837036
0.7125059962272644,3.1611032485961914,0.37225112318992615
0.6919659972190857,3.173424482345581,0.3746940493583679
0.674902081489563,3.204702138900757,0.3791796565055847
0.6531694531440735,3.2169580459594727,0.3814566135406494
0.637649655342102,3.259453535079956,0.3873366117477417
0.6176855564117432,3.2789289951324463,0.39049839973449707
0.5975809693336487,3.298264503479004,0.39366665482521057
0.5790607929229736,3.3289856910705566,0.39810237288475037
0.5588879585266113,3.3558974266052246,0.40196138620376587
0.5375235676765442,3.374967098236084,0.40489864349365234
0.5182486772537231,3.4092397689819336,0.40968918800354004
0.49616289138793945,3.4241507053375244,0.41216960549354553
0.4765419065952301,3.458129405975342,0.41697391867637634
0.4548920691013336,3.48439884185791,0.4207150340080261
0.4341003894805908,3.5182180404663086,0.4252413511276245
0.4115478992462158,3.5403523445129395,0.42838215827941895
0.3899294435977936,3.573911428451538,0.43293413519859314
0.36938101053237915,3.6188788414001465,0.4388928711414337
0.34639066457748413,3.644425868988037,0.4425269365310669
0.3238702118396759,3.6853458881378174,0.4478873610496521
0.30205604434013367,3.73771333694458,0.45452094078063965
0.27585428953170776,3.739673614501953,0.45505040884017944
0.25114884972572327,3.7646679878234863,0.458407461643219
0.22931239008903503,3.839806079864502,0.46789872646331787
0.20252029597759247,3.8490116596221924,0.4693920910358429
0.17776288092136383,3.8967690467834473,0.47543010115623474
0.15128010511398315,3.917264938354492,0.4779963493347168
0.12509015202522278,3.956958293914795,0.48292991518974304
0.09849011152982712,4.000349998474121,0.4883403182029724
0.07083360850811005,4.039690017700195,0.493284672498703
0.04306480288505554,4.071077346801758,0.4972819983959198
0.01489944476634264,4.113922119140625,0.5025548338890076
-0.01394563727080822,4.179860591888428,0.5104557275772095
-0.04346291720867157,4.226208686828613,0.5159851312637329
-0.0741502195596695,4.268458843231201,0.521034836769104
-0.1045575886964798,4.29887056350708,0.5246652364730835
-0.13349726796150208,4.267053127288818,0.5207258462905884
-0.16345107555389404,4.2738037109375,0.5214084982872009
-0.1971081644296646,4.361725330352783,0.5317452549934387
-0.23477107286453247,4.503600120544434,0.5486657619476318
-0.27138257026672363,4.583188056945801,0.5579991340637207
-0.30602332949638367,4.623823642730713,0.5626137852668762
-0.34327197074890137,4.691267490386963,0.5705093741416931
-0.38044655323028564,4.746836185455322,0.5769042372703552
-0.4293484091758728,4.929660797119141,0.5984140634536743
-0.4875655174255371,5.1776204109191895,0.6277859807014465
-0.533044159412384,5.270727634429932,0.6383761167526245
-0.5737461447715759,5.305598735809326,0.6419224739074707
-0.6013128757476807,5.220705509185791,0.6310126185417175
-0.6385074257850647,5.224241733551025,0.6307846307754517
-0.677546501159668,5.239068984985352,0.6315147280693054
-0.7119755744934082,5.222946643829346,0.6285614967346191
-0.745664656162262,5.202757358551025,0.6251538395881653
-0.7827871441841125,5.20533561706543,0.6245070695877075
-0.8177298307418823,5.192295551300049,0.6220123171806335
-0.8518622517585754,5.171276092529297,0.6185383796691895
-0.8924494385719299,5.1961588859558105,0.6201919913291931
-0.9122487902641296,5.102335453033447,0.6077205538749695
-0.9442769289016724,5.080956935882568,0.6039316654205322
-0.9748964905738831,5.051698684692383,0.5992330312728882
-1.0130839347839355,5.060245513916016,0.5990387201309204
-1.0377644300460815,5.000019550323486,0.5906579494476318
-1.073436975479126,5.000701427459717,0.5891740918159485
-1.1024949550628662,4.970808506011963,0.5841177701950073
-1.153714656829834,5.0391106605529785,0.590611457824707
-1.1742068529129028,4.9708733558654785,0.5811071991920471
-1.2203820943832397,5.0079803466796875,0.5839138031005859
-1.2388131618499756,4.935744762420654,0.5739073157310486
-1.2217681407928467,4.732112884521484,0.5484592318534851
-1.2538539171218872,4.724023818969727,0.5457707643508911
-1.2817543745040894,4.700746059417725,0.5413605570793152
-1.317015290260315,4.699374198913574,0.5394299626350403
-1.3433146476745605,4.668003559112549,0.5341097712516785
-1.3708980083465576,4.644121170043945,0.5294678211212158
-1.1155446767807007,3.6872520446777344,0.41875842213630676
-1.1301673650741577,3.646496057510376,0.41253963112831116
-1.1484004259109497,3.6166322231292725,0.4075590670108795
-1.484653115272522,4.565518856048584,0.512477695941925
-1.5139089822769165,4.548065662384033,0.5085176825523376
-1.5494872331619263,4.5528693199157715,0.5067155361175537
-1.6017900705337524,4.605102062225342,0.5101754069328308
-1.6353493928909302,4.601925849914551,0.5074843764305115
-1.675730586051941,4.612593650817871,0.5062166452407837
-1.6917023658752441,4.557452201843262,0.49778515100479126
-1.7254952192306519,4.553494453430176,0.49476590752601624
-1.7644964456558228,4.563959121704102,0.4931996464729309
-1.7980116605758667,4.5596418380737305,0.4900410771369934
-1.8210322856903076,4.525804042816162,0.48364579677581787
-1.8584285974502563,4.527824401855469,0.48111042380332947
-1.8608156442642212,4.4473185539245605,0.46971893310546875
-1.8935023546218872,4.4424052238464355,0.466200590133667
-1.916914701461792,4.415849208831787,0.46043652296066284
-4.1591339111328125,9.403364181518555,0.9739144444465637
-4.229550838470459,9.385686874389648,0.9654737710952759
-2.014606475830078,4.390665054321289,0.44842079281806946
-2.0437912940979004,4.377636909484863,0.44370296597480774
-2.066213846206665,4.3503546714782715,0.43757086992263794
-2.09311580657959,4.3293280601501465,0.43194499611854553
-2.1268348693847656,4.322030067443848,0.427693635225296
-2.14196515083313,4.280270099639893,0.41987669467926025
-2.1738390922546387,4.2734055519104,0.4154331088066101
-2.194956064224243,4.245575428009033,0.40898004174232483
-2.2010154724121094,4.185865879058838,0.3993247449398041
-2.2892274856567383,4.280606269836426,0.4042304754257202
-2.2894861698150635,4.214656829833984,0.393796443939209
-2.2551190853118896,4.087509632110596,0.37782543897628784
-2.262038469314575,4.035168170928955,0.36878517270088196
-2.2940969467163086,4.026515483856201,0.36368048191070557
-2.3248889446258545,4.0183515548706055,0.3583398163318634
-2.3511312007904053,4.003574848175049,0.35247260332107544
-2.3701562881469727,3.974740505218506,0.34524884819984436
-2.401937246322632,3.9652695655822754,0.3395669460296631
-2.4236865043640137,3.9434101581573486,0.3326527774333954
-2.449639320373535,3.9278831481933594,0.32618987560272217
-2.47224760055542,3.9050238132476807,0.318955659866333
-2.5034008026123047,3.894954204559326,0.31259557604789734
-2.519965171813965,3.866213321685791,0.30462247133255005
-2.540710687637329,3.8438143730163574,0.2971552610397339
-2.6137592792510986,3.8941116333007812,0.29463818669319153
-2.6654398441314697,3.9162278175354004,0.28982239961624146
-2.0659499168395996,2.994586229324341,0.21658878028392792
-2.064241886138916,2.9487452507019043,0.20787259936332703
-2.074559211730957,2.9228382110595703,0.20049434900283813
-2.0978081226348877,2.916259527206421,0.19432523846626282
-2.122600555419922,2.9083995819091797,0.1875762641429901
-1.1041821241378784,1.4931201934814453,0.09300012141466141
-2.06712007522583,2.8987936973571777,-0.12416328489780426
-2.069929838180542,2.949064016342163,-0.13347910344600677
-2.4603233337402344,3.5615389347076416,-0.16954462230205536
-2.47212553024292,3.6334760189056396,-0.1808346062898636
-2.4422292709350586,3.6484997272491455,-0.1893981695175171
-2.4158523082733154,3.6655821800231934,-0.197662815451622
-2.390815019607544,3.686164379119873,-0.2060285359621048
-2.356743574142456,3.693706750869751,-0.2135194092988968
-2.330423593521118,3.709923505783081,-0.22112177312374115
-2.307494640350342,3.732950448989868,-0.2290274202823639
-2.2714481353759766,3.7362802028656006,-0.2357034683227539
-2.2523248195648193,3.7655651569366455,-0.24383646249771118
-2.2272026538848877,3.784543514251709,-0.25109878182411194
-2.193248748779297,3.7903404235839844,-0.25744885206222534
-2.171700954437256,3.815725088119507,-0.26497289538383484
-2.142880916595459,3.8270511627197266,-0.27137893438339233
-2.116103410720825,3.8458924293518066,-0.27833446860313416
-2.086014747619629,3.85738468170166,-0.2846640348434448
-2.0717592239379883,3.8955209255218506,-0.2927601635456085
-2.0473132133483887,3.916745901107788,-0.2995688021183014
-2.011496067047119,3.917264223098755,-0.30475130677223206
-1.9793386459350586,3.9243972301483154,-0.3104282021522522
-1.9621684551239014,3.9586424827575684,-0.3180786669254303
-1.9402155876159668,3.9863104820251465,-0.325110524892807
-1.9044770002365112,3.985762357711792,-0.3298424482345581
-1.8794574737548828,4.0057501792907715,-0.3361694812774658
-1.8577516078948975,4.032543182373047,-0.34303855895996094
-1.824763298034668,4.038549900054932,-0.348077654838562
-1.8017399311065674,4.065435886383057,-0.3548685610294342
-1.7792631387710571,4.091835975646973,-0.3615390360355377
-1.7505476474761963,4.103728294372559,-0.3668937385082245
-1.7240042686462402,4.122923374176025,-0.37273484468460083
-1.6952518224716187,4.138554573059082,-0.3783597946166992
-1.6689047813415527,4.157169342041016,-0.3841361999511719
-1.6425718069076538,4.175538063049316,-0.3898870050907135
-1.6125305891036987,4.186774730682373,-0.39475777745246887
-1.5879004001617432,4.212353229522705,-0.4010144770145416
-1.5575038194656372,4.22321891784668,-0.4059165120124817
-1.530562162399292,4.240870475769043,-0.41138505935668945
-1.5003118515014648,4.251222610473633,-0.4159454107284546
-1.4749417304992676,4.276108741760254,-0.4219108521938324
-1.442036509513855,4.278665065765381,-0.4256778061389923
-1.1708614826202393,3.557007312774658,-0.3568076491355896
-1.1481382846832275,3.5722200870513916,-0.36109259724617004
-1.1343549489974976,3.617042064666748,-0.3682858347892761
-1.3314472436904907,4.35331916809082,-0.44647008180618286
-1.3065091371536255,4.380735397338867,-0.4524744749069214
-1.2758594751358032,4.389338970184326,-0.45653948187828064
-1.2462395429611206,4.405519485473633,-0.4611503779888153
-1.2170138359069824,4.42134952545166,-0.46570634841918945
-1.189881682395935,4.4444260597229,-0.47104087471961975
-1.162768006324768,4.467263698577881,-0.47636643052101135
-1.141836166381836,4.5163798332214355,-0.48433220386505127
-1.0954346656799316,4.4675068855285645,-0.4816937744617462
-1.054857850074768,4.436978816986084,-0.4809562563896179
-1.0273311138153076,4.459021091461182,-0.48589879274368286
-1.0080727338790894,4.51878547668457,-0.49500441551208496
-0.9663369655609131,4.479905605316162,-0.49292585253715515
-0.7980232834815979,3.832444429397583,-0.4235968589782715
-0.7695297598838806,3.8300721645355225,-0.42522385716438293
-0.7412959337234497,3.827454090118408,-0.42682376503944397
-0.7144904136657715,3.8322911262512207,-0.42912912368774414
-0.6874940991401672,3.836992025375366,-0.4312173128128052
-0.6632480025291443,3.86071515083313,-0.4355024993419647
-0.6438133716583252,3.9109883308410645,-0.44279029965400696
-0.6129677295684814,3.8921265602111816,-0.44227418303489685
-0.5891646146774292,3.9191477298736572,-0.44671422243118286
-0.562785267829895,3.9306695461273193,-0.44930413365364075
-0.5347380638122559,3.9343838691711426,-0.4510492980480194
-0.5102941393852234,3.9609131813049316,-0.45540931820869446
-0.4836300015449524,3.971879243850708,-0.4580122232437134
-0.45800119638442993,3.994295597076416,-0.4615558087825775
-0.4308682382106781,4.004967212677002,-0.4637657403945923
-0.4036082625389099,4.015453815460205,-0.46598073840141296
-0.3766423165798187,4.033506393432617,-0.46911361813545227
-0.3492185175418854,4.043620586395264,-0.4712338149547577
-0.32373085618019104,4.080667972564697,-0.47619327902793884
-0.2938588857650757,4.063372611999512,-0.47483593225479126
-0.26651981472969055,4.080704212188721,-0.4775477349758148
-0.23786553740501404,4.086253643035889,-0.47891750931739807
-0.21098178625106812,4.1187262535095215,-0.48325979709625244
-0.18121659755706787,4.096786975860596,-0.4810014069080353
-0.15133461356163025,4.063004493713379,-0.4773711860179901
-0.12235262244939804,4.040637493133545,-0.4750996530056
-0.09357757121324539,4.033590316772461,-0.47465622425079346
-0.0648304745554924,3.991455078125,-0.46980300545692444
-0.037241239100694656,4.011204242706299,-0.47210216522216797
-0.009308136999607086,3.999725818634033,-0.4707487225532532
0.01848141849040985,3.9919333457946777,-0.4698517918586731
0.04632449522614479,3.960667371749878,-0.4662153124809265
0.07313578575849533,3.921501398086548,-0.4613102376461029
0.09907128661870956,3.8705286979675293,-0.45498108863830566
0.1264478713274002,3.8853044509887695,-0.4564056992530823
0.1505446881055832,3.810722589492798,-0.44735944271087646
0.17411886155605316,3.7476236820220947,-0.4396857023239136
0.19931887090206146,3.723149538040161,-0.436168372631073
0.22398293018341064,3.7024030685424805,-0.4331269860267639
0.24703215062618256,3.662139892578125,-0.42783328890800476
0.27017077803611755,3.629469394683838,-0.4234567880630493
0.2937626242637634,3.608268976211548,-0.4203667938709259
0.318477064371109,3.5985145568847656,-0.41831666231155396
0.33822357654571533,3.542273759841919,-0.4109131991863251
0.2551891505718231,2.489946126937866,-0.2882435917854309
0.37689366936683655,3.441044330596924,-0.3975359797477722
0.40170520544052124,3.446192741394043,-0.39719128608703613
0.42264753580093384,3.4164822101593018,-0.3926325738430023
0.44330069422721863,3.390542984008789,-0.3885614275932312
0.4636704623699188,3.3644723892211914,-0.38450610637664795
0.4837270975112915,3.3382771015167236,-0.38046836853027344
0.506836473941803,3.3350305557250977,-0.3788546919822693
0.5223472118377686,3.281743288040161,-0.37145566940307617
0.5437379479408264,3.2705886363983154,-0.368890643119812
0.5611806511878967,3.236314058303833,-0.3637416660785675
0.5823389291763306,3.2248733043670654,-0.3611902594566345
0.5996037125587463,3.1942763328552246,-0.3562416136264801
0.6231411099433899,3.197901487350464,-0.35510894656181335
0.6379413604736328,3.155594825744629,-0.3488789200782776
0.6551318764686584,3.1284847259521484,-0.34439143538475037
0.6727724671363831,3.105092763900757,-0.3402894139289856
0.6907575130462646,3.0854640007019043,-0.33642107248306274
0.7085285782814026,3.065725803375244,-0.3325716555118561
0.7247007489204407,3.0382275581359863,-0.32788199186325073
0.7421809434890747,3.0182411670684814,-0.32405582070350647
0.7611478567123413,3.0057482719421387,-0.3209187388420105
0.778901994228363,2.9894113540649414,-0.31728214025497437
0.7954376935958862,2.969221353530884,-0.3132704496383667
0.8102561235427856,2.9412930011749268,-0.30842751264572144
0.8286492824554443,2.928340435028076,-0.3052171468734741
0.8422344923019409,2.9004569053649902,-0.30027350783348083
0.8577064275741577,2.8799684047698975,-0.2961259186267853
0.8741389513015747,2.863098621368408,-0.2923758625984192
0.8677502274513245,2.7717444896698,-0.28104156255722046
0.8845744729042053,2.7585220336914062,-0.2776591181755066
0.898630678653717,2.737882137298584,-0.2734505832195282
0.9124235510826111,2.71718168258667,-0.26927417516708374
0.9363538026809692,2.725754737854004,-0.2679807245731354
0.939902126789093,2.6753787994384766,-0.26091834902763367
0.9742665886878967,2.7129952907562256,-0.26224496960639954
0.9954747557640076,2.7138569355010986,-0.26001957058906555
1.0114227533340454,2.699927568435669,-0.2563714385032654
1.0274689197540283,2.6858139038085938,-0.25270023941993713
1.0402593612670898,2.664468288421631,-0.2482888251543045
1.050053358078003,2.6357955932617188,-0.24313680827617645
1.063605785369873,2.6180388927459717,-0.2390732616186142
1.0818750858306885,2.610828161239624,-0.23593388497829437
1.090833306312561,2.5820446014404297,-0.23083582520484924
1.1021878719329834,2.5605578422546387,-0.2263539582490921
1.1198649406433105,2.5531628131866455,-0.2230968177318573
1.1312450170516968,2.531373977661133,-0.2185910940170288
1.1488004922866821,2.523738145828247,-0.21530115604400635
1.1527433395385742,2.487924814224243,-0.20955263078212738
1.167899250984192,2.4768197536468506,-0.2059265673160553
1.1819711923599243,2.461782217025757,-0.20188204944133759
1.1922200918197632,2.439781904220581,-0.1973121464252472
1.2051641941070557,2.4249939918518066,-0.19328585267066956
1.2179611921310425,2.410137414932251,-0.18927913904190063
1.2239803075790405,2.3811028003692627,-0.1841142624616623
1.236838698387146,2.3659303188323975,-0.18002530932426453
1.2529617547988892,2.3577070236206055,-0.1763799488544464
1.265052318572998,2.342651605606079,-0.17229138314723969
1.2776514291763306,2.3271849155426025,-0.16807366907596588
1.2916160821914673,2.3152670860290527,-0.16410627961158752
1.2993491888046265,2.2932889461517334,-0.15942615270614624
1.3151395320892334,2.2845351696014404,-0.1555851697921753
1.3271524906158447,2.2688090801239014,-0.15124063193798065
1.334270715713501,2.2467615604400635,-0.14647193253040314
1.337061882019043,2.218069553375244,-0.14132297039031982
1.3564945459365845,2.2156450748443604,-0.137721449136734
1.3676220178604126,2.1998653411865234,-0.13319584727287292
1.3820626735687256,2.19106388092041,-0.12915731966495514
1.392734169960022,2.175278902053833,-0.12460162490606308
1.3948503732681274,2.146294593811035,-0.11923734843730927
1.408814549446106,2.1373860836029053,-0.11501806974411011
1.4234308004379272,2.127915143966675,-0.11058157682418823
1.435790777206421,2.1151106357574463,-0.10589323937892914
1.4405920505523682,2.0931386947631836,-0.10077621787786484
1.454695224761963,2.0835824012756348,-0.09610792994499207
1.464118480682373,2.067629098892212,-0.09101567417383194
1.4501985311508179,2.0202271938323975,-0.08456314355134964
1.4733320474624634,2.0229785442352295,-0.0799809917807579
1.4815165996551514,2.0074918270111084,-0.07463054358959198
1.4767948389053345,2.0899055004119873,0.1333334594964981
1.4692457914352417,2.1139261722564697,0.13914871215820312
1.4535106420516968,2.1244611740112305,0.1438778042793274
1.4377230405807495,2.1348655223846436,0.1484258770942688
1.4297587871551514,2.1586270332336426,0.15381298959255219
1.4182664155960083,2.175206422805786,0.15850603580474854
1.410901427268982,2.19824481010437,0.16354578733444214
1.3981958627700806,2.215268850326538,0.1680997908115387
1.3815526962280273,2.225382089614868,0.17208056151866913
1.3780748844146729,2.25469970703125,0.17736805975437164
1.3650000095367432,2.27144455909729,0.1815975457429886
1.3477686643600464,2.2814128398895264,0.18530666828155518
1.3336187601089478,2.2939393520355225,0.18903671205043793
1.3244093656539917,2.316948413848877,0.19363577663898468
1.3145554065704346,2.340158224105835,0.19816875457763672
1.3009275197982788,2.3563790321350098,0.2021043598651886
1.2843881845474243,2.365161657333374,0.2052779197692871
1.2781935930252075,2.3947629928588867,0.21020807325839996
1.2635949850082397,2.4110162258148193,0.2139827460050583
1.252899169921875,2.4338481426239014,0.2183077186346054
1.2411028146743774,2.4527175426483154,0.22219343483448029
1.2269359827041626,2.468268632888794,0.22574211657047272
1.2120535373687744,2.4840149879455566,0.22924011945724487
1.2000259160995483,2.5068514347076416,0.23346056044101715
1.1823292970657349,2.5149903297424316,0.2361999750137329
1.1777249574661255,2.551226854324341,0.24159428477287292
1.1621334552764893,2.566664934158325,0.24488559365272522
1.1432408094406128,2.574885129928589,0.24750444293022156
1.132337212562561,2.600682497024536,0.2518113851547241
1.1138098239898682,2.6084234714508057,0.25436362624168396
1.1042795181274414,2.637556552886963,0.25892409682273865
1.0879406929016113,2.652515172958374,0.2620112895965576
1.0772643089294434,2.6818008422851562,0.26654329895973206
1.0666213035583496,2.7109110355377197,0.271064430475235
1.0445022583007812,2.710939645767212,0.2726941704750061
1.0292463302612305,2.7290165424346924,0.27602526545524597
1.0174733400344849,2.758091926574707,0.2804010510444641
1.0026671886444092,2.779827833175659,0.28406625986099243
0.9634355902671814,2.731682777404785,0.28055518865585327
0.9554262757301331,2.7713170051574707,0.2860569953918457
0.9245744943618774,2.7446608543395996,0.28461846709251404
0.9095828533172607,2.7658445835113525,0.28802528977394104
0.8800547122955322,2.7425453662872314,0.2868098318576813
0.8848426342010498,2.8264591693878174,0.29682663083076477
0.8908555507659912,2.917966842651367,0.3077211380004883
0.8792533278465271,2.953739643096924,0.31274598836898804
0.8623345494270325,2.974729537963867,0.31604236364364624
0.8441041707992554,2.9918856620788574,0.3189571797847748
0.8226156234741211,2.997681140899658,0.3206799328327179
0.8136362433433533,3.0482337474823,0.32719606161117554
0.7919835448265076,3.053745746612549,0.3289255201816559
0.775963306427002,3.0817322731018066,0.33290988206863403
0.7557334303855896,3.0945935249328613,0.335212767124176
0.7398319244384766,3.1262223720550537,0.339575856924057
0.7193970084190369,3.1387970447540283,0.341887503862381
0.7038664221763611,3.173989772796631,0.3466915488243103
0.683293342590332,3.186267852783203,0.3489823341369629
0.6645534634590149,3.2099266052246094,0.352312833070755
0.6447508931159973,3.229668140411377,0.35523921251296997
0.6261674761772156,3.256915807723999,0.3590181767940521
0.6071620583534241,3.2840702533721924,0.36281847953796387
0.5883389711380005,3.311023473739624,0.36660727858543396
0.5671098828315735,3.3264145851135254,0.3690449297428131
0.548567533493042,3.3608908653259277,0.3734469413757324
0.528333842754364,3.3875997066497803,0.37701472640037537
0.5085026025772095,3.421924591064453,0.38146889209747314
0.4862697720527649,3.436807155609131,0.38376227021217346
0.4674738943576813,3.4784789085388184,0.3890751898288727
0.44408559799194336,3.4892711639404297,0.39081692695617676
0.4264335036277771,3.5500497817993164,0.39803546667099
0.40140897035598755,3.552882432937622,0.39878350496292114
0.37836867570877075,3.5787477493286133,0.40214771032333374
0.35916292667388916,3.639159917831421,0.40941092371940613
0.33452728390693665,3.6492185592651367,0.41103777289390564
0.3129258155822754,3.6978180408477783,0.41686415672302246
0.28845998644828796,3.7192223072052,0.41950979828834534
0.2640533745288849,3.75211238861084,0.42347973585128784
0.24016062915325165,3.792559862136841,0.4283240735530853
0.216610386967659,3.8444666862487793,0.4344877600669861
0.19024412333965302,3.8535804748535156,0.43584075570106506
0.16583652794361115,3.9129486083984375,0.4427354335784912
0.13909298181533813,3.945042133331299,0.4464229345321655
0.11218701303005219,3.969177484512329,0.4492317736148834
0.08536338806152344,4.012531280517578,0.45423924922943115
0.058123789727687836,4.059580326080322,0.45968905091285706
0.03010483644902706,4.094798564910889,0.4638243615627289
0.0011630492517724633,4.14148473739624,0.46911105513572693
-0.02802147902548313,4.191868782043457,0.47465774416923523
-0.05770410969853401,4.230402946472168,0.4788825809955597
-0.08816386014223099,4.280367374420166,0.48442187905311584
-0.11814524233341217,4.2874298095703125,0.4851278066635132
-0.14742571115493774,4.271007537841797,0.4831998646259308
-0.1779443472623825,4.277651309967041,0.483750581741333
-0.21844853460788727,4.501245498657227,0.508637011051178
-0.2513536810874939,4.530692100524902,0.51158607006073
-0.2868541479110718,4.594764709472656,0.5184619426727295
-0.3233526945114136,4.658555507659912,0.5253198742866516
-0.3592264950275421,4.694924831390381,0.5290985107421875
-0.3985386788845062,4.773640155792236,0.5375320911407471
-0.44543251395225525,4.925534725189209,0.5539590120315552
-0.5083621144294739,5.219968795776367,0.5863826870918274
-0.5596022605895996,5.363188743591309,0.6017904877662659
-0.5966118574142456,5.351510524749756,0.5998120307922363
-0.6224149465560913,5.2509684562683105,0.5879248976707458
-0.6587435603141785,5.246670722961426,0.5867108106613159
-0.6932770013809204,5.230637073516846,0.5839250087738037
-0.7248842716217041,5.195156574249268,0.5790050029754639
-0.7612385153770447,5.190122604370117,0.5774933695793152
-0.7971823215484619,5.184889793395996,0.5759973526000977
-0.8331973552703857,5.179390907287598,0.5744968056678772
