X,Y,Z
-2.0052149295806885,3.764056921005249,0.7140433192253113
-2.0283758640289307,3.7443902492523193,0.7046951651573181
-1.7046642303466797,3.096937894821167,0.5779656171798706
-1.7215718030929565,3.080033540725708,0.569757878780365
-1.7499421834945679,3.083055019378662,0.5652025938034058
-0.8407841324806213,1.4572995901107788,0.26456475257873535
-0.8628469109535217,1.4718979597091675,0.2646311819553375
-0.8686373233795166,1.4601664543151855,0.2597779631614685
-0.8742721080780029,1.4484318494796753,0.25495222210884094
-0.8924717307090759,1.4561288356781006,0.25337955355644226
-0.8908056616783142,1.4306001663208008,0.24593281745910645
-0.8963584303855896,1.4186722040176392,0.24082224071025848
-0.9056980609893799,1.413404941558838,0.23681652545928955
-0.8944129347801208,1.3753381967544556,0.2272319197654724
-0.9085376262664795,1.3760377168655396,0.22401735186576843
-0.9135788679122925,1.3640971183776855,0.21857939660549164
-2.380146026611328,3.5059356689453125,0.5528008937835693
-2.4424726963043213,3.5450222492218018,0.5489875674247742
-1.3171025514602661,1.88388192653656,0.2863008975982666
-1.3808773756027222,1.949075698852539,0.29037976264953613
-1.3349536657333374,2.117708206176758,-0.2047983855009079
-1.2943391799926758,2.087224006652832,-0.20889323949813843
-1.2773268222808838,2.092358350753784,-0.2160690426826477
-1.1878259181976318,1.9774950742721558,-0.2105253040790558
-0.8206087350845337,1.4117345809936523,-0.1589251607656479
-0.8414193391799927,1.4709793329238892,-0.16990645229816437
-1.0229185819625854,1.8186345100402832,-0.21533122658729553
-0.9886073470115662,1.7881118059158325,-0.21691592037677765
-0.9535728693008423,1.7534775733947754,-0.21754585206508636
-0.8932547569274902,1.6706329584121704,-0.2118273675441742
-0.8772850036621094,1.6696373224258423,-0.2162107527256012
-0.8545582294464111,1.6545605659484863,-0.2185971438884735
-0.8162359595298767,1.6081475019454956,-0.21668444573879242
-0.7699077725410461,1.5440012216567993,-0.2119518220424652
-0.761993944644928,1.5559237003326416,-0.21750831604003906
-0.7290518283843994,1.5152933597564697,-0.2155311405658722
-0.7281570434570312,1.5408439636230469,-0.222909078001976
-0.7038785815238953,1.5173767805099487,-0.2231118381023407
-0.6734076738357544,1.479622721672058,-0.22110946476459503
-0.6613112688064575,1.4802263975143433,-0.224601611495018
-0.6352089643478394,1.4488691091537476,-0.2231440246105194
-0.6155375838279724,1.4315224885940552,-0.2236543595790863
-0.594695508480072,1.4103976488113403,-0.22346821427345276
-0.5786149501800537,1.3997728824615479,-0.2248709350824356
-0.5744395852088928,1.417598843574524,-0.23077040910720825
0.5470606684684753,1.3863320350646973,-0.22870662808418274
0.5682421922683716,1.41171133518219,-0.22996766865253448
0.5854063630104065,1.4261521100997925,-0.22935634851455688
0.5984830856323242,1.4296724796295166,-0.22689922153949738
0.6237876415252686,1.461521029472351,-0.22885587811470032
0.631062388420105,1.4505615234375,-0.2239125818014145
0.6615365743637085,1.4926903247833252,-0.22713659703731537
0.6880182027816772,1.5238404273986816,-0.22846823930740356
0.7117666006088257,1.5476596355438232,-0.2285597175359726
0.7372714877128601,1.5748651027679443,-0.2289493978023529
0.7550333738327026,1.584242820739746,-0.2265835404396057
0.7696523666381836,1.5864425897598267,-0.22312742471694946
0.798056960105896,1.6163225173950195,-0.22346842288970947
0.8422806859016418,1.6772387027740479,-0.22780783474445343
0.8732988238334656,1.710005283355713,-0.22806912660598755
0.8854191899299622,1.704427719116211,-0.2230333536863327
0.9356848001480103,1.7707748413085938,-0.227144256234169
0.9661937355995178,1.799182653427124,-0.2261679470539093
1.010318398475647,1.851048231124878,-0.22785082459449768
1.0498418807983398,1.8920761346817017,-0.2278236597776413
1.099225401878357,1.9497532844543457,-0.22949010133743286
1.149463415145874,2.006870746612549,-0.23064342141151428
1.192907452583313,2.0498690605163574,-0.22978977859020233
1.2469838857650757,2.1090683937072754,-0.23038159310817719
1.3033159971237183,2.1713461875915527,-0.2308962643146515
1.32227623462677,2.1697356700897217,-0.2243168205022812
1.3481662273406982,2.1774508953094482,-0.21831554174423218
1.3589251041412354,2.162308692932129,-0.21011696755886078
1.377636432647705,2.160400152206421,-0.20321333408355713
1.3738816976547241,2.1218807697296143,-0.19258229434490204
1.7736454010009766,2.699065685272217,-0.23598909378051758
1.8373198509216309,2.7559216022491455,-0.2315758317708969
1.8151211738586426,2.682508945465088,-0.2158840000629425
1.8622734546661377,2.7125353813171387,-0.20850776135921478
1.8845596313476562,2.707411527633667,-0.19828273355960846
1.433279275894165,2.029153347015381,-0.14068040251731873
1.4517935514450073,2.026148557662964,-0.1322927325963974
1.469691276550293,2.023411750793457,-0.12393192201852798
1.460820198059082,1.9821091890335083,-0.11270571500062943
2.643599510192871,3.7379775047302246,0.5340822339057922
2.6177289485931396,3.7634119987487793,0.5501319766044617
2.59335994720459,3.787543296813965,0.5653513669967651
1.5427930355072021,2.287766695022583,0.34823086857795715
1.5247299671173096,2.298616647720337,0.35624611377716064
1.5111082792282104,2.31562876701355,0.36508211493492126
1.5593082904815674,2.426236629486084,0.3885139524936676
1.6279571056365967,2.574014902114868,0.41835856437683105
1.5828711986541748,2.5461857318878174,0.4198424518108368
3.0230066776275635,4.941716194152832,0.8256235718727112
3.003446102142334,4.9874701499938965,0.8437623977661133
2.9774630069732666,5.027699947357178,0.8606607913970947
2.9598615169525146,5.085004806518555,0.8804255127906799
2.933363914489746,5.124788284301758,0.8969615697860718
2.908088445663452,5.163578033447266,0.9130285978317261
2.8808910846710205,5.2031049728393555,0.9289318323135376
2.864988327026367,5.266871452331543,0.9490020871162415
2.851179838180542,5.333511829376221,0.9695594906806946
2.825125217437744,5.375741958618164,0.9855986833572388
2.7936336994171143,5.407426834106445,0.9995938539505005
2.7701525688171387,5.460691928863525,1.0170238018035889
2.757988452911377,5.53802490234375,1.0391323566436768
1.24391508102417,2.542637348175049,0.48046720027923584
1.2187988758087158,2.53676700592041,0.4827471375465393
1.1888760328292847,2.5202736854553223,0.4827899634838104
1.1747753620147705,2.538738965988159,0.4893065392971039
1.1556919813156128,2.5466113090515137,0.4938213527202606
1.1594011783599854,2.603139638900757,0.50770503282547
2.5790159702301025,5.9007954597473145,1.157467246055603
2.550980567932129,5.952889442443848,1.1741986274719238
2.5200271606445312,6.001767635345459,1.1897164583206177
2.4958465099334717,6.068222999572754,1.2088569402694702
2.465236186981201,6.116215229034424,1.2242521047592163
2.436187744140625,6.167365550994873,1.240310788154602
2.4043679237365723,6.215066909790039,1.255907416343689
1.5272051095962524,4.034268379211426,0.8184822797775269
1.4802048206329346,3.997523546218872,0.81427401304245
1.4432071447372437,3.985497236251831,0.8150619268417358
1.4125062227249146,3.987318277359009,0.8185966610908508
1.3813660144805908,3.9890520572662354,0.8221979141235352
1.329503059387207,3.928833484649658,0.8127229809761047
1.2959305047988892,3.9229812622070312,0.8141118288040161
1.2743096351623535,3.953308343887329,0.8230536580085754
1.2505559921264648,3.9760520458221436,0.8304342031478882
1.2782949209213257,4.167063236236572,0.8731265068054199
1.9623855352401733,6.559675693511963,1.3788365125656128
1.8994395732879639,6.517014503479004,1.3737167119979858
1.8417837619781494,6.492483139038086,1.372001051902771
1.7855995893478394,6.4711594581604,1.370997428894043
1.725624918937683,6.430709362030029,1.3659082651138306
1.6710739135742188,6.4082770347595215,1.36467444896698
1.6008446216583252,6.318472862243652,1.3490235805511475
1.5605005025863647,6.347139835357666,1.3582011461257935
1.4917755126953125,6.260451793670654,1.3422746658325195
1.4544645547866821,6.303528785705566,1.3542137145996094
1.4014110565185547,6.279261112213135,1.3517675399780273
1.3388750553131104,6.201992511749268,1.3378416299819946
1.2845808267593384,6.157841682434082,1.3310600519180298
1.2457823753356934,6.18828010559082,1.3401637077331543
1.1906936168670654,6.139964580535889,1.3315820693969727
1.1418334245681763,6.125131607055664,1.3303425312042236
1.0982569456100464,6.132321357727051,1.3339041471481323
1.046338438987732,6.086385250091553,1.325923204421997
1.000702142715454,6.073949337005615,1.325281023979187
0.9571423530578613,6.072481632232666,1.3270841836929321
0.9053714275360107,6.025777339935303,1.3182337284088135
0.854549765586853,5.974791526794434,1.30838942527771
0.8100786209106445,5.965016841888428,1.3076218366622925
0.7663351893424988,5.954850673675537,1.3068082332611084
0.6091634035110474,5.0085554122924805,1.100377082824707
0.5808244347572327,5.0690836906433105,1.1149756908416748
0.5549298524856567,5.167535781860352,1.1376944780349731
0.40925323963165283,4.081375598907471,0.8990688323974609
0.3815561532974243,4.095309734344482,0.9026896953582764
0.35868725180625916,4.1660637855529785,0.9188889861106873
0.32967448234558105,4.168213367462158,0.920006275177002
0.29902246594429016,4.154975414276123,0.9177820086479187
0.27112942934036255,4.171933174133301,0.9222590327262878
0.4489738941192627,7.745518684387207,1.712702989578247
0.39430615305900574,7.740647792816162,1.7119580507278442
0.33905935287475586,7.720149517059326,1.7078394889831543
0.2825593054294586,7.676413536071777,1.698667287826538
0.22865068912506104,7.658925533294678,1.6953707933425903
0.1750860959291458,7.644874095916748,1.692914366722107
0.12122826278209686,7.599981784820557,1.6835193634033203
0.0682084932923317,7.5854291915893555,1.6799488067626953
0.014491373673081398,7.559068202972412,1.673842191696167
-0.03787385672330856,7.513261795043945,1.6635180711746216
-0.08982977271080017,7.486163139343262,1.6574180126190186
-0.14154011011123657,7.470147609710693,1.653852105140686
-0.19252659380435944,7.430896759033203,1.6452219486236572
-0.24389949440956116,7.421908378601074,1.6428449153900146
-0.2965400815010071,7.42791223526001,1.643240213394165
-0.2517997622489929,5.372293472290039,1.1878790855407715
-0.289816290140152,5.385859966278076,1.1903284788131714
-0.3276955783367157,5.39153528213501,1.191087007522583
-0.36257320642471313,5.351272106170654,1.1817567348480225
-0.39958077669143677,5.337366104125977,1.1783015727996826
-0.4351840913295746,5.319605827331543,1.1734248399734497
-0.41754773259162903,4.704974174499512,1.0369001626968384
-0.4408911466598511,4.6073527336120605,1.0145065784454346
-0.47197675704956055,4.596921920776367,1.0113768577575684
-0.502794623374939,4.578624725341797,1.0065523386001587
-0.5328505635261536,4.56017541885376,1.001761794090271
-0.5644968152046204,4.556704998016357,1.000219702720642
-0.5918080806732178,4.522904396057129,0.9914791584014893
-0.6218090653419495,4.511628150939941,0.9877340793609619
-0.6517000198364258,4.496299743652344,0.9831316471099854
-0.6794297695159912,4.469481468200684,0.9760836362838745
-0.7069201469421387,4.442475318908691,0.969049870967865
-0.7403308749198914,4.452971458435059,0.9702455997467041
-0.7684072256088257,4.433237552642822,0.9645361304283142
-0.7974138855934143,4.420938014984131,0.9601965546607971
-0.826732873916626,4.408370494842529,0.9558261632919312
-0.7132184505462646,3.6643056869506836,0.793183445930481
-0.7341961860656738,3.637265920639038,0.7860440015792847
-0.7580010890960693,3.625061511993408,0.7821572422981262
-0.9335437417030334,4.315093517303467,0.9295521974563599
-0.9701142907142639,4.339084625244141,0.9326235055923462
-0.9996585845947266,4.333084583282471,0.9293144345283508
-1.0238559246063232,4.304557800292969,0.9212275147438049
-1.0538325309753418,4.298038005828857,0.9178602695465088
-1.0801142454147339,4.276449203491211,0.9113202095031738
-1.106658935546875,4.254575252532959,0.9047451615333557
-1.1357884407043457,4.2476935386657715,0.9009718894958496
-1.1626423597335815,4.2333149909973145,0.8954941630363464
-1.1841583251953125,4.200338363647461,0.8861427307128906
-1.217385172843933,4.207605838775635,0.8852963447570801
-1.242945909500122,4.185007095336914,0.8781362175941467
-1.2721754312515259,4.177052021026611,0.8741438984870911
-1.2985771894454956,4.161792278289795,0.8683236241340637
-1.3267046213150024,4.15385103225708,0.8638157248497009
-1.3452585935592651,4.116572380065918,0.853266179561615
-1.3765408992767334,4.115264415740967,0.8501259088516235
-1.4004199504852295,4.091952800750732,0.8424868583679199
-1.4291059970855713,4.082976818084717,0.83785080909729
-1.4519490003585815,4.05962610244751,0.829981803894043
-1.4819822311401367,4.057971477508545,0.826345682144165
-1.4892692565917969,3.9949653148651123,0.8102916479110718
-1.5282806158065796,4.014146327972412,0.8108329772949219
-1.5480798482894897,3.982912063598633,0.8012340068817139
-1.5760093927383423,3.972999334335327,0.7959814667701721
-1.605838418006897,3.9704489707946777,0.7917870879173279
-1.6383558511734009,3.9749069213867188,0.7889012694358826
-1.6595890522003174,3.9505763053894043,0.7802686095237732
-1.690393090248108,3.947038412094116,0.7756812572479248
-1.7181869745254517,3.9361963272094727,0.7696846723556519
-1.7455800771713257,3.9253199100494385,0.763569176197052
-1.7496742010116577,3.8656954765319824,0.7476765513420105
-1.7728502750396729,3.847893714904785,0.7398885488510132
-1.8125178813934326,3.8646585941314697,0.7387062907218933
-1.849779486656189,3.873859405517578,0.7359599471092224
-1.8771750926971436,3.861940622329712,0.7292026877403259
-1.8927366733551025,3.829911470413208,0.7182061076164246
-1.9084056615829468,3.797617197036743,0.7071574330329895
-1.944989800453186,3.806345224380493,0.7037365436553955
-1.9612606763839722,3.7733166217803955,0.692472517490387
-1.9915242195129395,3.7675271034240723,0.6862465739250183
-2.0129268169403076,3.7487940788269043,0.677237868309021
-2.024923086166382,3.712986707687378,0.6652203798294067
-1.712328553199768,3.0890250205993652,0.5485396981239319
-1.7342665195465088,3.07798171043396,0.5416528582572937
-0.8327144980430603,1.4547691345214844,0.25360965728759766
-0.8462206721305847,1.4564858675003052,0.25138476490974426
-0.8637413382530212,1.4647271633148193,0.2502535879611969
-0.8783622980117798,1.4656697511672974,0.24760834872722626
-0.8727408647537231,1.4335476160049438,0.23947663605213165
-0.8903409838676453,1.4415265321731567,0.2379101812839508
-0.8834043145179749,1.410003662109375,0.22986148297786713
-0.8891938328742981,1.3978359699249268,0.22484475374221802
-0.8993226289749146,1.3919905424118042,0.22078704833984375
-0.8957099914550781,1.3672537803649902,0.21369783580303192
-0.9003452062606812,1.3555340766906738,0.2087012529373169
-0.9576906561851501,1.4204235076904297,0.21504324674606323
-2.3950259685516357,3.500692844390869,0.5208355784416199
-1.3283900022506714,1.9153697490692139,0.27969300746917725
-1.4597151279449463,2.075423240661621,0.297116756439209
-1.3664618730545044,2.185429811477661,-0.2091667205095291
-1.363006591796875,2.214305877685547,-0.21885891258716583
-1.257728934288025,2.0771830081939697,-0.21174246072769165
-1.2007638216018677,2.015360116958618,-0.21147769689559937
-0.8350909948348999,1.4485245943069458,-0.16046591103076935
-1.0276153087615967,1.812564492225647,-0.20592664182186127
-1.0355373620986938,1.8565000295639038,-0.21595753729343414
-1.0015097856521606,1.8258010149002075,-0.21729634702205658
-0.9548253417015076,1.7709248065948486,-0.21548371016979218
-0.925497829914093,1.7463092803955078,-0.21707092225551605
-0.8915388584136963,1.7108832597732544,-0.2170143574476242
-0.866600513458252,1.69254732131958,-0.21891194581985474
-0.8193232417106628,1.6288875341415405,-0.21471236646175385
-0.7819586992263794,1.581903338432312,-0.21230478584766388
-0.7704243659973145,1.58694326877594,-0.21681423485279083
-0.7454817891120911,1.5639292001724243,-0.2173144370317459
-0.7292408347129822,1.5581474304199219,-0.22009366750717163
-0.7117030024528503,1.548609972000122,-0.2222331166267395
-0.6846684813499451,1.5177810192108154,-0.22117844223976135
-0.6642374396324158,1.5008906126022339,-0.2219916582107544
-0.6393993496894836,1.4731669425964355,-0.22111721336841583
-0.6168186068534851,1.4486247301101685,-0.2205083966255188
-0.6004640460014343,1.4381804466247559,-0.22191143035888672
-0.5871381163597107,1.4347753524780273,-0.2243146002292633
-0.5667992830276489,1.413280725479126,-0.22380688786506653
-0.5565841197967529,1.4167871475219727,-0.2272479087114334
-0.5353586077690125,1.3913547992706299,-0.22587959468364716
0.5410436987876892,1.4139851331710815,-0.22944335639476776
0.5580013990402222,1.4286589622497559,-0.22910818457603455
0.5665149688720703,1.4216759204864502,-0.22521214187145233
0.5837405323982239,1.4361045360565186,-0.2246764749288559
0.6059183478355408,1.4609811305999756,-0.2256156951189041
0.635775625705719,1.503536581993103,-0.2291571944952011
0.6523397564888,1.513853907585144,-0.22760312259197235
0.6660155653953552,1.5169066190719604,-0.22490786015987396
0.6830745339393616,1.5268486738204956,-0.22315600514411926
0.7213084697723389,1.5824013948440552,-0.2278309464454651
0.7387742400169373,1.5920089483261108,-0.22574564814567566
0.7564913034439087,1.6014142036437988,-0.2235533893108368
0.784618079662323,1.6315410137176514,-0.22410337626934052
0.8216065764427185,1.6788419485092163,-0.22679375112056732
0.8471886515617371,1.7014377117156982,-0.22586749494075775
0.8748289346694946,1.7272485494613647,-0.2252563089132309
0.9137305021286011,1.7733750343322754,-0.22704333066940308
0.9440559148788452,1.8020026683807373,-0.22636638581752777
0.980124831199646,1.8406798839569092,-0.22674907743930817
1.0152162313461304,1.8753989934921265,-0.22633807361125946
1.0643357038497925,1.9333653450012207,-0.22833997011184692
1.1041203737258911,1.9741867780685425,-0.2280852347612381
1.1540794372558594,2.0314888954162598,-0.22944222390651703
1.1976335048675537,2.074467658996582,-0.22868703305721283
1.2613157033920288,2.1506192684173584,-0.23122701048851013
1.3000253438949585,2.1826982498168945,-0.22857800126075745
1.3252605199813843,2.190971851348877,-0.2232346385717392
1.3489521741867065,2.195491075515747,-0.21730054914951324
1.3596837520599365,2.1803982257843018,-0.20940996706485748
1.370343804359436,2.165194511413574,-0.20148704946041107
1.366965651512146,2.1264750957489014,-0.19111788272857666
1.7688268423080444,2.7116549015045166,-0.2351703941822052
1.8492929935455322,2.794816255569458,-0.2334897518157959
1.8516058921813965,2.756654739379883,-0.22096803784370422
1.8285882472991943,2.683607339859009,-0.20596706867218018
1.8665400743484497,2.7008934020996094,-0.19782577455043793
1.4063904285430908,2.00510835647583,-0.13938716053962708
1.4401774406433105,2.0247726440429688,-0.13314619660377502
1.453663945198059,2.0156493186950684,-0.12475060671567917
1.4678596258163452,2.005868434906006,-0.11586128175258636
1.4760514497756958,1.9906302690505981,-0.10671733319759369
2.69372296333313,3.778622627258301,0.5057640075683594
2.638639211654663,3.763206958770752,0.5162197351455688
2.619032382965088,3.7938010692596436,0.5321123600006104
2.59147047996521,3.8107709884643555,0.5456257462501526
2.4942140579223633,3.7294349670410156,0.5444043278694153
1.5216652154922485,2.3119959831237793,0.34362590312957764
1.513169527053833,2.3349549770355225,0.3529508709907532
1.5743707418441772,2.469517469406128,0.3791932165622711
1.6146193742752075,2.5757741928100586,0.4015464186668396
3.053903102874756,4.948338031768799,0.7819929718971252
3.022374391555786,4.974557399749756,0.7966538667678833
2.9910483360290527,5.009314060211182,0.8123227953910828
2.9642415046691895,5.049996852874756,0.8288187980651855
2.953325033187866,5.112488746643066,0.8483456373214722
2.916757345199585,5.131374835968018,0.8607425093650818
2.9000580310821533,5.191985130310059,0.8796098828315735
2.868907928466797,5.229211807250977,0.8948103785514832
2.8533449172973633,5.288480281829834,0.9132372140884399
2.8228492736816406,5.320335865020752,0.9270063042640686
2.80279541015625,5.37691068649292,0.9447168111801147
2.7794623374938965,5.430444717407227,0.9618394374847412
2.764643430709839,5.500888824462891,0.9820377230644226
2.735875368118286,5.539200782775879,0.996220588684082
1.2337621450424194,2.5424485206604004,0.4606160521507263
1.2246332168579102,2.5716700553894043,0.4689694046974182
1.198798418045044,2.5659749507904053,0.47099336981773376
1.1673392057418823,2.545764684677124,0.4702262580394745
1.1616114377975464,2.5814037322998047,0.47978487610816956
1.1401028633117676,2.581763505935669,0.48274505138397217
2.5612854957580566,5.917173862457275,1.1123462915420532
2.539764404296875,5.987464904785156,1.1315869092941284
2.5111539363861084,6.039499759674072,1.1473647356033325
2.4793033599853516,6.084170341491699,1.1618269681930542
2.449174642562866,6.13194465637207,1.176889181137085
2.420888900756836,6.1911301612854,1.1935030221939087
1.557836651802063,4.071115016937256,0.7882259488105774
1.4970622062683105,3.9985623359680176,0.7775271534919739
1.4631249904632568,3.9937334060668945,0.7798886895179749
1.4272128343582153,3.9812405109405518,0.7807081341743469
1.4013078212738037,3.997621774673462,0.786978006362915
1.3745880126953125,4.014106750488281,0.7929786443710327
1.334267497062683,3.990370035171509,0.7910619974136353
1.2885748147964478,3.9479775428771973,0.7854150533676147
1.2561829090118408,3.941439151763916,0.7868011593818665
1.2330213785171509,3.963963031768799,0.7940316796302795
1.9860649108886719,6.548884391784668,1.3157256841659546
1.9330518245697021,6.5434746742248535,1.3182928562164307
1.8686305284500122,6.497086524963379,1.3126246929168701
1.8156579732894897,6.486963272094727,1.314278483390808
1.753011703491211,6.4354472160339355,1.3074709177017212
1.7000781297683716,6.416720390319824,1.3073310852050781
0.8394752740859985,3.2620694637298584,0.6661453247070312
1.5818469524383545,6.334270000457764,1.2963218688964844
0.8073554635047913,3.3361549377441406,0.68428635597229
1.4835827350616455,6.324504852294922,1.3000966310501099
1.43598473072052,6.318788528442383,1.3018065690994263
1.3794209957122803,6.271594047546387,1.2950061559677124
1.3086436986923218,6.156764507293701,1.2736494541168213
1.2745919227600098,6.21782112121582,1.2884033918380737
1.2182317972183228,6.165897369384766,1.2797741889953613
1.171740174293518,6.158536911010742,1.2804096937179565
1.119759202003479,6.116861343383789,1.2739238739013672
1.0670915842056274,6.067235946655273,1.2658061981201172
1.026889681816101,6.092857837677002,1.273160696029663
0.9768213033676147,6.0578742027282715,1.267295002937317
0.9279532432556152,6.026266574859619,1.2621779441833496
0.8802745938301086,5.998044967651367,1.257810354232788
0.837352991104126,5.995893955230713,1.2589387893676758
0.7878677845001221,5.9480180740356445,1.2505353689193726
0.7420817613601685,5.918656349182129,1.2460377216339111
0.5944126844406128,5.027242183685303,1.0591505765914917
0.5728835463523865,5.156372547149658,1.0871566534042358
0.5377013087272644,5.171351909637451,1.0911707878112793
0.3956902027130127,4.082644939422607,0.8621621131896973
0.3698359429836273,4.119340896606445,0.8706812858581543
0.345581978559494,4.174875259399414,0.8832279443740845
0.3153296709060669,4.161717414855957,0.8810409307479858
0.2861402928829193,4.1636810302734375,0.8817260265350342
0.25858595967292786,4.192141532897949,0.8880676627159119
0.4216112792491913,7.731115341186523,1.638439416885376
0.3674801290035248,7.725958347320557,1.6380813121795654
0.31251105666160583,7.697514533996582,1.6328606605529785
0.2584294080734253,7.680136680603027,1.6300599575042725
0.20406904816627502,7.651111125946045,1.6239625215530396
0.14905796945095062,7.614123821258545,1.6160304546356201
0.09574855118989944,7.599658489227295,1.6129591464996338
0.04271458089351654,7.58099889755249,1.6090757846832275
-0.009854655712842941,7.542866230010986,1.6011356115341187
-0.06210566312074661,7.519652843475342,1.5964386463165283
-0.11456435918807983,7.4693603515625,1.58587646484375
-0.1660662740468979,7.453292369842529,1.5817455053329468
-0.2169041484594345,7.421591281890869,1.5743769407272339
-0.26860544085502625,7.427734851837158,1.575115442276001
-0.3215622305870056,7.456418514251709,1.5807054042816162
-0.2714950144290924,5.41984224319458,1.1486634016036987
-0.3081190586090088,5.387399196624756,1.1415377855300903
-0.345449835062027,5.385355472564697,1.1404942274093628
-0.38157549500465393,5.367885112762451,1.135873794555664
-0.4171788990497589,5.346360206604004,1.130455493927002
-0.4522404968738556,5.320785045623779,1.1242399215698242
-0.4246419668197632,4.6097331047058105,0.9733327031135559
-0.45514702796936035,4.591708660125732,0.9689203500747681
-0.4870889484882355,4.588683128356934,0.9677209258079529
-0.5160548686981201,4.562805652618408,0.9611361622810364
-0.5456215739250183,4.544345855712891,0.9561099410057068
-0.5783677697181702,4.548394680023193,0.9558488130569458
-0.6067656874656677,4.521928787231445,0.9492372870445251
-0.6366348266601562,4.506618976593018,0.9450143575668335
-0.6668813824653625,4.494894027709961,0.9415931105613708
-0.6932953000068665,4.460356712341309,0.9332190752029419
-0.7255832552909851,4.463484764099121,0.9323369264602661
-0.7523298263549805,4.436277389526367,0.9251918196678162
-0.7787869572639465,4.408900260925293,0.9180671572685242
-0.8087552189826965,4.40011739730835,0.9148487448692322
-0.8379207253456116,4.387369632720947,0.9108536839485168
-0.7225805521011353,3.6459808349609375,0.7558519244194031
-0.7479202747344971,3.6413838863372803,0.7533600926399231
-0.7743618488311768,3.6442010402679443,0.7523982524871826
-0.9519683718681335,4.335057735443115,0.8932380080223083
-0.980243980884552,4.321521759033203,0.8886683583259583
-1.012107014656067,4.322667121887207,0.8871465921401978
-1.0391572713851929,4.301119327545166,0.8809841275215149
-1.068767786026001,4.294544696807861,0.8776276707649231
-1.0922443866729736,4.2656378746032715,0.8694862723350525
-1.1192800998687744,4.251426696777344,0.8643962144851685
-1.148447036743164,4.244374752044678,0.860785186290741
-1.1755305528640747,4.22577428817749,0.8548024296760559
-1.2029191255569458,4.210824966430664,0.849649965763092
-1.2276875972747803,4.188459396362305,0.8428500294685364
-1.2560466527938843,4.180878162384033,0.8386946320533752
-1.282100796699524,4.165767192840576,0.8330717086791992
-1.3110485076904297,4.157598495483398,0.8288137912750244
-1.3330806493759155,4.127246856689453,0.8201683759689331
-1.3619823455810547,4.118647575378418,0.8158997297286987
-1.3880283832550049,4.102713108062744,0.8100372552871704
-1.4157073497772217,4.094177722930908,0.80530846118927
-1.4382550716400146,4.070949554443359,0.7977327704429626
-1.4653191566467285,4.058155059814453,0.792159378528595
-1.4884449243545532,4.034304141998291,0.7844624519348145
-1.5167683362960815,4.0246901512146,0.7795791029930115
-1.5389074087142944,4.000794887542725,0.7716943025588989
-1.565818428993225,3.9913618564605713,0.7663892507553101
-1.593168020248413,3.9815609455108643,0.7609844207763672
-1.6207603216171265,3.9714529514312744,0.7555175423622131
-1.6545827388763428,3.975212812423706,0.7526639699935913
-1.6765060424804688,3.9503493309020996,0.7444281578063965
-1.7061322927474976,3.947150230407715,0.7398257255554199
-1.7299745082855225,3.9294817447662354,0.7324414849281311
-1.7470976114273071,3.8977038860321045,0.7225285172462463
-1.7681697607040405,3.872407913208008,0.7137203216552734
-1.8019312620162964,3.87496018409729,0.710085928440094
-1.8217588663101196,3.8498055934906006,0.7011099457740784
-1.8579553365707397,3.859372615814209,0.6982020735740662
-1.8803247213363647,3.8411293029785156,0.6903611421585083
-1.9040296077728271,3.8220674991607666,0.682155966758728
-1.9345314502716064,3.8166146278381348,0.6764138340950012
-1.960683822631836,3.8045120239257812,0.6692554354667664
-1.9860432147979736,3.7926177978515625,0.6619504690170288
-1.9973711967468262,3.7530038356781006,0.6497604250907898
-2.02022123336792,3.7333006858825684,0.6409000158309937
-1.722604751586914,3.1311964988708496,0.5329556465148926
-1.719118356704712,3.0768113136291504,0.5189127922058105
-1.7413886785507202,3.069819450378418,0.5128617286682129
-0.8456411361694336,1.4674103260040283,0.2427036166191101
-0.8677883148193359,1.4819443225860596,0.24257171154022217
-0.8662109971046448,1.4564882516860962,0.23585465550422668
-0.8758067488670349,1.4513037204742432,0.23235158622264862
-0.8895142078399658,1.4525952339172363,0.22985444962978363
-0.9000431895256042,1.4467055797576904,0.22597937285900116
-0.9019420742988586,1.4278218746185303,0.22013655304908752
-0.911285936832428,1.4224663972854614,0.21629218757152557
-0.9038293361663818,1.390966534614563,0.20849576592445374
-0.9137647151947021,1.3850747346878052,0.20437228679656982
-0.9105775356292725,1.3598707914352417,0.19734767079353333
-2.394392251968384,3.5274977684020996,0.5032159686088562
-2.453683376312256,3.5637693405151367,0.4990944266319275
-1.3007177114486694,1.8613860607147217,0.2555660307407379
-1.5462658405303955,2.1832468509674072,0.2935349941253662
-1.4188902378082275,2.2500193119049072,-0.20547592639923096
-1.3794420957565308,2.223444700241089,-0.20990005135536194
-1.262742519378662,2.1017191410064697,-0.21088330447673798
-1.2273061275482178,2.076838731765747,-0.2143334299325943
-0.8327181339263916,1.4326955080032349,-0.15188176929950714
-0.8418512940406799,1.4718451499938965,-0.15997746586799622
-1.0828136205673218,1.9246920347213745,-0.21430498361587524
-1.0438587665557861,1.8878852128982544,-0.21526029706001282
-0.9969121217727661,1.8332138061523438,-0.21366983652114868
-0.9710392355918884,1.8156406879425049,-0.2161605954170227
-0.9088738560676575,1.729278802871704,-0.21012908220291138
-0.8819675445556641,1.7076654434204102,-0.21165189146995544
-0.8731213808059692,1.720314383506775,-0.21733731031417847
-0.8503443598747253,1.7051070928573608,-0.21938107907772064
-0.8122366070747375,1.6584272384643555,-0.21717700362205505
-0.7817875742912292,1.6252012252807617,-0.21647366881370544
-0.7603211998939514,1.609093189239502,-0.21787072718143463
-0.7356606721878052,1.5858328342437744,-0.21815335750579834
-0.7142786383628845,1.5694985389709473,-0.21932122111320496
-0.6983257532119751,1.5633907318115234,-0.2217395305633545
-0.6779043674468994,1.5464648008346558,-0.2225460708141327
-0.6545293927192688,1.522304892539978,-0.22213789820671082
-0.6269696354866028,1.4872288703918457,-0.21998833119869232
-0.6132376790046692,1.4840444326400757,-0.22247816622257233
-0.5940040946006775,1.466314673423767,-0.22267869114875793
-0.5806112885475159,1.4628435373306274,-0.22490538656711578
-0.5560654997825623,1.4304431676864624,-0.22258922457695007
-0.5486462712287903,1.441083312034607,-0.2268933802843094
-0.5180412530899048,1.3901753425598145,-0.22146320343017578
-0.5107611417770386,1.4006190299987793,-0.22558371722698212
0.4962290823459625,1.3971995115280151,-0.22713513672351837
0.5138558149337769,1.4159597158432007,-0.2277541309595108
0.526508629322052,1.4200230836868286,-0.22594211995601654
0.5433688759803772,1.4348126649856567,-0.22579888999462128
0.5645089149475098,1.4603244066238403,-0.22716712951660156
0.5776699781417847,1.4639904499053955,-0.22501684725284576
0.5937448143959045,1.4747365713119507,-0.223939910531044
0.610039472579956,1.4853161573410034,-0.2227843999862671
0.6487877368927002,1.5493632555007935,-0.2294173240661621
0.6565007567405701,1.5382254123687744,-0.22477926313877106
0.6798519492149353,1.5624321699142456,-0.22518572211265564
0.7050146460533142,1.5899885892868042,-0.22600333392620087
0.7256335020065308,1.6067743301391602,-0.22512853145599365
0.7431938648223877,1.6163533926010132,-0.22316193580627441
0.7726383805274963,1.6502560377120972,-0.22439166903495789
0.79788738489151,1.6732087135314941,-0.22391432523727417
0.8297969102859497,1.7100799083709717,-0.22516478598117828
0.8604733943939209,1.7431585788726807,-0.2257324755191803
0.8866537809371948,1.7653958797454834,-0.2246880978345871
0.9220884442329407,1.8046106100082397,-0.22563041746616364
0.9487677216529846,1.8264105319976807,-0.22418344020843506
0.98869389295578,1.8718781471252441,-0.22538411617279053
1.0331698656082153,1.923646330833435,-0.22702910006046295
1.0727289915084839,1.9647265672683716,-0.22716140747070312
1.1143754720687866,2.008995294570923,-0.22739918529987335
1.1606782674789429,2.0594801902770996,-0.2280169576406479
1.2141706943511963,2.119224786758423,-0.22912544012069702
1.2620189189910889,2.168630599975586,-0.22888176143169403
1.294498085975647,2.190852642059326,-0.22553826868534088
1.325907826423645,2.209075450897217,-0.2214205265045166
1.3414250612258911,2.200373649597168,-0.2144940048456192
1.3564773797988892,2.191802501678467,-0.2074701488018036
1.371551752090454,2.183061122894287,-0.2004038542509079
1.374434232711792,2.154231309890747,-0.19137537479400635
1.7594243288040161,2.7179219722747803,-0.23334957659244537
1.844103217124939,2.807699203491211,-0.2325078845024109
1.8966974020004272,2.843824863433838,-0.22622375190258026
1.802167534828186,2.6639010906219482,-0.20331232249736786
1.8420387506484985,2.6846365928649902,-0.19603441655635834
1.860910415649414,2.6723222732543945,-0.1857813149690628
1.4375698566436768,2.036128520965576,-0.1343793421983719
1.4469460248947144,2.0204131603240967,-0.12578195333480835
1.4702367782592773,2.0233657360076904,-0.11807375401258469
1.4693803787231445,1.9954572916030884,-0.1086110845208168
2.668752908706665,3.775075674057007,0.4842848479747772
2.6271679401397705,3.7739675045013428,0.4957650899887085
2.603891134262085,3.7977118492126465,0.5099859237670898
2.497096538543701,3.7042224407196045,0.5080381035804749
2.3127856254577637,3.485074996948242,0.487102746963501
2.2835309505462646,3.4935266971588135,0.49700799584388733
1.5893985033035278,2.4724600315093994,0.3576379716396332
1.634548544883728,2.585116147994995,0.37992405891418457
1.5952600240707397,2.5629467964172363,0.38224107027053833
3.035323143005371,4.955549240112305,0.7494144439697266
2.9908652305603027,4.966945171356201,0.7610912919044495
2.983398199081421,5.037099361419678,0.781509280204773
2.9630982875823975,5.083037853240967,0.7979224920272827
2.9345510005950928,5.119941234588623,0.8129201531410217
2.899073839187622,5.147088527679443,0.825965404510498
2.8757543563842773,5.1936750411987305,0.8419742584228516
2.8702139854431152,5.269886493682861,0.8625975251197815
2.8430800437927246,5.30905818939209,0.877174437046051
2.812842845916748,5.349510192871094,0.8916940093040466
2.784677267074585,5.39285135269165,0.9066676497459412
2.7708263397216797,5.458952903747559,0.9251296520233154
2.761385440826416,5.535425662994385,0.9455308318138123
1.2379484176635742,2.5273516178131104,0.43488380312919617
1.2419891357421875,2.5846478939056396,0.4479472041130066
1.1966124773025513,2.537088394165039,0.44273439049720764
1.175400972366333,2.5377402305603027,0.445766806602478
1.1558564901351929,2.5417189598083496,0.449390172958374
1.151201605796814,2.5811617374420166,0.4590403139591217
2.5805156230926514,5.901927947998047,1.0556526184082031
2.548743486404419,5.947630882263184,1.0699281692504883
2.5201475620269775,5.995859146118164,1.0844687223434448
2.4924607276916504,6.047511100769043,1.0997488498687744
2.466993570327759,6.110447406768799,1.1166012287139893
2.438758373260498,6.1699676513671875,1.1327704191207886
2.4037349224090576,6.215179443359375,1.1464929580688477
1.5201199054718018,4.013271808624268,0.7436360716819763
1.4864906072616577,4.00848388671875,0.7460871338844299
1.4473190307617188,3.989147186279297,0.7456234097480774
1.4180830717086792,3.998767852783203,0.7502507567405701
1.383261799812317,3.9937872886657715,0.7522159814834595
1.3534972667694092,3.9990668296813965,0.7560217976570129
1.3289991617202759,4.018587589263916,0.7625190019607544
1.283026099205017,3.972115993499756,0.7565009593963623
1.2416605949401855,3.9401774406433105,0.7528070211410522
1.2181568145751953,3.966858148574829,0.7602519989013672
1.1871165037155151,3.9674952030181885,0.7627130746841431
1.900084376335144,6.515645980834961,1.2563387155532837
1.8438738584518433,6.490681171417236,1.2553150653839111
1.7850350141525269,6.454156875610352,1.2520673274993896
1.7345319986343384,6.450984477996826,1.2544723749160767
1.668702483177185,6.391943454742432,1.2460315227508545
0.8145807385444641,3.214423656463623,0.6281425952911377
1.5621417760849,6.349672794342041,1.2437973022460938
0.7980678081512451,3.3439407348632812,0.6566194891929626
1.4594707489013672,6.309128284454346,1.2419291734695435
1.4060447216033936,6.285041809082031,1.23953115940094
1.3513363599777222,6.249148368835449,1.234713077545166
1.2979966402053833,6.216559410095215,1.2305792570114136
1.2467645406723022,6.187146186828613,1.227063775062561
1.196942925453186,6.1610565185546875,1.2242298126220703
1.1446921825408936,6.123401641845703,1.2191684246063232
1.0925722122192383,6.08164644241333,1.2126426696777344
1.0453647375106812,6.066003322601318,1.2111270427703857
1.0009310245513916,6.065126895904541,1.212612509727478
0.9522581696510315,6.033575534820557,1.2079946994781494
0.9065958857536316,6.020637512207031,1.2071613073349
0.860271692276001,5.995886325836182,1.2039735317230225
0.8150748014450073,5.978480339050293,1.201982021331787
0.7708482146263123,5.968473434448242,1.2010130882263184
0.6071386933326721,4.97715950012207,1.0024529695510864
0.580319344997406,5.053267478942871,1.0187617540359497
0.5539216995239258,5.1444783210754395,1.038203239440918
0.22434063255786896,2.229085683822632,0.4503195881843567
0.38229653239250183,4.083419322967529,0.8258307576179504
0.3612585961818695,4.173564910888672,0.8444627523422241
0.33071741461753845,4.160556793212891,0.8422353863716125
0.29930272698402405,4.139724254608154,0.8384700417518616
0.2724020779132843,4.172104835510254,0.845514178276062
0.45020315051078796,7.720627784729004,1.5656248331069946
0.39767277240753174,7.746192932128906,1.571858286857605
0.34266507625579834,7.725595474243164,1.5683491230010986
0.2867797911167145,7.700948715209961,1.5634392499923706
0.23202866315841675,7.672048568725586,1.5577402114868164
0.17751750349998474,7.635106086730957,1.5504828691482544
0.12407059222459793,7.60925817489624,1.5455491542816162
0.0710270032286644,7.586866855621338,1.5413895845413208
0.01732638105750084,7.556450843811035,1.5356802940368652
-0.03498663380742073,7.5258402824401855,1.5290858745574951
-0.08700668066740036,7.506385326385498,1.5246648788452148
-0.13854551315307617,7.475088596343994,1.5179150104522705
-0.19012977182865143,7.458744525909424,1.514276146888733
-0.24112097918987274,7.430566310882568,1.5083096027374268
-0.2941778302192688,7.440257549285889,1.510101318359375
-0.2503654360771179,5.3845624923706055,1.0926125049591064
-0.2884560227394104,5.398218154907227,1.094602108001709
-0.3253631591796875,5.388674259185791,1.0919387340545654
-0.3616989850997925,5.371232986450195,1.0877293348312378
-0.39911237359046936,5.361133098602295,1.0850498676300049
-0.4360380470752716,5.354639053344727,1.0831657648086548
-0.4162266254425049,4.707059383392334,0.9517143964767456
-0.4403999149799347,4.616669178009033,0.9326038360595703
-0.4698179066181183,4.5909881591796875,0.9264140129089355
-0.5011389255523682,4.580291748046875,0.9232813119888306
-0.5301470756530762,4.554204940795898,0.9171097278594971
-0.5618400573730469,4.550721645355225,0.915532648563385
-0.5910308957099915,4.5280232429504395,0.9101377129554749
-0.6225367188453674,4.524131774902344,0.908484935760498
-0.6497498154640198,4.489777088165283,0.900197446346283
-0.679413914680481,4.478064060211182,0.8965284824371338
-0.7089475393295288,4.466152667999268,0.8928666710853577
-0.738648533821106,4.453999996185303,0.8891909718513489
-0.7683143019676208,4.44163179397583,0.8855154514312744
-0.7943960428237915,4.410210132598877,0.8780947923660278
-0.825869083404541,4.408838748931885,0.8762635588645935
-0.8420588970184326,4.332124710083008,0.8593544363975525
-0.7383065223693848,3.6651976108551025,0.7256839871406555
-0.7556955218315125,3.622936487197876,0.7159762978553772
-0.9330875277519226,4.3228912353515625,0.8527209162712097
-0.9687542915344238,4.339174270629883,0.8543552160263062
-0.995311439037323,4.317990779876709,0.8484790325164795
-1.0228840112686157,4.304297924041748,0.8437408804893494
-1.0485368967056274,4.282959938049316,0.8375506401062012
-1.0796654224395752,4.28377628326416,0.8357290625572205
-1.1062161922454834,4.2617998123168945,0.8294277191162109
-1.135924220085144,4.254626274108887,0.8260918855667114
-1.162472128868103,4.236166954040527,0.8205321431159973
-1.1870054006576538,4.214143753051758,0.8138400912284851
-1.2155574560165405,4.206734657287598,0.8100164532661438
-1.2424489259719849,4.19160795211792,0.8047014474868774
-1.2672580480575562,4.168868064880371,0.7979511022567749
-1.2963820695877075,4.160654067993164,0.794028639793396
-1.320693850517273,4.13762092590332,0.7872780561447144
-1.3486510515213013,4.129425048828125,0.7829008102416992
-1.3697025775909424,4.099016189575195,0.7743174433708191
-1.4000164270401,4.097716808319092,0.771312415599823
-1.4287053346633911,4.088653564453125,0.7667919397354126
-1.4482744932174683,4.054023742675781,0.7575317621231079
-1.4790055751800537,4.051964282989502,0.7542860507965088
-1.4901684522628784,3.999542474746704,0.7413179874420166
-1.5176101922988892,3.9901342391967773,0.7363317608833313
-1.558804988861084,4.01646614074707,0.7379604578018188
-1.587031364440918,4.006343364715576,0.7328062057495117
-1.6064910888671875,3.974604368209839,0.7237563729286194
-1.630753755569458,3.957355260848999,0.7170945405960083
-1.666789174079895,3.9684197902679443,0.7153184413909912
-1.687370777130127,3.943946599960327,0.7072340250015259
-1.7210792303085327,3.947211742401123,0.704009473323822
-1.7394397258758545,3.9148852825164795,0.6944531798362732
-1.7571297883987427,3.8826277256011963,0.6848800778388977
-1.783520221710205,3.871669054031372,0.6786715984344482
-1.8224948644638062,3.8886640071868896,0.6774357557296753
-1.8426283597946167,3.8631691932678223,0.6686863899230957
-1.8766264915466309,3.8650600910186768,0.6646047830581665
-1.890048623085022,3.8252060413360596,0.6533594727516174
-1.9090322256088257,3.7996585369110107,0.6441339254379272
-1.944878101348877,3.8086230754852295,0.6408637762069702
-1.9675400257110596,3.7894368171691895,0.6327070593833923
-1.9834356307983398,3.7561287879943848,0.6221401691436768
-2.0168652534484863,3.757035970687866,0.6171834468841553
-2.028770923614502,3.721034288406372,0.6058825254440308
-1.7108784914016724,3.089285135269165,0.4984632730484009
-1.7269108295440674,3.0680909156799316,0.49030664563179016
-0.8378288745880127,1.4645692110061646,0.23176421225070953
-0.8477357029914856,1.4593647718429565,0.22854644060134888
-0.8573811650276184,1.4542267322540283,0.22529232501983643
-0.8714688420295715,1.4553937911987305,0.22288645803928375
-0.8817965984344482,1.4496954679489136,0.21937407553195953
-0.8795379400253296,1.4243440628051758,0.2128695249557495
-0.8847595453262329,1.4124932289123535,0.20835910737514496
-0.9109305739402771,1.4331867694854736,0.208537295460701
-0.891818642616272,1.3815215826034546,0.1980445683002472
-0.9011978507041931,1.375962257385254,0.19425301253795624
-0.9101120829582214,1.370618224143982,0.1904362440109253
-0.9498720169067383,1.4099558591842651,0.19254834949970245
-2.4019877910614014,3.5125155448913574,0.47094616293907166
-1.2281383275985718,1.7713128328323364,0.23284251987934113
-1.2218670845031738,1.738524317741394,0.22392193973064423
-1.43087899684906,2.2886922359466553,-0.20613370835781097
-1.3799290657043457,2.24171781539917,-0.2083180546760559
-1.3593082427978516,2.2445003986358643,-0.21494436264038086
-1.2729387283325195,2.1367647647857666,-0.210587278008461
-0.8395964503288269,1.4559732675552368,-0.15124854445457458
-0.8729066252708435,1.5395164489746094,-0.16393256187438965
-1.106265664100647,1.983322024345398,-0.21612870693206787
-1.062231183052063,1.9359700679779053,-0.21572259068489075
-1.0128982067108154,1.878119707107544,-0.21381747722625732
-0.9844027757644653,1.8574895858764648,-0.21596619486808777
-0.9478816986083984,1.8190395832061768,-0.2156887948513031
-0.8975679278373718,1.7526458501815796,-0.2118038684129715
-0.8847041130065918,1.7586054801940918,-0.21647538244724274
-0.86175936460495,1.743453860282898,-0.21842731535434723
-0.8203702569007874,1.6896923780441284,-0.21539545059204102
-0.7980868816375732,1.6740331649780273,-0.216932475566864
-0.7727169394493103,1.651151180267334,-0.21742726862430573
-0.7205085754394531,1.5679700374603271,-0.2096634954214096
-0.7253326177597046,1.607858419418335,-0.21825341880321503
-0.7042520046234131,1.5912888050079346,-0.21912597119808197
-0.6847920417785645,1.5781371593475342,-0.22045277059078217
-0.6614739894866943,1.5539220571517944,-0.22002992033958435
-0.6564229130744934,1.572356104850769,-0.22562485933303833
-0.6274559497833252,1.5335577726364136,-0.22285790741443634
-0.6034238338470459,1.5052157640457153,-0.2214793562889099
-0.5897629261016846,1.5018229484558105,-0.2237033247947693
-0.565258264541626,1.469364881515503,-0.2214793860912323
-0.5492438077926636,1.458450198173523,-0.22230380773544312
-0.538760781288147,1.4618958234786987,-0.22530412673950195
-0.5205798745155334,1.443385362625122,-0.22485031187534332
-0.5089337229728699,1.4429748058319092,-0.22722747921943665
0.46464022994041443,1.416024088859558,-0.22909367084503174
0.47213080525398254,1.4058140516281128,-0.2253430187702179
0.49450841546058655,1.4394303560256958,-0.2285064160823822
0.4993775486946106,1.4218144416809082,-0.22344443202018738
0.5145230889320374,1.433273434638977,-0.22295047342777252
0.539278507232666,1.4699655771255493,-0.2262805700302124
0.5497675538063049,1.466531753540039,-0.22329965233802795
0.5654704570770264,1.477584958076477,-0.22246596217155457
0.5813941359519958,1.4884785413742065,-0.22155919671058655
0.6004917621612549,1.506368637084961,-0.22161081433296204
0.6241967082023621,1.5348490476608276,-0.22312095761299133
0.6468727588653564,1.5595155954360962,-0.22383415699005127
0.671263575553894,1.5875804424285889,-0.2249784618616104
0.6855320930480957,1.5904122591018677,-0.22243602573871613
0.7060641646385193,1.6073310375213623,-0.2218131422996521
0.7266378998756409,1.6241567134857178,-0.22101880609989166
0.7557419538497925,1.6583281755447388,-0.22241570055484772
0.7772414684295654,1.6745752096176147,-0.2212887406349182
0.8088909983634949,1.7116795778274536,-0.22279496490955353
0.8391444683074951,1.7450777292251587,-0.22359320521354675
0.8716567754745483,1.7816143035888672,-0.2246224284172058
0.8896608948707581,1.7862824201583862,-0.22138233482837677
0.9162061214447021,1.8082654476165771,-0.22026865184307098
0.9659405946731567,1.8750102519989014,-0.22435152530670166
0.9969362020492554,1.9032636880874634,-0.2235642969608307
1.0377901792526245,1.9481936693191528,-0.2244647741317749
1.080898642539978,1.9962273836135864,-0.22546826303005219
1.122841238975525,2.0403828620910645,-0.22568662464618683
1.1655327081680298,2.084021806716919,-0.22558815777301788
1.2071590423583984,2.123692274093628,-0.2247694879770279
1.2721461057662964,2.2036662101745605,-0.22787582874298096
1.291010856628418,2.202332019805908,-0.2223314642906189
1.3227778673171997,2.220388889312744,-0.2183358520269394
1.3381297588348389,2.21181058883667,-0.21175937354564667
1.3529810905456543,2.203378915786743,-0.20518770813941956
