X,Y,Z
2.0034396648406982,4.321882724761963,0.40977203845977783
1.9715237617492676,4.336097240447998,0.41438037157058716
1.9929144382476807,4.466868877410889,0.43012386560440063
1.9741380214691162,4.508767127990723,0.43737518787384033
1.949084758758545,4.540395259857178,0.44360074400901794
1.912787914276123,4.546947002410889,0.4471704959869385
1.9002140760421753,4.610753536224365,0.4564228951931
1.8677983283996582,4.623569965362549,0.46056246757507324
1.8412249088287354,4.650542259216309,0.4661257863044739
1.804596185684204,4.656131267547607,0.46943262219429016
1.7679164409637451,4.6614766120910645,0.4725344479084015
1.3525749444961548,3.6457178592681885,0.37157753109931946
1.3242967128753662,3.6475186347961426,0.37371328473091125
1.2987616062164307,3.6563944816589355,0.3765808343887329
1.2671914100646973,3.6507091522216797,0.3778654634952545
1.6338927745819092,4.819229602813721,0.5010669827461243
1.5940972566604614,4.8158040046691895,0.5029759407043457
1.5456898212432861,4.782211780548096,0.5016791224479675
1.5216771364212036,4.822176933288574,0.5080870389938354
1.4963340759277344,4.862292289733887,0.5145331621170044
1.4545879364013672,4.850289344787598,0.5151474475860596
1.4305721521377563,4.897607803344727,0.522092342376709
1.4051755666732788,4.941006660461426,0.5286582708358765
1.3727980852127075,4.957850933074951,0.5323801636695862
1.3048772811889648,4.843179702758789,0.5219600200653076
1.271812915802002,4.859713554382324,0.525420606136322
1.2446752786636353,4.8985371589660645,0.5311874151229858
1.2170467376708984,4.9372148513793945,0.5369849801063538
1.1805416345596313,4.937812805175781,0.5386459231376648
1.149595856666565,4.960789680480957,0.5427655577659607
1.1219254732131958,5.002679347991943,0.5489943027496338
1.094482421875,5.048271656036377,0.5552761554718018
1.0568443536758423,5.0481157302856445,0.556563675403595
1.020853042602539,5.055283069610596,0.5586830973625183
0.9900928139686584,5.0849080085754395,0.5632873177528381
2.1776089668273926,11.622057914733887,1.2906028032302856
2.0644304752349854,11.460749626159668,1.2755047082901
1.9638984203338623,11.363727569580078,1.2669059038162231
1.8491114377975464,11.170083999633789,1.2475329637527466
1.7512434720993042,11.063593864440918,1.2378878593444824
1.6433771848678589,10.879512786865234,1.2195581197738647
1.547281265258789,10.748096466064453,1.2070809602737427
1.457824468612671,10.654461860656738,1.1984866857528687
1.360683560371399,10.494794845581055,1.1819641590118408
1.2740013599395752,10.399797439575195,1.1727432012557983
1.1848292350769043,10.269390106201172,1.1595499515533447
1.1017218828201294,10.180754661560059,1.1511048078536987
1.0278465747833252,10.15699577331543,1.1500035524368286
0.40785837173461914,4.33212947845459,0.4910432994365692
0.3754124343395233,4.311609268188477,0.4890775978565216
0.3438939154148102,4.298587799072266,0.48798319697380066
0.3126855194568634,4.293110370635986,0.48777368664741516
0.2843872904777527,4.318342685699463,0.49106812477111816
0.32915765047073364,5.591000080108643,0.6363754272460938
0.2917850613594055,5.624089241027832,0.6405895352363586
0.2527814507484436,5.633703231811523,0.6418603658676147
0.21460489928722382,5.685733318328857,0.6480010151863098
0.17554013431072235,5.710325717926025,0.6510460376739502
0.13607871532440186,5.719122886657715,0.6523211002349854
0.09729188680648804,5.7780938148498535,0.6593543887138367
0.05701494216918945,5.763075828552246,0.6578549742698669
0.016124345362186432,5.74782133102417,0.6559902429580688
-0.03664690628647804,8.844866752624512,1.0093144178390503
-0.09738066792488098,8.77067756652832,1.000760793685913
-0.10948891192674637,6.061253547668457,0.6915802955627441
-0.1003456860780716,4.007904052734375,0.4573002755641937
-0.13244515657424927,4.139010429382324,0.47224342823028564
-0.15759742259979248,4.033308029174805,0.4598870575428009
-0.1840149313211441,3.997267484664917,0.45551103353500366
-0.1877160668373108,3.5424721240997314,0.40346795320510864
-0.21232885122299194,3.5411217212677,0.4031166434288025
-0.24030187726020813,3.5899453163146973,0.4084939658641815
-0.2848617732524872,3.847541332244873,0.4376230239868164
-0.3101121783256531,3.8300912380218506,0.4351670444011688
-0.3327966034412384,3.7854063510894775,0.42964354157447815
-0.3552457392215729,3.744455337524414,0.4245736598968506
-0.3776566684246063,3.7072246074676514,0.4199521541595459
-0.400494247674942,3.6736690998077393,0.41576677560806274
-0.42513757944107056,3.6631593704223633,0.41422024369239807
-0.44749197363853455,3.6371371746063232,0.4106575846672058
-0.4669460952281952,3.5917422771453857,0.4049152433872223
-0.48847007751464844,3.5654773712158203,0.40135884284973145
-0.5125007629394531,3.554367780685425,0.39951786398887634
-0.5319631695747375,3.516279697418213,0.3946794271469116
-0.5582467913627625,3.5241029262542725,0.3950161933898926
-0.5862051844596863,3.543309450149536,0.39638859033584595
-1.0875905752182007,6.305785179138184,0.7040063738822937
-1.141781210899353,6.3595757484436035,0.7086083292961121
-1.195811152458191,6.401255130767822,0.7118328213691711
-1.249146580696106,6.438788890838623,0.7146289944648743
-1.3038270473480225,6.479698657989502,0.7178142666816711
-1.3567383289337158,6.512775897979736,0.7196723818778992
-1.4141794443130493,6.564435958862305,0.7235475778579712
-1.4563050270080566,6.539623260498047,0.7189826965332031
-1.4902541637420654,6.480486869812012,0.7106992602348328
-1.5264694690704346,6.43245267868042,0.7036786675453186
-0.6877400875091553,2.811037063598633,0.3067462742328644
-0.6916648149490356,2.7461817264556885,0.2987164855003357
-0.7184805870056152,2.77156662940979,0.3005092442035675
-0.7373185157775879,2.766772508621216,0.29905131459236145
-0.7565605640411377,2.7617340087890625,0.2975594401359558
-0.7820835709571838,2.7790026664733887,0.29847779870033264
-1.76313054561615,6.103659629821777,0.6533604264259338
-1.7918403148651123,6.047078609466553,0.644801676273346
-1.8225524425506592,6.001743316650391,0.6375460624694824
-1.85659658908844,5.967276573181152,0.6314730644226074
-1.8862733840942383,5.917579650878906,0.6237986087799072
-1.91896653175354,5.878839015960693,0.6173349022865295
-1.9472336769104004,5.828997611999512,0.6093754768371582
-1.9789690971374512,5.794086456298828,0.6029707193374634
-2.008986711502075,5.755355358123779,0.5962222814559937
-2.0383806228637695,5.712429523468018,0.5890149474143982
-2.0648746490478516,5.66196870803833,0.5810725092887878
-2.099705696105957,5.637136459350586,0.5756751894950867
-2.132652759552002,5.608582496643066,0.5696154236793518
-1.5359013080596924,3.959369659423828,0.3999476432800293
-1.5630329847335815,3.9490649700164795,0.39669930934906006
-1.5935362577438354,3.9455783367156982,0.3941076993942261
-1.620948314666748,3.934730291366577,0.3907586634159088
-1.604042649269104,3.819934844970703,0.37688812613487244
-1.6005374193191528,3.74147629737854,0.3667708933353424
-1.6027100086212158,3.6773056983947754,0.358106404542923
-1.6156944036483765,3.637922763824463,0.35187259316444397
-1.6344677209854126,3.6127853393554688,0.3470304608345032
-1.6556223630905151,3.5949268341064453,0.34265831112861633
-1.6827763319015503,3.5912392139434814,0.33970049023628235
-1.7039246559143066,3.5729832649230957,0.3353065550327301
-1.7322808504104614,3.5683352947235107,0.3321418762207031
-1.7498459815979004,3.542755365371704,0.32697224617004395
-1.773655891418457,3.531266450881958,0.3229359984397888
-1.7704508304595947,3.4677860736846924,0.31425052881240845
-1.790889024734497,3.4488728046417236,0.3095296323299408
-1.8076435327529907,3.4228827953338623,0.304190069437027
-1.823012351989746,3.397425889968872,0.2987693250179291
-1.1630902290344238,2.134047508239746,0.1856565922498703
-1.1815214157104492,2.1330502033233643,0.18345725536346436
-2.5419106483459473,4.514721393585205,0.3837354779243469
-2.5645864009857178,4.484452247619629,0.37649455666542053
-2.5859930515289307,4.454643726348877,0.369223952293396
-2.603821039199829,4.417646884918213,0.3613007962703705
-1.2575628757476807,2.099456787109375,0.16922929883003235
-2.642630100250244,4.345516681671143,0.3450959622859955
-2.6667187213897705,4.322141647338867,0.33795133233070374
-2.9584977626800537,4.724187850952148,0.36336904764175415
-2.983220338821411,4.690744876861572,0.35452866554260254
-3.0145084857940674,4.671301364898682,0.346500426530838
-3.023165464401245,4.619757175445557,0.3362186849117279
-3.0314159393310547,4.563549995422363,0.3252067565917969
-3.068880796432495,4.553157329559326,0.3173833191394806
-3.0780019760131836,4.505136966705322,0.30686119198799133
-3.1132709980010986,4.4909491539001465,0.29813432693481445
-2.9150943756103516,4.144662857055664,0.26775091886520386
-2.864070177078247,4.018825054168701,0.25227901339530945
-2.8635940551757812,3.962099075317383,0.2409045398235321
-2.904048204421997,3.9621710777282715,0.23264236748218536
-2.8936610221862793,3.897639513015747,0.22057980298995972
-2.461482524871826,3.470813035964966,-0.15339049696922302
-2.422510862350464,3.469193696975708,-0.16144973039627075
-2.765251636505127,4.024275779724121,-0.1964876353740692
-2.7540295124053955,4.069244384765625,-0.20733687281608582
-2.747058391571045,4.125133514404297,-0.2187352329492569
-2.1798901557922363,3.325469970703125,-0.18291570246219635
-2.128830671310425,3.297776699066162,-0.1875983476638794
-1.3050633668899536,2.055149555206299,-0.12072911113500595
-1.2650856971740723,2.0247504711151123,-0.12260446697473526
-1.2629873752593994,2.053342580795288,-0.1278497278690338
-2.0490684509277344,3.3873844146728516,-0.21663670241832733
-2.0064644813537598,3.371594190597534,-0.221127450466156
-1.9906785488128662,3.398618221282959,-0.22821541130542755
-1.9710379838943481,3.423124313354492,-0.23521152138710022
-1.1986244916915894,2.1172146797180176,-0.1486862599849701
-1.1685731410980225,2.0980629920959473,-0.15035884082317352
-1.9343297481536865,3.5318868160247803,-0.2581251859664917
-1.8325841426849365,3.404841899871826,-0.25359827280044556
-1.7914234399795532,3.3866217136383057,-0.2568933963775635
-1.760483741760254,3.3848352432250977,-0.2612219452857971
-1.7393791675567627,3.4040701389312744,-0.26707565784454346
-1.73373544216156,3.4545507431030273,-0.27543750405311584
-1.8059344291687012,3.6618998050689697,-0.29644614458084106
-1.7694711685180664,3.653254747390747,-0.30024054646492004
-1.7395585775375366,3.6585299968719482,-0.3049621284008026
-1.719619631767273,3.6847007274627686,-0.3114374279975891
-1.70029878616333,3.710362672805786,-0.31777265667915344
-2.281109571456909,5.071335315704346,-0.439968079328537
-2.2475547790527344,5.094213962554932,-0.4474186599254608
-2.1978111267089844,5.081343650817871,-0.45180627703666687
-2.1409003734588623,5.045843601226807,-0.45387721061706543
-2.2010409832000732,5.290206432342529,-0.481282502412796
-2.179028034210205,5.344973087310791,-0.4915144741535187
-2.152005910873413,5.388836860656738,-0.5008365511894226
-2.1107308864593506,5.396165370941162,-0.5067499876022339
-1.3364710807800293,3.488102674484253,-0.33088502287864685
-2.0545308589935303,5.4789862632751465,-0.5246303081512451
-2.0393176078796387,5.558715343475342,-0.5372203588485718
-1.9842851161956787,5.528426170349121,-0.5391456484794617
-1.8958740234375,5.4023613929748535,-0.5316480398178101
-1.5961798429489136,4.6536478996276855,-0.46180516481399536
-1.5714679956436157,4.690286636352539,-0.46922770142555237
-1.8537944555282593,5.665381908416748,-0.5713156461715698
-0.9704168438911438,3.036944627761841,-0.30865463614463806
-0.9637516140937805,3.091736078262329,-0.3166345953941345
-0.9417537450790405,3.098210573196411,-0.3195258677005768
-0.8093022108078003,2.7318341732025146,-0.28371137380599976
-0.7804706692695618,2.7035601139068604,-0.28270113468170166
-0.7552720904350281,2.686234712600708,-0.28280529379844666
-0.7403380274772644,2.7062668800354004,-0.28667470812797546
-0.720784604549408,2.7112960815429688,-0.288973331451416
-0.7123684287071228,2.7574446201324463,-0.2956521213054657
-0.6770413517951965,2.698044538497925,-0.29099807143211365
-1.5065505504608154,6.186277866363525,-0.6710228323936462
-1.4851737022399902,6.290778160095215,-0.685834527015686
-1.4407925605773926,6.304565906524658,-0.690910279750824
-1.395848274230957,6.3101935386657715,-0.6950287818908691
-1.3436864614486694,6.281298637390137,-0.6953473091125488
-1.2916350364685059,6.252100467681885,-0.6952633857727051
-1.239182472229004,6.218724727630615,-0.694504976272583
-1.187333106994629,6.188858985900879,-0.6941803097724915
-1.1364878416061401,6.154543876647949,-0.6932690739631653
-1.0671814680099487,6.012796401977539,-0.6801979541778564
-0.963108241558075,5.65621280670166,-0.6420727372169495
-0.9539933204650879,5.850229740142822,-0.6663901209831238
-0.9344274997711182,5.998427867889404,-0.6856853365898132
-0.8937438726425171,6.012120246887207,-0.689647912979126
-0.8620997667312622,6.090885639190674,-0.7010067701339722
-0.814230740070343,6.058023929595947,-0.6990790963172913
-0.6212911605834961,4.881435871124268,-0.564825177192688
-0.716863214969635,5.9642229080200195,-0.6919932961463928
-0.6723821759223938,5.949586868286133,-0.6922314167022705
-0.626751720905304,5.9152984619140625,-0.689883291721344
-0.5811338424682617,5.876857280731201,-0.6867128610610962
-0.537100076675415,5.849667072296143,-0.6848757863044739
-0.4924583435058594,5.806663990020752,-0.6811931729316711
-0.45046696066856384,5.798190116882324,-0.681604266166687
-0.24512004852294922,3.467458963394165,-0.4082213044166565
-0.22189825773239136,3.484492778778076,-0.41071948409080505
-0.19628450274467468,3.4626362323760986,-0.40865182876586914
-0.2816069424152374,5.664576530456543,-0.6693811416625977
-0.24033525586128235,5.639167308807373,-0.6672844886779785
-0.19995936751365662,5.609621047973633,-0.6641970872879028
-0.16021718084812164,5.587557315826416,-0.6619055867195129
-0.12045533955097198,5.549700736999512,-0.6577715873718262
-0.08149349689483643,5.52319860458374,-0.6550099849700928
-0.042059946805238724,5.477035045623779,-0.6499506831169128
-0.0032263589091598988,4.437626838684082,-0.5264846682548523
0.027831923216581345,4.4647088050842285,-0.5295863747596741
0.07135108858346939,5.410832405090332,-0.6417080760002136
0.10845271497964859,5.386953830718994,-0.6388037204742432
0.14385540783405304,5.312419414520264,-0.6298635005950928
0.1810934692621231,5.303605079650879,-0.6282058954238892
0.21451765298843384,5.220912456512451,-0.6178485751152039
0.20108750462532043,4.184803485870361,-0.4948059916496277
0.23557022213935852,4.280206203460693,-0.5056714415550232
0.2576463520526886,4.15464448928833,-0.49033868312835693
0.283788800239563,4.106400012969971,-0.48382025957107544
0.3146710991859436,4.135396480560303,-0.4864431619644165
0.3465772569179535,4.171897888183594,-0.48996010422706604
0.3713832199573517,4.123138904571533,-0.4834877550601959
0.3958514332771301,4.078124523162842,-0.47731196880340576
0.42373591661453247,4.067689418792725,-0.4749537706375122
0.45312613248825073,4.076400279998779,-0.4748733341693878
0.4782732427120209,4.046342849731445,-0.4702969193458557
0.5073648691177368,4.05078649520874,-0.46975845098495483
0.6428458094596863,4.859146595001221,-0.5619532465934753
0.6796997785568237,4.873983383178711,-0.5619101524353027
0.709472119808197,4.842538356781006,-0.5565901398658752
0.7419889569282532,4.8300652503967285,-0.5534794330596924
0.774366557598114,4.8173723220825195,-0.550375759601593
0.8051058053970337,4.796884536743164,-0.5460229516029358
0.8422406315803528,4.814457416534424,-0.5459364056587219
0.8775123953819275,4.8163580894470215,-0.5440461039543152
0.9095637798309326,4.802812576293945,-0.5404621958732605
0.9414495825767517,4.789059162139893,-0.5368612408638
0.9682252407073975,4.752371788024902,-0.5303074717521667
0.9993483424186707,4.738336563110352,-0.5263261198997498
1.0302695035934448,4.7201409339904785,-0.5218607187271118
1.0597047805786133,4.6980438232421875,-0.5170343518257141
1.0887856483459473,4.675800323486328,-0.5120823383331299
1.117352843284607,4.65346622467041,-0.5068817734718323
1.1474915742874146,4.63850736618042,-0.5025251507759094
1.1802947521209717,4.630662441253662,-0.49889132380485535
1.2046705484390259,4.59263801574707,-0.49208977818489075
1.2332887649536133,4.573369979858398,-0.48708441853523254
1.2626312971115112,4.557707786560059,-0.4823731482028961
1.2918882369995117,4.541835308074951,-0.4776653051376343
1.3175662755966187,4.510585784912109,-0.4712929427623749
1.3444783687591553,4.48682165145874,-0.465777188539505
1.372957706451416,4.4704976081848145,-0.4607529044151306
1.4012399911880493,4.453999996185303,-0.45574718713760376
1.4321277141571045,4.444602966308594,-0.45145362615585327
1.461280107498169,4.427360534667969,-0.446308434009552
1.4806538820266724,4.384443283081055,-0.4385097920894623
1.5055580139160156,4.359954833984375,-0.4324800968170166
1.5251498222351074,4.320608139038086,-0.4250170886516571
1.2872766256332397,3.5675246715545654,-0.3479538559913635
1.312079668045044,3.5588507652282715,-0.34411415457725525
1.6095809936523438,4.274628162384033,-0.4094202518463135
1.6373333930969238,4.260369777679443,-0.4042268395423889
1.6711920499801636,4.260212421417236,-0.4003121554851532
1.6980218887329102,4.241672039031982,-0.39466938376426697
1.7226461172103882,4.219596862792969,-0.38855016231536865
1.7548348903656006,4.215227127075195,-0.3839559257030487
1.7777949571609497,4.189159393310547,-0.3774283826351166
1.794659972190857,4.148521900177002,-0.36959636211395264
1.8294655084609985,4.150791645050049,-0.36550241708755493
1.8544033765792847,4.131653785705566,-0.35943105816841125
1.8798943758010864,4.112038612365723,-0.35323548316955566
1.9053157567977905,4.092209815979004,-0.34703585505485535
1.9335229396820068,4.079434871673584,-0.34138333797454834
1.9475065469741821,4.0386834144592285,-0.3333387076854706
1.9749993085861206,4.025781154632568,-0.32759785652160645
2.010552406311035,4.02605676651001,-0.3227252960205078
2.031158685684204,3.9987001419067383,-0.3156750500202179
2.0580081939697266,3.9854178428649902,-0.30968666076660156
2.072427988052368,3.947619676589966,-0.30177468061447144
2.1037209033966064,3.940342903137207,-0.2960869073867798
2.130584955215454,3.9263484477996826,-0.28984132409095764
2.1460037231445312,3.8917198181152344,-0.2819713354110718
2.1364645957946777,3.812729835510254,-0.27097824215888977
2.1630725860595703,3.798149347305298,-0.2645683288574219
2.1845154762268066,3.7772951126098633,-0.2576688826084137
2.209568977355957,3.763129472732544,-0.2512371838092804
2.2362358570098877,3.7477989196777344,-0.24436329305171967
2.249721050262451,3.7128193378448486,-0.23631222546100616
2.2864491939544678,3.718244791030884,-0.23079615831375122
2.3117470741271973,3.7029995918273926,-0.22378411889076233
2.3208274841308594,3.660841703414917,-0.2150425761938095
2.349409818649292,3.6522676944732666,-0.20815575122833252
2.3780906200408936,3.643392324447632,-0.20120736956596375
2.386331796646118,3.6010231971740723,-0.19215336441993713
2.4185736179351807,3.598670244216919,-0.1852523684501648
2.44684100151062,3.589354991912842,-0.17780737578868866
2.459021806716919,3.552980422973633,-0.16855581104755402
2.4952759742736816,3.556640148162842,-0.16131334006786346
2.5145320892333984,3.533851385116577,-0.15253248810768127
2.5339319705963135,3.5107133388519287,-0.14344091713428497
2.5514914989471436,3.4886507987976074,-0.1344345062971115
2.1963701248168945,2.9601149559020996,-0.1064649447798729
2.7807674407958984,3.8994100093841553,0.26822429895401
2.763575553894043,3.9395134449005127,0.2798137366771698
2.7224903106689453,3.9389491081237793,0.28763729333877563
2.688000202178955,3.9524636268615723,0.2963203191757202
2.675260543823242,3.998000383377075,0.30722561478614807
2.629913806915283,3.990037202835083,0.31348976492881775
2.628800392150879,4.055288791656494,0.3255122900009155
2.5810940265655518,4.048232555389404,0.33154669404029846
2.548449754714966,4.059044361114502,0.3385012149810791
2.539121389389038,4.110127925872803,0.348750501871109
2.4915566444396973,4.102078437805176,0.35390961170196533
2.47341251373291,4.139674186706543,0.3627946972846985
2.462059497833252,4.18654727935791,0.3723406195640564
2.40910005569458,4.167231559753418,0.3757752776145935
2.392989158630371,4.211760997772217,0.38496190309524536
2.3594489097595215,4.221144676208496,0.39064306020736694
2.274747371673584,4.1384172439575195,0.38773518800735474
2.2363107204437256,4.141066074371338,0.39238548278808594
2.2161672115325928,4.177771091461182,0.40029650926589966
2.1902740001678467,4.199645042419434,0.4065730571746826
2.1572048664093018,4.207439422607422,0.41148868203163147
2.134218692779541,4.240398406982422,0.4187041223049164
2.102630138397217,4.255614757537842,0.42411571741104126
2.0720927715301514,4.270046234130859,0.4293287694454193
2.0521485805511475,4.305022239685059,0.43656718730926514
2.014476776123047,4.3050971031188965,0.44014474749565125
1.9923717975616455,4.340560436248779,0.44721394777297974
1.969444751739502,4.376097202301025,0.45439252257347107
1.9953101873397827,4.517346382141113,0.4724629521369934
4.446852684020996,10.260045051574707,1.0808120965957642
1.92610764503479,4.533628940582275,0.48071134090423584
1.903306484222412,4.5722575187683105,0.487915575504303
1.8725402355194092,4.592851638793945,0.493258535861969
1.8490513563156128,4.627013206481934,0.4999445080757141
1.8223809003829956,4.65380859375,0.5058786869049072
1.78299081325531,4.651952743530273,0.5083938837051392
1.780462384223938,4.748044967651367,0.5216547250747681
1.3242770433425903,3.6114139556884766,0.398898184299469
1.3095197677612305,3.649495840072632,0.4051591157913208
1.2840014696121216,3.6582140922546387,0.40819641947746277
1.615576148033142,4.710554599761963,0.5279917120933533
1.604875087738037,4.791703701019287,0.5394359827041626
1.5719236135482788,4.8103718757629395,0.5439563393592834
1.5560626983642578,4.876314163208008,0.5537490844726562
1.5173695087432861,4.871824264526367,0.5555931329727173
1.4873504638671875,4.8969244956970215,0.5606523156166077
1.4543079137802124,4.914575099945068,0.5646737217903137
1.421039342880249,4.932013988494873,0.5687088966369629
1.3854985237121582,4.94174861907959,0.571888267993927
1.3417631387710571,4.917239189147949,0.5710576772689819
1.2875319719314575,4.851083278656006,0.5653707981109619
1.2586463689804077,4.882401943206787,0.5706610083580017
1.229270577430725,4.913580417633057,0.5759549140930176
1.1989139318466187,4.9447221755981445,0.5813182592391968
1.1670582294464111,4.963992118835449,0.585253119468689
1.1341297626495361,4.979271411895752,0.5887523293495178
1.1109225749969482,5.0398478507995605,0.5975417494773865
1.07339608669281,5.0397772789001465,0.5988501906394958
1.0399361848831177,5.0623650550842285,0.6029092073440552
1.0024679899215698,5.0617451667785645,0.6042076349258423
0.9737905859947205,5.102632999420166,0.6104697585105896
2.088777542114258,11.374173164367676,1.3639273643493652
2.001521587371826,11.345992088317871,1.3633172512054443
1.906074047088623,11.279336929321289,1.3575857877731323
1.8000984191894531,11.13127326965332,1.3420361280441284
1.6937021017074585,10.963077545166016,1.3240454196929932
1.597008228302002,10.836020469665527,1.310990810394287
1.5020533800125122,10.70818042755127,1.2978490591049194
1.4057191610336304,10.5683012008667,1.2828229665756226
1.30597984790802,10.37755012512207,1.2611093521118164
1.224890112876892,10.320735931396484,1.2557001113891602
1.1342461109161377,10.166914939880371,1.238510012626648
1.0636107921600342,10.174247741699219,1.2409685850143433
0.9834112524986267,10.084613800048828,1.23164701461792
0.3918604552745819,4.336889266967773,0.5302225947380066
0.3556191623210907,4.2698974609375,0.5223740339279175
0.3256424069404602,4.272208213806152,0.5230241417884827
0.2983725070953369,4.312987804412842,0.528412401676178
0.2734277844429016,4.396145343780518,0.5390267968177795
0.31038254499435425,5.632856369018555,0.6912533044815063
0.27070873975753784,5.6270551681518555,0.6909880638122559
0.23249517381191254,5.655882835388184,0.6946749687194824
0.19428835809230804,5.69607400894165,0.6997933983802795
0.155320942401886,5.7282538414001465,0.7039641737937927
0.11533941328525543,5.756298065185547,0.70766681432724
0.07540038973093033,5.764669895172119,0.7089827656745911
0.03553706407546997,5.80379056930542,0.7140274047851562
-0.004867060109972954,5.823300838470459,0.7162666320800781
-0.06871945410966873,8.816130638122559,1.0841938257217407
-0.12909390032291412,8.679769515991211,1.0672857761383057
-0.18864525854587555,8.639925003051758,1.062302827835083
-0.2478904277086258,8.61130428314209,1.0587517023086548
-0.22012095153331757,6.156764984130859,0.7569820284843445
-0.25447937846183777,5.96150016784668,0.732475757598877
-0.17702871561050415,3.566512107849121,0.43793055415153503
-0.20261888206005096,3.5729682445526123,0.43846091628074646
-0.2256690114736557,3.5444416999816895,0.43472519516944885
-0.2595735788345337,3.6743416786193848,0.45043498277664185
-0.3006534278392792,3.8735265731811523,0.4746413826942444
-0.32412174344062805,3.832811117172241,0.4691801071166992
-0.3463907837867737,3.7803430557250977,0.4622439742088318
-0.36864444613456726,3.7393691539764404,0.4567558765411377
-0.3929108679294586,3.7213943004608154,0.4541034698486328
-0.41572311520576477,3.6916935443878174,0.45004570484161377
-0.43587687611579895,3.6425976753234863,0.4436531066894531
-0.45802024006843567,3.6126372814178467,0.4393908977508545
-0.4776749014854431,3.5710952281951904,0.4336639940738678
-0.5022241473197937,3.5678532123565674,0.432614803314209
-0.5245953798294067,3.5490784645080566,0.4297025799751282
-0.5457294583320618,3.522470235824585,0.4258646070957184
-0.581826388835907,3.587566375732422,0.4331166744232178
-0.5903637409210205,3.4880073070526123,0.42033523321151733
-1.1214176416397095,6.360666275024414,0.7649480104446411
-1.1719812154769897,6.391281604766846,0.7670871615409851
-1.22321617603302,6.42146635055542,0.7691857218742371
-1.279152512550354,6.470190048217773,0.7735033631324768
-1.3350777626037598,6.510685443878174,0.7768236994743347
-1.3942023515701294,6.570038318634033,0.7820733189582825
-1.440622091293335,6.568332672119141,0.7798536419868469
-1.4750832319259644,6.513312816619873,0.7713519334793091
-1.5083720684051514,6.454257965087891,0.7624193429946899
-1.548652172088623,6.421139240264893,0.7565497756004333
-0.6937084794044495,2.7909653186798096,0.3280135989189148
-0.7089192271232605,2.7712974548339844,0.32472363114356995
-0.7238001823425293,2.7515814304351807,0.3213917016983032
-0.7384456992149353,2.7317888736724854,0.31807681918144226
-0.7700746059417725,2.7716100215911865,0.3216749131679535
-1.7438701391220093,6.111385822296143,0.7070441246032715
-1.7776389122009277,6.069705009460449,0.7000185251235962
-1.8096989393234253,6.028263092041016,0.6925724744796753
-1.8424104452133179,5.9903740882873535,0.6855865716934204
-1.8719359636306763,5.940975189208984,0.6772946119308472
-1.9037078619003296,5.898697376251221,0.6698472499847412
-1.9338752031326294,5.852536201477051,0.6620120406150818
-1.9666341543197632,5.817490577697754,0.6553076505661011
-1.9956467151641846,5.775234222412109,0.6475592851638794
-2.0280587673187256,5.743832588195801,0.641082227230072
-2.0521814823150635,5.686227321624756,0.6316453814506531
-2.0837180614471436,5.650408744812012,0.6246902346611023
-2.1162238121032715,5.618057727813721,0.6181698441505432
-1.5307281017303467,3.9828317165374756,0.43586835265159607
-1.551730751991272,3.958381175994873,0.43083325028419495
-1.5788803100585938,3.948014497756958,0.42730286717414856
-1.6035164594650269,3.9300661087036133,0.4229331612586975
-1.6249905824661255,3.9047842025756836,0.41780826449394226
-1.587595820426941,3.7437894344329834,0.3980756998062134
-1.5894873142242432,3.679931640625,0.3887544572353363
-1.6051537990570068,3.648038625717163,0.38283100724220276
-1.6242595911026,3.622925281524658,0.377598375082016
-1.652785301208496,3.618942975997925,0.3745916485786438
-1.6705398559570312,3.594034433364868,0.36925098299980164
-1.6944057941436768,3.583247184753418,0.3653199076652527
-1.7154384851455688,3.5650036334991455,0.36057817935943604
-1.750625491142273,3.5742855072021484,0.3585502505302429
-1.7721385955810547,3.555391311645508,0.35370174050331116
-1.7921565771102905,3.5370492935180664,0.34869635105133057
-1.7745623588562012,3.4459524154663086,0.3366064727306366
-1.8052009344100952,3.4480063915252686,0.333603173494339
-1.8333779573440552,3.442369222640991,0.32970350980758667
-1.8493494987487793,3.4165542125701904,0.3238533139228821
-1.1740566492080688,2.135660171508789,0.20024970173835754
-2.4845383167266846,4.44999361038208,0.4126386046409607
-2.5522353649139404,4.497382164001465,0.4120728671550751
-2.5605275630950928,4.439409255981445,0.4017072021961212
-2.5934343338012695,4.429893970489502,0.39565783739089966
-1.2455272674560547,2.0962061882019043,0.18475571274757385
-1.248085379600525,2.0677268505096436,0.17963150143623352
-2.6650948524475098,4.347920894622803,0.3721518814563751
-2.7245194911956787,4.380537509918213,0.3690173625946045
-2.973630428314209,4.712500095367432,0.3905915319919586
-3.002391815185547,4.685674667358398,0.38154131174087524
-3.0253195762634277,4.653011322021484,0.3719349801540375
-3.0251142978668213,4.58859920501709,0.3597750663757324
-3.056746006011963,4.568299770355225,0.35062843561172485
-3.055586099624634,4.499259948730469,0.3376944959163666
-3.0841429233551025,4.480419635772705,0.32845500111579895
-3.1426751613616943,4.502223968505859,0.32183292508125305
-2.8337888717651367,4.000240325927734,0.2781243622303009
-2.8820202350616455,4.014392375946045,0.2708894908428192
-2.9039013385772705,3.989598274230957,0.26068660616874695
-2.8987233638763428,3.9263415336608887,0.24751915037631989
-3.0000815391540527,4.1988911628723145,-0.19068948924541473
-2.4392197132110596,3.4667983055114746,-0.1663489043712616
-2.409336805343628,3.4776811599731445,-0.17539061605930328
-2.7586536407470703,4.0468597412109375,-0.2138437181711197
-2.7345986366271973,4.072023868560791,-0.2241104692220688
-2.1835520267486572,3.3039913177490234,-0.18901534378528595
-1.305851936340332,2.0082454681396484,-0.11917829513549805
-2.6401987075805664,4.122910022735596,-0.2528602182865143
-2.1351380348205566,3.389549493789673,-0.21454179286956787
-2.0979442596435547,3.3847196102142334,-0.2206558734178543
-1.2676399946212769,2.0772881507873535,-0.13917438685894012
-2.026401996612549,3.3771560192108154,-0.2323841005563736
-1.9975934028625488,3.38474440574646,-0.23881185054779053
-1.9796711206436157,3.4083211421966553,-0.24612414836883545
-1.2027076482772827,2.105398416519165,-0.15547694265842438
-1.1985645294189453,2.134320020675659,-0.16107001900672913
-2.038517951965332,3.691531181335449,-0.2843796908855438
-1.8318946361541748,3.37319016456604,-0.26496750116348267
-1.808890700340271,3.3895208835601807,-0.27128729224205017
-1.7752608060836792,3.3847930431365967,-0.27584022283554077
-1.7514667510986328,3.396695137023926,-0.281586617231369
-1.742380976676941,3.4402220249176025,-0.290033221244812
-1.7935189008712769,3.60581374168396,-0.3089056611061096
-1.781515121459961,3.6459643840789795,-0.31716087460517883
-1.7492055892944336,3.643800735473633,-0.32169607281684875
-1.7361881732940674,3.68398118019104,-0.32987597584724426
-1.7159990072250366,3.7100815773010254,-0.33683207631111145
-2.2844982147216797,5.033323764801025,-0.46318086981773376
-2.2649612426757812,5.084094047546387,-0.47395560145378113
-2.2219982147216797,5.0853471755981445,-0.4799457788467407
-2.1498632431030273,5.018347263336182,-0.4793888330459595
-2.2093920707702637,5.258689880371094,-0.5082181692123413
-2.1867129802703857,5.309542655944824,-0.5191124081611633
-1.8604276180267334,4.610116004943848,-0.4555997848510742
-1.8329709768295288,4.637231349945068,-0.46313154697418213
-1.3480112552642822,3.481659412384033,-0.3513026237487793
-1.3263672590255737,3.4978299140930176,-0.35649651288986206
-1.7595328092575073,4.742664337158203,-0.4880819320678711
-2.0226027965545654,5.5731682777404785,-0.5788751244544983
-1.9257560968399048,5.425504684448242,-0.5686792135238647
-1.6162558794021606,4.656042575836182,-0.49237683415412903
-1.5796328783035278,4.6557135581970215,-0.496576726436615
-1.868402123451233,5.640371322631836,-0.6065505743026733
-1.8700132369995117,5.782268524169922,-0.6268019080162048
-0.9744253754615784,3.086214303970337,-0.3371679484844208
-0.955085277557373,3.100019931793213,-0.3413166403770447
-0.8168140053749084,2.7194857597351074,-0.3015195429325104
-0.7745460271835327,2.6466431617736816,-0.2954894006252289
-0.7353825569152832,2.580853223800659,-0.2901573181152344
-0.7454128265380859,2.686661958694458,-0.3041026294231415
-0.732583224773407,2.714043140411377,-0.3091631233692169
-0.7153249382972717,2.726396083831787,-0.3124350905418396
-0.7008257508277893,2.7499170303344727,-0.31701844930648804
-0.6766422986984253,2.735696315765381,-0.31727302074432373
-0.6575294137001038,2.7400758266448975,-0.31965741515159607
-1.470642328262329,6.324206829071045,-0.7415434122085571
-1.3952513933181763,6.197566509246826,-0.7303906679153442
-1.338533878326416,6.145974159240723,-0.727975606918335
-1.2556564807891846,5.96872091293335,-0.7106142640113831
-1.2122607231140137,5.9692511558532715,-0.714046061038971
-1.159710168838501,5.923874378204346,-0.7116060853004456
-1.0985196828842163,5.828507900238037,-0.7031170129776001
-1.039154291152954,5.73252010345459,-0.6944518089294434
-0.9885132908821106,5.681964874267578,-0.6912906169891357
-0.9416635632514954,5.646270275115967,-0.689444899559021
-0.9545519948005676,5.981701374053955,-0.7328993678092957
-0.9149681925773621,6.003172874450684,-0.7380602955818176
-0.8781163096427917,6.043537139892578,-0.7455891370773315
-0.8373879194259644,6.064559459686279,-0.7508230805397034
-0.6347641944885254,4.847508430480957,-0.6017114520072937
-0.7370606064796448,5.951932430267334,-0.7407540678977966
-0.6959064602851868,5.960467338562012,-0.7438002228736877
-0.649793803691864,5.922457218170166,-0.7410517334938049
-0.6045897006988525,5.88798189163208,-0.7385789752006531
-0.558656632900238,5.849450588226318,-0.7351417541503906
-0.5170538425445557,5.845260143280029,-0.7360217571258545
-0.471012145280838,5.782814979553223,-0.7295776009559631
-0.25638213753700256,3.4436066150665283,-0.43532097339630127
-0.23370957374572754,3.4645297527313232,-0.4386484920978546
-0.20748430490493774,3.4389352798461914,-0.43590766191482544
-0.18058881163597107,3.386037826538086,-0.42970702052116394
-0.16296067833900452,3.5148704051971436,-0.4465997517108917
-0.14168855547904968,3.5971457958221436,-0.45763203501701355
-0.1171465665102005,3.6134860515594482,-0.46000340580940247
-0.09188666194677353,3.6296849250793457,-0.46226248145103455
-0.06696202605962753,3.6495726108551025,-0.46501225233078003
-0.04201621934771538,3.6886603832244873,-0.4702344536781311
-0.016561059281229973,3.7275750637054443,-0.4754621982574463
0.009396999143064022,3.7392396926879883,-0.47682619094848633
0.036067597568035126,3.762347936630249,-0.47963520884513855
0.06271840631961823,3.7930209636688232,-0.4834326207637787
0.0901021733880043,3.835125207901001,-0.48870834708213806
0.11795200407505035,3.8731648921966553,-0.49342861771583557
0.14670440554618835,3.9226722717285156,-0.49921587109565735
0.1770411729812622,3.9913222789764404,-0.5074471831321716
0.20785224437713623,4.0403642654418945,-0.5131866335868835
0.23591528832912445,4.038904666900635,-0.5125392079353333
0.2669760286808014,4.083677291870117,-0.517616868019104
0.29725223779678345,4.10892915725708,-0.519902765750885
0.32387369871139526,4.08373498916626,-0.5158307552337646
0.3540727198123932,4.096935272216797,-0.5166176557540894
0.38255247473716736,4.094518661499023,-0.5154716968536377
0.40820661187171936,4.064947605133057,-0.510685384273529
0.4363478124141693,4.0622239112854,-0.5090885162353516
0.4635894298553467,4.051601886749268,-0.5065286159515381
0.48943716287612915,4.025333881378174,-0.5020205974578857
0.517406165599823,4.022032260894775,-0.5004299283027649
0.5504440069198608,4.057014465332031,-0.5032570958137512
0.5845356583595276,4.09558629989624,-0.5064142942428589
0.7208532691001892,4.812636852264404,-0.5931894183158875
0.7447161674499512,4.742591857910156,-0.5826770067214966
0.780229389667511,4.752899646759033,-0.5821040868759155
0.8163374662399292,4.7668657302856445,-0.5814937353134155
0.8574426770210266,4.807288646697998,-0.5841070413589478
0.8908135294914246,4.801580905914307,-0.5811102986335754
0.9213276505470276,4.780381679534912,-0.5762659311294556
0.9535579085350037,4.766529083251953,-0.5721554756164551
0.9817298054695129,4.737451076507568,-0.5659686326980591
1.0127991437911987,4.7233805656433105,-0.5616191625595093
1.041468620300293,4.697682857513428,-0.5559071898460388
1.0672680139541626,4.660452842712402,-0.548882246017456
1.1000698804855347,4.65326452255249,-0.5450981259346008
1.1229395866394043,4.608310699462891,-0.5368275046348572
1.1603970527648926,4.623486518859863,-0.5355933904647827
1.1848554611206055,4.585660457611084,-0.5282189249992371
1.2187740802764893,4.585244178771973,-0.5251927375793457
1.2477749586105347,4.565861225128174,-0.5195507407188416
1.2728742361068726,4.535218238830566,-0.5127354860305786
1.3000106811523438,4.511833190917969,-0.5067660212516785
1.329298973083496,4.495674133300781,-0.5016264319419861
1.3604176044464111,4.486851692199707,-0.4971705973148346
1.3848782777786255,4.455482482910156,-0.48998329043388367
1.4107694625854492,4.431552886962891,-0.48373445868492126
1.4465131759643555,4.43687629699707,-0.480644553899765
1.468865990638733,4.401366233825684,-0.4731636941432953
1.496509313583374,4.384364604949951,-0.4674087166786194
1.5188415050506592,4.352513790130615,-0.4601062536239624
1.281700849533081,3.591665506362915,-0.3763588070869446
1.296128511428833,3.5538315773010254,-0.36914628744125366
1.3233911991119385,3.5525119304656982,-0.36562591791152954
1.6227209568023682,4.2671284675598145,-0.4349839389324188
1.6506246328353882,4.252779006958008,-0.4293212890625
1.6822558641433716,4.245100975036621,-0.42421120405197144
1.710228681564331,4.230254173278809,-0.4184258282184601
1.7330836057662964,4.204666614532471,-0.41142141819000244
1.7646780014038086,4.200489521026611,-0.4065435826778412
1.7909313440322876,4.181450843811035,-0.4001269042491913
1.814422607421875,4.154885768890381,-0.3929446041584015
1.8394556045532227,4.135900974273682,-0.3863832652568817
1.8611000776290894,4.1096673011779785,-0.37918713688850403
1.8896576166152954,4.097166538238525,-0.3731784224510193
1.9149916172027588,4.077333927154541,-0.3664987087249756
1.936403751373291,4.050510406494141,-0.35899317264556885
1.9637792110443115,4.037851333618164,-0.3528461754322052
1.9883579015731812,4.017663955688477,-0.3459293246269226
2.0200018882751465,4.0111165046691895,-0.3401578664779663
2.0382158756256104,3.98056697845459,-0.3322392702102661
2.0686466693878174,3.9741599559783936,-0.32634809613227844
2.0858283042907715,3.93928861618042,-0.317887544631958
2.113222599029541,3.9251959323883057,-0.31121116876602173
2.135739326477051,3.9046385288238525,-0.30394095182418823
2.161954879760742,3.8907063007354736,-0.29718878865242004
2.1451098918914795,3.797912120819092,-0.28430068492889404
2.1715855598449707,3.783357858657837,-0.27727365493774414
2.196784257888794,3.7692856788635254,-0.2703416645526886
2.206606149673462,3.727844476699829,-0.2613585591316223
2.2446677684783936,3.7328808307647705,-0.2555188834667206
2.273517370223999,3.7250149250030518,-0.24868154525756836
2.290436267852783,3.6967875957489014,-0.24035821855068207
2.324563980102539,3.694366455078125,-0.2334955483675003
2.349445343017578,3.679074287414551,-0.22578249871730804
2.352324962615967,3.6313014030456543,-0.21612930297851562
2.381789445877075,3.6218621730804443,-0.20841620862483978
2.4154856204986572,3.618730068206787,-0.20082472264766693
2.4302799701690674,3.590421676635742,-0.19197474420070648
2.4550628662109375,3.573974370956421,-0.18334563076496124
2.483447790145874,3.5642662048339844,-0.1749519258737564
2.4973363876342773,3.5358686447143555,-0.16564327478408813
2.5223896503448486,3.5184786319732666,-0.1560627818107605
2.5450479984283447,3.502528429031372,-0.14670376479625702
2.572816848754883,3.4922828674316406,-0.13717275857925415
2.7687156200408936,3.9154508113861084,0.2974565625190735
2.715475082397461,3.899641275405884,0.30489110946655273
2.715439796447754,3.9604854583740234,0.3179606795310974
2.688202381134033,3.9876174926757812,0.3284580707550049
2.650987148284912,3.9930148124694824,0.3363364040851593
2.6302361488342285,4.024596691131592,0.3462556004524231
2.5822129249572754,4.017818450927734,0.35274726152420044
2.5780537128448486,4.075181007385254,0.3644624352455139
2.544490337371826,4.086314678192139,0.37201279401779175
2.5050995349884033,4.091606140136719,0.37867191433906555
2.5005111694335938,4.152888774871826,0.39046066999435425
2.4653358459472656,4.159605979919434,0.39681071043014526
2.431129217147827,4.169989585876465,0.40337827801704407
2.4087109565734863,4.204714775085449,0.4122960567474365
2.3683996200561523,4.204551696777344,0.4175436496734619
2.319894552230835,4.186413288116455,0.4207756519317627
2.2613022327423096,4.151359558105469,0.4220561981201172
2.2264132499694824,4.160706996917725,0.42767900228500366
2.2026853561401367,4.190258026123047,0.4353626072406769
2.1732614040374756,4.204976558685303,0.4412813186645508
2.1430509090423584,4.2198405265808105,0.44710686802864075
2.1203134059906006,4.252440452575684,0.4546712040901184
2.0922164916992188,4.2743821144104,0.46112653613090515
2.0717902183532715,4.309619903564453,0.46891874074935913
2.038177728652954,4.316428184509277,0.4735908806324005
2.0030548572540283,4.323702812194824,0.477999210357666
1.9678198099136353,4.330743789672852,0.48238417506217957
2.0125460624694824,4.514594554901123,0.5065258741378784
1.9777761697769165,4.520883083343506,0.5108035206794739
1.945170283317566,4.534430980682373,0.5158935785293579
1.9329499006271362,4.598160266876221,0.5264220237731934
1.8932312726974487,4.597301959991455,0.5296137928962708
1.8605067729949951,4.610102653503418,0.5342925786972046
1.8225159645080566,4.608018398284912,0.5372105836868286
1.8004552125930786,4.649476051330566,0.545183539390564
1.761034369468689,4.6474432945251465,0.5477511286735535
1.3411945104599,3.6185169219970703,0.4286796748638153
1.32338285446167,3.6494710445404053,0.43451881408691406
1.300450086593628,3.6655633449554443,0.43859028816223145
1.2742940187454224,3.6743521690368652,0.44181129336357117
1.6174702644348145,4.774837017059326,0.5765571594238281
1.5926053524017334,4.815439224243164,0.5839208364486694
1.5533047914505005,4.811494827270508,0.5858942270278931
1.517305850982666,4.814385414123535,0.5886585712432861
1.4921854734420776,4.854254245758057,0.5960250496864319
1.461890697479248,4.879246711730957,0.6012545824050903
1.440799593925476,4.937661170959473,0.6105417013168335
1.4009259939193726,4.932583332061768,0.6120237708091736
1.3724631071090698,4.9643235206604,0.6180528402328491
1.3086113929748535,4.864762783050537,0.6077139377593994
1.2680162191390991,4.851062297821045,0.608043909072876
1.2427655458450317,4.897263050079346,0.6155127882957458
1.2132600545883179,4.9282708168029785,0.6211219429969788
1.1798747777938843,4.943993091583252,0.6248419880867004
1.1531990766525269,4.985759735107422,0.631861686706543
1.1211491823196411,5.008602619171143,0.6365625262260437
1.0973182916641235,5.069092273712158,0.6458715200424194
1.0564218759536743,5.053720474243164,0.6452811360359192
1.0142157077789307,5.030438423156738,0.6437008380889893
0.9756122827529907,5.021983623504639,0.6440276503562927
2.0687737464904785,11.06645393371582,1.4223473072052002
1.9862638711929321,11.049431800842285,1.4233275651931763
1.902045488357544,11.0243558883667,1.4227656126022339
1.814499020576477,10.979692459106445,1.4192533493041992
1.7402628660202026,11.014738082885742,1.426112174987793
1.6388263702392578,10.876989364624023,1.410667896270752
1.5465660095214844,10.772592544555664,1.3994932174682617
1.4520591497421265,10.640596389770508,1.3847473859786987
1.361550211906433,10.527156829833984,1.3718760013580322
1.2688603401184082,10.386194229125977,1.3549724817276
1.1823235750198364,10.279088020324707,1.342512845993042
1.1030219793319702,10.233014106750488,1.338087558746338
1.0235767364501953,10.1591796875,1.3300366401672363
0.4074101746082306,4.3462700843811035,0.569723904132843
0.37300312519073486,4.302587985992432,0.5645473599433899
0.3403562009334564,4.274123668670654,0.5611525774002075
0.309815376996994,4.276358127593994,0.5618204474449158
0.28491726517677307,4.35563325881958,0.5726373195648193
0.3282431364059448,5.6178669929504395,0.7391343712806702
0.29019439220428467,5.639239311218262,0.7425335049629211
0.25037842988967896,5.629423141479492,0.7417158484458923
0.21286587417125702,5.696808338165283,0.7507092952728271
0.17374169826507568,5.721340656280518,0.7540929317474365
0.13479991257190704,5.764959335327148,0.7600307464599609
0.09493863582611084,5.7812042236328125,0.7623978853225708
0.05499410256743431,5.804916858673096,0.7657879590988159
0.013927609659731388,5.812867641448975,0.7671017646789551
-0.04961015656590462,10.870536804199219,1.4341413974761963
-0.12541398406028748,10.893217086791992,1.4368013143539429
-0.16123728454113007,8.72764778137207,1.1509544849395752
-0.21833711862564087,8.58698558807373,1.1322520971298218
-0.2007933408021927,6.200926303863525,0.8175634145736694
-0.2385767549276352,6.044589996337891,0.7969204783439636
-0.2789912819862366,6.011936664581299,0.7921296954154968
-0.19000175595283508,3.561891794204712,0.46899452805519104
-0.21375326812267303,3.5450878143310547,0.4664866328239441
-0.2440381497144699,3.62859845161438,0.4771958887577057
-0.5836185812950134,7.8485107421875,1.0315890312194824
-0.532651960849762,6.547295093536377,0.8601374626159668
-0.33599841594696045,3.8042490482330322,0.49932780861854553
-0.3581581115722656,3.7595410346984863,0.4929092824459076
-0.3848789930343628,3.764798402786255,0.49306920170783997
-0.40716272592544556,3.723602771759033,0.48716306686401367
-0.42897769808769226,3.686166763305664,0.481789231300354
-0.4507670998573303,3.652451276779175,0.476933091878891
-0.4720049202442169,3.6186439990997314,0.4719392955303192
-0.4920532703399658,3.580932378768921,0.4662763774394989
-0.5137199759483337,3.554555654525757,0.4621100425720215
-0.536990761756897,3.543426990509033,0.4599653482437134
-0.5653274059295654,3.5627083778381348,0.46177777647972107
-0.5781113505363464,3.4862022399902344,0.45120641589164734
-1.0935380458831787,6.323081970214844,0.8170281648635864
-1.1499196290969849,6.388240814208984,0.8237141370773315
-1.2015674114227295,6.418511390686035,0.8258824348449707
-1.2567169666290283,6.4675211906433105,0.8305020332336426
-1.3092429637908936,6.4969892501831055,0.8326092958450317
-1.3677821159362793,6.552600383758545,0.8380810022354126
-1.4195075035095215,6.573697566986084,0.8389794826507568
-1.4599089622497559,6.541451930999756,0.8326583504676819
-1.4973938465118408,6.5015788078308105,0.8254616856575012
-1.5300570726394653,6.4426045417785645,0.8158975839614868
-0.6869661808013916,2.8056178092956543,0.35439571738243103
-0.6932120323181152,2.7483174800872803,0.3462812006473541
-0.7164042592048645,2.75858998298645,0.3465903103351593
-0.7331081032752991,2.746385097503662,0.34394967555999756
