X,Y,Z
1.2010868787765503,4.582265377044678,-0.5209760665893555
1.2277886867523193,4.555537223815918,-0.514800488948822
1.2595411539077759,4.547318935394287,-0.5107364058494568
1.2910598516464233,4.538941383361816,-0.5065383911132812
1.3162647485733032,4.507923603057861,-0.4995570182800293
1.342761754989624,4.48436975479126,-0.4935190975666046
1.3694531917572021,4.4605255126953125,-0.487444669008255
1.3982436656951904,4.443922519683838,-0.48219871520996094
1.431213617324829,4.442090034484863,-0.4782847762107849
1.4573469161987305,4.417739391326904,-0.47185683250427246
1.484145164489746,4.3970136642456055,-0.4658989906311035
1.5173735618591309,4.394392967224121,-0.4618474245071411
1.2591845989227295,3.566821813583374,-0.3717197775840759
1.2809351682662964,3.5512351989746094,-0.36680397391319275
1.3132833242416382,3.564701557159424,-0.36489272117614746
1.6112892627716064,4.279946327209473,-0.43398573994636536
1.6384084224700928,4.261826038360596,-0.4281132221221924
1.6703025102615356,4.258321285247803,-0.4234718084335327
1.692138910293579,4.229281902313232,-0.41631704568862915
1.7214717864990234,4.217961311340332,-0.4108750522136688
1.748483419418335,4.198948383331299,-0.4046008586883545
1.7741906642913818,4.180235862731934,-0.3983117341995239
1.7964171171188354,4.154313087463379,-0.3913203775882721
1.8250641822814941,4.142343997955322,-0.3856102526187897
1.8508272171020508,4.122900485992432,-0.37916886806488037
1.8731571435928345,4.0962324142456055,-0.37191909551620483
1.9041763544082642,4.091030120849609,-0.3666453957557678
1.9255471229553223,4.064320087432861,-0.3594103455543518
1.9505285024642944,4.044280052185059,-0.35271888971328735
1.9696931838989258,4.013832092285156,-0.34507739543914795
2.005896806716919,4.018178939819336,-0.3402754068374634
2.028085947036743,3.994452476501465,-0.3331132233142853
2.0488669872283936,3.9668333530426025,-0.3255574107170105
2.075927257537842,3.9532644748687744,-0.31911739706993103
2.1024465560913086,3.939743757247925,-0.31264883279800415
2.1146416664123535,3.8983004093170166,-0.3038877248764038
2.138629198074341,3.8768198490142822,-0.29654553532600403
2.1285102367401123,3.798217296600342,-0.2849771976470947
2.157712697982788,3.7911698818206787,-0.2788684070110321
2.1918630599975586,3.79005765914917,-0.27294641733169556
2.206157922744751,3.7551426887512207,-0.2645636200904846
2.2274715900421143,3.7339534759521484,-0.25703802704811096
2.260802984237671,3.7325994968414307,-0.25085777044296265
2.282777786254883,3.7105331420898438,-0.2430867999792099
2.2867698669433594,3.662642478942871,-0.2336691915988922
2.3401331901550293,3.6940536499023438,-0.22926992177963257
2.3495657444000244,3.651489019393921,-0.21973568201065063
2.369837522506714,3.6295082569122314,-0.21161973476409912
2.40216064453125,3.627375364303589,-0.20464828610420227
2.409965991973877,3.585094928741455,-0.19500237703323364
2.43833065032959,3.5757534503936768,-0.187153622508049
2.475154161453247,3.579301118850708,-0.17978574335575104
2.4867379665374756,3.5431265830993652,-0.16994327306747437
2.5053555965423584,3.520822286605835,-0.16084229946136475
2.5376272201538086,3.5173110961914062,-0.1523561030626297
2.5709969997406006,3.5127713680267334,-0.14324495196342468
2.179111957550049,2.9386394023895264,-0.11231590807437897
2.7802815437316895,3.899912118911743,0.26595064997673035
2.75724720954895,3.925093173980713,0.2761414647102356
2.7265625,3.9457755088806152,0.2858937084674835
2.6795637607574463,3.939500093460083,0.2932251989841461
2.655811071395874,3.9642865657806396,0.3024069666862488
2.633549928665161,3.997128486633301,0.31206947565078735
2.6118929386138916,4.029242992401123,0.3215194642543793
2.591953992843628,4.059971332550049,0.33045268058776855
2.5650734901428223,4.085572719573975,0.3387952446937561
2.517843723297119,4.077619552612305,0.34424251317977905
2.489105224609375,4.094620227813721,0.3513695299625397
2.478548526763916,4.145847797393799,0.3614681661128998
2.447037696838379,4.163906574249268,0.3685190677642822
2.4089701175689697,4.167461395263672,0.3740527033805847
2.3912298679351807,4.203979969024658,0.3823993504047394
2.3562448024749756,4.214182376861572,0.38818907737731934
2.2658398151397705,4.125697135925293,0.38480260968208313
2.236250638961792,4.141257286071777,0.39071395993232727
2.214494466781616,4.170020580291748,0.3978092074394226
2.187425136566162,4.1925225257873535,0.40414223074913025
2.1632492542266846,4.2220025062561035,0.4111139178276062
2.1321868896484375,4.2372307777404785,0.41667765378952026
2.104166030883789,4.255032062530518,0.42233285307884216
2.0718753337860107,4.266006946563721,0.4271848201751709
2.051990032196045,4.305283069610596,0.4347360134124756
2.016911506652832,4.312726974487305,0.43909916281700134
1.9833991527557373,4.319190979003906,0.44319602847099304
1.9557856321334839,4.339794158935547,0.44882258772850037
1.9884616136550903,4.499325275421143,0.4686022102832794
1.984720230102539,4.581110000610352,0.48042795062065125
1.9546473026275635,4.601977348327637,0.4858860373497009
1.8880029916763306,4.532524108886719,0.48168253898620605
4.225320816040039,10.350459098815918,1.1071816682815552
1.8583612442016602,4.648639678955078,0.5001219511032104
1.8101787567138672,4.625441074371338,0.500482439994812
1.7825652360916138,4.652352809906006,0.5062210559844971
1.778666377067566,4.740660190582275,0.5186519026756287
1.341750979423523,3.654850721359253,0.4020656943321228
1.309960126876831,3.6495361328125,0.4033691883087158
1.2782825231552124,3.643965244293213,0.4046529531478882
1.638814926147461,4.780881404876709,0.5333831906318665
1.5869009494781494,4.736546993255615,0.5308399796485901
1.5737628936767578,4.810039043426514,0.5415750741958618
1.5664185285568237,4.905910015106201,0.5545624494552612
1.5090603828430176,4.846249103546143,0.5499265193939209
1.4842239618301392,4.890071868896484,0.557046115398407
0.5630196332931519,1.9026477336883545,0.21755558252334595
1.420045018196106,4.9245219230651855,0.5652177929878235
1.3951530456542969,4.9716057777404785,0.5726741552352905
1.3400068283081055,4.910003185272217,0.5673199892044067
1.288802981376648,4.859133243560791,0.563188374042511
1.250404953956604,4.852802753448486,0.5642012357711792
1.2297518253326416,4.913799285888672,0.5730509757995605
1.2021700143814087,4.952252388000488,0.5793629288673401
1.1696767807006836,4.97170352935791,0.5831358432769775
1.1358987092971802,4.9872145652771,0.5863743424415588
1.1036278009414673,5.010073661804199,0.5905131697654724
1.0716534852981567,5.032607555389404,0.5946289896965027
1.037493109703064,5.047405242919922,0.5978820323944092
1.0068151950836182,5.077075481414795,0.6029091477394104
0.9758145213127136,5.110549449920654,0.6079962849617004
2.111539840698242,11.50113296508789,1.3708271980285645
2.0142736434936523,11.427458763122559,1.3646422624588013
1.8981266021728516,11.234414100646973,1.3442034721374512
1.7926305532455444,11.078368186950684,1.3281164169311523
1.6981898546218872,10.978946685791016,1.3187286853790283
1.5922940969467163,10.798431396484375,1.2987202405929565
1.4943093061447144,10.655416488647461,1.2832348346710205
1.406007170677185,10.577075958251953,1.2755900621414185
1.3128918409347534,10.432341575622559,1.2599071264266968
1.227004051208496,10.329190254211426,1.249259114265442
1.1441625356674194,10.24080753326416,1.2403424978256226
1.0596041679382324,10.128799438476562,1.2277551889419556
0.9883460402488708,10.135772705078125,1.2296391725540161
0.39166080951690674,4.337340354919434,0.5266700983047485
0.35563433170318604,4.270305633544922,0.5190138816833496
0.3253253102302551,4.264848232269287,0.5188573598861694
0.296180784702301,4.2746500968933105,0.5205806493759155
0.26917481422424316,4.3230109214782715,0.5266357064247131
0.3100288510322571,5.6256866455078125,0.6855837106704712
0.27031198143959045,5.619906902313232,0.6851617097854614
0.23288244009017944,5.66420841217041,0.6908800005912781
0.19457384943962097,5.696628570556641,0.6951858401298523
0.15498247742652893,5.697778701782227,0.6957111358642578
0.1158832535147667,5.764626502990723,0.7038544416427612
0.07612410187721252,5.796307563781738,0.7076700329780579
0.03583347052335739,5.812203884124756,0.7095924615859985
-0.004615278914570808,5.831696033477783,0.7119883894920349
-0.06831567734479904,8.817070960998535,1.076547622680664
-0.12879754602909088,8.688419342041016,1.0609688758850098
-0.18881164491176605,8.671871185302734,1.0585668087005615
-0.24712051451206207,8.604549407958984,1.049796462059021
-0.1421879380941391,3.987476348876953,0.48625895380973816
-0.17238840460777283,4.044543266296387,0.4930053949356079
-0.17650121450424194,3.559178352355957,0.4336760938167572
-0.20258313417434692,3.573362112045288,0.43525582551956177
-0.2251337617635727,3.5371005535125732,0.4305438995361328
-0.2651514708995819,3.7560205459594727,0.45674601197242737
-0.29741358757019043,3.8353681564331055,0.46596214175224304
-0.32168295979499817,3.8062474727630615,0.46201571822166443
-0.34431877732276917,3.7576186656951904,0.4557236433029175
-0.36546698212623596,3.705042600631714,0.44899117946624756
-0.39395275712013245,3.7295148372650146,0.45149239897727966
-0.4147903621196747,3.684443473815918,0.4454025328159332
-0.4346056580543518,3.6354048252105713,0.4388682246208191
-0.45470893383026123,3.590059518814087,0.43280458450317383
-0.479703813791275,3.5869193077087402,0.4318605661392212
-0.49710407853126526,3.5298311710357666,0.42445045709609985
-0.5215772986412048,3.5264203548431396,0.4234319031238556
-0.5445484519004822,3.5152440071105957,0.42127642035484314
-0.5765546560287476,3.5574545860290527,0.4255144000053406
-0.5822040438652039,3.4426331520080566,0.41101837158203125
-1.1180737018585205,6.34237813949585,0.7558290362358093
-1.1698888540267944,6.376689434051514,0.7585543990135193
-1.2257179021835327,6.429690361022949,0.7633721232414246
-1.2778995037078857,6.4633708000183105,0.7655105590820312
-1.3337337970733643,6.50788688659668,0.7689079642295837
-1.387162208557129,6.540689468383789,0.7709584832191467
-1.4392138719558716,6.56156587600708,0.7715955376625061
-1.4744669198989868,6.506336212158203,0.7633243203163147
-1.5078024864196777,6.447248935699463,0.7544835805892944
-1.5523253679275513,6.437078475952148,0.7510198950767517
-0.6988376975059509,2.814072847366333,0.3273559510707855
-0.7103569507598877,2.7793197631835938,0.32236695289611816
-0.7237663269042969,2.751955509185791,0.3182503283023834
-0.7429100871086121,2.7470226287841797,0.31675097346305847
-0.772493839263916,2.779357671737671,0.31941109895706177
-1.7349592447280884,6.082446098327637,0.6964994072914124
-1.7783015966415405,6.078441619873047,0.6935575008392334
-1.80886971950531,6.029322624206543,0.6854768395423889
-1.8428548574447632,5.991026878356934,0.6786506175994873
-1.8759801387786865,5.948611736297607,0.6713696122169495
-1.9043768644332886,5.899256229400635,0.6629895567893982
-1.9331963062286377,5.853546142578125,0.6550295352935791
-1.9627825021743774,5.811371326446533,0.6475213170051575
-1.9954584836959839,5.776057243347168,0.6407590508460999
-2.0239646434783936,5.729537010192871,0.6328037977218628
-2.0560824871063232,5.693807125091553,0.6258773803710938
-2.0834884643554688,5.6512250900268555,0.6180376410484314
-2.111783504486084,5.612161636352539,0.6106410026550293
-2.1418020725250244,5.57631254196167,0.6035851836204529
-2.177859306335449,5.554495811462402,0.5980309844017029
-2.2359201908111572,5.586370944976807,0.5981794595718384
-2.3026599884033203,5.6438069343566895,0.6006873250007629
-2.3537988662719727,5.66113805770874,0.5988910794258118
-2.3754775524139404,5.606215953826904,0.5894308686256409
-2.40225887298584,5.561493873596191,0.5810080170631409
-1.5437510013580322,3.505554437637329,0.3638394773006439
-1.5575942993164062,3.4742419719696045,0.35803884267807007
-1.5807485580444336,3.464137315750122,0.3544498682022095
-1.6107069253921509,3.4678447246551514,0.35224461555480957
-2.5879664421081543,5.4719085693359375,0.5515882968902588
-1.6323630809783936,3.3895130157470703,0.338994562625885
-1.6479575634002686,3.3650245666503906,0.3337257206439972
-1.6685007810592651,3.350922107696533,0.3295162320137024
-1.6808483600616455,3.318983793258667,0.3234982490539551
-1.700485110282898,3.3006062507629395,0.3187752962112427
-1.7193408012390137,3.28243350982666,0.31400465965270996
-1.734042763710022,3.2574667930603027,0.3084486126899719
-1.763010859489441,3.2599897384643555,0.305551677942276
-1.1817941665649414,2.149388313293457,0.1992654800415039
-1.181540846824646,2.1141836643218994,0.19383090734481812
-1.8218990564346313,3.2107956409454346,0.2908794581890106
-1.8393853902816772,3.192239999771118,0.2856566309928894
-1.8575648069381714,3.1730995178222656,0.28026533126831055
-1.8877540826797485,3.1738016605377197,0.2765916585922241
-1.2481236457824707,2.06787371635437,0.1776619851589203
-1.257483720779419,2.0533390045166016,0.17386981844902039
-1.8996813297271729,3.0538277626037598,0.2544648051261902
-1.933234691619873,3.060818672180176,0.250904381275177
-1.948728322982788,3.04215407371521,0.2451063096523285
-1.9898287057876587,3.062448263168335,0.24235667288303375
-3.052248001098633,4.627031326293945,0.35904282331466675
-3.0573723316192627,4.568146705627441,0.34714365005493164
-3.0908567905426025,4.555642604827881,0.33888399600982666
-3.0978925228118896,4.499577045440674,0.32685819268226624
-3.1327903270721436,4.485555648803711,0.31773000955581665
-2.908742904663086,4.109788417816162,0.2835199236869812
-2.859901189804077,3.982403516769409,0.26657578349113464
-2.881850481033325,3.9575328826904297,0.25660282373428345
-2.9203860759735107,3.958918809890747,0.24824541807174683
-3.0233542919158936,4.230794906616211,-0.17949026823043823
-2.4341251850128174,3.461334228515625,-0.1553458720445633
-2.7977585792541504,4.040128231048584,-0.19059860706329346
-2.7552506923675537,4.040450572967529,-0.19945985078811646
-1.319813847541809,1.967206358909607,-0.10137305408716202
-2.200984477996826,3.3305652141571045,-0.17823253571987152
-1.3060215711593628,2.0085768699645996,-0.11148767918348312
-1.3162282705307007,2.0574591159820557,-0.11814820766448975
-1.2976001501083374,2.0597968101501465,-0.12197034806013107
-1.2618838548660278,2.035862922668457,-0.12415012717247009
-1.2406108379364014,2.034949779510498,-0.12763631343841553
-1.8722295761108398,3.1204183101654053,-0.20088544487953186
-1.8377175331115723,3.113344192504883,-0.20543085038661957
-1.8302557468414307,3.153470039367676,-0.21308505535125732
-1.1987905502319336,2.0993683338165283,-0.14502733945846558
-1.195351243019104,2.127943515777588,-0.15015028417110443
-1.9781572818756104,3.583721160888672,-0.25816869735717773
-2.532235622406006,4.666476249694824,-0.3427920341491699
-2.5214855670928955,4.724809169769287,-0.3535384237766266
-2.498178720474243,4.763017654418945,-0.36277225613594055
-2.4703545570373535,4.794462203979492,-0.37150847911834717
-2.4357378482818604,4.811551570892334,-0.3790665864944458
-2.421086072921753,4.866274833679199,-0.3894786536693573
-1.6605488061904907,3.398959159851074,-0.276163250207901
-1.6290334463119507,3.396489381790161,-0.280065655708313
-1.5985323190689087,3.3933331966400146,-0.2837443947792053
-1.5746872425079346,3.404059648513794,-0.2885555624961853
-1.5592410564422607,3.436429738998413,-0.29517051577568054
-2.261143207550049,5.08009672164917,-0.44196197390556335
-2.2301876544952393,5.105920791625977,-0.4496569037437439
-2.1712398529052734,5.067196846008301,-0.4516233205795288
-2.190373659133911,5.214959621429443,-0.47005897760391235
-2.19351863861084,5.331071376800537,-0.48598963022232056
-2.164811611175537,5.367380142211914,-0.49455299973487854
-2.144402503967285,5.425205707550049,-0.5051700472831726
-1.3483977317810059,3.483820915222168,-0.32758986949920654
-1.32612943649292,3.500298023223877,-0.33233872056007385
-2.044837474822998,5.515693187713623,-0.5287292003631592
-2.0221493244171143,5.5731377601623535,-0.5392030477523804
-1.9265761375427246,5.429141521453857,-0.5298633575439453
-1.618770956993103,4.666851043701172,-0.4593302011489868
-1.576956033706665,4.6519246101379395,-0.4616797864437103
-1.883662462234497,5.688803672790527,-0.569281816482544
-1.8639466762542725,5.764230251312256,-0.5813665986061096
-0.9746057391166687,3.088620662689209,-0.31380072236061096
-0.9548752307891846,3.102611541748047,-0.3175283372402191
-0.8650043606758118,2.8817896842956543,-0.29703643918037415
-0.795754075050354,2.719599485397339,-0.2823113203048706
-0.7644426226615906,2.6838903427124023,-0.28041350841522217
-0.7495401501655579,2.7039847373962402,-0.2842862606048584
-0.7365667223930359,2.731462001800537,-0.28895989060401917
-0.7135421633720398,2.7212588787078857,-0.28965213894844055
-0.6992573142051697,2.744781494140625,-0.2938694655895233
-0.6654931306838989,2.6929452419281006,-0.2898879647254944
-1.4902430772781372,6.218294620513916,-0.6729596853256226
-1.4608625173568726,6.288585186004639,-0.6841611266136169
-1.4195399284362793,6.309478759765625,-0.6900586485862732
-1.3661012649536133,6.277082920074463,-0.6897183656692505
-1.3162208795547485,6.263465881347656,-0.691346287727356
-1.2652149200439453,6.237863063812256,-0.6915931701660156
-1.212704062461853,6.200366497039795,-0.6904942989349365
-1.1615229845046997,6.166263580322266,-0.6897227764129639
-1.1083722114562988,6.1204304695129395,-0.6870659589767456
-1.01862370967865,5.863905429840088,-0.6607047915458679
-0.9412405490875244,5.652252197265625,-0.6391740441322327
-0.9531548619270325,5.980350017547607,-0.6787465214729309
-0.9148573279380798,6.009548187255859,-0.6843629479408264
-0.8749220967292786,6.030882835388184,-0.68873131275177
-0.8386915326118469,6.086661338806152,-0.6971263289451599
-0.6363340020179749,4.868253231048584,-0.559180498123169
-0.7401091456413269,5.985442161560059,-0.6895015835762024
-0.6933877468109131,5.947803497314453,-0.6868234276771545
-0.6492337584495544,5.929136753082275,-0.686089038848877
-0.6030023694038391,5.8869853019714355,-0.6826536655426025
-0.558741569519043,5.863840103149414,-0.6814554333686829
-0.5145025253295898,5.828713893890381,-0.6788568496704102
-0.4710158705711365,5.797189235687256,-0.6762070059776306
-0.2564578354358673,3.455350875854492,-0.4035903513431549
-0.23311550915241241,3.4685823917388916,-0.40570104122161865
-0.2094811499118805,3.4855475425720215,-0.4082813858985901
-0.301272988319397,5.671915531158447,-0.6653680205345154
-0.26003506779670715,5.638925552368164,-0.6619211435317993
-0.22007419168949127,5.625024318695068,-0.6607122421264648
-0.18016549944877625,5.60308313369751,-0.6585869193077087
-0.13976487517356873,5.573117733001709,-0.6555536985397339
-0.10051955282688141,5.5467400550842285,-0.6528934836387634
-0.0614849254488945,5.508512496948242,-0.6483259201049805
-0.018715837970376015,4.453599452972412,-0.5241380333900452
0.012217736802995205,4.445863246917725,-0.5232234001159668
0.05315840616822243,5.419368267059326,-0.6378192901611328
0.09055712074041367,5.403369903564453,-0.6358420252799988
0.12730330228805542,5.371652603149414,-0.631612241268158
0.1618315428495407,5.281519412994385,-0.6205547451972961
0.1985563337802887,5.280333518981934,-0.6199846863746643
0.23436422646045685,5.259514331817627,-0.6171414852142334
0.22614061832427979,4.378287315368652,-0.5132311582565308
0.25261935591697693,4.310882091522217,-0.5045733451843262
0.2723723351955414,4.154269218444824,-0.48553547263145447
0.30375418066978455,4.187211990356445,-0.4886952340602875
0.3306849002838135,4.158030986785889,-0.48462677001953125
0.3586950898170471,4.140264987945557,-0.48166415095329285
0.386626660823822,4.130110740661621,-0.4794335663318634
0.4078318178653717,4.054128646850586,-0.4696047604084015
0.43436649441719055,4.035911560058594,-0.4665068984031677
0.4615177810192108,4.025235652923584,-0.46431002020835876
0.49269163608551025,4.0451860427856445,-0.465340793132782
0.6287331581115723,4.881054401397705,-0.5598666667938232
0.6609698534011841,4.8652825355529785,-0.5564541816711426
0.6937296986579895,4.853116989135742,-0.5534796118736267
0.7263520956039429,4.8407301902771,-0.5505115389823914
0.7556007504463196,4.805106163024902,-0.5444779992103577
0.7875422239303589,4.792394161224365,-0.5410708785057068
0.8260239362716675,4.817714691162109,-0.5419672727584839
0.8622843027114868,4.827423095703125,-0.5411080121994019
0.8929657340049744,4.80634069442749,-0.5367671847343445
0.9246345162391663,4.7927775382995605,-0.5328906178474426
0.9521744847297668,4.756043434143066,-0.5264405608177185
0.9820103049278259,4.734442710876465,-0.5217413306236267
1.0149693489074707,4.727818965911865,-0.5187171697616577
1.043531060218811,4.702053546905518,-0.5134677290916443
1.0724295377731323,4.679978847503662,-0.5084162354469299
1.105218529701233,4.672718524932861,-0.5049606561660767
1.1284875869750977,4.627542972564697,-0.49747520685195923
1.156898856163025,4.604864120483398,-0.49245893955230713
1.1886680126190186,4.597157001495361,-0.48880165815353394
1.2182213068008423,4.581771373748779,-0.48424556851387024
1.2472541332244873,4.562271595001221,-0.47922879457473755
1.279079794883728,4.5538506507873535,-0.4754199683666229
0.570837140083313,1.9794342517852783,-0.20537562668323517
0.5844258666038513,1.9756516218185425,-0.20357023179531097
0.5979734063148499,1.9717788696289062,-0.20176677405834198
0.6141929626464844,1.975121259689331,-0.20066557824611664
0.6279560327529907,1.9709751605987549,-0.19882579147815704
0.64155513048172,1.966782569885254,-0.19691818952560425
1.4651378393173218,4.389895439147949,-0.43606990575790405
1.4952220916748047,4.3801774978637695,-0.43165454268455505
1.2526808977127075,3.587862253189087,-0.3507010340690613
1.2755427360534668,3.5719051361083984,-0.3462194800376892
1.2972502708435059,3.55617356300354,-0.3416270613670349
1.5999789237976074,4.295025825500488,-0.40889811515808105
1.626976728439331,4.276999473571777,-0.40343785285949707
1.6568118333816528,4.265981674194336,-0.3986400365829468
1.686616063117981,4.254754066467285,-0.3936161398887634
1.7082852125167847,4.225576877593994,-0.38695546984672546
1.7402355670928955,4.221400260925293,-0.38258233666419983
1.7666714191436768,4.202422618865967,-0.37681737542152405
1.7834075689315796,4.161945343017578,-0.36910107731819153
1.8089988231658936,4.142861366271973,-0.36313214898109436
1.837188720703125,4.13089656829834,-0.35786962509155273
1.8596081733703613,4.104222297668457,-0.3512534499168396
1.888067603111267,4.09166955947876,-0.3458384573459625
1.9190138578414917,4.086320877075195,-0.34089693427085876
1.9404014348983765,4.059412002563477,-0.3340974748134613
1.9653643369674683,4.039189338684082,-0.32781463861465454
1.9933704137802124,4.025903224945068,-0.32209786772727966
2.0169456005096436,4.005882263183594,-0.31574881076812744
2.0386159420013428,3.982222557067871,-0.30913853645324707
2.0664615631103516,3.9683077335357666,-0.3031327426433563
2.0906589031219482,3.947258949279785,-0.2964913249015808
2.117063283920288,3.9336118698120117,-0.290433406829834
2.1324524879455566,3.8991003036499023,-0.28281697630882263
2.1123147010803223,3.7993533611297607,-0.2704605162143707
2.149648427963257,3.8056840896606445,-0.26570743322372437
2.163742780685425,3.7711760997772217,-0.25798511505126953
2.1935157775878906,3.7634003162384033,-0.25205063819885254
2.227757453918457,3.761808156967163,-0.24640710651874542
2.236553192138672,3.7206497192382812,-0.2381422519683838
2.265388250350952,3.712721586227417,-0.23200039565563202
2.300030469894409,3.710167169570923,-0.2257828414440155
2.304206609725952,3.6619765758514404,-0.2169187068939209
2.3408162593841553,3.66688871383667,-0.2112189382314682
2.383157730102539,3.677180767059326,-0.20542944967746735
2.3866310119628906,3.6287145614624023,-0.1963154375553131
2.397606611251831,3.593750238418579,-0.18790815770626068
2.4485342502593994,3.616342544555664,-0.18222233653068542
2.4507715702056885,3.567959785461426,-0.17284460365772247
2.4691977500915527,3.546090841293335,-0.16483165323734283
2.502796173095703,3.5419745445251465,-0.1570683717727661
2.521895170211792,3.5191690921783447,-0.148281067609787
2.531095027923584,3.4839959144592285,-0.13896231353282928
2.177485704421997,2.954484224319458,-0.11065658926963806
2.7532548904418945,3.8915789127349854,0.24679148197174072
2.7392451763153076,3.929447889328003,0.2568753659725189
2.7224605083465576,3.968918800354004,0.2670232355594635
2.687485694885254,3.982682943344116,0.27534112334251404
2.6550686359405518,3.9944472312927246,0.28288599848747253
2.6372127532958984,4.033669948577881,0.2922428548336029
2.6193814277648926,4.072544097900391,0.3014746904373169
2.574036121368408,4.0639448165893555,0.30676087737083435
2.551417589187622,4.096009254455566,0.3150649666786194
2.5200934410095215,4.11480188369751,0.32222768664360046
2.478935718536377,4.111926555633545,0.3272547423839569
2.457515239715576,4.14237642288208,0.33485808968544006
2.4379501342773438,4.180482387542725,0.3429611027240753
2.390907049179077,4.171144962310791,0.34716951847076416
2.373115062713623,4.2076497077941895,0.3548564910888672
2.316218376159668,4.176482677459717,0.35670968890190125
2.245718479156494,4.121402263641357,0.35627880692481995
2.2191803455352783,4.144108772277832,0.362423837184906
2.1968541145324707,4.173124313354492,0.36905044317245483
2.181154251098633,4.215988636016846,0.3767898678779602
2.1497459411621094,4.231624126434326,0.38198786973953247
2.120227336883545,4.250375747680664,0.3874592185020447
2.093863010406494,4.271650314331055,0.3929971754550934
2.063246726989746,4.2860636711120605,0.39796823263168335
2.0281996726989746,4.293715000152588,0.40199556946754456
2.0029685497283936,4.322268009185791,0.40800726413726807
1.9722000360488892,4.33596658706665,0.41252219676971436
1.9815006256103516,4.438056945800781,0.42547985911369324
4.456628322601318,10.175835609436035,0.9826585054397583
4.423573970794678,10.30793571472168,1.0023752450942993
1.9213488101959229,4.56886100769043,0.4473266899585724
1.892330527305603,4.588963508605957,0.4522099196910858
1.8602077960968018,4.601665496826172,0.4563905596733093
1.8384599685668945,4.643484115600586,0.4632652997970581
4.078612327575684,10.528104782104492,1.0564097166061401
1.7645543813705444,4.654646873474121,0.46969133615493774
1.3612534999847412,3.667558193206787,0.37208810448646545
1.322371244430542,3.6401147842407227,0.3712962567806244
1.3015406131744385,3.6638431549072266,0.3755461871623993
1.279617428779602,3.6877429485321045,0.3797811269760132
1.6397147178649902,4.8380303382873535,0.5005613565444946
1.6058095693588257,4.8490376472473145,0.5039601922035217
1.5743134021759033,4.867172718048096,0.508121907711029
1.5222948789596558,4.8222479820251465,0.5055544972419739
1.4983189105987549,4.870106220245361,0.5125508904457092
1.458714485168457,4.865566253662109,0.5140347480773926
0.5611892342567444,1.9210869073867798,0.203726127743721
1.4018815755844116,4.926072597503662,0.5243547558784485
1.365415096282959,4.927924156188965,0.526528537273407
1.3038016557693481,4.8397536277771,0.51868736743927
1.269441843032837,4.852616310119629,0.5216922163963318
1.2404214143753052,4.883895397186279,0.5266817808151245
1.2156649827957153,4.929868221282959,0.5332590937614441
1.1812403202056885,4.937957286834717,0.5357789993286133
1.1517606973648071,4.968586444854736,0.5406209230422974
1.1199485063552856,4.995521545410156,0.5448769927024841
1.0858988761901855,5.010746002197266,0.5478705167770386
1.0568207502365112,5.048474311828613,0.553348958492279
1.0216765403747559,5.055470943450928,0.5554727911949158
0.9879716634750366,5.069845199584961,0.5584362745285034
2.1772890090942383,11.615072250366211,1.2820260524749756
2.0603809356689453,11.438705444335938,1.2648423910140991
1.9488484859466553,11.276573181152344,1.2492188215255737
1.8448494672775269,11.140162467956543,1.236419439315796
1.7465853691101074,11.021933555603027,1.2256193161010742
1.6468501091003418,10.89158821105957,1.2135192155838013
1.545668363571167,10.733510971069336,1.1975700855255127
1.4530084133148193,10.620760917663574,1.1865077018737793
1.3569175004959106,10.468762397766113,1.171080470085144
1.2690002918243408,10.358250617980957,1.160293698310852
1.181237816810608,10.231571197509766,1.1477057933807373
1.0983158349990845,10.142901420593262,1.1394282579421997
1.0204988718032837,10.084494590759277,1.1338510513305664
0.40475067496299744,4.3016276359558105,0.48403701186180115
0.3772083520889282,4.335224151611328,0.48822659254074097
0.34135258197784424,4.2680230140686035,0.48108187317848206
0.3111760914325714,4.270249843597412,0.4817850589752197
0.28765419125556946,4.365187168121338,0.4929736852645874
0.32834592461586,5.576020240783691,0.6299855709075928
0.29174908995628357,5.624648094177246,0.6356790065765381
0.25315651297569275,5.642009735107422,0.6378718614578247
0.2144041508436203,5.678523063659668,0.6422680616378784
0.17611846327781677,5.71862268447876,0.6470993161201477
0.13592959940433502,5.70413875579834,0.6457869410514832
0.09720364958047867,5.763146877288818,0.6524981260299683
0.057154331356287,5.779212474822998,0.6542297005653381
0.016041861847043037,5.73677921295166,0.6493703722953796
-0.03706808388233185,8.892358779907227,1.0065281391143799
-0.06562036275863647,5.8994646072387695,0.667770504951477
-0.07738718390464783,4.280560493469238,0.4845537841320038
-0.10284070670604706,4.109212875366211,0.4650096893310547
-0.13102000951766968,4.096802234649658,0.46333014965057373
-0.1590127795934677,4.072545528411865,0.46033185720443726
-0.18427607417106628,4.005465030670166,0.45252448320388794
-0.18763355910778046,3.542860269546509,0.4000813066959381
-0.2143385112285614,3.5763790607452393,0.4037041962146759
-0.24119357764720917,3.6058428287506104,0.4067516028881073
-0.28631317615509033,3.8712427616119385,0.43622517585754395
-0.30585169792175293,3.7802541255950928,0.42554694414138794
-0.3326413631439209,3.785857677459717,0.42577168345451355
-0.3567504584789276,3.76033878326416,0.4225158393383026
-0.3761533498764038,3.6921885013580322,0.4144996404647827
-0.3996574878692627,3.666372776031494,0.41114893555641174
-0.42661726474761963,3.6790707111358643,0.41195404529571533
-0.4452822506427765,3.6222050189971924,0.4049946665763855
-0.4696879982948303,3.6153082847595215,0.4036508798599243
-0.4906335771083832,3.581279993057251,0.3992956578731537
-0.5082491040229797,3.5240139961242676,0.3923724293708801
-0.5320841073989868,3.516677141189575,0.39095553755760193
-0.560461699962616,3.53991961479187,0.39275604486465454
-0.5765125155448914,3.4863157272338867,0.38605377078056335
-1.0874403715133667,6.3065876960754395,0.697016179561615
-1.1394675970077515,6.344984531402588,0.6999304890632629
-1.1950128078460693,6.394272327423096,0.7040355205535889
-1.249423623085022,6.439516544342041,0.7075566053390503
-1.30173921585083,6.473024368286133,0.7094578742980957
-1.3561530113220215,6.513724327087402,0.7121555805206299
-1.4088618755340576,6.5425639152526855,0.7135611176490784
-1.4568724632263184,6.540311336517334,0.7115361094474792
-1.4910609722137451,6.481098175048828,0.7033906579017639
-1.5267142057418823,6.43319845199585,0.6962954998016357
-0.6874232292175293,2.8114817142486572,0.30336418747901917
-0.6904200911521912,2.7428407669067383,0.2950555384159088
-0.7144353985786438,2.7569098472595215,0.29564958810806274
-0.7296180129051208,2.737001895904541,0.2926155626773834
-0.754827618598938,2.754490613937378,0.2935914993286133
-0.7820520401000977,2.7793617248535156,0.295200914144516
-1.7602051496505737,6.0971999168396,0.6451973915100098
-1.7889649868011475,6.040586948394775,0.6368122696876526
-1.8250489234924316,6.009860992431641,0.6312050223350525
-1.8576163053512573,5.967700481414795,0.6244297623634338
-1.8836454153060913,5.906903266906738,0.6157204508781433
-1.9210257530212402,5.887092590332031,0.6109440922737122
-1.0773539543151855,3.226562261581421,0.3333389163017273
-1.976068139076233,5.787579536437988,0.595271646976471
-2.007436513900757,5.748373031616211,0.5885488986968994
-2.039661169052124,5.712667942047119,0.5822355151176453
-2.0678868293762207,5.669844627380371,0.574988603591919
-2.096503257751465,5.630729675292969,0.568038284778595
-2.123959541320801,5.587603569030762,0.5606867671012878
-2.156951427459717,5.558712482452393,0.5547821521759033
-2.2099950313568115,5.580142974853516,0.5538914203643799
-2.2642085552215576,5.605001926422119,0.5531742572784424
-2.3283188343048096,5.654958724975586,0.5546590089797974
-2.3546931743621826,5.610778331756592,0.5468558669090271
-2.387176275253296,5.580602169036865,0.5404259562492371
-2.4292614459991455,5.5713958740234375,0.5360047817230225
-1.556067943572998,3.503009557723999,0.3347141444683075
-1.5697764158248901,3.471601724624634,0.32929161190986633
-1.5868151187896729,3.4470415115356445,0.3245135247707367
-1.5940474271774292,3.4010913372039795,0.3177337646484375
-1.627820611000061,3.4112801551818848,0.3161945939064026
-1.632267951965332,3.3619465827941895,0.3090578019618988
-1.654531717300415,3.351378917694092,0.3054250180721283
-1.6701302528381348,3.3265507221221924,0.30047035217285156
-1.686191439628601,3.301300287246704,0.295427143573761
-1.7055965662002563,3.2828805446624756,0.291023850440979
-1.7236061096191406,3.2649991512298584,0.2865283191204071
-1.7413506507873535,3.2470736503601074,0.2820392847061157
-1.763399600982666,3.2355003356933594,0.27801910042762756
-1.1934627294540405,2.1533491611480713,0.1829236000776291
-1.7966457605361938,3.191075325012207,0.2678970396518707
-1.8252493143081665,3.19311785697937,0.2648009657859802
-1.846615195274353,3.1811671257019043,0.26046624779701233
-1.8689078092575073,3.168492317199707,0.25592559576034546
-1.2297459840774536,2.052685499191284,0.16343285143375397
-1.2552502155303955,2.0648443698883057,0.16199862957000732
-1.95272696018219,3.1645472049713135,0.24447102844715118
-1.9147616624832153,3.055417537689209,0.23219121992588043
-1.943266749382019,3.05623197555542,0.2282995730638504
-1.967476487159729,3.0503575801849365,0.2237800508737564
-3.0412347316741943,4.645488739013672,0.33426210284233093
-3.032165050506592,4.563299655914307,0.3217182755470276
-3.080787420272827,4.57356595993042,0.3156014382839203
-3.1065900325775146,4.547215461730957,0.3066706657409668
-3.1346538066864014,4.51903772354126,0.29705995321273804
-3.156661033630371,4.489980697631836,0.28741925954818726
-2.3866705894470215,3.348377227783203,0.20833781361579895
-2.8877928256988525,3.9928741455078125,0.24073940515518188
-2.917081594467163,3.981733798980713,0.23222583532333374
-2.934164047241211,3.950282096862793,0.22197748720645905
-2.452577829360962,3.45845365524292,-0.14182569086551666
-2.43501615524292,3.4895381927490234,-0.1509488970041275
-2.793114423751831,4.062633514404297,-0.18403515219688416
-2.7486746311187744,4.064157962799072,-0.19245825707912445
-2.2041518688201904,3.310474395751953,-0.16311301290988922
-2.172043800354004,3.3126373291015625,-0.16925646364688873
-1.3326354026794434,2.0659992694854736,-0.10928580164909363
-1.2842769622802734,2.022606372833252,-0.11044444143772125
-1.2943799495697021,2.0713624954223633,-0.11658186465501785
-1.2625120878219604,2.0541696548461914,-0.11894625425338745
-1.8715418577194214,3.0944793224334717,-0.18398326635360718
-1.8576302528381348,3.120696783065796,-0.19022537767887115
-1.822543740272522,3.1138954162597656,-0.19440428912639618
-1.818915605545044,3.1607565879821777,-0.20193758606910706
-1.206844449043274,2.1311984062194824,-0.13907437026500702
-1.9596803188323975,3.519545316696167,-0.23439547419548035
-1.930052638053894,3.526614189147949,-0.23955205082893372
-1.9181370735168457,3.5637667179107666,-0.24659079313278198
-2.5287563800811768,4.779784679412842,-0.33680421113967896
-2.484706163406372,4.780370235443115,-0.3426693379878998
-2.4589223861694336,4.815073490142822,-0.35092926025390625
-2.435675859451294,4.852558135986328,-0.3592631220817566
-1.6632795333862305,3.37321400642395,-0.2535627484321594
-1.6297634840011597,3.367543935775757,-0.2569419741630554
-1.6089917421340942,3.385800838470459,-0.2620165944099426
-1.5852638483047485,3.396630048751831,-0.2664586007595062
-1.5658122301101685,3.418156385421753,-0.27167120575904846
-2.283541679382324,5.081421852111816,-0.4090108275413513
-2.2473411560058594,5.097025394439697,-0.41531988978385925
-2.201753854751587,5.090913772583008,-0.4198593497276306
-2.1532812118530273,5.077276706695557,-0.42351558804512024
-2.209306001663208,5.315131187438965,-0.4482506215572357
-2.181696653366089,5.355450630187988,-0.45651698112487793
-2.1586737632751465,5.406205654144287,-0.4656595289707184
-2.13248610496521,5.453707218170166,-0.47455644607543945
-1.3431209325790405,3.5086162090301514,-0.30822834372520447
-2.0678772926330566,5.519100666046143,-0.4894291162490845
-2.031895637512207,5.540232181549072,-0.49581050872802734
-1.9903606176376343,5.546510219573975,-0.5008277893066406
-1.8777759075164795,5.354698181152344,-0.48759934306144714
-1.5934131145477295,4.64963960647583,-0.4268896281719208
-1.571963906288147,4.693477630615234,-0.4343688488006592
-1.8755944967269897,5.731971263885498,-0.534690260887146
-0.9766744375228882,3.0576250553131104,-0.2873135805130005
-0.9683969616889954,3.108931541442871,-0.2942553758621216
-0.9441728591918945,3.107987880706787,-0.29623866081237793
-0.8097598552703857,2.7338294982910156,-0.2623855769634247
-0.7851797342300415,2.7205352783203125,-0.2628568112850189
-0.7595111727714539,2.703376531600952,-0.2627969980239868
-0.7423285841941833,2.716003656387329,-0.26563724875450134
-0.7170153856277466,2.6984541416168213,-0.26553046703338623
-0.7127776145935059,2.7596564292907715,-0.2731747031211853
-0.6772712469100952,2.7002947330474854,-0.2687402069568634
-1.4707552194595337,6.044317245483398,-0.6046575307846069
-1.4763351678848267,6.258443355560303,-0.629309356212616
-1.4448353052139282,6.3251872062683105,-0.6393342614173889
-1.3972660303115845,6.319515705108643,-0.6420016288757324
-1.3452738523483276,6.294641971588135,-0.6422240734100342
-1.292917251586914,6.265545845031738,-0.6420160531997681
-1.2406420707702637,6.232147693634033,-0.6413410305976868
-1.1877039670944214,6.1945977210998535,-0.6402608752250671
-1.1352171897888184,6.152717113494873,-0.6384826898574829
-1.0682278871536255,6.026310443878174,-0.6275392174720764
-0.9574774503707886,5.6311354637146,-0.5884438753128052
-0.9519110321998596,5.844479560852051,-0.612881064414978
-0.9355347156524658,6.012023448944092,-0.6327187418937683
-0.8957688212394714,6.033516883850098,-0.6369138360023499
-0.8582706451416016,6.07403039932251,-0.642933189868927
-0.8146166205406189,6.071949481964111,-0.6444811224937439
-0.6165834069252014,4.851759910583496,-0.5163946151733398
-0.7166172862052917,5.970351219177246,-0.6372306942939758
-0.6719562411308289,5.955794811248779,-0.6370683908462524
-0.6253238916397095,5.913817882537842,-0.633828341960907
-0.5805568099021912,5.883070468902588,-0.6318025588989258
-0.534626305103302,5.832638263702393,-0.6276692748069763
-0.4926528334617615,5.820561408996582,-0.627680242061615
-0.44917726516723633,5.796683311462402,-0.6259282231330872
-0.24513578414916992,3.4789628982543945,-0.3761328160762787
-0.2213357836008072,3.488269567489624,-0.37763068079948425
-0.32187968492507935,5.699766635894775,-0.6178710460662842
-0.2806907594203949,5.670723915100098,-0.6155554056167603
-0.23948286473751068,5.649236679077148,-0.613538920879364
-0.1991295963525772,5.623547554016113,-0.6110879182815552
-0.15891055762767792,5.58592414855957,-0.6073647141456604
-0.11943884193897247,5.555779933929443,-0.6044788360595703
-0.08039888739585876,5.529251575469971,-0.6019300222396851
-0.04083753749728203,5.467557907104492,-0.5950981378555298
-0.0022968649864196777,4.43475341796875,-0.48261722922325134
0.028578918427228928,4.442434787750244,-0.4834076166152954
0.07250270992517471,5.416763782501221,-0.5894030928611755
0.1098305732011795,5.400620460510254,-0.5875194668769836
0.1466003656387329,5.372617721557617,-0.5839753746986389
0.14051809906959534,4.090734481811523,-0.4442780911922455
0.1734541356563568,4.1983513832092285,-0.455620676279068
0.25055181980133057,5.190122604370117,-0.5628519654273987
0.2867816686630249,5.192216873168945,-0.5625297427177429
0.26128530502319336,4.201793193817139,-0.4545249044895172
0.2895875573158264,4.180569171905518,-0.4515400528907776
0.3174377977848053,4.163061141967773,-0.448994904756546
0.3499631881713867,4.203419208526611,-0.4527069926261902
0.3805285096168518,4.216476917266846,-0.45330750942230225
0.4868171513080597,5.006393909454346,-0.5370252728462219
0.5176348090171814,4.960511207580566,-0.5309151411056519
0.5521013736724854,4.9569573402404785,-0.5293870568275452
0.5847581624984741,4.937727928161621,-0.5262126326560974
0.618947446346283,4.933748722076416,-0.5244302749633789
0.6489394903182983,4.898754596710205,-0.51919025182724
0.6807050704956055,4.875040054321289,-0.5151588916778564
0.7100676894187927,4.8396453857421875,-0.5099517703056335
0.7413339614868164,4.819437026977539,-0.5063834190368652
0.7709664702415466,4.791411876678467,-0.5017063021659851
0.802708089351654,4.778564453125,-0.49853241443634033
0.8491328954696655,4.849701881408691,-0.5041136145591736
0.8792734742164612,4.820885181427002,-0.4992649257183075
0.9113824963569641,4.807257175445557,-0.49605607986450195
0.941496729850769,4.785893440246582,-0.49171262979507446
0.9713684320449829,4.764342308044434,-0.4873470664024353
0.9994996190071106,4.734972953796387,-0.4822145402431488
1.0305402278900146,4.71666955947876,-0.47819721698760986
1.0598751306533813,4.69451379776001,-0.47380930185317993
1.0921372175216675,4.687431812286377,-0.47064369916915894
1.1171241998672485,4.649875164031982,-0.4644532799720764
1.1455719470977783,4.627243995666504,-0.45978519320487976
1.1764357089996338,4.611788272857666,-0.45580777525901794
1.2063746452331543,4.596333980560303,-0.45175090432167053
1.235887050628662,4.580775260925293,-0.44750726222991943
1.2662808895111084,4.568772792816162,-0.44363874197006226
0.5707690715789795,2.0051348209381104,-0.19350852072238922
0.5991690754890442,2.0497243404388428,-0.1965726613998413
0.6032035946846008,2.0121803283691406,-0.19167475402355194
0.6204221844673157,2.019313097000122,-0.19102348387241364
0.6389990448951721,2.0299956798553467,-0.19069373607635498
0.6447953581809998,1.9997283220291138,-0.1865168660879135
0.6540396809577942,1.980505108833313,-0.18335795402526855
0.6675748825073242,1.976154088973999,-0.18151456117630005
1.4854165315628052,4.300238609313965,-0.39185723662376404
1.2611879110336304,3.57087779045105,-0.3227604329586029
1.2860921621322632,3.5622920989990234,-0.3193449079990387
1.3158890008926392,3.568310499191284,-0.3170994222164154
1.6191766262054443,4.298990249633789,-0.37853607535362244
1.6430941820144653,4.273611545562744,-0.372861385345459
1.668676733970642,4.251530170440674,-0.36745205521583557
1.698123812675476,4.240242958068848,-0.3629354238510132
1.7239683866500854,4.221785545349121,-0.35768410563468933
1.738220453262329,4.174178600311279,-0.34994637966156006
1.7672991752624512,4.162344455718994,-0.34523287415504456
1.786981463432312,4.1288676261901855,-0.3387540280818939
1.8148658275604248,4.117082118988037,-0.3339163661003113
1.8490521907806396,4.119320869445801,-0.33021801710128784
1.8780781030654907,4.106573104858398,-0.3251519203186035
1.9132716655731201,4.107889652252197,-0.3212469518184662
1.9310437440872192,4.074106693267822,-0.3144666850566864
1.9550668001174927,4.054375648498535,-0.3087976276874542
1.9796068668365479,4.034168243408203,-0.3030145466327667
2.008247137069702,4.020390510559082,-0.2976134121417999
2.026545286178589,3.989746332168579,-0.2909628450870514
2.056856632232666,3.983370542526245,-0.2860936224460602
2.0844178199768066,3.969413995742798,-0.28054139018058777
2.101123809814453,3.9344887733459473,-0.27350103855133057
2.131131172180176,3.9275803565979004,-0.2683376669883728
2.142749071121216,3.886056661605835,-0.2607593238353729
2.133582592010498,3.806764602661133,-0.25065410137176514
2.1520578861236572,3.778784990310669,-0.24400855600833893
2.188812017440796,3.7850430011749268,-0.23951995372772217
2.2064216136932373,3.757091999053955,-0.23278416693210602
2.225052833557129,3.728307008743286,-0.22578653693199158
2.2742226123809814,3.753730297088623,-0.22209049761295319
2.278459310531616,3.7057945728302,-0.21404525637626648
2.2958896160125732,3.677000045776367,-0.20689328014850616
2.3418023586273193,3.6945719718933105,-0.20228365063667297
2.3494670391082764,3.65299391746521,-0.19431068003177643
2.3701298236846924,3.630655288696289,-0.1872662752866745
2.4122707843780518,3.640657663345337,-0.18172547221183777
2.418409824371338,3.599360466003418,-0.17361243069171906
2.442841053009033,3.5831637382507324,-0.1664608269929886
2.463205575942993,3.5600457191467285,-0.15870870649814606
2.486006259918213,3.5444796085357666,-0.15143604576587677
2.5013234615325928,3.5148632526397705,-0.1431063562631607
2.5244617462158203,3.4985949993133545,-0.1352398544549942
2.5516953468322754,3.488764524459839,-0.1274484246969223
2.180084466934204,2.9383435249328613,-0.10056807100772858
2.7838332653045654,3.9001941680908203,0.22083401679992676
2.752946615219116,3.9215354919433594,0.22989828884601593
2.7118053436279297,3.92118763923645,0.23685751855373383
2.6911468505859375,3.9537956714630127,0.24565662443637848
2.6694090366363525,3.9867987632751465,0.25439006090164185
2.6456456184387207,4.0114874839782715,0.26207178831100464
2.5980677604675293,4.0048394203186035,0.2676822543144226
2.571528673171997,4.030705451965332,0.27527037262916565
2.555671215057373,4.0679850578308105,0.2831932008266449
2.5300803184509277,4.092662811279297,0.2902010977268219
2.5069828033447266,4.1246490478515625,0.297658771276474
2.4806666374206543,4.1491594314575195,0.3044337332248688
2.4515702724456787,4.1659746170043945,0.31043899059295654
2.4203085899353027,4.183772563934326,0.316337525844574
2.3810975551605225,4.187839984893799,0.3211834728717804
2.3591880798339844,4.21766996383667,0.3277326226234436
2.266805648803711,4.121418476104736,0.3244287967681885
2.239616870880127,4.144704818725586,0.3301832377910614
2.2013046741485596,4.1471266746521,0.33427971601486206
2.179466724395752,4.175838470458984,0.34026455879211426
2.157221555709839,4.20449686050415,0.34627845883369446
2.128988265991211,4.227192401885986,0.35165107250213623
2.0975804328918457,4.242470741271973,0.35637733340263367
2.0794763565063477,4.281325340270996,0.3629573881626129
2.0461361408233643,4.288349151611328,0.3668372929096222
2.013360023498535,4.299162864685059,0.3708677589893341
1.9833170175552368,4.317021369934082,0.37545084953308105
1.967478632926941,4.366631984710693,0.38284677267074585
2.0093092918395996,4.543735027313232,0.4014231264591217
1.9680218696594238,4.535943984985352,0.4037385582923889
1.94086492061615,4.5642008781433105,0.4090083837509155
4.290923118591309,10.298532485961914,0.9291020631790161
4.230956077575684,10.364564895629883,0.9412724375724792
4.174407482147217,10.432814598083496,0.9535134434700012
1.8066877126693726,4.609199047088623,0.42384350299835205
1.8107678890228271,4.7199907302856445,0.4364684820175171
1.7613639831542969,4.692616939544678,0.43636980652809143
1.3412607908248901,3.652827024459839,0.34156152606010437
1.3104650974273682,3.647202730178833,0.3428664803504944
1.2821428775787354,3.6487624645233154,0.3447822034358978
1.6271196603775024,4.739570140838623,0.4499187171459198
1.592789649963379,4.750917434692383,0.4530772566795349
1.5717339515686035,4.802669048309326,0.46012789011001587
