X,Y,Z
1.2697025537490845,3.5244691371917725,-0.4840448200702667
1.2940326929092407,3.5164244174957275,-0.47808265686035156
1.3093335628509521,3.4826135635375977,-0.4685620069503784
1.3337640762329102,3.4741365909576416,-0.46254539489746094
1.3522812128067017,3.4511301517486572,-0.45452624559402466
1.3731660842895508,3.435340166091919,-0.4473482072353363
1.4085856676101685,3.455312967300415,-0.44480565190315247
1.7417205572128296,4.187460899353027,-0.5325861573219299
1.7588701248168945,4.147581577301025,-0.5211406946182251
1.7842477560043335,4.129268646240234,-0.5122933983802795
1.8188930749893188,4.132080554962158,-0.5060663223266602
1.8415604829788208,4.1060075759887695,-0.49618402123451233
1.8675514459609985,4.086713790893555,-0.4870156943798065
1.8955180644989014,4.074804306030273,-0.47868838906288147
1.9234026670455933,4.062689781188965,-0.4703594148159027
1.945210337638855,4.036029815673828,-0.4602054953575134
1.9699745178222656,4.0163140296936035,-0.45086437463760376
1.9925676584243774,3.993105411529541,-0.440912663936615
2.0163400173187256,3.973386287689209,-0.431491494178772
2.044342279434204,3.9600143432617188,-0.42256611585617065
2.068272113800049,3.9397335052490234,-0.4128885865211487
2.091339349746704,3.9196550846099854,-0.40319767594337463
2.1182823181152344,3.90608811378479,-0.39410778880119324
2.1462323665618896,3.8917479515075684,-0.3846416473388672
2.12913179397583,3.7997398376464844,-0.36774641275405884
2.170144557952881,3.813222885131836,-0.36115631461143494
2.177122116088867,3.7652204036712646,-0.348536878824234
2.195638418197632,3.7372708320617676,-0.33778053522109985
2.2330732345581055,3.743131637573242,-0.3298659920692444
2.250319719314575,3.715423822402954,-0.3190514147281647
2.260113000869751,3.6737751960754395,-0.3068126440048218
2.3056769371032715,3.692200183868408,-0.29955971240997314
2.3135321140289307,3.6512224674224854,-0.28746894001960754
2.347910165786743,3.648594379425049,-0.2778320610523224
2.381404399871826,3.646254777908325,-0.26825886964797974
2.3881795406341553,3.6052215099334717,-0.25587543845176697
2.4087629318237305,3.5828731060028076,-0.24443373084068298
2.4553205966949463,3.599196434020996,-0.23538991808891296
2.457037925720215,3.55141544342041,-0.22199320793151855
2.4816083908081055,3.5350091457366943,-0.21022771298885345
2.5324816703796387,3.557077407836914,-0.20049329102039337
2.5189414024353027,3.490617275238037,-0.18575361371040344
2.575727939605713,3.517557144165039,-0.1750437617301941
2.1842751502990723,2.9435315132141113,-0.136235311627388
2.772324323654175,3.892512559890747,0.41541776061058044
2.7560067176818848,3.9311845302581787,0.4308452904224396
2.729304075241089,3.957756757736206,0.44480273127555847
2.71852707862854,4.001474857330322,0.4597166180610657
2.6751484870910645,4.00119161605835,0.46940362453460693
2.658582925796509,4.0434136390686035,0.48399072885513306
2.6270668506622314,4.058004856109619,0.49460911750793457
2.5846660137176514,4.056215763092041,0.5028987526893616
2.5613696575164795,4.087991714477539,0.5151364207267761
2.5371222496032715,4.11549186706543,0.5265387296676636
2.5078580379486084,4.132138729095459,0.5362625122070312
2.4741506576538086,4.146621227264404,0.5455598831176758
2.4481706619262695,4.174256801605225,0.5564146637916565
2.42185115814209,4.19734001159668,0.5662996172904968
2.3959293365478516,4.219920635223389,0.5760306119918823
2.367932081222534,4.243398666381836,0.5855761170387268
2.2810635566711426,4.161738872528076,0.5805436968803406
2.241725444793701,4.159939765930176,0.5861177444458008
2.225015163421631,4.198533058166504,0.5972840189933777
2.1905996799468994,4.206770420074463,0.6039122939109802
2.1659977436065674,4.235821723937988,0.6134123206138611
2.144552707672119,4.271646499633789,0.623971164226532
2.1143290996551514,4.285645961761475,0.6310817003250122
2.087212324142456,4.3064799308776855,0.6391923427581787
2.0616555213928223,4.3349151611328125,0.6480764746665955
2.0259668827056885,4.342148303985596,0.6538344025611877
1.9913835525512695,4.3486151695251465,0.6593384146690369
1.9696859121322632,4.3829569816589355,0.6690900921821594
2.003880023956299,4.54460334777832,0.6982406973838806
1.9548579454421997,4.522841930389404,0.6990022659301758
1.9454764127731323,4.593189716339111,0.7140571475028992
1.9007289409637451,4.57747220993042,0.7156562805175781
1.8810734748840332,4.62222146987915,0.7267489433288574
1.853926181793213,4.648900508880615,0.73488450050354
1.8197916746139526,4.661490440368652,0.740431010723114
1.7910404205322266,4.6882758140563965,0.7482881546020508
1.742422103881836,4.660354137420654,0.7473583221435547
1.3375678062438965,3.6561989784240723,0.5890914797782898
1.3158016204833984,3.675729513168335,0.5949854254722595
1.2776070833206177,3.6517674922943115,0.5934644341468811
1.6455031633377075,4.814731597900391,0.7855507135391235
1.634840965270996,4.8990092277526855,0.8024708032608032
1.571168303489685,4.821672439575195,0.7928854823112488
1.537374496459961,4.8317766189575195,0.797606348991394
1.523686408996582,4.9081268310546875,0.8131284713745117
1.507081389427185,4.9810991287231445,0.8278378248214722
1.4688305854797363,4.98375129699707,0.8309289813041687
1.4416686296463013,5.0230712890625,0.840158224105835
1.3955498933792114,4.995337963104248,0.8381952047348022
1.3494981527328491,4.963336944580078,0.8354693651199341
1.291538953781128,4.886434555053711,0.8247936964035034
1.2612031698226929,4.913658618927002,0.8314725756645203
1.2389785051345825,4.974340438842773,0.843883216381073
1.2012615203857422,4.975046157836914,0.8461945652961731
1.171728253364563,5.005242824554443,0.8535033464431763
1.1384754180908203,5.020218849182129,0.8582682013511658
1.1085976362228394,5.053984642028809,0.8658824563026428
1.0740858316421509,5.068807125091553,0.8700957298278809
1.0403022766113281,5.091063976287842,0.8756688833236694
1.0072450637817383,5.112910747528076,0.8811793327331543
1.80093514919281,9.489465713500977,1.6387321949005127
1.7236400842666626,9.440262794494629,1.6335701942443848
1.6457586288452148,9.386894226074219,1.627055048942566
1.5669679641723633,9.333270072937012,1.6200886964797974
1.5018635988235474,9.351048469543457,1.6255425214767456
1.4311604499816895,9.330259323120117,1.6243524551391602
1.3661013841629028,9.339303016662598,1.6283975839614868
1.2979044914245605,9.325003623962402,1.6284414529800415
1.2260067462921143,9.291378021240234,1.6247996091842651
1.1493756771087646,9.21146297454834,1.6123290061950684
1.0956165790557861,9.3143892288208,1.6319422721862793
1.0273617506027222,9.29842758178711,1.6308187246322632
0.9653611779212952,9.331647872924805,1.6383806467056274
0.897777259349823,9.310830116271973,1.6365340948104858
0.38594895601272583,4.32289457321167,0.7607008218765259
0.35210347175598145,4.283178329467773,0.7540749311447144
0.32488903403282166,4.323772430419922,0.7616251707077026
0.2984773516654968,4.383378982543945,0.7725708484649658
0.3428753614425659,5.613997936248779,0.9900850057601929
0.3043617904186249,5.639148712158203,0.9951977729797363
0.2665706276893616,5.671688556671143,1.0016579627990723
0.22770817577838898,5.692521572113037,1.005674123764038
0.1889433115720749,5.724668025970459,1.0114628076553345
0.1508406102657318,5.7988481521606445,1.0247302055358887
0.11061786115169525,5.853552341461182,1.0346143245697021
0.06991516798734665,5.854115962982178,1.034976840019226
0.029133224859833717,5.839010238647461,1.0326181650161743
-0.017588848248124123,8.958560943603516,1.5846867561340332
-0.07897409051656723,8.869852066040039,1.568495750427246
-0.1401950567960739,8.773015022277832,1.5509452819824219
-0.19932551681995392,8.69116497039795,1.536135196685791
-0.2556008994579315,8.551243782043457,1.511142611503601
-0.2256561517715454,6.123704433441162,1.0820221900939941
-0.2646172046661377,6.041351795196533,1.0673891305923462
-0.18306951224803925,3.607579231262207,0.6370673775672913
-0.20536847412586212,3.552549362182617,0.6269108057022095
-0.23467278480529785,3.6240999698638916,0.6391279697418213
-0.5637984871864319,7.862832069396973,1.3858271837234497
-0.5224841833114624,6.639279842376709,1.1695339679718018
-0.5735002756118774,6.693207740783691,1.1784437894821167
-0.6096754670143127,6.5704803466796875,1.1561193466186523
-0.6366190314292908,6.382687568664551,1.121829628944397
-0.6793051362037659,6.367014408111572,1.1178853511810303
-0.7270914912223816,6.396932125091553,1.1219927072525024
-0.7696142196655273,6.3767924308776855,1.1173629760742188
-0.8093953728675842,6.329535961151123,1.1080241203308105
-0.8462320566177368,6.270687580108643,1.0967439413070679
-0.8834213614463806,6.223236560821533,1.0868918895721436
-0.9312245845794678,6.251756191253662,1.0902104377746582
-0.9812403917312622,6.291326522827148,1.0954865217208862
-1.0315765142440796,6.322760105133057,1.0993412733078003
-1.082699179649353,6.357651710510254,1.1038434505462646
-1.136375904083252,6.403514385223389,1.1102811098098755
-1.1896655559539795,6.445285320281982,1.1156672239303589
-1.2446010112762451,6.49434757232666,1.1219096183776855
-1.2995115518569946,6.539189338684082,1.1274378299713135
-1.3536145687103271,6.572106838226318,1.1308903694152832
-1.4121840000152588,6.623444080352783,1.137536883354187
-1.4499659538269043,6.57647180557251,1.1273465156555176
-1.4851462841033936,6.521869659423828,1.1157552003860474
-1.5233087539672852,6.486114025115967,1.1068474054336548
-0.6775062084197998,2.797981023788452,0.47626665234565735
-0.6909034252166748,2.7711987495422363,0.4705542027950287
-0.7121276259422302,2.7741096019744873,0.4698820114135742
-0.7255789041519165,2.7470338344573975,0.4641578495502472
-0.7507537603378296,2.764570713043213,0.46595874428749084
-0.7698613405227661,2.7596938610076904,0.4636840522289276
-1.7576277256011963,6.139845371246338,1.028479814529419
-1.790623426437378,6.098985195159912,1.0185545682907104
-1.8230890035629272,6.053958892822266,1.0079350471496582
-1.8539369106292725,6.00506067276001,0.9967512488365173
-1.887006402015686,5.963251113891602,0.9866434931755066
-1.9166111946105957,5.918238639831543,0.97554612159729
-1.9492748975753784,5.88409423828125,0.9663237929344177
-1.9791442155838013,5.842437267303467,0.955937922000885
-2.0061867237091064,5.789224147796631,0.9436196684837341
-2.036390542984009,5.74683952331543,0.9331612586975098
-2.067516326904297,5.707951545715332,0.9230090975761414
-2.0926175117492676,5.658641338348389,0.9109308123588562
-2.1198198795318604,5.616482734680176,0.9000980257987976
-2.1582977771759033,5.602813720703125,0.8938249349594116
-2.211627960205078,5.624543190002441,0.8931300640106201
-2.281904458999634,5.684995174407959,0.898472011089325
-2.3319222927093506,5.699191093444824,0.8959994316101074
-2.355215311050415,5.648849010467529,0.8833401799201965
-2.390029191970825,5.62690544128418,0.8751973509788513
-2.432441234588623,5.618271350860596,0.8689600229263306
-3.904677152633667,8.847028732299805,1.3605175018310547
-2.5439746379852295,5.660181522369385,0.8652123808860779
-2.544674873352051,5.563350677490234,0.8450046181678772
-2.5915980339050293,5.568457126617432,0.8403688073158264
-2.6053524017333984,5.499077796936035,0.8243515491485596
-2.646367073059082,5.48500394821167,0.8165413737297058
-2.682298421859741,5.464454174041748,0.807645857334137
-2.6875462532043457,5.385340213775635,0.7898715734481812
-2.7128403186798096,5.34783935546875,0.7783372402191162
-2.750073194503784,5.330078601837158,0.7694514393806458
-2.7570085525512695,5.253498554229736,0.7521075010299683
-2.8114986419677734,5.269837379455566,0.7476916909217834
-1.1636593341827393,2.1473193168640137,0.3018783628940582
-1.1630499362945557,2.1128439903259277,0.29425594210624695
-2.5073769092559814,4.481028079986572,0.6178519129753113
-2.542598247528076,4.4712371826171875,0.6102420687675476
-5.973335266113281,10.345373153686523,1.3962523937225342
-6.053109169006348,10.328643798828125,1.3785228729248047
-1.2349151372909546,2.074493408203125,0.2735747992992401
-2.9190714359283447,4.826826572418213,0.6286979913711548
-2.9225850105285645,4.762398719787598,0.6121672987937927
-2.983024835586548,4.7903242111206055,0.6073297262191772
-2.9870550632476807,4.725002288818359,0.5903791785240173
-3.0245816707611084,4.7117156982421875,0.5798471570014954
-3.0424678325653076,4.673793792724609,0.5659656524658203
-3.036249876022339,4.600237846374512,0.54791659116745
-3.0778591632843018,4.592727184295654,0.5368360280990601
-3.08312726020813,4.534318923950195,0.5198817253112793
-3.0967466831207275,4.493419647216797,0.5048550367355347
-3.173887014389038,4.5407867431640625,0.49910223484039307
-2.859226942062378,4.030947685241699,0.4326496124267578
-2.855659246444702,3.972670555114746,0.41561058163642883
-2.920976161956787,4.008435249328613,0.40806618332862854
-2.935135841369629,3.970473051071167,0.3921321928501129
-2.9540915489196777,4.13784646987915,-0.24099579453468323
-2.437657594680786,3.465290069580078,-0.21388225257396698
-2.3867032527923584,3.4476938247680664,-0.2247058004140854
-2.8577635288238525,4.192599773406982,-0.2869415283203125
-2.2472403049468994,3.3476204872131348,-0.23952636122703552
-2.2389676570892334,3.3897578716278076,-0.2529999315738678
-2.222640037536621,3.4182488918304443,-0.2651982605457306
-2.1851418018341064,3.413752794265747,-0.274504691362381
-2.140645742416382,3.3995730876922607,-0.28290805220603943
-1.254164695739746,2.023195743560791,-0.17371414601802826
-1.2395188808441162,2.031679630279541,-0.17971472442150116
-2.1074776649475098,3.5132782459259033,-0.3199634850025177
-2.091986656188965,3.54422926902771,-0.3315090537071228
-2.1116764545440674,3.635523796081543,-0.3487706482410431
-1.1967262029647827,2.095445394515991,-0.205994114279747
-1.1852144002914429,2.1103451251983643,-0.2123483270406723
-2.5657336711883545,4.645157337188721,-0.4779582619667053
-2.5430054664611816,4.682961463928223,-0.49215173721313477
-2.519449472427368,4.720860481262207,-0.5064362287521362
-2.4858222007751465,4.737386703491211,-0.518146812915802
-2.4682059288024902,4.784707546234131,-0.5332223176956177
-2.439518690109253,4.815502643585205,-0.5466071367263794
-2.4113759994506836,4.845702171325684,-0.5597686171531677
-2.387338638305664,4.882238388061523,-0.5734815001487732
-2.3624134063720703,4.918881416320801,-0.5872330665588379
-2.338125705718994,4.959194660186768,-0.6013993620872498
-2.3088889122009277,4.988633155822754,-0.6142444014549255
-2.285830020904541,5.031985759735107,-0.6288949251174927
-2.260767698287964,5.07168436050415,-0.6428863406181335
-2.0809805393218994,4.759537220001221,-0.6116560697555542
-2.0499396324157715,4.780142307281494,-0.6225548386573792
-1.947013020515442,4.6287736892700195,-0.6107059717178345
-0.972146213054657,2.3584163188934326,-0.31513530015945435
-0.963823139667511,2.386298656463623,-0.32274121046066284
-0.9667445421218872,2.4429190158843994,-0.3343234360218048
-0.9299255013465881,2.3984432220458984,-0.3320358395576477
-0.9265847206115723,2.440580129623413,-0.34163111448287964
-0.8858231902122498,2.384922742843628,-0.3374932110309601
-0.8833624720573425,2.430574417114258,-0.34758591651916504
-0.8662303686141968,2.4361026287078857,-0.35197630524635315
-0.8540384769439697,2.4561727046966553,-0.35841134190559387
-0.841443657875061,2.4762508869171143,-0.36476612091064453
-0.8259044885635376,2.4889955520629883,-0.3701404631137848
-0.8131515383720398,2.5088346004486084,-0.3765140175819397
-0.8013007640838623,2.532304286956787,-0.38344234228134155
-0.7855512499809265,2.5447237491607666,-0.3885335922241211
-0.774099588394165,2.5718448162078857,-0.3959299921989441
-0.7603806257247925,2.591433048248291,-0.40218794345855713
-0.7461055517196655,2.6110219955444336,-0.4085598289966583
-0.7452127933502197,2.6789002418518066,-0.42226460576057434
-0.7282467484474182,2.69096302986145,-0.4272443950176239
-0.71616131067276,2.721553325653076,-0.43520885705947876
-0.6942021250724792,2.714677572250366,-0.4372069239616394
-0.6765785813331604,2.7264838218688965,-0.4420868754386902
-0.6618183255195618,2.74938702583313,-0.44860565662384033
-0.6424276828765869,2.7534141540527344,-0.45207974314689636
-0.6282406449317932,2.7798452377319336,-0.4592590928077698
-0.6137136220932007,2.8062098026275635,-0.46642377972602844
-0.5904000401496887,2.794919013977051,-0.46708405017852783
-0.5822810530662537,2.8551316261291504,-0.4797077476978302
-0.5526085495948792,2.8094513416290283,-0.4745585322380066
-0.8714779615402222,4.599545955657959,-0.7810956239700317
-0.8322790861129761,4.5668745040893555,-0.7791741490364075
-0.7843537330627441,4.484684467315674,-0.7686434388160706
-0.7408117055892944,4.417175769805908,-0.7604750990867615
-0.6934720873832703,4.31887149810791,-0.7468956708908081
-0.656816303730011,4.281089782714844,-0.7434831261634827
-0.6156385540962219,4.208827018737793,-0.7335717082023621
-0.5755510926246643,4.140089511871338,-0.7242615222930908
-0.5411390662193298,4.101466655731201,-0.7201229929924011
-0.506816565990448,4.05875825881958,-0.71524578332901
-0.4784608483314514,4.06174373626709,-0.7178249955177307
-0.3421351909637451,3.0895113945007324,-0.5475187301635742
-0.32533499598503113,3.1374008655548096,-0.5575686097145081
-0.3049461245536804,3.1584222316741943,-0.5629287958145142
-0.2863505184650421,3.1984705924987793,-0.5714889764785767
-0.2665569484233856,3.230800151824951,-0.5783783197402954
-0.2449042946100235,3.2438290119171143,-0.5818539261817932
-0.223896786570549,3.268216848373413,-0.5874062180519104
-0.20314250886440277,3.3078315258026123,-0.5957657098770142
-0.18157944083213806,3.3358709812164307,-0.6015297174453735
-0.15942414104938507,3.3599376678466797,-0.6065571904182434
-0.13823935389518738,3.4145803451538086,-0.6171482801437378
-0.12013819813728333,3.5843355655670166,-0.6486243605613708
-0.09337291866540909,3.531177043914795,-0.6395694017410278
-0.06781922280788422,3.481731414794922,-0.6308020949363708
-0.04351486265659332,3.4743812084198,-0.6296886205673218
-0.019117675721645355,3.4361140727996826,-0.6229992508888245
0.004857759457081556,3.459174871444702,-0.6274588704109192
0.02927272394299507,3.451418399810791,-0.6257819533348083
0.05343668535351753,3.4588799476623535,-0.6268265247344971
0.07799593359231949,3.4815449714660645,-0.6306548118591309
0.10261980444192886,3.496351480484009,-0.6330873370170593
0.12772557139396667,3.518710136413574,-0.6366669535636902
0.15333086252212524,3.5447986125946045,-0.6405445337295532
0.181629478931427,3.6090800762176514,-0.6513203382492065
0.20804883539676666,3.6309401988983154,-0.654464066028595
0.23376600444316864,3.637263059616089,-0.6548330783843994
0.2617736756801605,3.6741862297058105,-0.6601500511169434
0.2854757606983185,3.6495773792266846,-0.6543614268302917
0.3138813078403473,3.6784238815307617,-0.6581618785858154
0.34760573506355286,3.764530897140503,-0.6722182631492615
0.3691886067390442,3.716445207595825,-0.6620782613754272
0.4006999433040619,3.767756223678589,-0.6692615151405334
0.42990827560424805,3.792058229446411,-0.6716378927230835
0.4595511257648468,3.8122634887695312,-0.6732572317123413
0.48804718255996704,3.8246607780456543,-0.6735458970069885
0.521297037601471,3.871281623840332,-0.6792744398117065
0.5547010898590088,3.9138317108154297,-0.6841891407966614
0.5893195271492004,3.959916114807129,-0.689690351486206
0.6197646260261536,3.971412420272827,-0.6891139149665833
0.6567129492759705,4.024600982666016,-0.6955262422561646
0.7099204659461975,4.168666362762451,-0.7171399593353271
0.7516709566116333,4.2363762855529785,-0.7254836559295654
0.7903004884719849,4.280977725982666,-0.7297993302345276
0.8332167863845825,4.344175338745117,-0.7372303009033203
0.878217339515686,4.410813808441162,-0.7444684505462646
0.9205215573310852,4.4620585441589355,-0.7490631341934204
0.9652937650680542,4.5204620361328125,-0.7547726631164551
1.0143201351165771,4.593520164489746,-0.7628273963928223
1.0531599521636963,4.617331027984619,-0.7623112797737122
1.087546944618225,4.618256568908691,-0.7576097249984741
1.1232833862304688,4.6265339851379395,-0.7542075514793396
1.1519438028335571,4.6045331954956055,-0.7458693981170654
1.180288553237915,4.582368850708008,-0.7375202178955078
1.2081786394119263,4.560154914855957,-0.7286943197250366
1.2353559732437134,4.533901691436768,-0.7192054986953735
1.2628809213638306,4.511289119720459,-0.7104315757751465
1.2838131189346313,4.466205596923828,-0.6982021927833557
1.3170573711395264,4.465621471405029,-0.6926226615905762
1.0862793922424316,3.5918338298797607,-0.5525739789009094
1.116315484046936,3.59967303276062,-0.5491628646850586
1.1368741989135742,3.5778651237487793,-0.5413052439689636
1.1618412733078003,3.570701837539673,-0.5355609059333801
1.1865956783294678,3.563443660736084,-0.5295952558517456
1.2063121795654297,3.5413565635681152,-0.5214712619781494
1.2286394834518433,3.5263607501983643,-0.5143844485282898
1.2537875175476074,3.5183913707733154,-0.5082381367683411
1.275444746017456,3.503265857696533,-0.5008958578109741
1.299674153327942,3.495246410369873,-0.49459877610206604
1.3227837085723877,3.4833223819732666,-0.4877127408981323
1.3444877862930298,3.4675862789154053,-0.48031139373779297
1.3603299856185913,3.43733549118042,-0.4706316590309143
1.3898438215255737,3.443132162094116,-0.4659861922264099
1.4139188528060913,3.4342198371887207,-0.45927563309669495
1.4260478019714355,3.3964788913726807,-0.4487498998641968
1.44955313205719,3.387413501739502,-0.4419064223766327
1.4763432741165161,3.385199785232544,-0.4358125925064087
1.822936773300171,4.1026177406311035,-0.5211461186408997
1.8486285209655762,4.083672523498535,-0.5116590857505798
1.8768465518951416,4.071865558624268,-0.5029561519622803
1.9113718271255493,4.0740132331848145,-0.49589720368385315
1.9368635416030884,4.05444860458374,-0.4859713017940521
1.9552316665649414,4.020796775817871,-0.47446998953819275
1.9828975200653076,4.008289813995361,-0.46539562940597534
2.010244131088257,3.9956955909729004,-0.456282377243042
2.0327770709991455,3.972240447998047,-0.4458058774471283
2.060746908187866,3.958848237991333,-0.43641868233680725
2.080972194671631,3.93171763420105,-0.42529788613319397
2.092961311340332,3.8910670280456543,-0.41293808817863464
2.138899087905884,3.9114229679107666,-0.40680667757987976
2.151162624359131,3.8701298236846924,-0.39420685172080994
2.137124538421631,3.785306930541992,-0.3773268163204193
2.1595139503479004,3.764580726623535,-0.36679771542549133
2.2017297744750977,3.7771096229553223,-0.3593442738056183
2.207775592803955,3.72934627532959,-0.34614497423171997
2.228785276412964,3.708660840988159,-0.3355470299720764
2.2708113193511963,3.7205631732940674,-0.32754331827163696
2.2726213932037354,3.6654934883117676,-0.31339606642723083
2.3053576946258545,3.6643013954162598,-0.30407726764678955
2.3429319858551025,3.6690444946289062,-0.29496437311172485
2.347531795501709,3.620610237121582,-0.28132393956184387
2.3715567588806152,3.605757474899292,-0.2703723609447479
2.4048352241516113,3.6032514572143555,-0.2599794268608093
2.421426773071289,3.5741255283355713,-0.24736666679382324
2.4449989795684814,3.5588295459747314,-0.2357565015554428
2.4999899864196777,3.5879616737365723,-0.22671809792518616
2.4891135692596436,3.520106077194214,-0.2110229730606079
2.521294116973877,3.517087936401367,-0.19915562868118286
2.5588912963867188,3.5195422172546387,-0.1871018409729004
2.2492258548736572,3.0503721237182617,-0.15107616782188416
2.7608444690704346,3.9065134525299072,0.44934341311454773
2.7471964359283447,3.952439069747925,0.466291218996048
2.7222626209259033,3.97753643989563,0.48000675439834595
2.6926651000976562,3.9960904121398926,0.4926769733428955
2.665463924407959,4.022073268890381,0.5058558583259583
2.6396336555480957,4.046861171722412,0.5184356570243835
2.61702823638916,4.073918342590332,0.5309472680091858
2.5854387283325195,4.092581748962402,0.5420629978179932
2.557321548461914,4.117857933044434,0.5541475415229797
2.528017997741699,4.1345415115356445,0.5642870664596558
2.5018527507781982,4.158101558685303,0.5752742290496826
2.457993984222412,4.155790328979492,0.5823922157287598
2.4461638927459717,4.206313133239746,0.5968152284622192
2.411942720413208,4.215770244598389,0.6051841974258423
2.381213903427124,4.231896877288818,0.614252507686615
2.3415162563323975,4.234997272491455,0.621147632598877
2.25970196723938,4.15928316116333,0.61629319190979
2.233809232711792,4.180827617645264,0.625402569770813
2.206984043121338,4.202566623687744,0.6346479654312134
2.1787660121917725,4.224794864654541,0.6435045599937439
2.150367498397827,4.246804237365723,0.6523762941360474
2.1232523918151855,4.267922401428223,0.6609068512916565
2.099874258041382,4.295563220977783,0.6704144477844238
2.0746967792510986,4.323803901672363,0.6799028515815735
2.0423402786254883,4.338073253631592,0.6869385242462158
2.009997606277466,4.352041244506836,0.6939477324485779
1.9792895317077637,4.36503267288208,0.7005814909934998
2.0207772254943848,4.5402021408081055,0.7334491610527039
1.9907606840133667,4.560811996459961,0.7411776185035706
1.9563623666763306,4.5746026039123535,0.7477537393569946
1.94489324092865,4.641308784484863,0.7629906535148621
1.9239263534545898,4.682429313659668,0.7739295363426208
1.8606451749801636,4.6196112632751465,0.7676854729652405
1.8485198020935059,4.685791015625,0.7825815081596375
1.8051189184188843,4.676887512207031,0.7848348617553711
1.7816238403320312,4.717931747436523,0.7954555153846741
1.7347421646118164,4.693319797515869,0.7949146032333374
1.3251745700836182,3.6634559631347656,0.6232922077178955
1.3004915714263916,3.6756675243377686,0.6281073689460754
1.2618266344070435,3.651746988296509,0.626436710357666
1.6394785642623901,4.858339786529541,0.8366097211837769
1.6068542003631592,4.876474857330322,0.842923104763031
1.5750353336334229,4.894093036651611,0.8491095900535583
1.5314970016479492,4.874734401702881,0.848908007144928
1.4960849285125732,4.88491153717041,0.8535401821136475
1.4717295169830322,4.931758403778076,0.8643625974655151
1.4435480833053589,4.967395305633545,0.8732993602752686
1.4250391721725464,5.036044597625732,0.8880800604820251
1.3897414207458496,5.045137882232666,0.8923983573913574
1.3135751485824585,4.901492118835449,0.8696566224098206
1.2759419679641724,4.902795314788818,0.8721210956573486
1.2500476837158203,4.9485297203063965,0.8823835253715515
1.219949722290039,4.979166030883789,0.8900222182273865
1.1830002069473267,4.979523181915283,0.8922609686851501
1.1559205055236816,5.020785808563232,0.9018653035163879
1.1252174377441406,5.050756454467773,0.9095484614372253
1.0925090312957764,5.073117256164551,0.9153501391410828
1.057826042175293,5.087780952453613,0.9197003245353699
1.0183967351913452,5.079587936401367,0.9199658036231995
0.9840127229690552,5.093660354614258,0.9242834448814392
1.686320185661316,9.073342323303223,1.6496715545654297
1.6202998161315918,9.068796157836914,1.6521068811416626
1.5438085794448853,9.007216453552246,1.6434193849563599
1.4810587167739868,9.024802207946777,1.6488428115844727
1.415753960609436,9.026756286621094,1.6514934301376343
1.3577516078948975,9.081555366516113,1.6639320850372314
1.284805178642273,9.021560668945312,1.6553393602371216
1.2219363451004028,9.029565811157227,1.6592895984649658
1.158799648284912,9.037238121032715,1.6628119945526123
1.093700647354126,9.03321647644043,1.663528561592102
1.0255697965621948,9.002013206481934,1.6593161821365356
0.9618164300918579,9.016249656677246,1.6635836362838745
0.9020235538482666,9.052802085876465,1.6720114946365356
0.40387850999832153,4.360861778259277,0.8062803745269775
0.37283438444137573,4.355666637420654,0.8062057495117188
0.3383660614490509,4.308243274688721,0.7977792024612427
0.31055858731269836,4.35255241394043,0.8063759207725525
0.2799715995788574,4.354482173919678,0.8071581125259399
0.32338690757751465,5.644636154174805,1.0469019412994385
0.2837224304676056,5.638890743255615,1.0464818477630615
0.24698099493980408,5.698098659515381,1.0581728219985962
0.2079962193965912,5.737967014312744,1.065947413444519
0.1700488030910492,5.8121657371521,1.0797908306121826
0.12945042550563812,5.813156604766846,1.0800870656967163
0.08943334966897964,5.852264404296875,1.0875192880630493
0.04869341105222702,5.845008850097656,1.086388349533081
0.007448134012520313,5.8797149658203125,1.0931154489517212
-0.05100734531879425,8.974891662597656,1.669022560119629
-0.11122657358646393,8.805481910705566,1.6369285583496094
-0.17150026559829712,8.758543968200684,1.6276952028274536
-0.22939544916152954,8.645927429199219,1.6063426733016968
-0.2870195209980011,8.571316719055176,1.5921372175216675
-0.3300465941429138,8.135554313659668,1.5109368562698364
-0.16939611732959747,3.5640206336975098,0.661832332611084
-0.19576065242290497,3.593534469604492,0.6670320630073547
-0.22015872597694397,3.584562301635742,0.6648750901222229
-0.5377882122993469,7.867471694946289,1.4582734107971191
-0.5896590948104858,7.817831516265869,1.4481228590011597
-0.5474724769592285,6.642336368560791,1.22964346408844
-0.5946950316429138,6.650099277496338,1.2303998470306396
-0.6247923970222473,6.4777936935424805,1.1979131698608398
-0.6603397130966187,6.385828495025635,1.179559588432312
-0.7101883888244629,6.427260398864746,1.1858768463134766
-0.7535771131515503,6.414970874786377,1.182354211807251
-0.7932475209236145,6.371856212615967,1.1732094287872314
-0.8289904594421387,6.301808834075928,1.1591771841049194
-0.868547260761261,6.265827655792236,1.1514840126037598
-0.9097297787666321,6.241029739379883,1.1454460620880127
-0.9564449191093445,6.26178503036499,1.1474636793136597
-1.009619116783142,6.320143222808838,1.1563972234725952
-1.0605454444885254,6.359103202819824,1.1618026494979858
-1.1148076057434082,6.4089035987854,1.1691868305206299
-1.1663185358047485,6.439356803894043,1.1730759143829346
-1.2210931777954102,6.480652332305908,1.1788147687911987
-1.274255633354187,6.51813268661499,1.1832178831100464
-1.3318053483963013,6.574040412902832,1.1909817457199097
-1.386303424835205,6.610638618469238,1.1952598094940186
-1.4361605644226074,6.620385646820068,1.1946914196014404
-1.470382571220398,6.554470062255859,1.1804906129837036
-1.508975863456726,6.5148115158081055,1.1711487770080566
-0.6676451563835144,2.7959625720977783,0.5013837814331055
-0.690295398235321,2.806673765182495,0.5020431876182556
-0.7018163800239563,2.7724242210388184,0.49468809366226196
-0.721278727054596,2.767794370651245,0.49261507391929626
-0.736606240272522,2.748180627822876,0.4879133701324463
-0.7690805196762085,2.791590690612793,0.4944103956222534
-1.741885781288147,6.158857822418213,1.0875688791275024
-1.7772012948989868,6.125637531280518,1.0783554315567017
-1.8041081428527832,6.062467098236084,1.0638999938964844
-1.8425302505493164,6.03975248336792,1.0566344261169434
-1.87093186378479,5.9835286140441895,1.0435436964035034
-1.9034000635147095,5.9418487548828125,1.0330755710601807
-1.9378947019577026,5.911423206329346,1.0240744352340698
-1.9614309072494507,5.847804546356201,1.0091913938522339
-1.9984389543533325,5.828125476837158,1.0020488500595093
-2.022160530090332,5.7678751945495605,0.9879254698753357
-2.0521035194396973,5.725557327270508,0.9769282937049866
-2.0828144550323486,5.686733245849609,0.9666129350662231
-2.112919807434082,5.652020454406738,0.9563987255096436
-2.1405978202819824,5.609689235687256,0.9448986053466797
-2.189497709274292,5.625021457672119,0.943234384059906
-2.2559967041015625,5.6788177490234375,0.9478080868721008
-2.314707040786743,5.710485458374023,0.9486396312713623
-2.3465933799743652,5.677762031555176,0.9385088086128235
-2.3763763904571533,5.641479969024658,0.927388608455658
-2.423327922821045,5.647922992706299,0.9234310388565063
-2.4885294437408447,5.692512035369873,0.9255424737930298
-3.9343717098236084,8.831886291503906,1.4277900457382202
-2.5250985622406006,5.564551830291748,0.8943815231323242
-2.556499481201172,5.5345139503479,0.8837354183197021
-2.590172529220581,5.511602878570557,0.874400794506073
-2.6243667602539062,5.488157272338867,0.8649251461029053
-2.6613364219665527,5.4673848152160645,0.8557246923446655
-2.6585047245025635,5.3666815757751465,0.8341333270072937
-2.71914005279541,5.398360729217529,0.832491397857666
-2.744417190551758,5.360867023468018,0.820297122001648
-2.773848295211792,5.329656600952148,0.8089688420295715
-2.791515827178955,5.273719787597656,0.7937700152397156
-1.1525514125823975,2.141800880432129,0.31958937644958496
-1.1741678714752197,2.1483001708984375,0.3175884783267975
-1.1980313062667847,2.1578762531280518,0.3159654438495636
-2.500342607498169,4.431839942932129,0.6424661874771118
-2.5450332164764404,4.4389238357543945,0.6369249224662781
-5.943313121795654,10.209945678710938,1.449074625968933
-1.2229598760604858,2.070132255554199,0.29051685333251953
-1.2451958656311035,2.075587272644043,0.2878032326698303
-2.913456678390503,4.7807745933532715,0.6546455025672913
-2.962237596511841,4.788753986358643,0.6471899747848511
-3.016187906265259,4.806950569152832,0.6408118009567261
-3.029778003692627,4.758564472198486,0.6252967715263367
-3.034576416015625,4.692505836486816,0.606987714767456
-3.057446241378784,4.6606292724609375,0.5931622982025146
-3.0424134731292725,4.574317932128906,0.572444498538971
-3.0825984477996826,4.567695140838623,0.5612117648124695
-3.1017465591430664,4.528091907501221,0.545592188835144
-3.1202781200408936,4.49331521987915,0.5301216840744019
-2.861152410507202,4.063950538635254,0.46909451484680176
-2.8650736808776855,4.010232448577881,0.45183297991752625
-2.893193483352661,3.9962799549102783,0.43889376521110535
-2.93283748626709,3.997758626937866,0.42727014422416687
-2.947383165359497,3.959559440612793,0.4102076590061188
-2.4580464363098145,3.469982624053955,-0.21493223309516907
-2.4378981590270996,3.492833375930786,-0.2287430614233017
-2.863957166671753,4.169343948364258,-0.2877379357814789
-2.2931768894195557,3.3917274475097656,-0.2456449568271637
-2.197507858276367,3.3001046180725098,-0.24953362345695496
-2.2343740463256836,3.4103195667266846,-0.2686641812324524
-2.1927719116210938,3.399261236190796,-0.27796706557273865
-2.168259382247925,3.414025068283081,-0.28909558057785034
-1.2670857906341553,2.02864670753479,-0.17773404717445374
-1.2687331438064575,2.063716173171997,-0.18647389113903046
-2.096606492996216,3.4647140502929688,-0.32234230637550354
-2.104524612426758,3.536149024963379,-0.3383665680885315
-2.102293014526367,3.590686559677124,-0.3528209328651428
-1.2081482410430908,2.0973970890045166,-0.2113872766494751
-1.204162836074829,2.125946044921875,-0.2194722294807434
-2.575624704360962,4.625096321105957,-0.4886833727359772
-2.5483431816101074,4.652151584625244,-0.5023403167724609
-2.529430866241455,4.696450710296631,-0.5179101228713989
-2.494119167327881,4.7138752937316895,-0.5307080745697021
-2.474440097808838,4.757908821105957,-0.5461569428443909
-2.4443199634552,4.780781269073486,-0.5590711236000061
-2.4147117137908936,4.80742883682251,-0.5723512172698975
-2.3932385444641113,4.851374626159668,-0.5877735018730164
-2.3717024326324463,4.895015239715576,-0.6031743884086609
-2.3486435413360596,4.934770107269287,-0.6179922819137573
-2.3192501068115234,4.964321613311768,-0.6314358115196228
-2.292877674102783,5.0006842613220215,-0.6458200812339783
-2.266965389251709,5.036531925201416,-0.6600188612937927
-2.237351179122925,5.065215110778809,-0.6732993721961975
-1.0059940814971924,2.3230197429656982,-0.31311389803886414
-1.0149548053741455,2.3901729583740234,-0.32651177048683167
-0.986154317855835,2.367952585220337,-0.32767781615257263
-0.9781061410903931,2.39571213722229,-0.3357219696044922
-0.9464502334594727,2.3660361766815186,-0.33557745814323425
-0.9164267182350159,2.3397367000579834,-0.33587369322776794
-0.9110132455825806,2.3743677139282227,-0.3447819650173187
-0.8955673575401306,2.383680820465088,-0.35004472732543945
-0.8838212490081787,2.403879165649414,-0.3567885458469391
-0.8718108534812927,2.424020290374756,-0.3635918200016022
-0.8569700121879578,2.4368057250976562,-0.3693486452102661
-0.8447780013084412,2.4567208290100098,-0.3761613667011261
-0.829672634601593,2.469346284866333,-0.38167208433151245
-0.8168182373046875,2.489218235015869,-0.3883579969406128
-0.8039453625679016,2.508953094482422,-0.39503908157348633
-0.7894144058227539,2.52500057220459,-0.4012503921985626
-0.7827084064483643,2.5668156147003174,-0.41134241223335266
-0.7666155099868774,2.5790488719940186,-0.41673168540000916
-0.7505428791046143,2.591132879257202,-0.4221082925796509
-0.7543408870697021,2.673638343811035,-0.4390718638896942
-0.7395300269126892,2.693100929260254,-0.4456397294998169
-0.7141483426094055,2.6753273010253906,-0.4459674060344696
-0.7078224420547485,2.728163242340088,-0.45805656909942627
-0.6839537024497986,2.7137012481689453,-0.45888376235961914
-0.7015015482902527,2.8675246238708496,-0.48824575543403625
-0.6945831179618835,2.9279940128326416,-0.5016693472862244
-0.6718160510063171,2.924722194671631,-0.5043036937713623
-0.6680176258087158,3.003890037536621,-0.5211753845214844
-0.9311497211456299,4.3291473388671875,-0.7557740807533264
-0.8748026490211487,4.210319519042969,-0.739022433757782
-0.8262133002281189,4.121169090270996,-0.7272500395774841
-0.7814995050430298,4.046751499176025,-0.7179960608482361
-0.7398763298988342,3.9794113636016846,-0.7098097801208496
-0.6991764903068542,3.911782741546631,-0.7011368274688721
-0.6574581861495972,3.8324942588806152,-0.6899751424789429
-0.6318842172622681,3.8439087867736816,-0.6951132416725159
-0.4708618223667145,2.996805429458618,-0.5443931818008423
-0.4464915096759796,2.9766883850097656,-0.5431090593338013
-0.4348996877670288,3.0439815521240234,-0.5573720335960388
-0.4135749638080597,3.0464982986450195,-0.5598456859588623
-0.39426857233047485,3.064100980758667,-0.5651223063468933
-0.37473633885383606,3.0815749168395996,-0.5704233050346375
-0.35544553399086,3.1066601276397705,-0.5768306851387024
-0.3390648365020752,3.158350706100464,-0.5880337953567505
-0.31622937321662903,3.1526284217834473,-0.5885974168777466
-0.29567912220954895,3.1696791648864746,-0.5934419631958008
-0.27358031272888184,3.171316623687744,-0.5952898263931274
-0.25166523456573486,3.1805641651153564,-0.5981656312942505
-0.23055638372898102,3.197293519973755,-0.6024675965309143
-0.20782896876335144,3.1908905506134033,-0.602437436580658
-0.18743035197257996,3.2226462364196777,-0.6096494793891907
-0.16462843120098114,3.2160260677337646,-0.6091428995132446
-0.14254078269004822,3.232288360595703,-0.6128917336463928
-0.11949548125267029,3.217703342437744,-0.610809326171875
-0.09732940047979355,3.2259716987609863,-0.6130940318107605
-0.07472184300422668,3.2187814712524414,-0.6122442483901978
-0.052191607654094696,3.211509943008423,-0.6109942197799683
-0.029322467744350433,3.1964094638824463,-0.6082862019538879
-0.007106868550181389,3.188821792602539,-0.6070331335067749
0.015062890946865082,3.1887547969818115,-0.6072407960891724
0.03705421835184097,3.173288583755493,-0.603981614112854
0.058806974440813065,3.1576826572418213,-0.6006671786308289
0.08066356182098389,3.1534361839294434,-0.5995442271232605
0.10308143496513367,3.156698703765869,-0.5998734831809998
0.12502267956733704,3.1560311317443848,-0.5992138385772705
0.14764156937599182,3.170609951019287,-0.6011350154876709
0.17008322477340698,3.177360773086548,-0.601594090461731
0.1935778558254242,3.199277877807617,-0.6049451231956482
0.21623212099075317,3.198019504547119,-0.6039240956306458
0.23849216103553772,3.1967389583587646,-0.6023213267326355
0.26321786642074585,3.2259185314178467,-0.6064743399620056
0.29208818078041077,3.2969846725463867,-0.6184890866279602
0.3157213032245636,3.302830457687378,-0.6182675957679749
0.3375134766101837,3.2856101989746094,-0.6133936047554016
0.3628216087818146,3.3065168857574463,-0.6154078245162964
0.39158010482788086,3.353940725326538,-0.6223439574241638
0.4159010648727417,3.359182834625244,-0.621444582939148
0.4457952380180359,3.4061696529388428,-0.6282109022140503
0.47202250361442566,3.418703317642212,-0.6280208826065063
0.5024412274360657,3.4615211486816406,-0.6334249973297119
0.5328999161720276,3.5002901554107666,-0.6380569934844971
0.5597139596939087,3.512228488922119,-0.6377864480018616
0.5961410999298096,3.5809428691864014,-0.6473955512046814
0.6276031136512756,3.6152732372283936,-0.6505252122879028
0.658708393573761,3.641698122024536,-0.6521449089050293
0.6976450681686401,3.709528923034668,-0.6611728072166443
0.7360898852348328,3.769484281539917,-0.668562650680542
0.769953727722168,3.802791118621826,-0.6707132458686829
0.8296290636062622,3.9563889503479004,-0.6939154863357544
0.8683605790138245,4.000156402587891,-0.6976073980331421
0.9080994129180908,4.047441005706787,-0.7019162774085999
0.9544910788536072,4.120766639709473,-0.7101320028305054
1.0117690563201904,4.2349138259887695,-0.7251051664352417
1.0625170469284058,4.314797401428223,-0.7339975237846375
1.1103602647781372,4.375375747680664,-0.7393661737442017
1.1594760417938232,4.439432621002197,-0.7450007796287537
1.1993815898895264,4.465882301330566,-0.7439274191856384
1.244874119758606,4.510581970214844,-0.7458186745643616
1.2806955575942993,4.51771354675293,-0.7414217591285706
1.304275631904602,4.479968070983887,-0.7295401096343994
1.3331810235977173,4.4645843505859375,-0.7210158109664917
1.3574110269546509,4.434232234954834,-0.7101488709449768
1.386170744895935,4.418404579162598,-0.7016307711601257
1.4089277982711792,4.383967876434326,-0.6902243494987488
1.4399508237838745,4.375101089477539,-0.682418167591095
1.1816883087158203,3.509070873260498,-0.5422187447547913
1.2150239944458008,3.527270555496216,-0.5398582816123962
1.2424029111862183,3.5268914699554443,-0.5345995426177979
1.2604552507400513,3.5009212493896484,-0.5253176689147949
1.2860543727874756,3.496715784072876,-0.5192020535469055
1.3094688653945923,3.4848883152008057,-0.511858344078064
1.3340091705322266,3.476557731628418,-0.5050943493843079
1.3526872396469116,3.453697681427002,-0.4961632490158081
1.3765841722488403,3.4452426433563232,-0.4891681671142578
1.3975496292114258,3.429417848587036,-0.4811501204967499
1.4220969676971436,3.4203202724456787,-0.4739256501197815
1.4430123567581177,3.4041173458099365,-0.4657995104789734
1.4633753299713135,3.3879611492156982,-0.4575517177581787
1.4898489713668823,3.3858561515808105,-0.4512171447277069
1.5042141675949097,3.3550009727478027,-0.4409565329551697
1.518497109413147,3.323976993560791,-0.4306316375732422
1.8833394050598145,4.049770355224609,-0.5169661641120911
1.9145426750183105,4.044872760772705,-0.5086280107498169
1.9430582523345947,4.032434463500977,-0.49916744232177734
1.9712622165679932,4.019888877868652,-0.4896824061870575
1.9905751943588257,3.9898505210876465,-0.4778316020965576
2.014484167098999,3.970263957977295,-0.46740782260894775
2.042513608932495,3.957068920135498,-0.45755302906036377
2.0664548873901367,3.936976671218872,-0.4468837380409241
2.0713322162628174,3.8827319145202637,-0.4323800206184387
2.0851943492889404,3.845468282699585,-0.41981011629104614
2.1409549713134766,3.8825786113739014,-0.4149932563304901
2.127676486968994,3.7975823879241943,-0.3972657322883606
2.1610782146453857,3.7976386547088623,-0.3885631263256073
2.1798062324523926,3.7700068950653076,-0.37676724791526794
2.1984004974365234,3.7421875,-0.36493346095085144
2.2320101261138916,3.74141526222229,-0.35553300380706787
2.241356372833252,3.7004482746124268,-0.34241098165512085
2.2715089321136475,3.6921675205230713,-0.33205854892730713
2.2965943813323975,3.677588701248169,-0.32110944390296936
2.312793254852295,3.6499271392822266,-0.3090580701828003
2.3388264179229736,3.634272575378418,-0.29740163683891296
2.3808300495147705,3.645127058029175,-0.2879590094089508
2.3791146278381348,3.591156482696533,-0.2734423279762268
2.4127135276794434,3.588376760482788,-0.262411892414093
2.4504928588867188,3.5919201374053955,-0.25159981846809387
2.452199935913086,3.5442750453948975,-0.23705485463142395
2.4722976684570312,3.5215938091278076,-0.22382810711860657
2.5232598781585693,3.5437026023864746,-0.21316440403461456
2.527959108352661,3.50268816947937,-0.19865885376930237
2.566441774368286,3.504434585571289,-0.18555417656898499
2.1843819618225098,2.9430503845214844,-0.14465685188770294
2.786851167678833,3.9142813682556152,0.47186148166656494
2.7760894298553467,3.9629273414611816,0.48994180560112
2.7298271656036377,3.960186243057251,0.501259982585907
2.7145192623138428,3.9972379207611084,0.5167213678359985
2.685546875,4.019747257232666,0.5300701260566711
2.6520047187805176,4.03562068939209,0.5423672199249268
2.628948450088501,4.0629472732543945,0.5555546283721924
2.583922863006592,4.057981491088867,0.5639545917510986
2.583120107650757,4.1256937980651855,0.5823370814323425
2.544534921646118,4.129847049713135,0.5913742780685425
2.5190963745117188,4.152968406677246,0.6028629541397095
2.490797281265259,4.177494049072266,0.6143654584884644
2.4585564136505127,4.1950273513793945,0.6246777176856995
2.4359774589538574,4.22462797164917,0.6363554000854492
2.3944826126098633,4.220153331756592,0.6428025960922241
2.370103120803833,4.250219345092773,0.654126763343811
2.2683050632476807,4.141406536102295,0.6439929008483887
2.2454981803894043,4.170069217681885,0.6546811461448669
2.2267067432403564,4.205096244812012,0.6663094758987427
2.1956851482391357,4.220069885253906,0.6745364665985107
2.1707780361175537,4.249014377593994,0.6848436594009399
2.1419777870178223,4.270941257476807,0.6941057443618774
2.111755847930908,4.284728050231934,0.7017021775245667
2.084808588027954,4.3052449226379395,0.7104446291923523
2.0526344776153564,4.319481372833252,0.7176819443702698
2.02681827545166,4.347499847412109,0.7272621989250183
1.9982998371124268,4.367989540100098,0.7355225086212158
1.9637309312820435,4.37399959564209,0.7413122653961182
2.0089361667633057,4.559713840484619,0.7776382565498352
1.9674466848373413,4.555619239807129,0.7812871932983398
1.9275857210159302,4.554731845855713,0.7855040431022644
1.9225562810897827,4.635171413421631,0.8037449717521667
1.895114541053772,4.661982536315918,0.8127489686012268
1.8737064599990845,4.702725410461426,0.8241825699806213
1.8167657852172852,4.657824516296387,0.8200634121894836
3.496316909790039,9.15997314453125,1.620048999786377
1.767147183418274,4.73242712020874,0.8407880663871765
1.3445885181427002,3.6800537109375,0.6567232012748718
1.3161399364471436,3.68135666847229,0.6598296165466309
1.2757526636123657,3.6499502658843994,0.6568279266357422
1.6422258615493774,4.8099141120910645,0.8687540292739868
1.6047052145004272,4.813509464263916,0.872617244720459
1.567315697669983,4.816781520843506,0.8764493465423584
1.5696383714675903,4.94044303894043,0.9021878242492676
1.5224400758743286,4.909965515136719,0.8998703360557556
1.5059267282485962,4.982580184936523,0.9159457683563232
2.650559902191162,9.003531455993652,1.6600234508514404
1.4314543008804321,4.994809627532959,0.9236729145050049
2.5051047801971436,8.982207298278809,1.6660223007202148
1.343458890914917,4.949857234954834,0.9208133816719055
1.2950611114501953,4.9062933921813965,0.9154330492019653
1.2712008953094482,4.959469318389893,0.9274809956550598
1.231796383857727,4.952867031097412,0.9284072518348694
1.2045702934265137,4.998386859893799,0.9391987919807434
1.1702888011932373,5.009782791137695,0.9435580372810364
1.1386656761169434,5.0321364402771,0.9500219225883484
1.1083756685256958,5.061800956726074,0.9579328894615173
1.0738307237625122,5.076511859893799,0.9624307751655579
1.0414841175079346,5.10617733001709,0.9698179960250854
