X,Y,Z
-1.6123961210250854,3.1955935955047607,-0.4333181083202362
-1.963439702987671,3.959317684173584,-0.5468359589576721
-1.927860140800476,3.957921266555786,-0.55643630027771
-1.9056156873703003,3.9842350482940674,-0.5699301958084106
-1.883513331413269,4.010215759277344,-0.5833286046981812
-1.8549124002456665,4.021874904632568,-0.5945971012115479
-1.8123276233673096,4.005608081817627,-0.6016432046890259
-1.7439173460006714,3.9286134243011475,-0.5991607904434204
-1.6632696390151978,3.818804979324341,-0.5910799503326416
-1.5949653387069702,3.7330048084259033,-0.5861534476280212
-1.5096254348754883,3.6039130687713623,-0.5737330317497253
-1.443418264389038,3.5169191360473633,-0.5676601529121399
-1.3578226566314697,3.3751652240753174,-0.5519754886627197
-1.2855952978134155,3.26124906539917,-0.5402045249938965
-1.2356833219528198,3.200685739517212,-0.5366922616958618
-1.1784976720809937,3.1179704666137695,-0.5291770100593567
-1.119821310043335,3.027446985244751,-0.5200000405311584
-1.0680962800979614,2.9507222175598145,-0.512660026550293
-1.022478461265564,2.888103485107422,-0.5072788000106812
-0.9815899133682251,2.835949182510376,-0.5035195350646973
-0.9454230070114136,2.7942752838134766,-0.501386284828186
-0.8998961448669434,2.7231202125549316,-0.49377331137657166
-0.866292417049408,2.684462547302246,-0.4915054440498352
-0.8344181180000305,2.6491641998291016,-0.4897335171699524
-0.794165849685669,2.584134340286255,-0.48226669430732727
-0.7692518830299377,2.566581964492798,-0.4834919273853302
-0.7358973026275635,2.519395112991333,-0.4787077307701111
-0.7081943154335022,2.4904422760009766,-0.47734612226486206
-0.6823701858520508,2.464850425720215,-0.4764566421508789
-0.6669982671737671,2.4760847091674805,-0.4826565384864807
-0.6290515065193176,2.4019105434417725,-0.4717903137207031
-0.6025857329368591,2.368278980255127,-0.4687082767486572
-0.5754647850990295,2.3307390213012695,-0.46481087803840637
-0.5447689890861511,2.2742536067962646,-0.4569385051727295
-0.5339366793632507,2.2996819019317627,-0.4652025103569031
-0.5160378217697144,2.2951669692993164,-0.4673505425453186
-0.4860329031944275,2.234370470046997,-0.45796316862106323
-0.4566670358181,2.173344135284424,-0.44842687249183655
-0.44140544533729553,2.1758265495300293,-0.4516599774360657
-0.4202272295951843,2.1481926441192627,-0.4484514892101288
-0.4037080407142639,2.1429409980773926,-0.4498933255672455
-0.3839205205440521,2.1187407970428467,-0.44733092188835144
-0.36488205194473267,2.0982120037078857,-0.4454115629196167
-0.34138596057891846,2.047389507293701,-0.43668103218078613
-0.3282557725906372,2.0567493438720703,-0.44076257944107056
-0.3115403652191162,2.043358564376831,-0.43998464941978455
-0.2961428165435791,2.037407636642456,-0.4407593011856079
-0.28268375992774963,2.046581268310547,-0.4444677531719208
-0.267367959022522,2.040494203567505,-0.4448551535606384
-0.2531201243400574,2.041868209838867,-0.446880966424942
-0.23888102173805237,2.043139696121216,-0.4489041864871979
-0.22338025271892548,2.0330166816711426,-0.4480329155921936
-0.21039016544818878,2.045560359954834,-0.4521258771419525
-0.19407036900520325,2.0276572704315186,-0.44953036308288574
-0.1799369603395462,2.028611660003662,-0.4511021077632904
-0.16580742597579956,2.0295326709747314,-0.452372282743454
-0.14657919108867645,1.961946964263916,-0.4382040500640869
-0.13549771904945374,2.0007143020629883,-0.44779860973358154
-0.12133633345365524,2.0013720989227295,-0.4489193856716156
-0.10740990191698074,2.0019659996032715,-0.4498177170753479
-0.09312701970338821,1.9949058294296265,-0.4487491548061371
-0.07925001531839371,1.9953608512878418,-0.44939082860946655
-0.06613456457853317,2.0185704231262207,-0.45518484711647034
-0.05145363137125969,2.0036263465881348,-0.45229992270469666
-0.03768601641058922,2.011514902114868,-0.4541957676410675
-0.02352708950638771,1.9964483976364136,-0.45092979073524475
-0.009859105572104454,2.042246103286743,-0.4614355266094208
0.004313779063522816,2.0193638801574707,-0.4564474821090698
0.01861763186752796,2.0193488597869873,-0.4561552405357361
0.03293031081557274,2.034475564956665,-0.45930349826812744
0.047056861221790314,2.034264087677002,-0.45900994539260864
0.06118205934762955,2.033954620361328,-0.45871639251708984
0.07586164772510529,2.0488624572753906,-0.46148988604545593
0.09025117009878159,2.052267551422119,-0.4615744352340698
0.10475481301546097,2.051755666732788,-0.46078717708587646
0.11904402822256088,2.05115008354187,-0.4600113034248352
0.13530032336711884,2.0809366703033447,-0.4657941162586212
0.15088775753974915,2.0954370498657227,-0.46793195605278015
0.1654823273420334,2.0946178436279297,-0.4666634500026703
0.1809900552034378,2.10127854347229,-0.4670611023902893
0.19634057581424713,2.1078784465789795,-0.46731939911842346
0.2175055593252182,2.1713778972625732,-0.4798349142074585
0.2375320941209793,2.2157328128814697,-0.48806455731391907
0.2542726397514343,2.2258026599884033,-0.4887271225452423
0.2719079554080963,2.2395215034484863,-0.49011626839637756
0.2924033999443054,2.275947093963623,-0.49603885412216187
0.3103424906730652,2.2895026206970215,-0.49695348739624023
0.33010292053222656,2.3142669200897217,-0.5002885460853577
0.34965819120407104,2.3350963592529297,-0.5027542114257812
0.37456467747688293,2.3860254287719727,-0.5111858248710632
0.3930973708629608,2.395299196243286,-0.5106290578842163
0.41371357440948486,2.415738105773926,-0.5124416351318359
0.4400447905063629,2.4661290645599365,-0.5205484628677368
0.4622156023979187,2.4900240898132324,-0.5226935744285583
0.4926943778991699,2.5551095008850098,-0.5332275032997131
0.5176942944526672,2.5860865116119385,-0.5364857912063599
0.5420329570770264,2.613158702850342,-0.5389425158500671
0.5723918676376343,2.666283369064331,-0.546491265296936
0.6084864735603333,2.7416367530822754,-0.5581685900688171
0.639689028263092,2.7905032634735107,-0.5642971992492676
0.6746543645858765,2.850207567214966,-0.5724092721939087
0.7156031131744385,2.932029962539673,-0.5847504734992981
0.7520776391029358,2.9912242889404297,-0.5920158624649048
0.7884542346000671,3.046368360519409,-0.5983229279518127
0.8226996064186096,3.0900449752807617,-0.6022396683692932
0.8742390275001526,3.192580223083496,-0.6173251271247864
0.9122079610824585,3.243035078048706,-0.6217531561851501
0.9370406866073608,3.2451534271240234,-0.6168469190597534
0.9598562121391296,3.2396819591522217,-0.6104938983917236
0.9760012030601501,3.2119455337524414,-0.5999950170516968
0.8547384142875671,2.743410110473633,-0.507607102394104
0.8692838549613953,2.7237443923950195,-0.4991610050201416
0.883651077747345,2.7039716243743896,-0.49075672030448914
0.9003015756607056,2.691391944885254,-0.48370128870010376
0.9067220091819763,2.649611473083496,-0.4713033437728882
0.9087391495704651,2.596954584121704,-0.4570445120334625
0.9168667197227478,2.5624051094055176,-0.44605404138565063
0.9323234558105469,2.5496199131011963,-0.43898919224739075
0.9488710761070251,2.5404052734375,-0.4324524700641632
0.9611039161682129,2.520308494567871,-0.42401018738746643
0.9647143483161926,2.478551149368286,-0.41204002499580383
0.9825694561004639,2.472534418106079,-0.4059516191482544
0.9941646456718445,2.452221632003784,-0.3975563645362854
1.0083072185516357,2.4390671253204346,-0.3902875781059265
1.020824909210205,2.422248363494873,-0.38248375058174133
1.0318799018859863,2.4017043113708496,-0.3740861117839813
1.0397241115570068,2.373978853225708,-0.3645106852054596
1.0625241994857788,2.3817715644836426,-0.3604278564453125
1.0822911262512207,2.3823039531707764,-0.355211466550827
1.1170583963394165,2.4141664505004883,-0.35448014736175537
1.1471736431121826,2.4352591037750244,-0.351970911026001
1.1676735877990723,2.435070753097534,-0.3461579382419586
1.1811906099319458,2.4208714962005615,-0.3384478688240051
1.198366403579712,2.4133682250976562,-0.3315848708152771
1.2082035541534424,2.3920328617095947,-0.322809100151062
1.2211487293243408,2.377652406692505,-0.31501156091690063
1.2269456386566162,2.3493406772613525,-0.30538487434387207
1.2512074708938599,2.3550283908843994,-0.2999926805496216
1.2563687562942505,2.326728105545044,-0.29035452008247375
1.270467758178711,2.3154988288879395,-0.28291553258895874
1.2791378498077393,2.293809652328491,-0.274122953414917
1.2952649593353271,2.2855958938598633,-0.2669101059436798
1.2994681596755981,2.2571802139282227,-0.2572738528251648
1.3149139881134033,2.2490274906158447,-0.2500942349433899
1.330859661102295,2.2404472827911377,-0.24265024065971375
1.338173508644104,2.2187259197235107,-0.2338247299194336
1.3491209745407104,2.203733444213867,-0.22576670348644257
1.3606550693511963,2.188249111175537,-0.21738529205322266
1.3675388097763062,2.1663084030151367,-0.2084520012140274
1.3778622150421143,2.1512322425842285,-0.20025214552879333
1.3926080465316772,2.142426013946533,-0.19251012802124023
1.4076436758041382,2.133283853530884,-0.1845131665468216
1.4155868291854858,2.1146533489227295,-0.1756109595298767
1.4299402236938477,2.105633020401001,-0.16752620041370392
1.4446865320205688,2.0961992740631104,-0.15910544991493225
1.445073127746582,2.0680723190307617,-0.14935532212257385
1.4207508563995361,2.0047149658203125,-0.13710598647594452
1.4553284645080566,2.0237534046173096,-0.13009484112262726
1.468496322631836,2.014765977859497,-0.12133020162582397
1.4824013710021973,2.005099058151245,-0.11201947182416916
1.463356852531433,2.077406883239746,0.29894670844078064
1.4708466529846191,2.1229991912841797,0.31242892146110535
1.4586929082870483,2.139549732208252,0.32152754068374634
1.4515531063079834,2.1619274616241455,0.33119186758995056
1.4386441707611084,2.178670883178711,0.3397022485733032
1.4256775379180908,2.1952450275421143,0.34819868206977844
1.4140841960906982,2.2108378410339355,0.35606491565704346
1.4014381170272827,2.2269301414489746,0.3638921082019806
1.3938621282577515,2.2533273696899414,0.37345606088638306
1.380919098854065,2.269256114959717,0.38106977939605713
1.3686022758483887,2.284672498703003,0.38841596245765686
1.3589292764663696,2.3073537349700928,0.39679762721061707
1.3410550355911255,2.31673526763916,0.4028985798358917
1.3273038864135742,2.3324880599975586,0.4100503623485565
1.3181456327438354,2.35438871383667,0.4180963933467865
1.3077970743179321,2.376800537109375,0.42604783177375793
1.2895516157150269,2.3857574462890625,0.4315658509731293
1.2842158079147339,2.4182565212249756,0.4413386881351471
1.2738099098205566,2.4401986598968506,0.44911977648735046
1.263062834739685,2.4621739387512207,0.4567755162715912
1.247876524925232,2.477606773376465,0.4630604684352875
1.2291321754455566,2.4860217571258545,0.4680657982826233
1.2210936546325684,2.5147769451141357,0.47683122754096985
1.2028669118881226,2.522627830505371,0.48166558146476746
1.192414402961731,2.5479702949523926,0.4895898699760437
1.179672122001648,2.5699663162231445,0.49681583046913147
1.1603487730026245,2.577868700027466,0.5013615489006042
1.1511231660842896,2.6063942909240723,0.5098392367362976
1.1357208490371704,2.620677947998047,0.5155434012413025
1.1222410202026367,2.642357587814331,0.5225551724433899
1.1055678129196167,2.6568989753723145,0.5280178785324097
1.0959866046905518,2.6891140937805176,0.5370532274246216
1.0736943483352661,2.689026117324829,0.539614737033844
1.0686845779418945,2.7315051555633545,0.5507139563560486
1.0542384386062622,2.752774238586426,0.5575085282325745
1.036655306816101,2.7669060230255127,0.5625960826873779
1.0202113389968872,2.7845308780670166,0.5684419274330139
1.0024093389511108,2.7983968257904053,0.5735502243041992
0.9712725281715393,2.7720956802368164,0.5703508257865906
0.9464339017868042,2.7637457847595215,0.5708737373352051
0.9142354726791382,2.7335262298583984,0.5664939284324646
0.8990426063537598,2.754056930541992,0.5725721716880798
0.8835689425468445,2.7745096683502197,0.5786866545677185
0.8829357028007507,2.842338800430298,0.5947347283363342
0.8970355987548828,2.961548089981079,0.621671199798584
0.8762198686599731,2.967114210128784,0.6248093843460083
0.8653066158294678,3.009587049484253,0.6353360414505005
0.8465726971626282,3.026244640350342,0.6404738426208496
0.824661374092102,3.031695604324341,0.6432769894599915
0.8108655214309692,3.066500425338745,0.6523330807685852
0.7927745580673218,3.0864338874816895,0.6582857966423035
0.7784832119941711,3.1210296154022217,0.6673737168312073
0.7578271627426147,3.1334750652313232,0.6713231801986694
0.737869381904602,3.149510383605957,0.6760861873626709
0.72029048204422,3.1765928268432617,0.6832680106163025
0.703820526599884,3.2110774517059326,0.6921109557151794
0.6869171261787415,3.2415828704833984,0.700105607509613
0.6642225384712219,3.2457985877990723,0.7024701237678528
0.645512044429779,3.2725138664245605,0.7093183398246765
0.6264270544052124,3.299137830734253,0.716131865978241
0.6065463423728943,3.3257219791412354,0.7230085134506226
0.588814914226532,3.363386631011963,0.7323260307312012
0.5703659057617188,3.3971266746520996,0.7408270835876465
0.5466639399528503,3.400597095489502,0.7427714467048645
0.5285331606864929,3.4417285919189453,0.7527046799659729
0.5053279399871826,3.4564602375030518,0.7566813826560974
0.48609086871147156,3.4974403381347656,0.7664392590522766
0.46530094742774963,3.53074312210083,0.7745687961578369
0.44241863489151,3.5487425327301025,0.7793821692466736
0.42437273263931274,3.6082653999328613,0.7933654189109802
0.39832690358161926,3.603231906890869,0.7931659817695618
0.3756115436553955,3.6361379623413086,0.8008650541305542
0.3546938896179199,3.6878507137298584,0.8127496838569641
0.33069565892219543,3.712838649749756,0.8187949657440186
0.30800721049308777,3.7566728591918945,0.8290449976921082
0.2835986018180847,3.781322956085205,0.8351052403450012
0.2599739134311676,3.828672409057617,0.8462420105934143
0.23488540947437286,3.8568809032440186,0.8528741002082825
0.2107674777507782,3.911647081375122,0.865146815776825
0.18428738415241241,3.931969165802002,0.8698468804359436
0.15798895061016083,3.963542938232422,0.8770816922187805
0.1315896213054657,4.017822265625,0.8893943428993225
0.10450273007154465,4.052844524383545,0.897489070892334
0.07729343324899673,4.106747150421143,0.9098159670829773
0.04898551478981972,4.133889198303223,0.9156904220581055
0.020477842539548874,4.187544822692871,0.9274178743362427
-0.009323392063379288,4.2219319343566895,0.9349180459976196
-0.039172880351543427,4.267551422119141,0.9449518322944641
-0.07016259431838989,4.347279071807861,0.9625829458236694
-0.09833871573209763,4.259012222290039,0.9430621266365051
-0.12967275083065033,4.315464973449707,0.9554703235626221
-0.1583477109670639,4.280318737030029,0.947153627872467
-0.18792182207107544,4.264012336730957,0.9430492520332336
-0.26824238896369934,5.257028579711914,1.1621246337890625
-0.3051627278327942,5.262852191925049,1.1629226207733154
-0.346379816532135,5.3331298828125,1.1780121326446533
-0.38338756561279297,5.330795764923096,1.177113652229309
-0.41667765378952026,5.275026321411133,1.1639868021011353
-0.4536513090133667,5.279996871948242,1.1640170812606812
-0.49218520522117615,5.299900531768799,1.1673871278762817
-0.5381547212600708,5.391672611236572,1.1866228580474854
-0.5763416290283203,5.395773887634277,1.1865952014923096
-0.6076393723487854,5.331267833709717,1.1715278625488281
-0.6457012295722961,5.33485221862793,1.1715035438537598
-0.6813896894454956,5.323245048522949,1.167431116104126
-0.7134237289428711,5.284913063049316,1.1575441360473633
-0.7486594319343567,5.272852420806885,1.153480052947998
-0.7844801545143127,5.260458946228027,1.1493748426437378
-0.8175080418586731,5.232771396636963,1.1420029401779175
-0.842244029045105,5.155869007110596,1.1239668130874634
-0.8830194473266602,5.180627822875977,1.1278291940689087
-0.9104076027870178,5.13001823425293,1.114893913269043
-0.946906328201294,5.1318511962890625,1.1134189367294312
-0.9783484935760498,5.103296756744385,1.1053764820098877
-1.0098998546600342,5.078344345092773,1.098197102546692
-1.0437495708465576,5.064371109008789,1.0934396982192993
-1.0726677179336548,5.027740478515625,1.0838559865951538
-1.1168488264083862,5.065909385681152,1.0897208452224731
-1.1307696104049683,4.965672969818115,1.065813660621643
-1.164625883102417,4.9586501121521,1.062048077583313
-1.1967469453811646,4.943935394287109,1.0566807985305786
-1.214608907699585,4.869466304779053,1.0385804176330566
-1.2238225936889648,4.7653350830078125,1.014280080795288
-1.2590643167495728,4.764950752258301,1.0116690397262573
-1.2894527912139893,4.749809265136719,1.0057586431503296
-1.3155310153961182,4.719731330871582,0.9967529773712158
-1.3455203771591187,4.704217433929443,0.990881621837616
-1.371843695640564,4.673599720001221,0.9818275570869446
-1.1024093627929688,3.65985107421875,0.7668102383613586
-1.1366679668426514,3.6822118759155273,0.7692505121231079
-1.1523674726486206,3.64601993560791,0.7592114806175232
-1.4872509241104126,4.597898006439209,0.9543278813362122
-1.518350601196289,4.588747978210449,0.949378252029419
-1.5816535949707031,4.669701099395752,0.9629049301147461
-1.6382551193237305,4.728402137756348,0.9718193411827087
-1.64650559425354,4.649443626403809,0.9521657824516296
-1.675294041633606,4.632177352905273,0.9448913335800171
-1.7012176513671875,4.607540130615234,0.9361794590950012
-1.7377551794052124,4.6114678382873535,0.9333088994026184
-1.7831065654754639,4.63240385055542,0.9336777925491333
-1.818411946296692,4.6281328201293945,0.9290498495101929
-1.8371152877807617,4.584812164306641,0.9162046313285828
-1.8563560247421265,4.54517936706543,0.9040055274963379
-1.8751425743103027,4.505472660064697,0.8918861150741577
-1.9004592895507812,4.479475021362305,0.8824257254600525
-1.9349969625473022,4.474366664886475,0.8770833015441895
-1.9615663290023804,4.451511859893799,0.8682149052619934
-2.00553035736084,4.471248149871826,0.8671569228172302
-2.025876760482788,4.438102722167969,0.8558701872825623
-2.0447630882263184,4.401155948638916,0.8438541889190674
-2.0873119831085205,4.412412166595459,0.840951144695282
-2.103504180908203,4.367730140686035,0.8274176120758057
-2.1193997859954834,4.327248573303223,0.8143012523651123
-2.184467077255249,4.386835098266602,0.8199137449264526
-2.1986942291259766,4.342406272888184,0.8059769868850708
-2.2185933589935303,4.30782413482666,0.7938040494918823
-2.227630138397217,4.252535820007324,0.777888298034668
-2.2706658840179443,4.266282081604004,0.7741791009902954
-2.278907299041748,4.215284824371338,0.7586909532546997
-2.2345197200775146,4.069623947143555,0.726456344127655
-2.2715277671813965,4.068411350250244,0.719682514667511
-2.304004669189453,4.060593605041504,0.7117735147476196
-2.3310186862945557,4.046783447265625,0.7024092674255371
-2.3540403842926025,4.0261054039001465,0.6918959021568298
-2.3777263164520264,4.004827499389648,0.6811145544052124
-2.39070987701416,3.9627270698547363,0.6665037274360657
-2.4293875694274902,3.9680678844451904,0.6596760153770447
-2.4514079093933105,3.947089195251465,0.6483652591705322
-2.473792552947998,3.925658941268921,0.6368693113327026
-2.5143418312072754,3.9292092323303223,0.6289219260215759
-2.5244083404541016,3.887683868408203,0.6133579015731812
-2.5455732345581055,3.866351366043091,0.6010934710502625
-2.5889322757720947,3.8765900135040283,0.593412458896637
-2.066362142562866,3.0480620861053467,0.4588261842727661
-2.0950660705566406,3.0487234592437744,0.4508349299430847
-2.0686235427856445,2.969449996948242,0.4310120940208435
-2.080536365509033,2.9436466693878174,0.41865700483322144
-2.1095499992370605,2.943566083908081,0.4096662998199463
-2.128401279449463,2.9314560890197754,0.398849755525589
-1.0961458683013916,1.4888617992401123,0.1975606232881546
-1.0970171689987183,1.4696826934814453,0.1897374838590622
-2.0775203704833984,2.9400393962860107,-0.19870176911354065
-2.4778268337249756,3.563297986984253,-0.2557247579097748
-2.498769760131836,3.6472296714782715,-0.2756701409816742
-2.028308868408203,3.0090785026550293,-0.23902709782123566
-2.4474997520446777,3.6887898445129395,-0.3065626323223114
-1.9478614330291748,2.9809985160827637,-0.25809937715530396
-1.927354097366333,2.997915506362915,-0.26990386843681335
-1.8989216089248657,3.0011634826660156,-0.28021469712257385
-2.3112633228302,3.7111735343933105,-0.3585455119609833
-2.293560266494751,3.74367618560791,-0.3735046088695526
-2.2738893032073975,3.772510290145874,-0.38803696632385254
-1.824200987815857,3.074641466140747,-0.3253435492515564
-1.7915048599243164,3.07020902633667,-0.3338508605957031
-1.7643415927886963,3.0757899284362793,-0.3435419499874115
-1.7462596893310547,3.0939173698425293,-0.35409441590309143
-1.7199064493179321,3.098628282546997,-0.3630867004394531
-1.6969436407089233,3.1101083755493164,-0.37284624576568604
-1.674410104751587,3.1211438179016113,-0.3823840916156769
-1.6643775701522827,3.156083583831787,-0.3949210047721863
-1.637571096420288,3.160151243209839,-0.40342557430267334
-1.6178041696548462,3.1778204441070557,-0.4136955440044403
-1.5951634645462036,3.1880550384521484,-0.42277106642723083
-1.5789767503738403,3.2121894359588623,-0.43367740511894226
-1.5583832263946533,3.2295937538146973,-0.44380977749824524
-1.8850313425064087,3.9785521030426025,-0.5560441613197327
-1.8665136098861694,4.011410236358643,-0.5698056817054749
-1.843910574913025,4.037360668182373,-0.5825183987617493
-1.8192542791366577,4.059712886810303,-0.594738245010376
-1.7853530645370483,4.060497760772705,-0.6037264466285706
-1.7314636707305908,4.014854907989502,-0.6057384014129639
-1.6647957563400269,3.9366538524627686,-0.6021429896354675
-1.608138084411621,3.879221200942993,-0.6014074087142944
-1.5308878421783447,3.767378091812134,-0.5917830467224121
-1.4512571096420288,3.6438586711883545,-0.5797677636146545
-1.365588665008545,3.5018391609191895,-0.5641167759895325
-1.305902123451233,3.4200663566589355,-0.5575854182243347
-1.2450199127197266,3.330355405807495,-0.5493531227111816
-1.190968632698059,3.2544524669647217,-0.5430287718772888
-1.1351650953292847,3.1708853244781494,-0.5348378419876099
-1.087873935699463,3.1087052822113037,-0.5300580859184265
-1.0445054769515991,3.0532073974609375,-0.5260866284370422
-0.9996655583381653,2.989938974380493,-0.5205334424972534
-0.9483993649482727,2.904365301132202,-0.5105651021003723
-0.9182567596435547,2.880673885345459,-0.5112435817718506
-0.8802645206451416,2.831035614013672,-0.5072553753852844
-0.8368428349494934,2.7588019371032715,-0.49889928102493286
-0.8085446953773499,2.7341930866241455,-0.4987534284591675
-0.7784839272499084,2.7019662857055664,-0.4970327317714691
-0.7478997111320496,2.6657626628875732,-0.4944813549518585
-0.7189754247665405,2.632969379425049,-0.4924461543560028
-0.6872302293777466,2.5888936519622803,-0.4880584478378296
-0.6592903733253479,2.555664539337158,-0.48537588119506836
-0.6356059312820435,2.5370872020721436,-0.48541292548179626
-0.6077736020088196,2.499638557434082,-0.48175591230392456
-0.5831208825111389,2.473182201385498,-0.4800131022930145
-0.5593714118003845,2.4503753185272217,-0.47871366143226624
-0.5404242873191833,2.446040630340576,-0.4809490740299225
-0.5120224356651306,2.3965423107147217,-0.474239319562912
-0.4905557334423065,2.3768386840820312,-0.4733094871044159
-0.46859705448150635,2.353282928466797,-0.47119954228401184
-0.4459930658340454,2.325826644897461,-0.46831363439559937
-0.42830267548561096,2.3207383155822754,-0.46986088156700134
-0.40802907943725586,2.300431966781616,-0.4683164954185486
-0.3873990476131439,2.2762656211853027,-0.4655858874320984
-0.36775708198547363,2.2557225227355957,-0.4635087251663208
-0.3481541574001312,2.2350575923919678,-0.4614228904247284
-0.3314288556575775,2.2293405532836914,-0.4623734951019287
-0.31318849325180054,2.212190628051758,-0.4606814384460449
-0.2926522493362427,2.1759822368621826,-0.4548201262950897
-0.2692524194717407,2.113054037094116,-0.44331642985343933
-0.2604202628135681,2.163820266723633,-0.45567959547042847
-0.24333412945270538,2.150019407272339,-0.4543665051460266
-0.22629092633724213,2.1323320865631104,-0.45189961791038513
-0.21063710749149323,2.1259262561798096,-0.451829731464386
-0.19372987747192383,2.104184150695801,-0.44849956035614014
-0.18102189898490906,2.1280040740966797,-0.45487508177757263
-0.16713066399097443,2.144230365753174,-0.4592452049255371
-0.15410342812538147,2.1717774868011475,-0.4660639464855194
-0.13849018514156342,2.1649363040924072,-0.4655345380306244
-0.12341419607400894,2.1656100749969482,-0.46664032340049744
-0.10700222849845886,2.1395623683929443,-0.4616111218929291
-0.09183742105960846,2.140129804611206,-0.4622470736503601
-0.07694106549024582,2.1405818462371826,-0.4628715515136719
-0.06229608133435249,2.148562431335449,-0.46514707803726196
-0.04737549275159836,2.14886212348938,-0.46552184224128723
-0.03243722766637802,2.1491072177886963,-0.465669721364975
-0.017288310453295708,2.1530678272247314,-0.4666474461555481
-0.0023223033640533686,2.1683740615844727,-0.4701063930988312
0.012705217115581036,2.1606972217559814,-0.46847790479660034
0.02782321907579899,2.1682629585266113,-0.46980106830596924
0.04319806396961212,2.1833572387695312,-0.4727749526500702
0.05900466442108154,2.2059757709503174,-0.4773956835269928
0.07486097514629364,2.213209629058838,-0.4787024259567261
0.09026756882667542,2.2128114700317383,-0.4778847396373749
0.10729531943798065,2.2466371059417725,-0.48446327447891235
0.12291964888572693,2.246016502380371,-0.48362627625465393
0.13995181024074554,2.2681593894958496,-0.4877071976661682
0.15756070613861084,2.2902371883392334,-0.491404265165329
0.17407825589179993,2.296992301940918,-0.49168679118156433
0.1919582188129425,2.3188600540161133,-0.4952128231525421
0.20910847187042236,2.329177141189575,-0.4962804615497589
0.22753790020942688,2.3508243560791016,-0.4995501935482025
0.2465689331293106,2.372368097305298,-0.5024727582931519
0.26392611861228943,2.3785934448242188,-0.5021838545799255
0.28545039892196655,2.4188649654388428,-0.5090710520744324
0.3051586449146271,2.440006971359253,-0.511835515499115
0.3272017538547516,2.476250171661377,-0.517309844493866
0.34742599725723267,2.4933369159698486,-0.5187225937843323
0.37148985266685486,2.536804437637329,-0.5256310105323792
0.3915492594242096,2.549804925918579,-0.5261989831924438
0.4172671139240265,2.5967609882354736,-0.533286988735199
0.441738098859787,2.6321847438812256,-0.5378921627998352
0.46476298570632935,2.6560847759246826,-0.5401010513305664
0.4919191598892212,2.698594093322754,-0.5459997653961182
0.5243364572525024,2.7673401832580566,-0.5568476319313049
0.5510736703872681,2.801983118057251,-0.5605512261390686
0.5898311138153076,2.8927502632141113,-0.575353741645813
0.6172081232070923,2.9231150150299072,-0.578022837638855
0.6552236080169678,2.998194932937622,-0.5891823172569275
0.6913800835609436,3.0618278980255127,-0.5976833701133728
0.7223794460296631,3.0989608764648438,-0.600894570350647
0.7701578736305237,3.203007936477661,-0.6169025897979736
0.8000446557998657,3.2283120155334473,-0.6175358891487122
0.849663257598877,3.327827215194702,-0.6316744685173035
0.8827282786369324,3.3600432872772217,-0.6329498291015625
0.8982880711555481,3.3251612186431885,-0.6215954422950745
0.9175625443458557,3.30500864982605,-0.6130791902542114
0.9396108984947205,3.2959396839141846,-0.6062799096107483
0.9609150886535645,3.282925605773926,-0.5986517667770386
0.970646858215332,3.2329864501953125,-0.5844828486442566
0.8846668004989624,2.873908042907715,-0.5150566697120667
0.8677234053611755,2.7511096000671387,-0.4885159432888031
0.8656311631202698,2.679961919784546,-0.4713697135448456
0.8968164920806885,2.711278200149536,-0.47223228216171265
0.9109815359115601,2.691235303878784,-0.46418312191963196
0.8983079791069031,2.5946390628814697,-0.4429924786090851
0.911237359046936,2.5747101306915283,-0.4349667727947235
0.9239473342895508,2.5547006130218506,-0.4269960820674896
0.9406724572181702,2.545405149459839,-0.42080771923065186
0.9479812383651733,2.5106453895568848,-0.4103257358074188
0.9599338173866272,2.4904797077178955,-0.4022696018218994
0.9744751453399658,2.4774391651153564,-0.395425409078598
0.9919682741165161,2.471400499343872,-0.38967353105545044
1.0005666017532349,2.443793296813965,-0.38052400946617126
1.0133922100067139,2.4268603324890137,-0.3728927969932556
1.0272314548492432,2.413522720336914,-0.3659585416316986
1.035038948059082,2.3857882022857666,-0.35683828592300415
1.0690304040908813,2.4182686805725098,-0.35666248202323914
1.0953186750411987,2.4328770637512207,-0.35363128781318665
1.135058879852295,2.475289821624756,-0.35441854596138
1.1492992639541626,2.4610745906829834,-0.3469969630241394
1.1666070222854614,2.453822612762451,-0.3405397832393646
1.1768198013305664,2.4326224327087402,-0.3321155905723572
1.1936380863189697,2.425293445587158,-0.3256326913833618
1.2041223049163818,2.4036600589752197,-0.3170589208602905
1.2138155698776245,2.3822379112243652,-0.3086458742618561
1.2301334142684937,2.3747024536132812,-0.3020389974117279
1.2320629358291626,2.339491605758667,-0.2919439375400543
1.248646855354309,2.331519603729248,-0.28517967462539673
1.2647640705108643,2.323639392852783,-0.2783931493759155
1.275287389755249,2.3053863048553467,-0.2702910304069519
1.291380524635315,2.2972123622894287,-0.26338863372802734
1.303722858428955,2.282074451446533,-0.2556225061416626
1.315316081047058,2.2671985626220703,-0.24790407717227936
1.32282292842865,2.245539426803589,-0.23950408399105072
1.3310000896453857,2.223356008529663,-0.2307690680027008
1.3381625413894653,2.2015881538391113,-0.22226978838443756
1.3530030250549316,2.1932079792022705,-0.21516117453575134
1.3682328462600708,2.1844489574432373,-0.20783287286758423
1.3708953857421875,2.1558353900909424,-0.1985592544078827
1.3897948265075684,2.1536593437194824,-0.19164623320102692
1.4002476930618286,2.138230323791504,-0.18353070318698883
1.4130489826202393,2.125770092010498,-0.17548543214797974
1.4227527379989624,2.110517740249634,-0.16725517809391022
1.4370243549346924,2.101438283920288,-0.15938204526901245
1.4430744647979736,2.078949213027954,-0.15007787942886353
1.4567060470581055,2.069993019104004,-0.1419617235660553
1.4435663223266602,2.0224928855895996,-0.13107845187187195
1.466511607170105,2.025756597518921,-0.12328840047121048
1.4703762531280518,2.004131555557251,-0.1139918714761734
1.4585891962051392,1.9599618911743164,-0.10305774956941605
1.4491703510284424,2.042548179626465,0.27557092905044556
1.4633173942565918,2.093233108520508,0.28910622000694275
1.4420994520187378,2.097395658493042,0.2961215674877167
1.456092357635498,2.152482748031616,0.3102973401546478
1.4405771493911743,2.1618480682373047,0.31752222776412964
1.4278475046157837,2.1784965991973877,0.32562020421028137
1.4186596870422363,2.2018556594848633,0.3348691165447235
1.4069501161575317,2.2175378799438477,0.3424023985862732
1.400658130645752,2.2433712482452393,0.3514259457588196
1.37911057472229,2.2465920448303223,0.35680443048477173
1.3739902973175049,2.275890588760376,0.3662620782852173
1.3573960065841675,2.284850597381592,0.37230193614959717
1.3479602336883545,2.3074095249176025,0.38032421469688416
1.3378301858901978,2.3301842212677,0.38836705684661865
1.3202569484710693,2.3392326831817627,0.39406684041023254
1.311057209968567,2.3611810207366943,0.40176162123680115
1.2932239770889282,2.370072364807129,0.4071708917617798
1.2842735052108765,2.3959598541259766,0.4153520464897156
1.2732001543045044,2.418410062789917,0.4230090379714966
1.27019202709198,2.453939437866211,0.43278589844703674
1.2455637454986572,2.448352575302124,0.4353080987930298
1.2370997667312622,2.477672815322876,0.44384050369262695
1.2251672744750977,2.49992299079895,0.45112520456314087
1.2134482860565186,2.5219058990478516,0.4583389461040497
1.1955678462982178,2.529604911804199,0.4628790318965912
1.1820815801620483,2.547870635986328,0.46923863887786865
1.1725770235061646,2.5768771171569824,0.4774368703365326
1.156116008758545,2.5919222831726074,0.4831523001194
1.143438458442688,2.6135683059692383,0.49002042412757874
1.1310125589370728,2.634955406188965,0.49682000279426575
1.1149849891662598,2.6493663787841797,0.5022032856941223
1.0997439622879028,2.6674792766571045,0.5081199407577515
1.082518458366394,2.6820569038391113,0.5134501457214355
1.0742624998092651,2.717740774154663,0.5228007435798645
1.0605971813201904,2.73887300491333,0.5293416380882263
1.04660165309906,2.7599756717681885,0.5358726382255554
1.028931736946106,2.7741341590881348,0.540754497051239
1.0146733522415161,2.7991292476654053,0.547836184501648
0.9748384356498718,2.751516819000244,0.5406678318977356
0.9579130411148071,2.7649354934692383,0.5453978180885315
0.9311035871505737,2.749119997024536,0.5443651676177979
0.9089661240577698,2.7478272914886475,0.5459774732589722
0.8909868597984314,2.761185884475708,0.5504022240638733
0.8801157474517822,2.7962839603424072,0.5591834187507629
0.8925334215164185,2.9083385467529297,0.5834599137306213
0.8885743618011475,2.9690604209899902,0.5975197553634644
0.8719609975814819,2.989354372024536,0.6035199761390686
0.8503987789154053,2.9950108528137207,0.6062362194061279
0.8343963027000427,3.022829532623291,0.6134395599365234
0.8154723048210144,3.039353847503662,0.6183711886405945
0.7994803786277771,3.0668272972106934,0.6255635023117065
0.7893092036247253,3.116382122039795,0.637287437915802
0.7693017721176147,3.128729820251465,0.6414633393287659
0.7509510517120361,3.152397871017456,0.6476256847381592
0.7283371686935425,3.157236099243164,0.6498810052871704
0.7139987349510193,3.1992921829223633,0.6598480343818665
0.6992705464363098,3.24125599861145,0.6698504686355591
0.6766337752342224,3.2455923557281494,0.6720982789993286
0.6558077335357666,3.2611045837402344,0.6767243146896362
0.6355618834495544,3.2803053855895996,0.6817801594734192
0.6149513721466064,3.299424409866333,0.686738908290863
0.6008812785148621,3.356071710586548,0.699562668800354
0.5801692605018616,3.378737449645996,0.7053625583648682
0.5562120676040649,3.3823750019073486,0.7072247862815857
0.5373656153678894,3.4160187244415283,0.7153884172439575
0.5190456509590149,3.457188367843628,0.7249634265899658
0.49617063999176025,3.4718432426452637,0.7287439703941345
0.4757249057292938,3.505286931991577,0.7365124821662903
0.45434969663619995,3.5386641025543213,0.7443326711654663
0.4286021888256073,3.533874750137329,0.7441455721855164
0.4087449014186859,3.5782644748687744,0.7543535232543945
0.38702207803726196,3.611142635345459,0.7621816396713257
0.3657732307910919,3.655425786972046,0.7719351649284363
0.34281617403030396,3.6881675720214844,0.779298722743988
0.32029545307159424,3.7360286712646484,0.7899140119552612
0.2961272597312927,3.764660120010376,0.7965031266212463
0.27319881319999695,3.812176465988159,0.8071320056915283
0.24863658845424652,3.8442933559417725,0.8145514726638794
0.2237752079963684,3.8801262378692627,0.8225218057632446
0.1973099410533905,3.904428720474243,0.8278101086616516
0.17146089673042297,3.939984083175659,0.8355252742767334
0.14554175734519958,3.9868221282958984,0.8456780910491943
0.1190015971660614,4.029662132263184,0.8550282716751099
0.09200461208820343,4.076141357421875,0.8651977181434631
0.06377359479665756,4.114800453186035,0.8737620115280151
0.03540497645735741,4.149552345275879,0.8809741139411926
0.006588379852473736,4.2070417404174805,0.8930145502090454
-0.02283412776887417,4.237581729888916,0.8993750214576721
-0.05301355570554733,4.290839195251465,0.9105983972549438
-0.08391720056533813,4.317127227783203,0.9161412715911865
-0.1141904965043068,4.324105739593506,0.9176315665245056
-0.1439695954322815,4.315639972686768,0.9156803488731384
-0.174229234457016,4.322330474853516,0.9165614247322083
-0.2433183193206787,5.1495280265808105,1.091382622718811
-0.28251519799232483,5.212778091430664,1.1042450666427612
-0.32379546761512756,5.283322334289551,1.1186827421188354
-0.3657318353652954,5.357396602630615,1.1339174509048462
-0.3995967209339142,5.309178829193115,1.123319387435913
-0.43441709876060486,5.283738136291504,1.1170395612716675
-0.4664495587348938,5.2314653396606445,1.104941964149475
-0.5086854696273804,5.285488128662109,1.1153290271759033
-0.5706570148468018,5.529386043548584,1.1657993793487549
-0.5876301527023315,5.331844329833984,1.1232374906539917
-0.6184235215187073,5.274820327758789,1.1103721857070923
-0.6578159332275391,5.293543815612793,1.113397479057312
-0.6907882690429688,5.258996963500977,1.1046030521392822
-0.7247588038444519,5.239476680755615,1.099057674407959
-0.7568438053131104,5.20837926864624,1.09114670753479
-0.7961418628692627,5.226227760314941,1.0935381650924683
-0.830111026763916,5.20594596862793,1.0879862308502197
-0.86573725938797,5.192890167236328,1.0839812755584717
-0.8923048377037048,5.13461971282959,1.070139765739441
-0.9260703921318054,5.121495246887207,1.0655218362808228
-0.9611110687255859,5.115669250488281,1.0624748468399048
-0.9939178824424744,5.098330020904541,1.0570905208587646
-1.0278533697128296,5.084425926208496,1.052446961402893
-1.0678136348724365,5.096396446228027,1.0531738996505737
-1.09419846534729,5.048379898071289,1.0414167642593384
-1.1202805042266846,5.004188060760498,1.0299904346466064
-1.1561009883880615,5.004657745361328,1.0278223752975464
-1.1715656518936157,4.919159412384033,1.0080777406692505
-1.2115843296051025,4.933901309967041,1.0088828802108765
-1.2130732536315918,4.7960734367370605,0.9786038398742676
-1.2397860288619995,4.762266635894775,0.9696620106697083
-1.2741420269012451,4.7619853019714355,0.9669471979141235
-1.30039381980896,4.731893062591553,0.9582099914550781
-1.331006646156311,4.716275215148926,0.9524210095405579
-1.3568998575210571,4.685797691345215,0.9437160491943359
-1.3896305561065674,4.677064895629883,0.9393972754478455
-1.1226757764816284,3.684558391571045,0.7380592823028564
-1.1454389095306396,3.6702637672424316,0.7328155040740967
-1.4838411808013916,4.642800807952881,0.9238584637641907
-1.502126932144165,4.593480587005615,0.9110265970230103
-1.531099557876587,4.576776027679443,0.9047051072120667
-1.5942344665527344,4.657746315002441,0.9176074266433716
-1.6243141889572144,4.640206336975098,0.9110918641090393
-1.6803148984909058,4.698907375335693,0.9189718961715698
-1.7073036432266235,4.673941135406494,0.9103626608848572
-1.733475685119629,4.648999214172363,0.9018871188163757
-1.7421568632125854,4.577012062072754,0.8843228816986084
-1.7686998844146729,4.551445960998535,0.8757528066635132
-1.8032453060150146,4.547275066375732,0.8712471127510071
-1.8314481973648071,4.528914451599121,0.8634997606277466
-1.85896897315979,4.510560512542725,0.855876624584198
-1.9012222290039062,4.527513027191162,0.854972243309021
-1.9268529415130615,4.501157760620117,0.8457501530647278
-1.9647338390350342,4.502797603607178,0.8418014645576477
-1.9756368398666382,4.44460391998291,0.826257050037384
-1.986410140991211,4.390409469604492,0.8114778399467468
-2.0191001892089844,4.385236740112305,0.8058334589004517
-2.0770883560180664,4.431843280792236,0.8095499277114868
-2.083491325378418,4.366201877593994,0.7926685214042664
-2.120837926864624,4.36671781539917,0.7875514030456543
-2.1397926807403564,4.3330583572387695,0.7760967016220093
-2.1825814247131348,4.3476033210754395,0.773309051990509
-2.1842551231384277,4.278960704803467,0.7556653618812561
-2.218035936355591,4.271674156188965,0.7487788796424866
-2.2545807361602783,4.271415710449219,0.7428942322731018
-2.2870781421661377,4.264366149902344,0.7354540824890137
-2.315401554107666,4.250514030456543,0.7269671559333801
-2.251255750656128,4.066834926605225,0.6894636154174805
-2.283881902694702,4.0589470863342285,0.6818920373916626
-2.3111863136291504,4.044961929321289,0.6729393601417542
-2.3345460891723633,4.024105072021484,0.6626672744750977
-2.3614068031311035,4.009891986846924,0.6535910367965698
-2.3939106464385986,4.001166343688965,0.6449827551841736
-2.4255013465881348,3.9927282333374023,0.636250913143158
-2.4436397552490234,3.965049982070923,0.6242274641990662
-2.4743189811706543,3.9567017555236816,0.615142822265625
-2.4898478984832764,3.921093225479126,0.6014434695243835
-2.521103858947754,3.9119367599487305,0.591675877571106
-2.5381360054016113,3.8840365409851074,0.5788426995277405
-2.5528531074523926,3.8527579307556152,0.56556236743927
-2.6457998752593994,3.9323625564575195,0.5674277544021606
-2.6766111850738525,3.922607183456421,0.5561084747314453
-2.083900213241577,3.0131583213806152,0.4193973243236542
-2.070997476577759,2.9525604248046875,0.4028867483139038
-2.0916595458984375,2.939359664916992,0.39253702759742737
-2.106262683868408,2.920738458633423,0.38113680481910706
-1.0777385234832764,1.4744101762771606,0.1877778172492981
-1.097381830215454,1.4799977540969849,0.18342077732086182
-2.059478521347046,2.891416072845459,-0.18456235527992249
-2.0662503242492676,2.9478724002838135,-0.20015950500965118
-2.507589340209961,3.6327779293060303,-0.2605743408203125
-2.040269136428833,3.0019638538360596,-0.22635933756828308
-2.0259721279144287,3.0294713973999023,-0.23948729038238525
-2.439469337463379,3.7035906314849854,-0.3053036034107208
-1.9388575553894043,2.991645336151123,-0.2567639648914337
-1.9141387939453125,3.0019350051879883,-0.2675620913505554
-2.3483407497406006,3.7401158809661865,-0.3449048697948456
-2.3021557331085205,3.726383686065674,-0.35503241419792175
-2.2700679302215576,3.7356672286987305,-0.36726242303848267
-2.2489404678344727,3.760798454284668,-0.38067662715911865
-2.233258008956909,3.7959911823272705,-0.3949548304080963
-1.7900941371917725,3.0940682888031006,-0.33058086037635803
-1.7542662620544434,3.082200288772583,-0.3376348316669464
-1.7358850240707397,3.100461006164551,-0.34781643748283386
-1.714378833770752,3.1157543659210205,-0.35779908299446106
-1.6859700679779053,3.1168899536132812,-0.36593544483184814
-1.6674410104751587,3.1345748901367188,-0.37578192353248596
-1.6499348878860474,3.1558897495269775,-0.38603442907333374
-1.6231330633163452,3.1599206924438477,-0.394185334444046
-1.6069884300231934,3.184436798095703,-0.40488162636756897
-1.5808030366897583,3.187744140625,-0.41266894340515137
-1.5710434913635254,3.225996494293213,-0.4249354600906372
-1.5474382638931274,3.2362375259399414,-0.43359124660491943
-1.5343068838119507,3.2670655250549316,-0.44487059116363525
-1.5076085329055786,3.269786834716797,-0.4522958993911743
-1.8266581296920776,4.0387043952941895,-0.567372739315033
-1.8036423921585083,4.064553260803223,-0.5795655846595764
-1.7717444896697998,4.068683624267578,-0.5885095000267029
-1.747097373008728,4.090529441833496,-0.5999078154563904
-1.7174893617630005,4.101612567901611,-0.609652042388916
-1.6712698936462402,4.073225975036621,-0.6135867238044739
-1.6092358827590942,4.000980377197266,-0.610431432723999
-1.5423426628112793,3.9138567447662354,-0.604487955570221
-1.4905122518539429,3.8621835708618164,-0.6036285758018494
-1.412291407585144,3.7376656532287598,-0.5910282135009766
-1.3183263540267944,3.5652663707733154,-0.5703557133674622
-1.273146629333496,3.518892765045166,-0.5691227912902832
-1.2208001613616943,3.4503214359283447,-0.5639703869819641
-1.1569828987121582,3.3447186946868896,-0.552444577217102
-1.1173138618469238,3.3041443824768066,-0.5513312816619873
-1.0559673309326172,3.1974570751190186,-0.5388575792312622
-1.0249078273773193,3.1781599521636963,-0.5406314730644226
-0.9710030555725098,3.0850558280944824,-0.5296847820281982
-0.9402142763137817,3.061336040496826,-0.5304183959960938
-0.8953495025634766,2.9894137382507324,-0.5225387215614319
-0.8536054491996765,2.9245193004608154,-0.5154404640197754
-0.8156210780143738,2.870419979095459,-0.510157585144043
-0.7933325171470642,2.86777925491333,-0.5138425827026367
-0.7621428966522217,2.8315255641937256,-0.5113957524299622
-0.7294280529022217,2.7876415252685547,-0.507134735584259
-0.7021293640136719,2.7620933055877686,-0.5061281323432922
-0.6730983853340149,2.7289035320281982,-0.5037115812301636
-0.6386995315551758,2.669212818145752,-0.4962218999862671
-0.616360068321228,2.65796160697937,-0.4972892701625824
-0.5916974544525146,2.6352899074554443,-0.49615707993507385
-0.5649780035018921,2.6011455059051514,-0.4928074777126312
-0.5385363698005676,2.566812515258789,-0.48939672112464905
-0.5151873230934143,2.543545722961426,-0.4877064824104309
-0.4928891658782959,2.523888349533081,-0.4865381717681885
-0.4723292887210846,2.5115904808044434,-0.48677098751068115
-0.44724240899086,2.472698926925659,-0.4818061888217926
-0.4282827377319336,2.4676880836486816,-0.48329392075538635
-0.403435617685318,2.4247186183929443,-0.47699683904647827
-0.3840160667896271,2.411832571029663,-0.47659066319465637
-0.36600369215011597,2.4063704013824463,-0.4776478409767151
-0.3464529812335968,2.389401912689209,-0.4763846695423126
-0.33049625158309937,2.398972511291504,-0.4800313115119934
-0.3117508888244629,2.3856067657470703,-0.47907543182373047
-0.2941657602787018,2.379702091217041,-0.4796226918697357
-0.2731308341026306,2.3432374000549316,-0.4740005433559418
-0.25677821040153503,2.3447442054748535,-0.4756872057914734
-0.2411954253911972,2.3537747859954834,-0.47881773114204407
-0.22521395981311798,2.362720251083374,-0.48198583722114563
-0.2087659388780594,2.363906145095825,-0.48357319831848145
-0.19105318188667297,2.349764347076416,-0.4818139970302582
-0.17583289742469788,2.3660755157470703,-0.4860531687736511
-0.15677861869335175,2.328836679458618,-0.4793073236942291
-0.14075246453285217,2.337297201156616,-0.48199382424354553
-0.12569259107112885,2.3609304428100586,-0.4877557158470154
-0.10784979164600372,2.3310489654541016,-0.4820522665977478
-0.09221376478672028,2.3469061851501465,-0.4858284592628479
-0.07590319961309433,2.3473634719848633,-0.4864422678947449
-0.05969401076436043,2.363006353378296,-0.49023979902267456
-0.04298950731754303,2.348024606704712,-0.48727208375930786
-0.026581954210996628,2.340592622756958,-0.48580530285835266
-0.010448310524225235,2.371293306350708,-0.49227771162986755
0.005994037725031376,2.355984926223755,-0.4892229735851288
0.022890662774443626,2.378857135772705,-0.49385866522789
0.03956804424524307,2.3863673210144043,-0.4950677454471588
0.05615301430225372,2.386112928390503,-0.49468928575515747
0.07298752665519714,2.3933897018432617,-0.4958947002887726
0.09094696491956711,2.42732310295105,-0.5025503635406494
0.10749803483486176,2.4191718101501465,-0.5000812411308289
0.12580595910549164,2.4414608478546143,-0.5039111375808716
0.1441190093755722,2.4636290073394775,-0.5077405571937561
0.16224637627601624,2.4780259132385254,-0.5099814534187317
0.18111807107925415,2.5000154972076416,-0.513342559337616
0.1994135081768036,2.5104339122772217,-0.5142579078674316
0.21783681213855743,2.516885757446289,-0.5143555402755737
0.23890933394432068,2.5537185668945312,-0.5206863880157471
0.2589903175830841,2.575202465057373,-0.5236002802848816
0.27979063987731934,2.6003901958465576,-0.5270152688026428
0.2996259331703186,2.6140058040618896,-0.528084933757782
0.3227998912334442,2.650252342224121,-0.5336853861808777
0.3447076976299286,2.6749680042266846,-0.5368636846542358
0.3685179054737091,2.7109835147857666,-0.5418790578842163
0.3928467631340027,2.746807098388672,-0.5468208193778992
0.4182618260383606,2.786224365234375,-0.5524405241012573
0.4452042281627655,2.829172372817993,-0.5586769580841064
0.47302860021591187,2.87581729888916,-0.5651509761810303
0.4995541274547577,2.9108994007110596,-0.5692510604858398
0.5313614010810852,2.9721922874450684,-0.5784010291099548
0.5577573776245117,2.9992477893829346,-0.5808234810829163
